ply
format ascii 1.0
comment KinectMotionCapture
element vertex 780
property float x
property float y
property float z
property uchar red
property uchar green
property uchar blue
end_header
-453.264027833939 -518.13143491745 2023.00000190735 21 23 12
-445.56400179863 -515.592277050018 2013.00001144409 20 22 11
-440.760046243668 -516.382873058319 2016.00003242493 20 22 11
-442.416846752167 -524.858117103577 2049.00002479553 20 22 11
-435.792416334152 -523.599982261658 2043.99991035461 21 23 12
-432.141572237015 -525.928139686584 2052.99997329712 25 25 17
-423.246949911118 -521.851897239685 2036.99994087219 11 11 3
-560.268580913544 -510.762631893158 1975.00002384186 17 20 11
-554.353952407837 -510.261714458466 1973.00004959106 17 20 11
-553.737223148346 -514.675140380859 1990.00000953674 15 18 9
-536.495387554169 -503.570914268494 1947.00002670288 18 19 11
-533.947229385376 -506.174564361572 1957.00001716614 21 22 14
-527.292728424072 -504.898905754089 1952.00002193451 19 22 13
-521.735072135925 -504.658102989197 1950.99997520447 18 21 12
-514.065086841583 -502.348184585571 1942.00003147125 19 22 13
-509.06378030777 -502.625286579132 1942.999958992 21 24 15
-501.464068889618 -500.315725803375 1934.00001525879 24 27 18
-494.682669639587 -498.782306909561 1927.99997329712 21 22 14
-490.218549966812 -499.577522277832 1930.99999427795 19 20 12
-485.235601663589 -499.855488538742 1932.000041008 18 19 11
-479.501724243164 -499.357491731644 1929.99994754791 18 19 11
-470.092415809631 -494.97851729393 1912.99998760223 20 21 13
-463.205337524414 -493.186980485916 1906.00001811981 23 25 14
-459.720373153687 -495.018154382706 1912.99998760223 23 25 14
-458.0979347229 -498.91984462738 1927.99997329712 22 24 13
-454.749703407288 -501.010477542877 1935.99998950958 21 23 12
-454.376041889191 -506.46585226059 1957.00001716614 21 23 12
-456.641882658005 -515.027403831482 1990.00000953674 21 23 12
-453.739672899246 -517.895817756653 2000.99992752075 22 24 13
-449.881374835968 -519.729316234589 2007.99989700317 21 23 12
-442.221999168396 -517.162680625916 1998.00002574921 21 23 12
-439.207583665848 -520.031869411469 2009.0000629425 21 23 12
-436.996608972549 -523.936748504639 2023.9999294281 21 23 12
-436.622709035873 -530.171990394592 2048.00009727478 22 24 13
-431.276977062225 -530.453324317932 2049.00002479553 30 30 22
-422.601103782654 -526.592433452606 2033.99991989136 15 15 7
-649.881303310394 -587.424993515015 2247.99990653992 17 19 14
-571.032047271729 -526.048600673676 2013.00001144409 17 20 13
-562.766432762146 -523.451626300812 2003.00002098083 16 19 10
-551.772594451904 -518.241405487061 1983.00004005432 15 18 7
-541.438341140747 -513.553977012634 1965.0000333786 17 20 9
-530.110239982605 -507.821142673492 1942.999958992 18 21 10
-524.033725261688 -507.054209709167 1940.00005722046 17 20 9
-519.04308795929 -507.333040237427 1940.99998474121 18 21 10
-518.282234668732 -511.794447898865 1957.99994468689 23 26 15
-516.381084918976 -515.210866928101 1970.99995613098 23 26 15
-503.778994083405 -507.910192012787 1942.999958992 19 22 11
-496.716469526291 -506.098926067352 1935.99998950958 19 22 11
-491.976499557495 -506.640553474426 1937.99996376038 16 19 8
-486.723154783249 -506.659686565399 1937.99996376038 16 19 8
-479.233801364899 -504.325985908508 1929.00002002716 18 21 10
-471.547335386276 -501.730978488922 1919.0000295639 18 21 10
-465.129852294922 -500.443160533905 1914.00003433228 17 20 9
-459.46016907692 -499.939888715744 1911.99994087219 22 23 15
-457.127422094345 -503.097593784332 1924.00002479553 22 23 15
-454.024583101273 -505.471110343933 1932.99996852875 22 23 15
-454.355299472809 -511.767625808716 1957.00001716614 22 23 15
-453.178733587265 -516.495645046234 1975.00002384186 22 23 15
-452.81121134758 -522.270321846008 1996.99997901917 20 21 13
-445.378988981247 -519.937932491302 1988.00003528595 21 22 14
-440.429747104645 -520.482361316681 1990.00000953674 22 23 15
-434.813499450684 -520.24233341217 1988.9999628067 20 21 13
-436.326831579208 -528.634250164032 2020.99990844727 20 21 13
-432.123392820358 -530.22563457489 2026.99995040894 23 24 16
-428.728878498077 -532.863736152649 2036.99994087219 26 27 19
-422.786593437195 -532.362878322601 2035.00008583069 19 20 12
-417.059659957886 -532.123386859894 2033.99991989136 21 22 17
-664.128601551056 -600.897908210754 2276.00002288818 14 16 11
-657.958805561066 -600.914537906647 2276.00002288818 19 21 16
-579.809725284576 -539.692521095276 2043.99991035461 14 17 10
-563.312113285065 -529.411017894745 2005.00011444092 15 18 9
-552.312552928925 -524.146258831024 1985.00001430511 16 19 8
-538.11514377594 -515.712797641754 1952.99994945526 18 21 10
-530.639052391052 -513.616919517517 1945.00005245209 19 22 11
-522.665977478027 -510.99294424057 1934.99994277954 17 20 9
-518.758177757263 -512.330651283264 1940.00005722046 18 21 10
-516.940772533417 -515.781402587891 1952.99994945526 22 25 14
-513.48090171814 -517.648041248322 1960.00003814697 22 25 14
-502.723515033722 -512.119889259338 1939.00001049042 18 21 10
-496.441334486008 -511.081695556641 1934.99994277954 19 22 11
-493.226855993271 -513.213336467743 1942.999958992 16 19 8
-488.462030887604 -513.760507106781 1945.00005245209 16 19 8
-479.711413383484 -510.081470012665 1930.99999427795 18 21 10
-471.527993679047 -506.930768489838 1919.0000295639 18 21 10
-465.353339910507 -505.893349647522 1914.99996185303 17 20 9
-460.642039775848 -506.441175937653 1917.00005531311 21 22 14
-456.157118082047 -507.253408432007 1919.99995708466 21 22 14
-452.125489711761 -508.594274520874 1924.99995231628 21 22 14
-450.388014316559 -512.577533721924 1940.00005722046 21 22 14
-452.240079641342 -520.788967609406 1970.99995613098 21 22 14
-451.202809810638 -525.830209255219 1990.00000953674 21 22 14
-447.149962186813 -527.436852455139 1996.00005149841 22 23 15
-439.080506563187 -524.287045001984 1983.99996757507 21 22 14
-436.978042125702 -528.272330760956 1998.99995326996 20 21 13
-430.476039648056 -526.972413063049 1993.99995803833 20 21 13
-425.279885530472 -527.258217334747 1995.00000476837 22 23 15
-423.655658960342 -532.037258148193 2013.00001144409 23 26 17
-420.686960220337 -535.230875015259 2025.00009536743 20 23 14
-412.936836481094 -532.345235347748 2013.99993896484 23 24 19
-666.738629341125 -609.471678733826 2285.00008583069 17 19 14
-659.387588500977 -608.42090845108 2280.99989891052 18 20 15
-653.776586055756 -608.971118927002 2282.99999237061 15 18 11
-571.162581443787 -542.316854000092 2032.99999237061 10 13 4
-552.574634552002 -529.795110225677 1985.99994182587 17 20 9
-541.680693626404 -524.475872516632 1965.99996089935 19 22 11
-533.623397350311 -521.824419498444 1955.9999704361 17 20 9
-528.051197528839 -521.574378013611 1955.00004291534 18 21 10
-520.07794380188 -518.923342227936 1945.00005245209 19 22 11
-512.952864170074 -517.072916030884 1937.99996376038 20 23 12
-507.699608802795 -517.090380191803 1937.99996376038 19 22 11
-501.927614212036 -516.574501991272 1935.99998950958 17 20 9
-497.962296009064 -517.926752567291 1940.99998474121 18 21 10
-493.715971708298 -519.012451171875 1945.00005245209 17 20 9
-488.191992044449 -518.764197826386 1944.00000572205 17 20 9
-478.947222232819 -514.513254165649 1927.99997329712 19 22 11
-470.526069402695 -511.062860488892 1914.99996185303 19 22 11
-464.605093002319 -510.281145572662 1911.99994087219 21 22 14
-462.064266204834 -513.236224651337 1922.99997806549 21 22 14
-457.325339317322 -513.789474964142 1924.99995231628 21 22 14
-454.219341278076 -516.211330890656 1934.00001525879 21 22 14
-447.582066059113 -514.629781246185 1927.99997329712 21 22 14
-447.401285171509 -520.52229642868 1950.00004768372 21 22 14
-446.64740562439 -525.881588459015 1970.00002861023 22 23 15
-443.992614746094 -529.105722904205 1981.99999332428 23 24 16
-444.149315357208 -535.800814628601 2006.99996948242 23 24 16
-439.361155033112 -536.623060703278 2009.99999046326 20 21 13
-432.181686162949 -534.508585929871 2002.00009346008 19 20 12
-425.258368253708 -532.660961151123 1995.00000476837 21 22 14
-423.002630472183 -536.687552928925 2009.99999046326 19 22 13
-416.510343551636 -535.374045372009 2005.00011444092 23 24 18
-411.069869995117 -535.395681858063 2005.00011444092 25 26 21
-665.263950824738 -614.322245121002 2279.99997138977 17 19 14
-659.371316432953 -614.607393741608 2280.99989891052 17 19 14
-654.046297073364 -615.432024002075 2283.99991989136 12 15 8
-648.137867450714 -615.718305110931 2285.00008583069 13 16 9
-560.34916639328 -542.725265026093 2013.99993896484 17 20 9
-551.583230495453 -539.507567882538 2002.00009346008 18 21 10
-540.972888469696 -534.403562545776 1983.00004005432 16 19 8
-534.786880016327 -533.611655235291 1980.00001907349 18 21 10
-521.932661533356 -526.082217693329 1952.00002193451 19 22 11
-509.759664535522 -519.091725349426 1925.99999904633 19 22 11
-505.062520503998 -519.647777080536 1927.99997329712 18 21 10
-503.983914852142 -523.977816104889 1944.00000572205 17 20 9
-499.740034341812 -525.073766708374 1947.99995422363 17 20 9
-493.18990111351 -523.744106292725 1942.999958992 18 21 10
-486.415654420853 -522.145092487335 1937.00003623962 18 21 10
-479.673743247986 -520.546138286591 1930.99999427795 19 22 11
-473.209947347641 -519.216895103455 1925.99999904633 20 23 12
-465.801119804382 -516.809403896332 1917.00005531311 22 23 15
-461.804777383804 -518.176436424255 1922.00005054474 22 23 15
-457.305878400803 -519.00440454483 1924.99995231628 22 23 15
-452.08603143692 -519.023895263672 1924.99995231628 22 23 15
-446.401536464691 -518.50414276123 1922.99997806549 22 23 15
-442.563146352768 -520.141780376434 1929.00002002716 22 23 15
-439.371973276138 -522.588551044464 1937.99996376038 22 23 15
-439.939826726913 -529.619932174683 1963.99998664856 23 24 16
-441.251426935196 -537.730693817139 1993.99995803833 23 24 16
-439.339876174927 -542.066633701324 2009.99999046326 20 21 13
-433.455556631088 -541.548311710358 2007.99989700317 19 20 12
-431.631714105606 -546.154677867889 2025.00009536743 21 22 14
-424.243777990341 -543.748736381531 2016.00003242493 19 22 13
-416.073381900787 -540.263712406158 2003.00002098083 22 23 17
-409.818291664124 -539.206147193909 1998.99995326996 24 25 20
-661.163806915283 -616.69647693634 2266.00003242493 13 15 10
-658.48833322525 -619.977593421936 2278.00011634827 18 20 15
-653.457224369049 -621.081948280334 2282.00006484985 10 13 6
-644.433677196503 -618.376553058624 2272.0000743866 11 14 7
-574.52267408371 -562.067627906799 2065.00005722046 16 19 8
-542.750954627991 -536.225199699402 1970.00002861023 17 20 9
-541.502177715302 -540.323913097382 1985.00001430511 17 20 9
-533.149838447571 -537.345826625824 1973.99997711182 17 20 9
-524.857223033905 -534.367918968201 1963.00005912781 18 21 10
-516.62415266037 -531.390070915222 1952.00002193451 17 20 9
-509.498655796051 -529.501378536224 1945.00005245209 16 19 8
-507.077276706696 -532.513320446014 1955.9999704361 18 21 10
-500.748336315155 -531.441926956177 1952.00002193451 16 19 8
-491.649001836777 -527.375817298889 1937.00003623962 19 22 11
-482.881873846054 -523.581922054291 1922.99997806549 19 22 11
-481.642484664917 -527.956545352936 1939.00001049042 18 21 10
-476.630955934525 -528.247356414795 1940.00005722046 20 23 12
-470.155894756317 -526.904463768005 1934.99994277954 22 25 14
-463.467597961426 -525.289475917816 1929.00002002716 21 22 14
-456.574022769928 -523.402273654938 1922.00005054474 21 22 14
-453.005969524384 -525.327682495117 1929.00002002716 21 22 14
-447.774827480316 -525.347113609314 1929.00002002716 21 22 14
-446.214109659195 -529.72424030304 1945.00005245209 21 22 14
-442.525953054428 -531.650602817535 1952.00002193451 21 22 14
-444.175332784653 -540.114164352417 1983.00004005432 22 23 15
-435.919970273972 -536.593675613403 1970.00002861023 21 22 14
-434.073209762573 -540.972411632538 1985.99994182587 20 21 13
-435.161352157593 -549.165308475494 2016.00003242493 20 21 13
-434.38121676445 -555.179536342621 2038.00010681152 21 22 14
-426.326751708984 -551.931858062744 2026.00002288818 20 23 14
-417.298465967178 -547.321796417236 2009.0000629425 21 22 16
-413.487076759338 -549.522578716278 2016.99995994568 22 23 17
-412.868410348892 -556.082844734192 2040.99988937378 23 24 19
-658.815026283264 -620.644152164459 2257.99989700317 10 12 7
-654.715359210968 -622.582912445068 2265.00010490417 18 20 15
-650.864362716675 -624.797165393829 2273.00000190735 9 12 5
-637.042939662933 -617.390990257263 2246.00005149841 9 12 5
-562.020659446716 -560.809910297394 2039.99996185303 17 20 9
-539.031267166138 -543.231248855591 1975.99995136261 19 22 11
-529.89274263382 -539.39813375473 1962.00001239777 17 20 9
-526.445031166077 -541.338622570038 1968.99998188019 18 21 10
-518.989503383636 -539.155542850494 1960.99996566772 16 19 8
-512.363135814667 -537.797451019287 1955.9999704361 16 19 8
-506.023108959198 -536.714673042297 1952.00002193451 18 21 10
-499.704658985138 -535.631954669952 1947.99995422363 16 19 8
-490.869790315628 -531.799793243408 1934.00001525879 19 22 11
-483.366221189499 -529.342651367188 1924.99995231628 19 22 11
-480.133920907974 -531.560361385345 1932.99996852875 18 21 10
-479.56058382988 -536.803483963013 1952.00002193451 21 24 13
-472.08097577095 -534.34693813324 1942.999958992 23 26 15
-463.448852300644 -530.515372753143 1929.00002002716 21 22 14
-455.60497045517 -527.508735656738 1917.99998283386 21 22 14
-450.873374938965 -528.077661991119 1919.99995708466 21 22 14
-447.291284799576 -530.021965503693 1927.00004577637 21 22 14
-446.194440126419 -534.992337226868 1945.00005245209 21 22 14
-450.893700122833 -547.114968299866 1988.9999628067 20 21 13
-448.858648538589 -551.261365413666 2003.99994850159 21 22 14
-438.1123483181 -544.679582118988 1980.00001907349 21 22 14
-432.74137377739 -544.699966907501 1980.00001907349 20 21 13
-431.686878204346 -550.222635269165 2000 20 21 13
-427.539736032486 -551.894068717957 2006.00004196167 23 24 16
-419.151276350021 -548.062980175018 1991.99998378754 19 22 13
-417.069584131241 -552.486062049866 2007.99989700317 21 22 16
-413.465797901154 -554.983496665955 2016.99995994568 23 24 18
-411.633342504501 -559.957563877106 2035.00008583069 23 24 19
-657.050371170044 -625.103771686554 2252.00009346008 19 21 16
-654.989719390869 -629.004001617432 2266.00003242493 13 15 10
-646.840333938599 -627.075552940369 2259.0000629425 12 15 8
-635.041952133179 -621.538877487183 2239.00008201599 13 16 9
-580.890476703644 -579.651236534119 2088.00005912781 16 19 8
-558.148264884949 -562.454283237457 2026.00002288818 18 21 10
-533.560216426849 -543.035864830017 1955.9999704361 17 20 9
-531.22752904892 -546.105146408081 1967.00000762939 17 20 9
-526.696264743805 -546.953678131104 1970.00002861023 16 19 8
-522.148907184601 -547.802746295929 1973.00004959106 16 19 8
-512.084543704987 -542.821228504181 1955.00004291534 16 19 8
-504.710078239441 -540.616571903229 1947.00002670288 17 20 9
-498.404979705811 -539.522707462311 1942.999958992 17 20 9
-492.629110813141 -538.984477519989 1940.99998474121 17 20 9
-485.357403755188 -536.78023815155 1932.99996852875 18 21 10
-480.364501476288 -537.075519561768 1934.00001525879 19 22 11
-476.839989423752 -539.03728723526 1940.99998474121 20 23 12
-471.819698810577 -539.333164691925 1942.00003147125 20 23 12
-463.670521974564 -536.018669605255 1929.99994754791 18 21 12
-454.398691654205 -531.315565109253 1912.99998760223 19 22 13
-450.384974479675 -532.722890377045 1917.99998283386 20 23 14
-446.111738681793 -533.852696418762 1922.00005054474 20 23 14
-444.798707962036 -538.593590259552 1939.00001049042 21 24 15
-443.39320063591 -543.335020542145 1955.9999704361 20 23 14
-444.806903600693 -551.688253879547 1985.99994182587 20 23 14
-441.411107778549 -554.208517074585 1995.00000476837 19 22 13
-433.813810348511 -551.450550556183 1985.00001430511 18 21 12
-427.781313657761 -550.637304782867 1981.99999332428 18 21 12
-423.895984888077 -552.602469921112 1988.9999628067 18 21 12
-418.078631162643 -552.067160606384 1986.99998855591 19 22 13
-415.802657604218 -556.255519390106 2002.00009346008 21 22 14
-413.239806890488 -560.16618013382 2016.00003242493 22 23 15
-408.98260474205 -561.854362487793 2022.0000743866 22 23 17
-406.488299369812 -566.043436527252 2036.99994087219 24 23 19
-661.704957485199 -635.697424411774 2267.99988746643 17 19 14
-656.131684780121 -636.27165555954 2269.99998092651 13 15 10
-646.252870559692 -632.641911506653 2256.99996948242 11 14 7
-632.757842540741 -625.368535518646 2230.99994659424 12 15 8
-555.378556251526 -565.14436006546 2016.00003242493 18 21 10
-530.272126197815 -544.97492313385 1944.00000572205 17 20 9
-525.270819664001 -545.269966125488 1945.00005245209 16 19 8
-529.086768627167 -554.817020893097 1978.99997234344 16 19 8
-517.104744911194 -547.823786735535 1953.9999961853 16 19 8
-509.972929954529 -545.877158641815 1947.00002670288 16 19 8
-502.360582351685 -543.369889259338 1937.99996376038 17 20 9
-500.69671869278 -547.311723232269 1952.00002193451 16 19 8
-494.896203279495 -546.767771244049 1950.00004768372 16 19 8
-487.850934267044 -544.822037220001 1942.999958992 16 19 8
-477.863281965256 -539.511501789093 1924.00002479553 17 20 9
-472.154676914215 -538.968145847321 1922.00005054474 18 21 10
-465.484946966171 -537.30309009552 1916.00000858307 19 22 13
-461.490303277969 -538.723111152649 1921.0000038147 19 22 13
-454.142957925797 -536.217093467712 1911.99994087219 19 22 13
-450.836092233658 -538.479030132294 1919.99995708466 20 23 14
-446.325063705444 -539.338767528534 1922.99997806549 20 23 14
-444.091498851776 -543.003618717194 1935.99998950958 20 23 14
-439.06706571579 -543.303072452545 1937.00003623962 21 24 15
-440.97974896431 -552.298009395599 1968.99998188019 21 24 15
-437.187373638153 -554.281175136566 1975.99995136261 20 23 14
-435.105055570602 -558.508694171906 1991.00005626678 20 23 14
-424.308061599731 -551.515519618988 1965.99996089935 19 22 13
-423.449486494064 -557.426631450653 1986.99998855591 19 22 13
-420.583069324493 -560.813367366791 1998.99995326996 19 22 13
-417.235881090164 -563.639342784882 2009.0000629425 21 22 14
-410.759419202805 -562.256991863251 2003.99994850159 21 22 14
-407.141447067261 -564.802765846252 2013.00001144409 22 23 15
-403.075069189072 -566.787540912628 2019.99998092651 23 22 17
-669.569253921509 -649.491310119629 2295.00007629395 16 18 13
-658.7193608284 -644.976377487183 2279.00004386902 13 15 10
-646.811425685883 -639.329791069031 2259.0000629425 11 14 7
-634.161472320557 -632.834494113922 2236.00006103516 11 14 7
-555.364072322845 -570.610582828522 2016.00003242493 18 21 10
-536.531448364258 -556.755661964417 1967.00000762939 17 20 9
-529.306948184967 -554.788768291473 1960.00003814697 16 19 8
-524.259209632874 -555.086612701416 1960.99996566772 16 19 8
-516.295313835144 -552.27118730545 1950.99997520447 15 18 7
-507.337987422943 -548.323571681976 1937.00003623962 16 19 8
-502.862930297852 -549.188494682312 1940.00005722046 16 19 8
-499.141246080399 -550.903081893921 1945.99997997284 16 19 8
-493.356674909592 -550.353288650513 1944.00000572205 16 19 8
-487.833976745605 -550.086855888367 1942.999958992 17 20 9
-479.584634304047 -546.706318855286 1930.99999427795 17 20 9
-471.400380134583 -543.325960636139 1919.0000295639 17 20 9
-463.523924350739 -540.228664875031 1907.99999237061 20 23 14
-458.829969167709 -540.812373161316 1909.9999666214 20 23 14
-454.362541437149 -541.679501533508 1912.99998760223 20 23 14
-452.22669839859 -545.378506183624 1925.99999904633 19 22 13
-448.859661817551 -547.662138938904 1934.00001525879 19 22 13
-443.843424320221 -547.963798046112 1934.99994277954 19 22 13
-441.994845867157 -552.230358123779 1950.00004768372 21 24 15
-440.512537956238 -557.063758373261 1967.00000762939 21 24 15
-437.831550836563 -560.481548309326 1978.99997234344 21 24 15
-430.714696645737 -558.235287666321 1970.99995613098 20 23 14
-431.194394826889 -565.902173519135 1998.00002574921 20 23 14
-422.577112913132 -561.67334318161 1983.00004005432 19 22 13
-420.562863349915 -566.225349903107 1998.99995326996 20 23 14
-417.007774114609 -568.794786930084 2007.99989700317 21 22 14
-410.124152898788 -566.832065582275 2000.99992752075 21 22 14
-404.289424419403 -566.285789012909 1998.99995326996 22 23 15
-401.258617639542 -569.705605506897 2010.99991798401 23 22 17
-681.672036647797 -661.419868469238 2315.00005722046 13 15 10
-671.598792076111 -657.717645168304 2302.00004577637 13 15 10
-662.752747535706 -655.158817768097 2292.99998283386 11 13 8
-651.951551437378 -650.600433349609 2276.99995040894 10 13 6
-641.237616539001 -646.042466163635 2260.99991798401 11 14 7
-570.275902748108 -585.778892040253 2049.99995231628 16 19 8
-551.217913627625 -571.790754795074 2000.99992752075 17 20 9
-539.245009422302 -564.946472644806 1976.99999809265 16 19 8
-530.912756919861 -561.817109584808 1965.99996089935 16 19 8
-524.244427680969 -560.402750968933 1960.99996566772 15 18 7
-516.544818878174 -557.84547328949 1952.00002193451 15 18 7
-509.155988693237 -555.574238300323 1944.00000572205 15 18 7
-504.661679267883 -556.44702911377 1947.00002670288 16 19 8
-500.407636165619 -557.605981826782 1950.99997520447 17 20 9
-492.071509361267 -554.192304611206 1939.00001049042 17 20 9
-487.31517791748 -554.780244827271 1940.99998474121 17 20 9
-481.554687023163 -554.225087165833 1939.00001049042 17 20 9
-471.874684095383 -549.096882343292 1921.0000038147 17 20 9
-462.049275636673 -543.68269443512 1901.99995040894 19 22 13
-457.131117582321 -543.985486030579 1902.99999713898 19 22 13
-455.29493689537 -548.004865646362 1917.00005531311 19 22 13
-453.147917985916 -551.738917827606 1929.99994754791 20 23 14
-449.537694454193 -553.758025169373 1937.00003623962 20 23 14
-444.283783435822 -553.776204586029 1937.00003623962 20 23 14
-440.842866897583 -556.081771850586 1945.00005245209 20 23 14
-440.941363573074 -562.962174415588 1968.99998188019 20 23 14
-437.369793653488 -565.268516540527 1976.99999809265 21 24 15
-433.536052703857 -567.289292812347 1983.99996757507 21 24 15
-426.642805337906 -565.307080745697 1976.99999809265 18 21 12
-426.179975271225 -571.9034075737 2000 18 21 12
-417.597681283951 -567.63368844986 1985.00001430511 20 23 14
-415.741771459579 -572.514951229095 2002.00009346008 20 21 13
-407.849609851837 -569.103062152863 1990.00000953674 19 20 12
-403.662651777267 -570.838987827301 1996.00005149841 21 23 12
-400.839328765869 -574.5769739151 2009.0000629425 23 23 15
-403.258919715881 -586.037516593933 2049.00002479553 24 24 16
-679.304838180542 -665.393888950348 2306.99992179871 11 13 8
-671.294987201691 -663.674890995026 2301.00011825562 12 14 9
-668.520629405975 -667.148113250732 2312.99996376038 11 13 8
-660.527884960175 -665.430247783661 2306.99992179871 10 13 6
-647.17972278595 -658.232450485229 2282.00006484985 11 14 7
-536.776483058929 -567.710757255554 1968.00005435944 15 18 7
-531.708896160126 -568.012773990631 1968.99998188019 15 18 7
-525.299429893494 -566.872894763947 1965.0000333786 15 18 7
-519.176244735718 -566.021740436554 1962.00001239777 15 18 7
-511.759996414185 -563.72857093811 1953.9999961853 15 18 7
-509.052515029907 -566.628575325012 1963.99998664856 16 19 8
-500.391900539398 -562.893390655518 1950.99997520447 17 20 9
-491.548031568527 -558.869779109955 1937.00003623962 17 20 9
-483.784198760986 -556.000292301178 1927.00004577637 17 20 9
-481.786549091339 -559.767425060272 1940.00005722046 16 19 8
-474.314361810684 -557.186961174011 1930.99999427795 16 19 8
-466.890960931778 -554.606676101685 1922.00005054474 19 22 13
-459.996670484543 -552.603542804718 1914.99996185303 19 22 13
-455.277651548386 -553.197622299194 1917.00005531311 19 22 13
-450.782477855682 -554.080665111542 1919.99995708466 20 23 14
-448.359489440918 -557.561278343201 1932.000041008 20 23 14
-442.660123109818 -557.001829147339 1929.99994754791 20 23 14
-440.824508666992 -561.348974704742 1945.00005245209 19 22 13
-439.131200313568 -565.985143184662 1960.99996566772 20 23 14
-438.899368047714 -572.642266750336 1983.99996757507 21 24 15
-431.113302707672 -569.486141204834 1973.00004959106 20 23 14
-426.191985607147 -570.082426071167 1975.00002384186 18 21 12
-421.898812055588 -571.544826030731 1980.00001907349 17 20 11
-418.630033731461 -574.450790882111 1990.00000953674 20 23 14
-412.399500608444 -573.315560817719 1985.99994182587 19 21 10
-409.264504909515 -576.510667800903 1996.99997901917 19 21 10
-405.665040016174 -579.128623008728 2006.00004196167 21 23 12
-398.026138544083 -575.972616672516 1995.00000476837 23 23 13
-395.563364028931 -580.323159694672 2009.99999046326 24 24 16
-674.288272857666 -666.704773902893 2289.99996185303 18 21 14
-675.076007843018 -673.702955245972 2313.99989128113 15 18 11
-672.554790973663 -677.499353885651 2326.99990272522 10 13 6
-661.946773529053 -673.144400119781 2312.00003623962 8 11 4
-649.43528175354 -666.751623153687 2289.99996185303 12 15 8
-631.706655025482 -654.827117919922 2249.00007247925 14 17 10
-536.763310432434 -573.046982288361 1968.00005435944 13 16 7
-528.994917869568 -570.439398288727 1958.99999141693 13 16 7
-525.552690029144 -572.49128818512 1965.99996089935 15 18 9
-521.80802822113 -574.252486228943 1972.00000286102 15 18 9
-515.935719013214 -573.684453964233 1970.00002861023 16 19 10
-511.88850402832 -575.155258178711 1975.00002384186 19 22 13
-504.223644733429 -572.549283504486 1965.99996089935 16 19 10
-492.547541856766 -565.283894538879 1940.99998474121 17 20 11
-482.513248920441 -559.765815734863 1922.00005054474 17 20 11
-478.0453145504 -560.655176639557 1924.99995231628 16 19 10
-475.034862756729 -563.292503356934 1934.00001525879 16 19 10
-470.27513384819 -563.891351222992 1935.99998950958 16 19 10
-463.582873344421 -562.16025352478 1929.99994754791 16 19 8
-455.973148345947 -559.264302253723 1919.99995708466 17 20 9
-450.060963630676 -558.407366275787 1917.00005531311 18 21 10
-445.32510638237 -559.007048606873 1919.0000295639 19 22 11
-441.495686769485 -560.772240161896 1924.99995231628 20 23 12
-439.220011234283 -564.576923847198 1937.99996376038 20 23 12
-439.56071138382 -571.87807559967 1963.00005912781 21 24 13
-435.562491416931 -573.6443400383 1968.99998188019 21 24 13
-429.128110408783 -572.206139564514 1963.99998664856 21 24 13
-423.583686351776 -571.933329105377 1963.00005912781 19 22 11
-418.896704912186 -572.826087474823 1965.99996089935 18 21 10
-413.351804018021 -572.55357503891 1965.0000333786 20 23 12
-412.380188703537 -578.691601753235 1985.99994182587 20 23 12
-409.040093421936 -581.624805927277 1996.00005149841 20 23 12
-404.02764081955 -582.226932048798 1998.00002574921 20 22 11
-400.201022624969 -584.577739238739 2006.00004196167 20 22 11
-393.378913402557 -582.557380199432 1998.99995326996 19 21 10
-691.785156726837 -684.076011180878 2328.00006866455 82 84 79
-679.578125476837 -678.208649158478 2308.00008773804 17 20 13
-672.147870063782 -677.043437957764 2303.99990081787 15 18 11
-671.098113059998 -682.343780994415 2322.00002670288 11 14 7
-657.640039920807 -675.008714199066 2296.99993133545 10 13 6
-646.303236484528 -669.731080532074 2279.00004386902 12 15 8
-637.872993946075 -667.392551898956 2270.99990844727 14 17 10
-543.023645877838 -585.143089294434 1991.00005626678 12 15 8
-532.762229442596 -579.865694046021 1973.00004959106 15 18 9
-525.271892547607 -577.527523040771 1965.0000333786 15 18 9
-522.852420806885 -580.774009227753 1975.99995136261 14 17 8
-516.707003116608 -579.906284809113 1973.00004959106 14 17 8
-510.059535503387 -578.450918197632 1968.00005435944 17 20 11
-500.105202198029 -573.174715042114 1950.00004768372 16 19 10
-491.263568401337 -569.074332714081 1935.99998950958 17 20 11
-480.991631746292 -563.210368156433 1916.00000858307 17 20 11
-477.284729480743 -564.989387989044 1922.00005054474 16 19 10
-474.773317575455 -568.23855638504 1932.99996852875 16 19 10
-469.044387340546 -567.666590213776 1930.99999427795 16 19 10
-460.443943738937 -563.566863536835 1917.00005531311 16 19 8
-453.344225883484 -561.231255531311 1909.00003910065 17 20 9
-449.104994535446 -562.423706054688 1912.99998760223 18 21 10
-444.147825241089 -562.734484672546 1914.00003433228 19 22 11
-441.24910235405 -565.691649913788 1924.00002479553 20 23 12
-440.335541963577 -571.295380592346 1942.999958992 20 23 12
-438.423097133636 -575.723469257355 1957.99994468689 21 24 13
-434.4382584095 -577.505648136139 1963.99998664856 21 24 13
-428.891271352768 -577.229738235474 1963.00005912781 21 24 13
-425.291359424591 -579.60045337677 1970.99995613098 19 22 11
-415.895283222198 -574.031591415405 1952.00002193451 18 21 10
-412.701994180679 -576.990723609924 1962.00001239777 20 23 12
-410.284847021103 -581.126689910889 1975.99995136261 20 23 12
-406.971663236618 -584.0864777565 1985.99994182587 20 23 12
-402.592927217484 -585.576057434082 1991.00005626678 20 22 11
-398.984670639038 -588.242292404175 2000 20 22 11
-396.901458501816 -593.26171875 2016.99995994568 19 21 10
-395.890057086945 -600.046396255493 2039.99996185303 22 23 17
-694.747686386108 -693.360567092896 2338.00005912781 11 13 8
-677.50757932663 -682.396650314331 2301.00011825562 12 15 8
-668.053448200226 -679.143846035004 2289.99996185303 11 14 7
-662.127733230591 -679.450511932373 2290.99988937378 9 12 5
-653.906762599945 -677.385330200195 2283.99991989136 13 16 9
-646.291196346283 -675.913691520691 2279.00004386902 13 16 9
-637.298822402954 -672.959804534912 2269.00005340576 15 18 11
-630.864441394806 -672.675549983978 2267.99988746643 17 20 13
-528.429210186005 -580.469787120819 1957.00001716614 16 19 10
-527.664601802826 -585.524916648865 1973.99997711182 16 19 10
-520.722210407257 -583.758234977722 1968.00005435944 14 17 8
-514.074325561523 -582.288444042206 1963.00005912781 13 16 7
-509.526908397675 -583.192050457001 1965.99996089935 14 17 8
-499.834358692169 -578.163325786591 1949.00000095367 15 18 9
-489.726483821869 -572.541296482086 1929.99994754791 16 19 10
-483.236074447632 -571.072578430176 1924.99995231628 16 19 10
-477.517813444138 -570.494115352631 1922.99997806549 16 19 10
-474.757701158524 -573.476016521454 1932.99996852875 16 19 10
-467.571169137955 -571.118056774139 1924.99995231628 15 18 7
-457.545787096024 -565.199971199036 1904.99997138977 15 18 7
-451.665759086609 -564.325571060181 1901.99995040894 17 20 9
-449.792891740799 -568.495631217957 1916.00000858307 18 21 10
-446.451604366302 -570.88577747345 1924.00002479553 18 21 10
-442.378789186478 -572.386085987091 1929.00002002716 19 22 11
-439.864963293076 -575.963795185089 1940.99998474121 21 24 13
-438.405483961105 -581.025660037994 1957.99994468689 21 24 13
-431.987315416336 -579.559445381165 1952.99994945526 21 24 13
-427.780836820602 -581.060886383057 1957.99994468689 20 23 12
-420.742094516754 -578.704595565796 1950.00004768372 19 22 11
-418.43369603157 -582.877457141876 1963.99998664856 19 22 11
-413.314670324326 -583.192467689514 1965.0000333786 20 23 12
-410.058587789536 -586.178719997406 1975.00002384186 20 23 12
-408.592134714127 -591.83657169342 1993.99995803833 20 23 12
-403.989344835281 -593.04267168045 1998.00002574921 20 22 11
-399.564027786255 -594.545662403107 2003.00002098083 20 22 11
-396.488666534424 -598.126709461212 2015.00010490417 19 21 10
-394.706130027771 -603.785872459412 2033.99991989136 18 19 13
-682.259202003479 -687.137484550476 2296.0000038147 0 2 0
-674.554288387299 -685.649216175079 2290.99988937378 10 13 6
-668.335676193237 -685.657918453217 2290.99988937378 9 12 5
-662.117600440979 -685.667395591736 2290.99988937378 12 15 8
-655.327498912811 -685.078978538513 2289.00003433228 13 16 9
-647.1306681633 -682.994604110718 2282.00006484985 15 18 11
-640.657305717468 -682.706594467163 2280.99989891052 17 20 13
-630.851984024048 -678.827524185181 2267.99988746643 17 20 13
-528.417229652405 -585.776627063751 1957.00001716614 14 17 8
-527.117371559143 -590.278625488281 1972.00000286102 15 18 9
-518.85712146759 -586.998462677002 1960.99996566772 15 18 9
-512.227833271027 -585.514664649963 1955.9999704361 14 17 8
-504.848301410675 -583.133101463318 1947.99995422363 15 18 9
-499.563843011856 -583.146691322327 1947.99995422363 14 17 8
-492.249637842178 -580.765724182129 1940.00005722046 15 18 9
-483.472585678101 -576.588690280914 1925.99999904633 16 19 10
-478.247970342636 -576.60311460495 1925.99999904633 16 19 10
-474.988162517548 -579.013049602509 1934.00001525879 16 19 10
-467.312842607498 -576.034128665924 1924.00002479553 15 18 7
-458.250790834427 -571.259021759033 1907.99999237061 15 18 7
-454.974502325058 -573.669791221619 1916.00000858307 16 19 8
-453.532725572586 -578.476250171661 1932.000041008 17 20 9
-448.059409856796 -578.192889690399 1930.99999427795 18 21 10
-443.050146102905 -578.508734703064 1932.000041008 19 22 11
-442.114144563675 -584.214746952057 1950.99997520447 21 24 13
-438.836008310318 -586.926758289337 1960.00003814697 21 24 13
-435.730010271072 -589.938580989838 1970.00002861023 20 23 12
-426.889359951019 -585.164487361908 1953.9999961853 20 23 12
-420.292913913727 -583.385109901428 1947.99995422363 19 22 11
-416.498392820358 -585.499048233032 1955.00004291534 19 22 11
-414.348244667053 -590.009331703186 1970.00002861023 20 23 12
-410.455524921417 -592.123866081238 1976.99999809265 20 23 12
-411.032408475876 -600.827991962433 2006.00004196167 20 23 12
-404.779434204102 -599.648535251617 2002.00009346008 20 22 11
-399.944186210632 -600.565671920776 2005.00011444092 20 22 11
-393.715053796768 -599.386215209961 2000.99992752075 19 20 12
-391.58222079277 -604.497313499451 2017.99988746643 25 26 18
-701.679587364197 -706.651270389557 2339.99991416931 32 37 33
-684.926092624664 -696.088492870331 2305.0000667572 7 9 4
-677.784979343414 -695.189893245697 2302.00004577637 10 13 6
-670.36896944046 -693.990111351013 2298.00009727478 13 16 9
-666.154325008392 -696.112871170044 2305.0000667572 17 20 13
-659.611761569977 -695.820391178131 2303.99990081787 9 12 5
-651.657283306122 -694.018483161926 2298.00009727478 17 20 13
-642.331182956696 -690.706968307495 2286.99994087219 18 21 14
-634.456157684326 -688.906133174896 2280.99989891052 17 20 13
-623.033404350281 -683.179557323456 2262.00008392334 15 18 11
-541.36598110199 -605.581402778625 2005.00011444092 13 16 7
-532.183885574341 -601.36467218399 1991.00005626678 15 18 9
-520.961344242096 -594.73180770874 1968.99998188019 15 18 9
-511.691272258759 -590.213418006897 1953.9999961853 14 17 8
-503.280222415924 -586.601495742798 1942.00003147125 15 18 9
-499.806821346283 -588.728964328766 1949.00000095367 14 17 8
-491.728335618973 -585.419654846191 1937.99996376038 15 18 9
-486.972779035568 -586.037516593933 1940.00005722046 16 19 10
-479.723453521729 -583.634912967682 1932.000041008 16 19 10
-476.446956396103 -586.066126823425 1940.00005722046 16 19 10
-468.998074531555 -583.361923694611 1930.99999427795 15 18 7
-461.598008871078 -580.657839775085 1922.00005054474 15 18 7
-457.333624362946 -581.881463527679 1925.99999904633 15 18 7
-453.282177448273 -583.407461643219 1930.99999427795 17 20 9
-447.347283363342 -582.51678943634 1927.99997329712 18 21 10
-442.345917224884 -582.834899425507 1929.00002002716 19 22 11
-441.191077232361 -588.289797306061 1947.00002670288 22 25 14
-439.042985439301 -592.536568641663 1960.99996566772 21 24 13
-433.279901742935 -591.949045658112 1958.99999141693 20 23 12
-429.493695497513 -594.081282615662 1965.99996089935 19 22 11
-420.707106590271 -589.263558387756 1950.00004768372 19 22 11
-416.267812252045 -590.489506721497 1953.9999961853 20 23 12
-413.489162921906 -594.13343667984 1965.99996089935 20 23 12
-410.645186901093 -597.777664661407 1978.00004482269 20 23 12
-406.916201114655 -600.213229656219 1985.99994182587 20 23 12
-407.995879650116 -609.902679920197 2017.99988746643 20 22 11
-403.117060661316 -610.827803611755 2020.99990844727 20 22 11
-395.467281341553 -607.521653175354 2009.99999046326 19 21 10
-391.369432210922 -609.655916690826 2016.99995994568 26 27 19
-386.659413576126 -610.883593559265 2020.99990844727 15 16 10
-704.072415828705 -715.442836284637 2348.00004959106 16 21 17
-691.753685474396 -709.354817867279 2328.00006866455 10 12 7
-682.48838186264 -706.314504146576 2318.00007820129 12 15 8
-676.195204257965 -706.322014331818 2318.00007820129 16 19 12
-669.324398040771 -705.720663070679 2315.99998474121 18 21 14
-661.319971084595 -703.901171684265 2309.99994277954 8 11 4
-653.064966201782 -701.777577400208 2302.99997329712 17 20 13
-644.286513328552 -699.045062065125 2293.99991035461 17 20 13
-636.391997337341 -697.227358818054 2288.00010681152 17 20 13
-627.153038978577 -693.886399269104 2276.99995040894 13 16 9
-532.439529895782 -607.068598270416 1991.99998378754 15 18 9
-521.478414535522 -600.680232048035 1970.99995613098 15 18 9
-514.035701751709 -598.254084587097 1963.00005912781 14 17 8
-504.304170608521 -593.08522939682 1945.99997997284 14 17 8
-496.46008014679 -590.050041675568 1935.99998950958 13 16 7
-490.192651748657 -588.843822479248 1932.000041008 14 17 8
-489.218145608902 -594.038546085358 1949.00000095367 15 18 9
-484.675347805023 -594.966650009155 1952.00002193451 16 19 10
-476.432591676712 -591.323018074036 1940.00005722046 16 19 10
-469.46918964386 -589.203596115112 1932.99996852875 14 17 6
-459.421783685684 -583.121716976166 1912.99998760223 15 18 7
-455.893844366074 -585.270166397095 1919.99995708466 15 18 7
-454.205691814423 -589.857637882233 1934.99994277954 17 20 9
-445.939600467682 -585.910081863403 1922.00005054474 17 20 9
-440.03701210022 -585.011005401611 1919.0000295639 18 21 10
-436.643034219742 -587.465584278107 1927.00004577637 22 25 14
-433.653324842453 -590.530216693878 1937.00003623962 20 23 12
-429.28221821785 -591.765999794006 1940.99998474121 19 22 11
-424.015432596207 -591.78239107132 1940.99998474121 19 22 11
-419.395685195923 -592.71377325058 1944.00000572205 20 23 12
-416.889727115631 -596.69429063797 1957.00001716614 20 23 12
-413.051158189774 -598.845779895782 1963.99998664856 20 23 14
-410.419940948486 -602.82701253891 1976.99999809265 20 23 12
-408.742308616638 -608.333230018616 1995.00000476837 20 23 12
-407.168954610825 -614.144742488861 2013.99993896484 20 22 11
-401.702582836151 -614.162862300873 2013.99993896484 20 22 11
-394.071757793427 -610.826432704926 2003.00002098083 26 27 19
-391.545057296753 -615.419030189514 2017.99988746643 17 18 10
-385.875672101974 -615.132331848145 2016.99995994568 21 22 16
-692.639052867889 -716.598391532898 2331.00008964539 11 13 8
-687.192618846893 -717.52667427063 2334.00011062622 10 13 6
-675.604343414307 -711.999714374542 2315.99998474121 11 14 7
-667.004406452179 -709.547758102417 2308.00008773804 16 19 12
-657.303273677826 -705.866575241089 2296.0000038147 16 19 12
-646.817088127136 -701.263725757599 2280.99989891052 16 19 12
-640.06382226944 -700.658082962036 2279.00004386902 20 23 16
-631.374835968018 -697.900950908661 2269.99998092651 15 18 11
-620.531737804413 -692.684769630432 2253.00002098084 10 13 6
-613.326549530029 -691.46591424942 2249.00007247925 11 14 7
-530.824601650238 -610.625982284546 1985.99994182587 16 19 10
-524.641871452332 -609.71474647522 1983.00004005432 17 20 11
-517.689883708954 -607.881307601929 1976.99999809265 16 19 10
-506.365180015564 -600.821137428284 1953.9999961853 13 16 7
-497.986137866974 -597.143352031708 1942.00003147125 15 18 9
-489.672422409058 -593.465924263 1929.99994754791 15 18 9
-487.698882818222 -597.476184368134 1942.999958992 15 18 9
-483.42028260231 -598.719358444214 1947.00002670288 15 18 9
-479.611188173294 -600.57806968689 1952.99994945526 16 19 10
-467.269271612167 -591.673731803894 1924.00002479553 15 18 7
-459.647655487061 -588.612496852875 1914.00003433228 14 17 6
-453.979700803757 -588.011562824249 1911.99994087219 13 16 5
-449.7309923172 -589.256286621094 1916.00000858307 13 16 5
-444.764405488968 -589.578628540039 1917.00005531311 14 17 6
-439.792305231094 -589.901149272919 1917.99998283386 17 20 9
-434.134960174561 -589.301347732544 1916.00000858307 20 23 12
-428.488373756409 -588.701605796814 1914.00003433228 21 24 13
-425.948679447174 -592.408299446106 1925.99999904633 20 23 12
-421.596199274063 -593.654632568359 1929.99994754791 19 22 11
-419.59485411644 -598.284840583801 1945.00005245209 20 23 12
-415.381819009781 -599.839329719543 1950.00004768372 21 24 13
-412.613481283188 -603.547394275665 1962.00001239777 19 22 13
-408.326774835587 -605.10241985321 1967.00000762939 19 22 11
-409.544259309769 -614.96376991272 1998.99995326996 19 22 11
-404.118746519089 -614.981234073639 1998.99995326996 21 23 12
-397.496312856674 -613.152921199799 1993.00003051758 21 23 12
-392.676740884781 -614.093482494354 1996.00005149841 21 23 12
-388.422697782516 -615.957200527191 2002.00009346008 19 21 10
-385.092347860336 -619.35955286026 2013.00001144409 22 23 15
-383.210629224777 -625.223577022552 2032.00006484985 23 22 18
-710.659503936768 -735.019385814667 2369.99988555908 6 11 7
-693.525314331055 -723.858892917633 2334.00011062622 11 13 8
-681.003570556641 -717.351138591766 2312.99996376038 13 16 9
-669.180035591125 -711.464405059814 2293.99991035461 16 19 12
-660.350203514099 -708.679676055908 2285.00008583069 20 23 16
-652.428567409515 -706.826090812683 2279.00004386902 19 22 15
-643.972873687744 -704.352796077728 2270.99990844727 17 20 13
-635.841846466064 -702.190220355988 2263.99993896484 17 20 13
-627.471208572388 -699.718117713928 2256.00004196167 13 16 9
-620.24599313736 -698.487162590027 2252.00009346008 14 17 10
-610.588610172272 -694.465219974518 2239.00008201599 15 18 11
-531.509459018707 -623.15708398819 2009.0000629425 17 20 11
-522.653639316559 -619.135797023773 1996.00005149841 17 20 11
-510.240495204926 -610.771954059601 1968.99998188019 16 19 10
-498.487055301666 -603.028774261475 1944.00000572205 14 17 8
-491.436064243317 -600.869178771973 1937.00003623962 15 18 9
-484.925121068954 -599.330425262451 1932.000041008 15 18 9
-480.924308300018 -600.894153118134 1937.00003623962 15 18 9
-478.124260902405 -604.009389877319 1947.00002670288 15 18 9
-472.598522901535 -603.712558746338 1945.99997997284 15 18 9
-461.795091629028 -596.590757369995 1922.99997806549 14 17 6
-456.102430820465 -595.984101295471 1921.0000038147 14 17 6
-451.594233512878 -596.928954124451 1924.00002479553 15 18 7
-445.445656776428 -595.702290534973 1919.99995708466 15 18 7
-440.235942602158 -595.716893672943 1919.99995708466 15 18 7
-435.026109218597 -595.731794834137 1919.99995708466 19 22 11
-428.920716047287 -594.505727291107 1916.00000858307 21 24 13
-423.942655324936 -594.83128786087 1917.00005531311 21 24 13
-425.730586051941 -604.776382446289 1949.00000095367 21 24 13
-420.441567897797 -604.792356491089 1949.00000095367 22 25 14
-415.791422128677 -605.739414691925 1952.00002193451 23 26 15
-410.70419549942 -606.065928936005 1952.99994945526 21 24 15
-408.932715654373 -611.358106136322 1970.00002861023 21 24 13
-402.356773614883 -609.512746334076 1963.99998664856 21 24 13
-401.675641536713 -616.667628288269 1986.99998855591 21 23 12
-396.282285451889 -616.684675216675 1986.99998855591 21 23 10
-391.282230615616 -617.322623729706 1988.9999628067 21 23 12
-388.599127531052 -621.685206890106 2003.00002098083 15 17 6
-384.883254766464 -624.496102333069 2012.00008392334 23 24 16
-383.192658424377 -630.721688270569 2032.00006484985 24 23 18
-691.44082069397 -728.007853031158 2326.99990272522 14 16 11
-678.937494754791 -721.442341804504 2305.99999427795 16 19 12
-667.423963546753 -715.816080570221 2288.00010681152 18 21 14
-658.031761646271 -712.380409240723 2276.99995040894 19 22 15
-650.131165981293 -710.509717464447 2270.99990844727 16 19 12
-643.114328384399 -709.578216075897 2267.99988746643 14 17 10
-633.86744260788 -706.144452095032 2256.99996948242 15 18 11
-625.515222549438 -703.649938106537 2249.00007247925 13 16 9
-619.960963726044 -704.284608364105 2250.99992752075 13 16 9
-615.759670734406 -706.484377384186 2257.99989700317 15 18 11
-601.26119852066 -696.795105934143 2226.99999809265 13 16 9
-519.238770008087 -620.480954647064 1983.00004005432 16 19 10
-510.488450527191 -616.423964500427 1970.00002861023 16 19 10
-498.988300561905 -608.925223350525 1945.99997997284 14 17 8
-491.931617259979 -606.746256351471 1939.00001049042 14 17 8
-490.936726331711 -612.07777261734 1955.9999704361 15 18 9
-484.139323234558 -610.212445259094 1950.00004768372 15 18 9
-480.812430381775 -612.728476524353 1957.99994468689 15 18 9
-474.285155534744 -611.176729202271 1952.99994945526 15 18 9
-463.702708482742 -604.30508852005 1930.99999427795 14 17 6
-457.750648260117 -603.379666805267 1927.99997329712 15 18 7
-453.223168849945 -604.332268238068 1930.99999427795 15 18 7
-448.215365409851 -604.659199714661 1932.000041008 15 18 7
-441.597133874893 -602.795660495758 1925.99999904633 14 17 6
-438.409864902496 -605.627000331879 1934.99994277954 18 21 10
-430.920451879501 -602.511763572693 1924.99995231628 21 24 13
-428.792625665665 -606.908798217773 1939.00001049042 21 24 13
-425.278127193451 -609.42804813385 1947.00002670288 21 24 13
-423.445761203766 -614.451825618744 1963.00005912781 23 26 15
-415.775448083878 -611.024379730225 1952.00002193451 24 27 16
-410.898327827454 -611.666262149811 1953.9999961853 22 25 16
-406.010210514069 -612.308442592621 1955.9999704361 22 25 14
-401.1110663414 -612.95074224472 1957.99994468689 22 24 13
-398.222327232361 -616.723835468292 1970.00002861023 21 23 12
-393.872171640396 -618.305742740631 1975.00002384186 21 23 10
-389.494717121124 -619.887828826904 1980.00001907349 24 26 15
-385.865837335587 -622.722446918488 1988.9999628067 15 17 6
-384.292006492615 -629.001319408417 2009.0000629425 22 23 15
-379.403620958328 -629.957854747772 2012.00008392334 19 18 13
-382.304549217224 -644.064962863922 2056.99992179871 24 23 18
-705.555438995361 -742.530822753906 2352.9999256134 6 11 7
-688.168883323669 -730.857610702515 2315.99998474121 13 15 10
-679.816544055939 -728.65217924118 2309.00001525879 16 19 12
-668.877422809601 -723.607182502747 2292.99998283386 18 21 14
-658.025979995728 -718.56302022934 2276.99995040894 19 22 15
-648.407101631165 -714.781880378723 2265.00010490417 16 19 12
-641.122341156006 -713.525831699371 2260.99991798401 12 15 8
-634.421527385712 -712.901771068573 2259.0000629425 18 21 14
-627.73197889328 -712.278246879578 2256.99996948242 19 22 15
-621.60450220108 -712.286472320557 2256.99996948242 16 19 12
-618.749916553497 -716.082572937012 2269.00005340576 19 22 15
-615.290284156799 -719.247996807098 2279.00004386902 20 23 16
-517.395436763763 -623.649597167969 1975.99995136261 12 15 6
-510.736882686615 -622.081816196442 1970.99995613098 14 17 8
-502.823531627655 -618.936121463776 1960.99996566772 14 17 8
-499.531269073486 -621.472239494324 1968.99998188019 14 17 8
-493.434727191925 -620.536684989929 1965.99996089935 14 17 8
-488.844335079193 -621.495425701141 1968.99998188019 14 17 8
-481.536597013474 -618.982493877411 1960.99996566772 15 18 9
-475.00079870224 -617.416679859161 1955.9999704361 15 18 9
-466.091006994247 -612.694621086121 1940.99998474121 15 18 7
-460.823744535446 -612.707555294037 1940.99998474121 15 18 7
-455.321907997131 -612.405240535736 1940.00005722046 14 17 6
-447.737485170364 -609.262049198151 1929.99994754791 14 17 6
-440.665900707245 -606.750309467316 1922.00005054474 14 17 6
-435.903251171112 -607.395648956299 1924.00002479553 16 19 8
-430.905908346176 -607.725620269775 1924.99995231628 20 23 12
-424.133867025375 -605.530142784119 1917.99998283386 21 24 13
-421.549767255783 -609.333395957947 1929.99994754791 21 24 13
-419.116079807281 -613.452732563019 1942.999958992 21 24 13
-418.954700231552 -621.045529842377 1967.00000762939 22 25 14
-412.985354661942 -620.113968849182 1963.99998664856 22 25 16
-408.27751159668 -621.076941490173 1967.00000762939 22 25 16
-400.685280561447 -617.619514465332 1955.9999704361 22 24 13
-398.205995559692 -622.056186199188 1970.00002861023 22 24 13
-393.656253814697 -623.335421085358 1973.99997711182 22 24 11
-389.674782752991 -625.562250614166 1980.99994659424 20 22 9
