ply
format ascii 1.0
comment KinectMotionCapture
element vertex 778
property float x
property float y
property float z
property uchar red
property uchar green
property uchar blue
end_header
-489.648917673276 -485.979129572434 2298.80085540947 14 17 8
-510.766678630166 -489.634773177138 2300.86331944111 14 15 7
-510.433823704158 -489.458812482739 2307.53122747789 16 19 12
-507.027353832764 -488.73436133938 2314.82451298804 16 19 12
-507.710537748099 -488.739732648516 2321.2539701861 15 18 9
-509.417014843436 -488.927390494482 2327.47130784069 14 17 8
-555.2251051547 -496.979573321584 2324.91018850905 14 17 8
-590.831322370752 -503.208345105478 2324.58871107369 15 18 9
-598.463530548985 -504.326226408161 2336.633621875 14 16 11
-645.480444653692 -512.580355419 2334.53588071023 21 23 20
-481.703953460834 -497.589658011462 1884.00153267605 32 34 29
-474.666789496344 -496.185858771954 1893.82987799835 22 24 19
-453.905519026387 -492.258513202836 1908.84874223044 24 27 18
-438.011841713004 -489.228013200996 1921.89034452355 24 27 18
-437.785169983759 -489.079012925145 1928.9363975842 24 27 18
-426.758884533719 -486.945053515099 1940.00111214407 24 27 18
-410.802850874957 -483.906359661714 1952.81637071721 22 25 18
-407.5993249675 -483.211503239427 1960.84446283193 22 25 18
-398.48673899526 -481.43165087784 1970.99723403428 22 25 18
-396.249160129154 -480.914809910133 1978.60205914751 21 24 17
-438.336138593824 -488.534459239322 1970.2918296458 21 24 17
-442.034493490754 -489.105195253745 1975.86919388808 22 25 18
-435.869914883122 -487.86573254094 1984.93720375422 22 25 18
-405.999576636393 -482.278548913463 2002.25256101969 23 26 19
-416.590655532741 -484.113832608477 2005.34771761669 22 25 18
-449.935245366105 -490.119460371448 2000.66646281369 20 23 16
-445.727389714472 -489.238965054478 2008.97919849561 21 24 17
-438.540458071463 -487.812818758443 2018.26559454284 21 24 17
-450.167310006292 -489.833782131577 2021.19096656815 18 21 14
-437.01861799249 -487.315801016521 2032.41162252892 20 21 15
-435.75606906925 -486.97531810281 2039.62887909225 21 24 17
-447.398462001377 -488.997219511044 2042.61228859082 19 22 15
-470.980091193484 -493.202759610881 2041.78554643992 12 14 9
-486.637541710349 -495.956145603621 2043.62804618823 10 12 9
-457.532483507062 -490.519906078615 2059.79311967566 0 1 0
-458.36316300743 -487.251171613796 2259.77186124425 17 22 16
-463.100687357088 -487.993899392309 2265.20255101261 15 20 14
-467.842409357708 -488.736708285359 2270.6487746248 18 20 15
-490.927789943818 -492.805378025769 2271.96229182585 19 21 16
-499.769078481039 -494.289387619356 2276.57523661573 18 21 14
-469.84938186192 -488.747153884682 2289.7835655476 18 21 14
-467.452360419093 -488.194600434367 2296.81895861531 18 21 14
-511.026921731301 -495.969710058249 2293.93275415404 18 21 14
-527.054257196676 -498.751837858927 2297.1304181478 19 20 14
-509.337529030669 -495.422936031867 2307.48903463106 16 19 12
-512.070829306357 -495.79704349252 2313.50473059221 15 18 11
-510.707158996424 -495.429383991407 2320.36370114057 15 18 11
-528.819906054378 -498.585073839596 2323.27467233641 14 17 8
-551.059525690954 -502.485295767668 2325.4516434336 15 18 9
-534.311877867115 -499.334309645916 2335.39868922366 15 18 9
-583.295168804952 -508.065737724554 2332.50773742791 16 19 12
-628.985939319258 -516.070123256804 2337.33477918495 20 22 19
-465.860678405247 -500.885629909975 1897.13331491764 21 23 18
-457.820032367937 -499.272201226425 1907.26459742168 24 27 18
-453.686997753118 -498.388343925917 1915.85725152917 24 27 18
-446.601965764136 -496.95445065526 1925.52594303173 23 26 17
-411.027725581048 -490.21012070899 1945.77510132327 23 26 17
-417.653110808422 -491.333947931883 1950.18087249051 22 25 18
-404.618123777449 -488.793879865025 1961.83763731206 21 24 17
-410.259315898055 -489.733942101834 1966.60256136925 22 25 18
-453.328888346847 -497.643634936877 1957.860143055 21 24 17
-432.399833896029 -493.633687875938 1972.30820850863 21 24 17
-424.258886610103 -492.005886064987 1982.07616657527 22 25 18
-404.260021247679 -488.172136665613 1995.97027943829 22 25 18
-400.032426727028 -487.274339187096 2004.22065224728 23 26 19
-410.622197116689 -489.132686500574 2007.29546043161 22 25 18
-424.192259872578 -491.544104038735 2009.39644028876 21 24 17
-431.840543586282 -492.853291535501 2013.58668589565 21 24 17
-431.572921220382 -492.690370257131 2020.48948626073 20 23 16
-442.206494930543 -494.55285938111 2023.72431266654 19 22 15
-454.836789214711 -496.7849566674 2026.34657920406 19 20 14
-452.592505770661 -496.253476346923 2033.93575405441 19 22 15
-455.309434968156 -496.643135861946 2039.88084865791 18 21 14
-468.963429845709 -499.062354278199 2042.2885269665 15 17 12
-493.577952993018 -503.51396783123 2041.24503934905 13 15 12
-425.734930573891 -487.309709847698 2267.18053410748 15 20 14
-429.432167389159 -487.870611796004 2272.75995584621 17 22 16
-440.261878444812 -489.742787744832 2276.71688601985 18 20 15
-497.989632869871 -500.237168058296 2270.11063603121 15 17 12
-504.798147626268 -501.36530733861 2275.19360883999 18 21 14
-486.096584870289 -497.804613089683 2285.93838949796 18 21 14
-481.665790391613 -496.867602061502 2293.45907807133 18 21 14
-508.912049259715 -501.748973042681 2294.12181324592 18 21 14
-516.759938221487 -503.065656093828 2299.04935073918 19 20 14
-521.545897132341 -503.819242313247 2304.6530130892 16 19 12
-508.923568904438 -501.377602225703 2313.8825074875 16 19 12
-523.955574984228 -504.010716167548 2317.37510848559 16 19 12
-540.031758992212 -506.833788813636 2320.7282871121 16 19 10
-528.414699132026 -504.57714521414 2329.67702845037 16 19 10
-536.294502495816 -505.895663663597 2334.72097006636 16 19 10
-543.155053125544 -507.026586234464 2339.99538465011 15 18 11
-554.136638185154 -508.911770762338 2344.50890932064 17 19 14
-541.457723831994 -506.461968747682 2353.53346353994 21 23 18
-368.188522433905 -488.830107679617 1927.87055735672 20 22 17
-428.642098661325 -500.157208608403 1911.37555330441 23 25 20
-448.014495919106 -503.706085499715 1910.92155130105 23 26 17
-456.622730272996 -505.216921726736 1914.65227465365 23 26 17
-432.847784184328 -500.60342156704 1930.60504424096 21 24 15
-425.735128568607 -499.142078737052 1940.18943386879 21 24 15
-420.575790984609 -498.05063171985 1948.99900786555 21 24 17
-408.520057097291 -495.656497982782 1960.30216297825 21 24 17
-425.978802668364 -498.838795811557 1960.76815594812 23 25 20
-436.564139262821 -500.721238818812 1963.81128956024 22 24 19
-435.331264708864 -500.371305988018 1971.14468742363 22 24 19
-409.428023483483 -495.364842485926 1987.23718057636 22 24 19
-411.130691702433 -495.570025165208 1993.42931235713 22 24 19
-405.916887214659 -494.470199188283 2002.04195145192 24 26 21
-416.513757305576 -496.352763007718 2005.1278304014 23 25 20
-406.343672677818 -494.318395333165 2015.41225341124 22 24 19
-406.058644687125 -494.148377564567 2022.2549104553 22 24 19
-413.69843482756 -495.471601999901 2026.40475890117 21 23 18
-439.196919181606 -500.158642421801 2024.59736038564 20 23 16
-458.775282162249 -503.72788143116 2024.89614219022 22 23 17
-456.531451618557 -503.185940006951 2032.49360316407 21 24 17
-444.343691161654 -500.772030958782 2043.31905459659 16 19 12
-472.911648678497 -506.029452680842 2040.85893828828 16 18 15
-486.69014536174 -504.65748492137 2252.64319762698 14 19 13
-438.50142532555 -495.543265329643 2270.41580014605 4 9 3
-448.321559393876 -497.25028024814 2274.62496324997 15 17 12
-503.017428315772 -507.320962859731 2268.71837832238 19 21 16
-505.749114701142 -507.702335530884 2274.72349535153 17 20 13
-489.08153445225 -504.469114791247 2285.02066400975 17 20 13
-480.562600561838 -502.755311940089 2293.43952845188 17 20 13
-458.736521129756 -498.564501321657 2304.67130374409 16 19 12
-502.364340572339 -506.55962170926 2301.84393300407 17 18 12
-512.260309061688 -508.272930439427 2306.33160988941 16 19 12
-511.921261469102 -508.08100320388 2312.98660620715 16 19 12
-506.452230871343 -506.934964564215 2320.68081703452 17 20 13
-515.338399059409 -508.458535718731 2325.43541407331 17 20 11
-527.314966017253 -510.555478851276 2329.61216881679 17 20 11
-543.415839659082 -513.417510973828 2333.03241824085 17 20 11
-542.056521516146 -513.034237998317 2339.91740506263 16 19 12
-523.200455332176 -509.401547543888 2350.13399940942 18 20 15
-522.849772345282 -509.206606528467 2356.74862755391 22 24 19
-407.316072518396 -502.397686764205 1912.60997961066 24 26 21
-424.707746030857 -505.614743441202 1912.80500225556 21 24 17
-440.161164413354 -508.458216364099 1913.83309450659 22 25 16
-435.027533034384 -507.351892581811 1922.747503015 22 25 16
-437.739910381545 -507.750383808623 1928.67012160987 21 24 15
-411.954706169931 -502.686512073684 1945.23617859045 21 24 15
-413.665808708235 -502.89399885122 1951.45817065888 22 25 18
-398.646103990105 -499.896115136968 1963.82774930344 22 25 18
-424.967050398076 -504.817202890749 1961.03083460138 24 26 21
-437.525756297289 -507.100628405471 1963.35397251764 23 25 20
-427.414613766823 -505.043212452599 1973.87178745873 22 24 19
-417.286258714869 -502.983516953661 1984.32713486715 22 24 19
-420.969468618904 -503.56711627198 1989.84014750247 22 24 19
-416.747615750174 -502.638269093243 1998.13144109496 25 27 22
-412.517161117628 -501.708196011972 2006.39157199498 24 26 21
-405.308329810511 -500.209041908286 2015.64275218935 22 24 19
-390.161668787199 -497.193644509798 2027.55202417889 23 25 20
-407.705005433524 -500.425180166879 2028.30100104462 21 23 18
-444.12058114631 -507.259515066185 2022.80862243724 20 23 16
-446.831652047737 -507.653984847545 2028.72892938528 21 22 16
-436.628648639052 -505.5828253399 2038.91435985079 19 22 15
-443.310293820769 -506.734937238524 2043.51115573833 14 17 10
-461.938165426487 -510.16548933813 2044.26482939778 15 17 14
-543.316503673651 -525.563021062194 2024.95752684828 12 14 13
-485.601032735722 -510.577547484062 2252.65455909247 11 16 10
-464.893771400234 -506.532471826615 2264.05195688563 16 21 15
-467.599410122892 -506.914124639986 2269.96018718121 18 20 15
-492.747498564293 -511.535644142716 2270.7904532028 10 12 7
-497.513264702411 -512.304571484021 2276.30945816409 14 16 11
-485.939533363138 -509.987489718682 2285.45722730228 14 17 10
-474.347058518783 -507.667951341376 2294.53695645592 14 17 10
-470.919327933102 -506.890546323774 2301.78380838242 14 17 10
-501.26388688023 -512.485022893509 2301.81074581029 15 16 10
-503.991411744944 -512.867235754041 2307.79895245478 14 17 10
-490.31900327218 -510.156803534247 2317.19665540167 15 18 11
-507.398618001708 -513.244601689275 2320.21099239564 17 20 13
-522.446544506551 -515.947547954916 2323.71861433816 17 20 11
-553.948242298799 -521.748629239704 2324.01502171945 17 20 11
-584.463768248997 -527.360387905317 2324.66488608798 17 20 11
-596.503592524588 -529.490237575705 2329.05572738883 16 19 10
-543.707841226282 -519.414958210508 2345.91629917365 20 23 16
-419.047505370027 -510.83680490771 1907.97616179367 23 25 20
-433.512571439239 -513.524907872038 1909.32910845963 22 25 18
-444.072450239364 -515.452063834223 1912.249492852 22 25 16
-433.047865578309 -513.182203501907 1923.40632283583 21 24 15
-403.33868334234 -507.282028634497 1941.51855608963 20 23 14
-408.976649875983 -508.252904532393 1946.25112101962 21 24 15
-404.781636041319 -507.313181954383 1954.64892884305 24 27 18
-401.562523120513 -506.563319966194 1962.65387706691 25 28 19
-424.939162429792 -510.976852973118 1960.93473182503 25 28 21
-444.403196092054 -514.628530376098 1960.75698399238 27 30 23
-417.517466804811 -509.284941732415 1977.30992606127 25 28 21
-409.351057218119 -507.575293320451 1987.03595027731 23 26 19
-410.064006675465 -507.588324110055 1993.57108530397 21 24 17
-401.875591845479 -505.875488114378 2003.21649181555 20 23 16
-362.995554173958 -498.215036409032 2023.45922442311 20 23 16
-388.426659430837 -503.019528783548 2021.32843653405 22 25 18
-397.0447827055 -504.564493325294 2025.07432868003 24 27 20
-435.425292751564 -511.87197457882 2018.7860055284 20 23 16
-429.198208663467 -510.539261495507 2027.67988917603 17 20 13
-432.891434008964 -511.127080768604 2033.227422924 15 18 9
-432.611743839104 -510.94572270185 2040.0970579212 11 14 7
-432.329174389767 -510.763742800066 2046.95639531212 14 17 10
-480.815359882051 -520.012667880696 2037.99581850458 16 18 15
-495.02033285458 -518.63650575447 2243.57257903094 0 2 0
-465.162579585245 -512.779908322126 2257.20936426155 15 20 14
-447.488699851744 -509.260415745627 2267.84646857578 8 13 7
-478.734017982156 -515.111736366359 2267.15927003508 14 16 11
-474.305716390171 -514.129428830131 2274.7168830295 12 14 9
-481.101168307542 -515.295807744793 2279.72814259648 12 15 8
-503.23196318347 -519.395619515135 2281.37505810871 13 16 9
-499.826654369864 -518.608156846934 2288.71150755445 13 16 9
-484.134019505292 -515.471104625185 2298.67142118858 14 17 10
-482.753758143803 -515.072058287489 2305.48767939726 16 17 11
-532.277993928131 -524.264192302814 2308.21153359079 14 17 10
-521.685460543553 -522.102859015975 2317.00671758264 15 18 11
-511.075401604403 -519.939332649079 2325.73914624371 16 19 10
-512.779476017473 -520.127694641556 2331.94711864872 16 19 10
-604.976367446005 -537.585826522768 2320.33267847575 16 19 10
-591.307563592467 -534.835779083343 2329.76877564313 13 16 7
-580.706477149198 -532.672308401697 2338.5344822661 15 18 9
-437.647568979386 -520.687573749392 1900.67595165778 22 24 19
-447.227242852597 -522.444827782094 1903.96154386201 23 26 19
-463.688297642483 -525.557325204589 1904.66369521011 22 25 16
-441.86878683664 -521.125538884372 1919.96924737373 21 24 15
-413.135422576799 -515.334450457119 1937.73838064343 20 23 14
-405.995159240291 -513.798573158284 1947.26732537664 21 24 15
-421.480015701897 -516.717478544204 1948.36358792299 24 27 18
-426.149936373695 -517.50623303703 1953.51514865003 25 28 19
-462.366443457425 -524.501184025222 1947.1822626492 23 26 19
-434.516884367848 -518.890749014881 1964.22241580062 27 30 23
-398.727155781816 -511.721926603027 1983.93951020691 25 28 21
-396.469590760379 -511.14887808993 1991.50561714423 23 26 19
-378.389349963335 -507.466409872614 2004.63412616861 21 24 17
-380.065893432596 -507.667646831772 2010.73175299522 19 22 15
-369.862444553497 -505.535261190768 2020.95418449177 20 23 16
-365.586309034901 -504.567721867671 2029.06743641629 21 24 17
-411.864031063001 -513.524579391014 2019.88616259259 23 26 19
-416.53640984673 -514.311242617502 2025.04724110103 19 22 15
-415.255865584456 -513.929339537833 2032.22383502193 17 20 13
-419.932533875521 -514.715921203321 2037.40089112374 17 20 11
-428.590648596345 -516.282609808551 2041.28154823478 13 16 9
-453.17909438405 -520.970995691017 2039.99175483854 14 17 10
-478.796433019585 -525.858136595084 2038.49930600632 11 13 10
-545.30236901076 -538.752933662264 2024.00323531089 9 10 12
-412.109532334695 -508.54197308626 2269.42925310991 15 17 14
-445.36041903135 -514.861478351123 2268.09825148686 12 14 9
-461.313349312654 -517.820488715469 2270.90798922441 11 14 7
-486.473921918936 -522.563779475361 2271.70772650641 13 16 9
-491.236219911183 -523.348191466942 2277.20407872427 13 16 7
-500.091794239685 -524.925586319176 2281.8111052937 13 16 9
-508.957331005471 -526.503844545071 2286.45457535126 14 17 10
-477.908109640699 -520.347307435069 2299.75335965961 15 18 11
-527.74287371877 -529.86143861889 2295.63235357701 15 17 12
-521.261733372003 -528.464689960147 2303.6243338624 14 16 11
-533.234641548428 -530.640985328069 2307.7374054203 14 16 11
-550.354823175585 -533.812095311272 2310.84976062739 14 17 10
-513.049643915771 -526.45154003632 2325.06133379464 14 17 10
-525.034504486321 -528.628524561586 2329.21834715145 14 17 10
-550.407044870454 -533.392575638132 2330.79197227094 14 17 8
-587.136530688993 -540.349066502936 2330.28427786407 16 19 12
-580.647650643966 -538.949863016758 2338.24907201629 15 18 11
-607.135304624792 -543.921781616337 2339.93533830768 20 22 17
-450.379729224687 -529.459333998216 1895.65130532072 23 25 20
-451.141709879927 -529.474685039859 1902.36701868964 19 22 15
-465.647167951723 -532.234699625028 1903.82453171181 21 24 15
-452.661462242026 -529.504495972475 1915.78338105295 21 24 15
-435.721211872548 -525.98650152542 1929.14429059034 21 24 15
-442.36805878699 -527.176996501717 1933.5885832884 22 25 16
-452.960878422618 -529.153713221047 1936.59998047923 24 27 20
-465.537210194975 -531.524736424344 1938.93418423563 24 27 20
-475.171334560677 -533.307921365794 1942.40464000569 24 27 20
-445.344570838921 -527.225123139947 1960.19561507617 26 29 22
-424.359653149036 -522.907521231962 1974.63050843652 25 28 21
-402.353564058016 -518.388815271067 1989.29727948396 23 26 19
-396.136154328333 -517.016733969678 1998.25286618271 23 26 19
-393.866137820079 -516.43103869927 2005.7807276904 20 23 16
-393.57102363876 -516.238654145317 2012.60005790286 20 23 16
-390.299948593161 -515.454238741561 2020.43296713686 21 24 17
-404.874465505436 -518.219525306024 2022.14355364682 21 24 17
-415.497520612172 -520.197486019211 2025.26642382329 20 23 16
-410.241232311898 -519.017419197856 2033.77198871738 17 20 13
-418.890576986492 -520.601463217094 2037.60912706581 19 22 13
-437.4969161518 -524.16250322408 2038.20047176067 13 16 9
-453.141398549308 -527.133208493928 2039.85761940873 14 17 10
-517.616515223943 -539.797483303324 2025.75969507485 10 12 9
-434.693672146603 -518.628751198627 2276.77213315801 10 13 6
-493.544920887909 -530.053521212169 2269.85254860982 12 15 8
-496.268677579593 -530.445125688904 2275.82176441409 13 16 7
-480.585747231281 -527.22132601883 2285.87154779014 13 16 9
-490.46303144572 -529.017794784931 2290.23735073155 13 16 9
-490.110848194104 -528.805112135212 2296.85668080377 14 17 10
-480.532020329446 -526.782158762661 2305.43279751485 15 17 12
-495.550499073409 -529.585101095004 2308.76795341116 14 16 11
-569.084391820793 -543.860720633865 2300.00914069895 14 16 11
-534.885939589765 -537.008358996872 2313.74464538811 14 17 10
-513.997252469013 -532.768423691643 2324.59146897966 14 17 10
-498.219117963754 -529.532226791766 2334.29560494237 14 17 8
-523.581476177347 -534.355581665166 2335.79398434555 14 17 8
-538.678315371051 -537.165911549492 2339.41541311995 16 19 12
-576.466050885975 -544.416004042685 2338.75510734227 15 18 11
-409.4287505888 -527.564762066971 1904.56476537931 22 24 19
-419.968977988157 -529.559311519064 1907.36963925075 23 25 20
-442.299552276447 -533.938875039626 1905.68535557125 17 20 13
-456.802940085417 -536.732154697753 1907.11418028768 21 24 15
-459.53013955004 -537.141833865297 1913.08476701955 21 24 15
-448.488241210366 -534.767089169771 1924.24353320422 21 24 15
-456.130083139064 -536.170384062787 1928.35044724254 22 25 18
-466.735742716541 -538.171923409178 1931.39384491365 23 26 19
-455.667334831209 -535.793304022743 1942.45663262802 24 27 20
-472.202027787979 -538.991089606255 1943.37834157709 24 27 20
-466.052328261501 -537.606621089787 1952.59314362862 26 29 22
-417.410754259851 -527.645700635887 1977.0115914984 25 28 21
-401.320877530907 -524.259377527707 1989.55032091985 24 27 20
-401.03514415177 -524.063160629738 1996.40597073111 24 27 20
-409.657065103374 -525.663500233596 2000.13100199194 22 25 18
-408.381096201205 -525.267107054435 2007.33373161841 22 25 18
-423.956469861592 -528.267367710477 2008.71563234688 22 25 18
-422.684091029105 -527.870869843251 2015.93175729301 21 24 17
-424.386268509787 -528.073742876789 2022.12352524819 20 23 16
-417.145415383595 -526.475455204955 2031.31840244966 20 23 16
-417.84681633287 -526.476867933573 2037.81799516479 15 18 9
-432.478079969731 -529.281644385443 2039.7143392935 11 14 7
-470.031762088651 -536.69661533488 2034.18462311967 14 17 10
-548.494863098021 -552.335667918972 2015.59102262524 16 18 15
-462.521264257226 -530.284120793338 2263.62753546989 12 14 9
-474.412361296078 -532.505890136336 2267.40814842126 10 13 6
-472.014844674309 -531.882342282839 2274.48652513617 11 14 7
-458.365449740862 -529.020277652336 2284.06540561007 13 16 7
-455.948435088991 -528.394012623098 2291.07310544324 13 16 9
-481.167894460226 -533.263574836715 2292.01175655654 13 16 9
-503.346681586679 -537.525426315069 2293.73455449999 13 16 9
-470.192146563043 -530.788467441832 2307.3758105076 13 15 10
-465.714992636534 -529.752801983738 2314.78666077979 13 15 10
-561.841525066219 -548.697886564447 2301.23721280436 13 15 10
-543.034071870083 -544.811851695365 2311.79424604776 13 16 9
-524.197913679462 -540.922554716677 2322.24676279789 14 17 10
-526.937817363145 -541.316546571251 2328.27442195334 14 17 10
-533.797383230406 -542.527535005911 2333.49463091216 15 18 9
-524.179912094448 -540.470189353305 2341.94898621594 14 17 10
-538.258857309434 -543.111681285128 2345.79408997785 17 19 14
-645.205326233152 -564.155805469017 2332.12573092539 16 18 13
-403.522429823413 -532.502708736131 1906.79429369751 19 21 16
-403.268375549984 -532.306870137517 1913.76825200342 20 22 17
-435.413239471629 -538.75338144546 1908.2506196246 22 25 18
-447.950757110004 -541.17745092986 1910.40722346401 20 23 14
-450.67107949293 -541.588529851569 1916.35139320791 21 24 15
-457.329122601299 -542.805960866018 1920.81932015275 22 25 16
-453.162132058732 -541.805994053434 1929.35920802321 22 25 18
-433.219273738565 -537.577130169069 1943.71071865836 23 26 19
-447.760881556444 -540.407814773786 1945.25783125186 24 27 20
-440.609801643646 -538.798760184831 1954.7918874449 25 28 21
-455.172741532327 -541.631688021572 1956.41771459954 26 29 22
-432.198449036236 -536.787856332792 1971.59132391495 25 28 21
-401.275848993558 -530.32230832957 1989.45164206042 24 27 20
-373.275185473346 -524.457612883235 2006.09130080514 25 28 21
-353.155153805791 -520.206005126808 2019.79936081664 24 27 20
-370.668992363571 -523.642434803568 2020.30945770338 24 27 20
-407.052139639825 -530.928853816459 2014.41125642455 22 25 18
-427.603202785752 -534.979592360643 2014.12116931504 20 23 16
-424.341562450138 -534.169348988078 2022.00541420546 20 23 16
-420.078491984923 -533.155092900763 2030.19759765429 21 24 17
-428.738970380647 -534.776528587445 2034.05246618578 16 19 10
-445.373591902553 -538.022322004033 2035.31488067917 15 18 11
-476.972858512572 -544.315749181373 2031.76545112922 14 16 11
-477.710075928815 -544.317787650261 2038.39855732922 2 4 3
-511.748971980196 -546.404489870453 2245.28917458727 13 15 12
-474.683208143829 -538.776604067989 2260.55749977526 12 14 9
-470.244979340936 -537.731461027252 2268.11885505184 10 13 6
-484.194632525206 -540.392897729615 2271.47225978276 12 15 8
-431.682554717644 -529.661215759913 2289.80047388158 13 16 7
-449.713972399801 -533.145490637648 2292.2020336592 13 16 9
-505.663152857919 -544.262733054271 2286.39168536616 13 16 9
-507.368295048902 -544.453529196404 2292.60208542662 13 16 9
-508.047836011917 -544.437741044042 2299.03137603298 13 15 10
-461.5142885219 -534.923684572709 2315.40817609403 13 15 10
-549.457330848917 -552.460623136623 2303.53741310707 13 15 10
-539.882582305836 -550.38042579216 2312.16388736423 13 16 9
-544.690769421324 -551.192211853026 2317.81333434836 14 17 10
-511.422442552881 -544.352965973835 2331.09761122208 14 17 10
-495.614159739072 -541.024899686871 2340.74781394563 15 18 9
-538.527749490027 -549.490372744965 2338.86894169971 14 17 10
-513.429211241531 -544.297823142356 2350.27305451925 14 16 11
-441.972584100446 -546.772300013637 1884.6791439523 22 24 21
-423.112159507159 -542.7028057352 1899.05165183127 20 22 17
-430.723112134574 -544.133671350275 1903.02740226 20 23 16
-436.378575751823 -545.157867432201 1907.79126685924 22 25 18
-441.056641936683 -545.978461878656 1912.95203917742 20 23 14
-435.901802946691 -544.758145558209 1921.8606059262 21 24 15
-435.659380320257 -544.557637375516 1928.87976936609 22 25 16
-427.532901110521 -542.722221220162 1938.83252139227 23 26 19
-427.278800809816 -542.519965228399 1945.810360414 23 26 19
-443.793730427443 -545.793218650911 1946.61104551559 23 26 19
-451.444553536745 -547.227879619789 1950.73150201896 25 28 21
-431.439745204884 -542.933391315207 1964.89443622601 26 29 22
-420.301929042505 -540.477424840621 1975.74835751365 25 28 21
-425.965920477199 -541.500939118831 1980.54524370533 24 27 20
-410.84243353981 -538.222034370214 1992.70692128 26 29 22
-362.004652119628 -527.970450378137 2016.58132822446 25 28 21
-369.61461009991 -529.399056463624 2020.55388324953 24 27 20
-388.148516282595 -533.085101840788 2020.79737662977 21 24 17
-413.658237306493 -538.21079121749 2018.75475768057 18 21 14
-417.339669919852 -538.82290201872 2024.24409994875 17 20 13
-418.040802155715 -538.818969160935 2030.74606990706 19 22 15
-427.696931080378 -540.663974498046 2034.26012315279 13 16 9
-455.290819302871 -546.210688648555 2031.89715475653 20 22 17
-469.966022092775 -549.088018032516 2033.91083022552 8 10 5
-553.808734165752 -561.319123132383 2228.37497601084 5 7 6
-531.069125283385 -556.514843720302 2240.4986279661 16 18 15
-485.832897672633 -547.119682855955 2257.72073762482 13 15 10
-493.659870857387 -548.56230382307 2262.49110833019 11 14 7
-490.248927371839 -547.710704208625 2269.84713005362 13 16 9
-515.478871086532 -552.702210754832 2270.74771821157 13 16 7
-530.503055504739 -555.609214824251 2274.03835902499 13 16 9
-513.783485635845 -552.042503531162 2284.35304889083 13 16 9
-520.620273106736 -553.279047531339 2289.47255168216 12 15 8
-482.319106197939 -545.31784235509 2304.26175720453 12 14 9
-534.31488559258 -555.753709269883 2299.78960098928 13 15 10
-527.815794700433 -554.272105296626 2307.76850762124 13 15 10
-571.685790552134 -563.044349208192 2305.3496553129 13 16 9
-494.205810844391 -547.117234235187 2327.77526002581 14 17 10
-523.69400145286 -552.960431058177 2328.36196109289 15 18 11
-522.986293853221 -552.501759636062 2341.61017316598 12 15 8
-518.500972822396 -551.43297372945 2349.01161109787 11 13 8
-577.694578792288 -563.142006548208 2350.97723297632 18 20 17
-470.396880816709 -558.985905077342 1873.39755286286 20 22 19
-431.923437079579 -550.733754960192 1895.52345645996 18 20 15
-420.885636743725 -548.257179933439 1906.76172806988 22 25 18
-429.482484189823 -549.910306466077 1910.36033941565 20 23 14
-437.106088076203 -551.357878453714 1914.37158493779 21 24 15
-420.135714375614 -547.636759431248 1927.74889467398 21 24 17
-417.910483723235 -547.015403027405 1935.46555185951 22 25 18
-411.737434527293 -545.565377030027 1944.6341217037 22 25 18
-395.690169082521 -542.043320957486 1957.41675315968 23 25 20
-429.952689540239 -549.081559597642 1951.59533802114 23 25 20
-431.668890691296 -549.287267633009 1957.83738324411 24 27 20
-435.362010545815 -549.907481653236 1963.3640729773 25 28 21
-421.253669831828 -546.794844176084 1975.29349668095 26 29 22
-415.041001078214 -545.339030021711 1984.31955023453 25 28 21
-417.732172841458 -545.749734244129 1990.15479698393 24 27 20
-420.424540136709 -546.160295040878 1995.99550208331 25 28 21
-399.310607500426 -541.585499648552 2010.1137667357 20 23 16
-387.09811420816 -538.876778763256 2021.03351875839 18 21 14
-407.648642119388 -543.026171037154 2020.67823060449 18 21 14
-431.208655647944 -547.80254978661 2019.41176511431 19 22 15
-425.949397061733 -546.548371750222 2027.95309186027 19 22 15
-428.644627908259 -546.957992870286 2033.80502202697 14 17 10
-441.304494814813 -549.450043801954 2036.37203576988 16 18 13
-459.962035527001 -553.19365516002 2037.03821577974 11 13 8
-505.493533231556 -557.434896240642 2246.27235653224 15 17 14
-522.525630734849 -560.795293354485 2248.93909568898 11 13 8
-490.517646443912 -554.01918947747 2262.96566357112 10 13 6
-532.10644132868 -562.451434024861 2260.08538676617 12 15 8
-535.879731029469 -563.068558079712 2265.91168226807 12 15 6
-548.87403880171 -565.58878242125 2269.70355120306 13 16 9
-524.984594196537 -560.49510433355 2281.63804906157 13 16 9
-523.624738363059 -560.052789681977 2288.55831536714 13 16 9
-522.260781122296 -559.609935778711 2295.46276538411 12 14 9
-542.131859313215 -563.383062063339 2304.51318743281 14 16 11
-591.17019437284 -573.325112309654 2301.06228021311 14 17 10
-487.564267539414 -551.658121476377 2335.3193034817 14 17 8
-568.611935242694 -568.183922946387 2325.76184573572 13 16 7
-538.025968542259 -561.563155416608 2344.97001498581 9 11 6
-537.674162812531 -561.328796264598 2351.60443213158 19 21 16
-526.47288664338 -577.403307579563 1843.96568343015 32 34 33
-471.378191749004 -565.497200152413 1872.93007718295 26 28 23
-424.053479684854 -555.253706106334 1898.51985711766 18 21 14
-399.251110505436 -549.81282656134 1915.07669055275 26 29 22
-407.834172111028 -551.482208508766 1918.61385495675 22 25 16
-409.540850708136 -551.687219577967 1924.82098483123 23 26 17
-416.17016935674 -552.939396519573 1929.16032672738 22 25 18
-409.998596949555 -551.468405956619 1938.34854455047 22 25 18
-398.88600910624 -548.947943879994 1949.33685278892 22 24 19
-388.741600036643 -546.634754099319 1959.89170877272 22 24 21
-398.327144493192 -548.515036319271 1963.12142374546 22 24 19
-408.912443080716 -550.606531514942 1966.03243163754 24 27 20
-424.454555430144 -553.749036547599 1967.20103398466 25 28 21
-398.456984877223 -548.072079550511 1983.36568630174 25 28 21
-400.145858747102 -548.273760553376 1989.5088131432 24 27 20
-418.680986968526 -552.048849747586 1989.70062610919 23 26 19
-430.298813089292 -554.354546734184 1992.41365018085 18 21 14
-430.022189461304 -554.137150499361 1999.3174232597 16 19 12
-421.797922808694 -552.235488895962 2008.94893358421 14 17 10
-428.466829348563 -553.490280317507 2013.43360691585 16 19 12
-434.148194268005 -554.535040135604 2018.28158412962 18 21 14
-427.892063464836 -553.051554951192 2027.16374165131 18 21 14
-413.656936404379 -549.879997803984 2038.65870227266 7 10 3
-441.259951746475 -555.563056448947 2036.24354030655 5 7 2
-441.96989890888 -555.553969214224 2042.7824215857 3 5 0
-537.078027821026 -570.185822201936 2238.59115468738 14 16 13
-515.309296917826 -565.464301219501 2250.37091656811 11 13 8
-518.047896084307 -565.87206390138 2256.38503812741 11 14 7
-514.648647577232 -564.995937524579 2263.79996592752 12 15 8
-538.888544329419 -569.897854477909 2264.97851534325 12 15 6
-528.321564654408 -567.523083688935 2274.00332851558 13 16 9
-541.320872393035 -570.072538433564 2277.79530679951 13 16 9
-538.944537394654 -569.409501937728 2284.97725779209 13 16 9
-530.401467855552 -567.459473675368 2293.45565165918 12 14 9
-502.320793416788 -561.433184752083 2306.00394682262 12 14 9
-531.7805244196 -567.415310944416 2306.39727022106 12 14 9
-512.559955161009 -563.076177142252 2323.50011723042 13 16 9
-504.986926190013 -561.333116604106 2331.55216361116 12 15 6
-509.77420690984 -562.166688855455 2337.11023458559 12 15 6
-511.470200122583 -562.355791442206 2343.2877355052 12 15 8
-574.79132871305 -575.208308480071 2344.26989326808 16 18 13
-707.844673210915 -602.727394966519 2326.02785239809 12 14 11
-502.962762989318 -578.780812909393 1853.22203017365 14 16 15
-474.322267854352 -572.432917564885 1871.68843606301 26 28 23
-400.46405733701 -556.33881151061 1907.66638935894 19 22 15
-405.115297559616 -557.178774528248 1912.71533383513 24 27 20
-407.803836073152 -557.59530457713 1918.53805474513 23 26 17
-425.256696370784 -561.192088826694 1918.72051182075 23 26 17
-421.064615505312 -560.12533055988 1927.20941286746 23 26 19
-438.547649595559 -563.725604559286 1927.5016960758 23 26 19
-405.750372572572 -556.502516371702 1946.67354702578 22 24 19
-392.644197556794 -553.520613359622 1958.34402724376 22 24 21
-376.552928459379 -549.898500091189 1971.02645263739 23 25 20
-391.079149572483 -552.8617120154 1972.43276660013 24 27 20
-388.807557553284 -552.212522560179 1979.9948654488 24 27 20
-394.449519704847 -553.264047464796 1984.6922767867 24 27 20
-397.125291373293 -553.677772337181 1990.4693679447 23 26 19
-404.759402199514 -555.155847067244 1994.50036584043 22 25 18
-428.275367819663 -560.042079445384 1993.00007424673 18 21 14
-447.851546508853 -564.07972459451 1992.99501908998 17 20 13
-434.667965251862 -561.087136172115 2004.38485131424 15 18 11
-440.352979119702 -562.142600427661 2009.23961813682 17 20 13
-425.149993879767 -558.719501237737 2021.19717091695 19 22 15
-412.909607697591 -555.933382348998 2032.06222715379 19 22 15
-421.573022817643 -557.627481209266 2035.8821234433 10 13 6
-517.612577275715 -572.278355829132 2242.93061757077 12 14 11
-531.597117979064 -575.070220319973 2246.3312075446 14 16 11
-515.934475052501 -571.58448573368 2256.62168613501 13 16 9
-510.483679214748 -570.261711275661 2264.49518079583 13 16 9
-506.047069461331 -569.154310012908 2272.10185386791 12 15 6
-504.677050041457 -568.696204993822 2278.99435398062 13 16 9
-520.741153255245 -571.92391329028 2282.04628419685 13 16 9
-570.699528757772 -582.312720579475 2277.83292742551 13 16 9
-477.942185155501 -562.543107656592 2304.41207720463 12 14 9
-547.161701377401 -576.31231728477 2322.81779107152 14 17 10
-544.758254223122 -575.63482291922 2329.90820788516 13 16 7
-546.477919287616 -575.826952105849 2336.17168691404 12 15 8
-554.395014978557 -577.324822913638 2341.24178296431 13 15 10
-459.812487747296 -575.741581486998 1870.2797506451 20 22 17
-440.944344521633 -571.450129652927 1884.76466215837 18 20 15
-435.800330400002 -570.156886094127 1893.75853293977 24 27 20
-415.899180729969 -565.644873406532 1908.44273592702 22 25 18
-437.288752840812 -570.141712825905 1907.08697411529 28 31 22
-415.385153521218 -565.196247217598 1922.4046323193 23 26 17
-425.962329928304 -567.333593822613 1925.25653596781 23 26 19
-404.013812700935 -562.382579498467 1940.40999693012 23 26 19
-408.672711103867 -563.230360190334 1945.48243905865 23 25 20
-370.875434203847 -554.833019664918 1966.31416283557 23 25 22
-373.535692947109 -555.247723176982 1972.03303968094 23 25 20
-360.058217037292 -551.987159501133 1990.29445399838 24 27 20
-379.544646871609 -556.061504358936 1989.93300865897 23 26 19
-395.092794450092 -559.276973156334 1991.07795312735 22 25 18
-377.933262309157 -555.382333090978 2003.86157772862 20 23 16
-419.302296817349 -564.205300533348 1996.02237135179 20 23 16
-425.966899586552 -565.485596217201 2000.4758925929 18 21 14
-436.614502164772 -567.62970156722 2003.5850076939 16 19 12
-428.377037469836 -565.673657292721 2013.20185064557 17 20 13
-424.106543448313 -564.579460439054 2021.41694229973 16 19 12
-417.835454816378 -563.052010935102 2030.27039208216 15 18 11
-409.559240521554 -561.09079187907 2039.74663245031 16 18 13
-453.138566844587 -570.370448634316 2032.03190686138 15 17 14
-501.197044539141 -574.922827354403 2246.55547264054 12 14 11
-553.010230610463 -585.852513222827 2241.09454079006 16 18 13
-522.005500420491 -579.03541466448 2254.97462700556 14 17 10
-500.170946284782 -574.186357860037 2266.59051956641 13 16 9
-495.724046193331 -573.062400607173 2274.16943921566 12 15 6
-494.344908149599 -572.595558043131 2281.03360009366 13 16 9
-506.301790945944 -574.981771600477 2284.95464120076 13 16 9
-530.595818289918 -580.004550418093 2286.25693201806 13 16 9
-449.708326872659 -562.370777323723 2316.59206816709 13 15 10
-587.306137702479 -591.065044292905 2314.48172168354 14 17 10
-551.907009980366 -583.335285005986 2328.20961692839 13 16 7
-568.087986173512 -586.611458915391 2331.66487495968 19 22 15
-584.288749566291 -589.889812917545 2335.1931516111 12 14 9
-591.202870433355 -591.186662373651 2340.56263346015 19 21 16
-575.359098263157 -587.633708403016 2350.2230534696 11 13 10
-456.863687827773 -581.357166342919 1871.37225875407 21 23 18
-440.930544238027 -577.660048351132 1884.68912722169 20 23 16
-420.057584151157 -572.874605192221 1899.83506769297 22 25 18
-429.641824641386 -574.81694387249 1903.01983307149 23 26 19
-441.205981202067 -577.195169302984 1905.48780192294 23 26 17
-382.850428884915 -564.144421962053 1934.75782706984 23 26 17
-355.949940504201 -558.040545191218 1951.73690666178 23 26 19
-404.962340325223 -568.679351210639 1939.95624207383 23 26 19
-408.635069310079 -569.317201234718 1945.3970190774 23 25 20
-387.614451992679 -564.513467685214 1960.00628478687 24 26 23
-349.755168495399 -556.003763181489 1980.67873095469 23 25 20
-340.527938174663 -553.804611636696 1990.67057371445 23 26 19
-333.264818015557 -552.039345510633 1999.8881992415 23 26 19
-411.191248841857 -569.021836530986 1978.45294182057 23 26 19
-375.212158021649 -560.935503240179 1998.04623970203 21 24 17
-378.865098528349 -561.57013322853 2003.41464990412 19 22 15
-369.613294754252 -559.367453581423 2013.31841272942 19 22 15
-408.038509904757 -567.643872603487 2006.58340526359 16 19 12
-415.692804872187 -569.154616224826 2010.66964651444 16 19 12
-423.355947711649 -570.666260476915 2014.78724054639 17 20 13
-423.061825049201 -570.429849934107 2021.63711875616 16 19 12
-434.722258196066 -572.817419474468 2024.45664432061 15 18 11
-414.487169078873 -568.20521318151 2037.96518161065 11 13 8
-522.592450604555 -585.680370211152 2241.26869076032 10 12 9
-513.059742136456 -583.436017676163 2250.15581959243 18 20 15
-509.653763977063 -582.520756095065 2257.5704694317 14 17 10
-503.167009758667 -580.938621232283 2265.65864965616 12 15 8
-495.643912540592 -579.133113438092 2273.93550877746 12 15 6
-517.857716182223 -583.766524557391 2275.55373287281 13 16 9
-555.498738136317 -591.735715438671 2273.89563634439 13 16 9
-544.907185219501 -589.264405538574 2282.890163627 13 16 9
-576.446590952644 -595.906536402677 2282.7955785274 12 14 9
-522.643174582059 -584.092933824529 2300.90869405438 12 14 9
-500.675061957248 -579.167717832344 2312.07679304611 12 14 9
-585.811116531923 -597.386738701136 2301.04256478229 13 16 9
-572.806755939343 -594.215832013639 2317.10763843146 13 16 9
-555.964064105768 -590.400176186749 2327.12237111991 12 15 6
-568.0204956203 -592.822627067754 2331.39013875751 13 16 9
-608.002569379782 -601.266973621858 2330.32942151817 11 14 7
-598.383022540063 -599.010267139605 2338.90193613188 17 19 14
-597.0292674294 -598.536944316154 2345.86443016198 14 16 13
-458.820623664068 -588.050607155335 1870.51576945807 25 28 21
-413.405439335007 -577.715770269923 1895.46027993428 24 27 20
-391.519193344149 -572.646316015852 1910.91971856427 24 27 20
-420.764073812174 -579.003493456791 1906.3813069057 23 26 19
-425.432098322103 -579.867644860298 1911.47822589303 23 26 19
-364.083881282898 -565.992735700235 1941.84636725326 24 27 20
-330.254661552535 -558.269165338917 1961.3991158142 24 27 20
-358.543480263975 -564.409611795175 1957.34511624092 23 26 19
-408.596942168346 -575.399935361468 1945.31146096464 24 26 21
-385.589945924324 -570.093944975231 1960.655430481 24 26 21
-341.778531197442 -560.154777169508 1983.51104862542 23 26 19
-345.406100178201 -560.791736693165 1988.78471760024 23 26 19
-376.768075288968 -567.605576415044 1984.02570998476 23 26 19
-374.474926209231 -566.92137129761 1991.52987874875 22 25 18
-401.93130145967 -572.859376705517 1988.40931082351 21 24 17
-391.707613852132 -570.409361369654 1998.75713464925 19 22 15
-392.392901580807 -570.387363658422 2005.21168226057 19 22 15
-399.040770035106 -571.69124954477 2009.58724962889 17 20 13
-432.55272342131 -578.965496937576 2004.72737189651 17 20 13
-430.275379919755 -578.282311084679 2012.28958016422 18 21 14
-432.972910746421 -578.704675750292 2018.14200409886 18 21 14
-415.73487359444 -574.700038295901 2030.70360157369 17 20 13
-455.331333183368 -583.313981744785 2024.20870853483 21 23 18
-491.498795907435 -584.847711715291 2254.93760495021 18 20 15
-501.388269813947 -586.83610385143 2259.22749546065 13 16 9
-495.916850722981 -585.456817098888 2267.06009892865 11 14 7
-521.201741272318 -590.816411687527 2267.93230239401 12 15 6
-525.994275990798 -591.684384931237 2273.48816145002 13 16 9
-555.438544918704 -597.948817988798 2273.64584341907 13 16 9
-573.616845847881 -601.743187336844 2276.39697448964 13 16 9
-554.795163011323 -597.440397423101 2287.16429318488 12 14 9
-539.03215141747 -593.809325494259 2297.17388097495 13 15 10
-532.513188998734 -592.201803194032 2305.15850676315 14 16 11
-581.633255408599 -602.755520748879 2301.62487731056 14 17 10
-579.255268208652 -602.050759129555 2308.82703706118 14 17 10
-551.071498567174 -595.710370717974 2321.19086591665 14 17 10
-574.481959914297 -600.639000073843 2323.1684107875 13 16 7
-587.587943758231 -603.315285438144 2327.27638232889 10 13 6
-601.74371469811 -606.218859895887 2331.24218878572 14 17 10
-621.091330114818 -610.252948746738 2334.28615961772 14 16 11
-632.178243872981 -612.483280566482 2338.97284117072 14 16 11
-416.828338944336 -584.990741385691 1880.1960190502 25 27 22
-433.27695365878 -588.528462646019 1880.58351876591 25 28 21
-405.515720733062 -582.064635390002 1898.49039684055 25 28 21
-386.564032829755 -577.597385044137 1912.77611331722 24 27 20
-412.862679740168 -583.360604609093 1909.3637979894 23 26 19
-436.241976215542 -588.460363106754 1907.22127143395 22 25 18
-364.031409713729 -571.966480860078 1941.77636102092 24 27 20
-379.512117079563 -575.283443879658 1942.60683505906 24 27 20
-386.127865970324 -576.597254984355 1946.85781154245 23 26 19
-393.738917187291 -578.134934929409 1950.76556201622 23 26 19
-433.721283309724 -586.78998933992 1949.57290035337 23 26 19
-375.039922845082 -573.380495034905 1977.8597577578 23 26 19
-379.682881048201 -574.248614458782 1982.86017623798 23 26 19
-393.253924280953 -577.127013399725 1984.66996880262 22 25 18
-390.966051827944 -576.432623371692 1992.20108788934 21 24 17
-398.602273982942 -577.972521264722 1996.2008928264 20 23 16
-397.30393630333 -577.500928665988 2003.36804854317 18 21 14
-408.928438376289 -579.936505653002 2006.02385968391 18 21 14
-412.606509414628 -580.583631334468 2011.47768549805 19 22 15
-430.228976005427 -584.364665625286 2012.17353166784 19 22 15
-399.04362399027 -577.175763367519 2029.51499124572 14 17 10
-417.674047141224 -581.181848329145 2029.914776973 15 18 11
-440.320727043941 -586.08702134452 2029.07228916582 7 12 5
-556.942920490445 -605.445684801645 2239.42849530201 14 16 11
-508.48361524799 -594.512300748774 2257.34499318978 13 16 9
-521.467726960221 -597.205684845652 2260.98968214783 12 15 8
-501.63741882266 -592.625950461418 2272.08334141033 13 16 7
-509.49685572717 -594.182941529573 2276.90110722748 13 16 9
-518.392102988367 -595.967973633658 2281.52434032946 13 16 9
-544.774961955116 -601.622875199419 2282.39032358261 13 16 9
-571.192172559119 -607.281460871648 2283.38152178018 13 15 10
-574.994268280439 -607.933745770403 2289.29256967434 12 14 9
-549.952149427187 -602.207258959507 2301.24325665188 13 16 9
-533.120583161292 -598.299763294028 2311.35635023629 14 17 10
-537.928082432473 -599.176521900279 2316.96315214802 14 17 10
-551.689025212042 -601.844104760868 2327.40374351594 13 16 9
-578.222745228182 -607.515010000701 2328.8197403955 13 16 9
-620.005443336726 -616.355991107036 2334.19490318172 13 16 9
-648.706386786099 -622.494259279364 2335.56873762478 15 18 11
-661.894029311534 -625.208583243693 2339.95587626521 15 17 12
-420.485313841376 -591.787507479406 1885.58620741464 26 29 22
-366.152392305275 -579.16791947951 1913.93212121889 24 27 20
-374.715910568011 -580.942313337535 1917.33042599834 24 27 20
-384.274431471919 -582.943198630023 1920.38273632775 23 26 19
-404.684280794544 -587.422695164901 1919.29765461993 22 25 18
-376.798437065639 -580.865258319261 1936.80097739975 24 27 20
-382.424475451125 -581.966057683451 1941.40722857845 23 26 19
-381.142726895441 -581.489220666765 1948.63928751193 23 26 19
-407.530057205936 -587.327633475162 1945.50969221214 23 26 19
-434.678679404345 -593.148037085145 1949.11338590983 23 26 19
-435.4021945597 -593.125384261049 1955.71120709051 24 27 20
-394.493723560097 -583.614288235649 1977.38473404527 23 26 19
-376.337867830714 -579.293709898355 1990.63536897027 22 25 18
-393.888480320711 -583.108487839168 1991.0431309727 21 24 17
-394.574944767721 -583.080907348169 1997.50557218345 19 22 15
-391.283518622175 -582.148227460913 2005.3574572277 18 21 14
-385.000741229938 -580.535549287662 2014.22131785408 17 20 13
-422.50891173114 -588.883787213436 2007.93341005198 19 22 15
-404.279911746217 -584.553767348897 2020.91843557807 18 21 14
-390.009969626031 -581.126675918626 2032.44639469765 14 17 10
-425.600168304679 -589.030197101469 2027.11177409196 15 18 11
-409.323548354895 -585.148064731991 2039.26926152424 8 13 7
-543.889724571168 -608.952251161627 2235.51023548314 12 14 11
-494.413289004266 -597.662318925998 2253.77175406967 12 14 9
-511.484193405641 -601.302518890818 2256.4059227608 12 15 8
-512.166692719466 -601.26645028343 2262.85900116151 12 15 8
-520.032124535923 -602.840078218163 2267.68852126514 13 16 7
-503.256459881463 -598.89289964061 2278.03514931215 13 16 9
-522.427542761482 -602.997958058922 2280.37888296527 13 16 9
-543.679526834524 -607.565897893108 2282.36464406269 12 15 8
-570.105142604564 -613.288529431238 2283.345684765 12 14 9
-552.27793502426 -609.107850984646 2293.83188000286 12 15 8
-499.381603038637 -597.087959845478 2311.54674148132 12 15 8
-510.353755377901 -599.353824400722 2315.78397384704 13 16 9
-535.787800743091 -604.849841562107 2317.12382983949 14 17 10
-565.385895097463 -611.272322106099 2317.752852559 14 17 10
-553.682215813267 -608.467219968185 2326.72626096184 13 16 9
-553.336326530941 -608.199701112363 2333.40450904078 11 14 7
-597.490351545807 -617.862798682851 2331.4777629836 12 15 8
-623.061091953388 -623.373874345578 2333.31563372752 12 15 8
-571.97266364301 -611.785746089765 2349.67765396268 13 16 9
-638.002958413493 -626.314940591941 2344.07270881201 14 17 10
-403.75082554808 -594.063289857936 1892.15593442626 26 29 22
-372.007617312456 -586.525552375125 1911.54273987799 25 28 21
-360.888748300593 -583.76417117888 1922.65983108855 24 27 20
-403.934567182899 -593.529930996025 1912.65832593386 24 27 20
-351.411480149479 -581.197443933185 1939.74897023589 23 26 19
-386.615630992806 -589.145334770419 1932.95301700398 23 26 19
-385.338302432657 -588.660632820997 1940.20645202138 23 26 19
-383.068766634918 -587.947502713029 1947.81655399814 23 26 19
-379.804599853935 -587.005324666911 1955.77564436058 22 25 18
-428.974693092887 -598.16291453195 1944.25293156489 22 25 18
-409.891626367392 -593.569031055694 1958.12988473103 22 25 18
-418.5232754057 -595.368981095165 1961.76501089183 24 27 20
-397.416755324211 -590.31304020056 1976.2145669892 23 26 19
-389.17750195625 -588.225659340064 1985.90768799333 21 24 17
-376.95154915296 -585.221473513536 1996.9649376082 20 23 16
-391.537238478048 -588.393110186257 1998.46045691155 18 21 14
-380.285135206814 -585.615164454474 2009.09333341084 18 21 14
-385.932873452739 -586.727716139148 2013.77273211838 16 19 12
-416.484036932266 -593.567945378106 2009.88299925555 18 21 14
-456.046268103641 -602.475253775441 2003.0758075403 17 20 13
-447.790548285438 -600.385217524583 2012.70946831649 14 17 10
-396.603741752335 -588.431911826477 2036.72942418054 15 18 11
-461.199415724923 -603.081754523017 2021.82552184721 9 14 8
-514.139374788022 -608.412457747568 2242.29178768179 13 15 12
-504.580641144402 -606.050883970725 2251.15536847098 13 15 10
-532.942576918475 -612.289334523514 2251.20728394896 13 16 9
-520.300381437069 -609.229036389494 2260.75453245476 13 16 9
-503.531436351912 -605.236010345738 2271.1541256131 12 15 6
-508.313227093048 -606.127060647165 2276.65552474086 12 15 8
-500.761059913852 -604.224789642833 2284.88647304183 12 15 8
-506.876229275241 -605.033871850457 2303.18376580577 12 15 8
-505.47870763562 -604.526430712538 2310.0053038095 12 15 8
-483.441614870606 -599.354026180181 2321.07335496417 13 16 9
-614.911616860063 -628.671704011057 2307.50702744499 13 16 9
-614.609422090278 -628.404328500285 2314.34741418454 13 16 9
-574.988577596165 -619.261975183731 2328.87895096857 11 14 7
-580.865690986358 -620.39239029035 2334.39869660102 13 16 9
-589.856469489316 -622.224459523937 2339.34692169889 12 15 8
-570.86428414813 -617.745460979325 2349.59244691693 15 18 11
-564.293225038406 -616.06964126256 2357.42676731555 15 18 11
