ply
format ascii 1.0
comment KinectMotionCapture
element vertex 777
property float x
property float y
property float z
property uchar red
property uchar green
property uchar blue
end_header
-722.387165120886 -29.5724272240698 2088.32106153219 20 16 7
-724.346216187916 -22.0709658456399 1938.90832608351 34 23 17
-729.543274947765 -20.2901088538999 1896.9370198007 67 49 45
-736.992832763778 -19.6322173167191 1873.83482845124 73 54 48
-745.811303012346 -19.680258346052 1862.65687022467 66 47 41
-754.277929204891 -19.5000903088438 1847.49123041426 55 32 26
-764.399901803302 -20.2502278829542 1848.24541773145 54 31 25
-775.759029187186 -21.7494219926435 1861.94832167932 64 44 37
-785.823412077892 -22.4964705593312 1862.70992798552 86 69 62
-285.321289682716 -14.9287643159129 2215.38449229708 40 36 27
-284.465467875336 -12.914336733154 2175.17562172316 139 132 122
-293.87646041587 -13.5512071417599 2175.01054976506 128 119 110
-301.586562688256 -13.7388527927137 2168.00226561463 125 114 108
-309.570242833626 -13.9928317658199 2161.9679426164 99 86 80
-314.975227362314 -13.5467271740424 2145.16806278582 80 67 59
-320.468042779664 -13.1062925667069 2128.35723711129 47 37 27
-327.901489582825 -13.1794694713334 2119.36780228209 44 36 23
-338.584112197092 -14.1420758301738 2124.08381225107 44 38 24
-460.205576242968 -26.5209767593258 2206.69138826995 25 29 15
-472.786128404622 -28.1928185152662 2223.2656218513 24 28 14
-485.657603205391 -29.9810382648607 2241.81923068089 21 24 13
-499.185836148824 -32.0064703357828 2264.3224933287 19 22 11
-506.935347981234 -32.201016183026 2257.30930926959 16 19 8
-514.532538989664 -32.3372495851507 2249.30729328686 14 15 7
-519.790662123452 -31.6906562970128 2228.49422424877 14 17 10
-539.573950705145 -35.8716845932641 2286.50194810944 16 19 12
-550.158387887433 -37.0282166713039 2295.26171039784 16 19 12
-563.485940808751 -39.1402441674333 2319.8058592371 17 20 13
-568.757816462623 -38.4954974793794 2298.99107882877 18 21 14
-577.187284382466 -38.9301668227876 2295.92466128799 25 28 21
-586.461503325163 -39.6628101100468 2297.7925245459 24 27 20
-598.343285587201 -41.3424178621126 2315.4616680293 29 32 25
-601.738146519666 -39.9447278379925 2281.77825176046 30 33 26
-605.153819428383 -38.4997549218015 2247.08442666402 29 32 25
-610.624060722888 -37.7713112009614 2224.22905651818 31 34 27
-625.400672077486 -40.5633513449669 2260.68736847408 29 31 26
-635.459705627618 -41.5914517439868 2267.49674534425 30 32 27
-632.62662028053 -37.5536484478548 2188.22661702831 30 32 27
-645.15512823661 -39.5202297968643 2210.85448446296 32 35 28
-653.854848663896 -39.9745768126177 2207.75463309616 37 38 32
-667.171163467 -42.3334684308686 2237.33951025371 39 40 34
-672.656055135203 -41.4612839757883 2211.45863172842 30 31 25
-680.288789890245 -41.4580639199582 2200.42851128721 44 44 36
-691.130239321346 -42.8306098444561 2213.18799776143 28 28 20
-693.529151741246 -40.4939178355229 2161.48658777076 27 28 20
-702.883112732363 -41.1867053293527 2162.33670763545 33 34 26
-710.623390624083 -41.1425811992803 2150.28513136022 22 25 16
-716.493954462191 -40.1988984583269 2122.34056074361 23 26 17
-719.000134481693 -33.6251997403104 1982.93958185434 24 19 13
-721.488926698693 -30.7103092060816 1919.13246674659 41 32 27
-727.282230880812 -29.3237109144496 1882.12646658602 57 42 37
-735.090107408092 -28.8952821572825 1862.00346502512 63 46 39
-743.62671605993 -28.8063436196366 1847.83701916535 69 49 42
-752.741632396089 -28.9985245003451 1838.63806027192 58 33 26
-762.690825906907 -29.6345250890892 1837.39813462571 57 32 25
-773.505446008027 -30.7650405267779 1845.12141583459 61 34 27
-783.990459333902 -31.7284955330504 1849.86208850938 80 55 48
-271.954784178437 -20.9148952938166 2165.672671386 37 28 19
-282.388925582918 -21.7983740836583 2169.41155459438 124 114 104
-290.835239574395 -22.1875832302901 2165.33522794746 89 76 67
-299.299249348769 -22.5781287275281 2161.25669649068 71 61 52
-304.182690525932 -22.0509417540078 2142.50631446308 58 48 39
-309.164733564853 -21.5301433027182 2123.74340406127 46 36 27
-316.121211626449 -21.5031171517763 2112.79761376491 40 30 20
-323.596687893683 -21.6012778132902 2103.80299970091 62 54 41
-332.720265504013 -22.1265773676868 2101.65812741266 32 26 12
-447.889602346938 -36.3323770666699 2239.49464943701 17 23 9
-448.565281452402 -34.4811397707179 2198.08739926092 22 26 12
-461.821828569954 -36.2848228642085 2217.60068116226 23 26 15
-470.836741041445 -36.8520922404106 2216.47716726515 23 26 15
-487.609094007351 -39.7548810040789 2254.70232858434 22 25 16
-499.768089315069 -41.3054988086279 2270.32092336294 20 23 14
-508.066002944145 -41.689777956513 2266.26310322093 18 21 12
-510.99310636562 -40.3971665354135 2233.64602414307 15 16 8
-518.488332851193 -40.5005419944257 2224.64895910156 12 15 8
-530.356540858964 -41.9875672884052 2239.29574758054 15 18 11
-550.666844109888 -46.2225241138196 2301.26907407528 16 19 12
-562.58313684569 -47.8053335509079 2317.92572857373 17 20 13
-562.862079188005 -45.5623528007464 2268.50497983474 19 22 15
-573.070798775895 -46.5764435851821 2275.2956398785 25 28 21
-587.741242610887 -49.1182209041082 2308.74324029164 24 27 20
-596.970727747176 -49.8402505061636 2310.61665811336 30 33 26
-602.149230719639 -49.1533019052141 2287.79780446129 32 35 28
-607.764877629013 -48.5864897660394 2266.94032867048 31 34 27
-613.801345949161 -48.1387916844796 2248.0460247345 33 36 29
-624.687613603407 -49.4277824088112 2259.79177075285 32 34 29
-635.503832793624 -50.7125943243633 2271.54624740065 31 33 28
-643.736314314502 -51.0501880006205 2266.4887827562 30 32 27
-646.910496525937 -49.4539934118349 2226.78578000577 31 34 27
-656.563854418326 -50.2970459688544 2230.62223418821 36 37 31
-663.116242087297 -49.9296292014267 2212.67144508375 38 39 33
-673.59766614502 -51.1022556901889 2222.45203255208 29 30 24
-682.945175549502 -51.8344916141639 2224.31074852087 80 80 72
-692.144969177793 -52.5114880468218 2225.17982570707 14 14 6
-700.174066901393 -52.6996776927507 2217.12404714461 23 23 15
-704.834386296894 -51.4300291863826 2182.27535923549 23 24 16
-715.311920945596 -49.1954252954888 2117.47308781189 20 25 18
-718.268831016637 -46.9429797168783 2063.6868906768 12 12 4
-724.13666931795 -38.0156276867243 1859.36341878654 48 33 26
-731.682326487889 -37.4843477527922 1836.24956823299 57 38 31
-741.123450151956 -37.8570488826351 1830.03367755052 59 39 32
-751.202111152411 -38.5469647099684 1829.78542420906 61 36 29
-761.572293245383 -39.3938702515332 1832.52450574885 63 36 27
-772.113176864812 -40.3440428579521 1837.25817116259 57 29 18
-782.340223365758 -41.1363266603879 1839.00728423546 68 41 32
-269.859313336964 -29.8444146108955 2159.91108620338 110 100 91
-279.318087257121 -30.4796258449792 2159.74004704221 129 115 106
-288.03655016941 -30.9381256170012 2156.63762739149 91 77 68
-295.310676616714 -31.0453174617264 2147.66816437795 71 58 49
-299.028688120222 -30.2773961848208 2124.02367109001 37 27 17
-303.347061653575 -29.6342759685232 2102.32019929433 35 25 13
-312.473269592955 -30.1625376063518 2100.17476628837 42 32 20
-321.374323548836 -30.6333985687752 2097.04983317637 48 41 25
-332.12150790372 -31.5680918554452 2101.75771271372 41 35 19
-433.793156044481 -43.5593263393892 2219.10227673923 93 99 85
-462.141437866767 -47.55812360494 2266.97075549031 11 14 3
-458.853770859393 -44.7015834312756 2205.90027647241 18 21 12
-474.789000642616 -47.2250075666109 2239.18975047535 19 22 13
-482.578372197212 -47.4550867142545 2232.17192600298 21 24 15
-495.951007656823 -49.2964167582772 2253.68643437257 20 23 16
-503.539919661194 -49.4708252247895 2245.68531182453 18 21 14
-510.609738362798 -49.4825229795289 2234.72547926439 15 16 10
-520.666597981791 -50.3773893108556 2239.51940236475 14 17 10
-533.761021705672 -52.202055739465 2261.06858603114 18 21 14
-542.997056464279 -52.8719671215068 2261.93336214905 19 22 15
-558.702725937131 -55.5563395951862 2299.28313670355 21 24 17
-563.162924049752 -54.753385587005 2273.53031619198 22 25 18
-566.571278067239 -53.5804634490351 2240.85349508232 21 24 17
-585.35078864038 -57.3275565436662 2297.97765465308 21 24 17
-605.147837012002 -59.187447436909 2309.62081873011 29 32 25
-613.71923575028 -59.6867846800393 2307.54454646109 27 30 23
-616.98702034846 -58.375997571016 2271.86184322685 29 32 25
-624.588133976108 -58.5107565568924 2262.85140647467 31 33 28
-637.3583541902 -60.4475736226249 2287.46464573045 30 32 27
-639.921739803252 -58.7893283990252 2244.81440181304 29 31 26
-648.090098570153 -59.0908311228683 2238.75715716676 31 34 27
-657.426788744332 -59.8135090542291 2240.6171981409 35 36 30
-664.229222403741 -59.5953386816341 2224.65121227528 38 39 33
-674.543027218496 -60.6839108528391 2233.4445689132 37 38 32
-682.516658810821 -60.8873346867783 2225.3957523147 117 117 109
-691.450796707597 -61.4553408949121 2224.28232054739 16 16 8
-696.642319116793 -60.5291196901359 2194.40692180588 22 22 14
-714.370794606396 -54.9437075176102 2035.97701103969 16 16 8
-721.753777616179 -47.1862390776908 1843.56074514732 47 33 24
-730.413112817259 -47.2192851926593 1830.38723234893 56 37 30
-740.288558134037 -47.8065351848158 1828.14845429145 55 32 24
-750.678970408096 -48.6434245762542 1830.88522511581 61 34 25
-761.245870266678 -49.5784154120987 1835.61536360731 62 33 25
-771.490318022894 -50.3632227092322 1837.36228541728 57 29 18
-781.530514877334 -51.0486550912804 1837.1190606356 66 37 29
-268.766428067648 -39.0333416774207 2158.05605607117 133 119 110
-278.975834168562 -39.8356198133538 2160.81508397959 123 106 96
-285.972025833564 -39.9068805481751 2150.87252386225 84 66 56
-293.504045109208 -40.0933864884476 2142.87853304868 47 34 25
-296.751254765893 -39.2779094368892 2117.27729361505 49 39 27
-300.610028430988 -38.582470069015 2093.61542492006 45 36 21
-310.465040378868 -39.2818999666391 2094.40303408006 41 32 17
-320.774766328063 -40.091524607756 2097.14956201126 39 32 16
-444.902126687213 -53.9174041438558 2230.84411385927 19 25 11
-477.046621175081 -58.8304857870747 2298.39643902431 17 20 11
-480.453770199925 -56.075328058436 2224.39754727873 19 22 13
-492.89448033652 -57.5918073288428 2240.98882317649 19 22 15
-499.951094495392 -57.6301510174052 2230.03070863633 18 21 14
-526.792777842497 -63.2276938737122 2323.44069539082 17 18 12
-531.83811158938 -62.7328407779376 2302.65458081261 18 21 14
-534.643225107927 -61.568241434027 2269.04537537049 20 23 16
-545.104183391745 -62.5948426705641 2276.81227756025 21 24 17
-547.628613128999 -61.2909499055881 2240.21443140706 21 24 17
-571.102267705493 -64.1162499685284 2270.54857534563 20 23 16
-578.944598776339 -64.3685303624166 2263.52420030492 20 23 16
-588.793546352033 -65.2356116533775 2268.34375615947 25 28 21
-606.860064220028 -68.6952690966538 2323.54076185672 25 28 21
-613.326016604293 -68.5360115113382 2308.62484937664 21 24 17
-615.490923512568 -66.9670773774344 2266.02456844339 22 25 18
-626.640521868219 -68.283016152412 2279.75289751012 21 23 18
-634.540052698368 -68.5402419608274 2272.72115703244 22 24 19
-640.694054192108 -68.1996455297682 2253.81270796837 23 25 20
-649.419369272546 -68.7127422186252 2251.71750435353 27 28 22
-656.579779772718 -68.6800722439864 2238.73063516654 30 31 25
-664.225738560517 -68.8002842349896 2228.70687659631 39 40 34
-674.118549397395 -69.7129879758536 2234.52900608721 32 33 27
-680.8766537222 -69.4931010569724 2217.56110091057 70 71 63
-683.499500566976 -67.7116206793676 2168.85650892095 16 16 8
-694.136585363551 -68.8753012383061 2179.62533438874 21 21 13
-698.382684314295 -67.603417806012 2140.79710392642 20 21 13
-716.027412972552 -65.3594509453743 2054.94520082911 17 14 5
-716.964911329594 -62.4576973590173 1981.25412083147 25 21 12
-722.121750690449 -57.6348975063543 1852.61224514312 82 65 57
-730.647337072491 -57.651711594538 1838.44745329323 74 56 46
-740.396363913232 -58.1929895422149 1835.21664335024 58 35 27
-750.156003012962 -58.7352097976743 1831.98475181035 62 35 24
-760.423245822478 -59.5128842053969 1833.72881014823 63 35 24
-770.77059200961 -60.3364766463344 1836.47068007984 68 38 27
-781.283870891017 -61.2520285362249 1841.20769922926 73 43 33
-791.216539739263 -61.8873944644678 1839.96983409189 81 56 52
-268.678120407949 -48.4488043825082 2160.10748609607 102 85 75
-276.895001638685 -48.8116670647872 2155.05203482062 118 98 87
-283.905923409174 -48.9089968081444 2145.10746485627 74 52 41
-289.994484418421 -48.7965972689132 2131.24645908587 41 25 12
-293.269876136827 -48.051837490172 2105.64164866024 150 138 124
-302.386513386954 -48.5857876075595 2103.49766526886 146 134 118
-312.214975147158 -49.2785691638911 2104.28857022715 31 23 4
-322.266251977884 -50.0234961460104 2106.05925333448 62 55 36
-442.893344007225 -62.6205647824994 2224.06342730087 6 12 0
-454.124052065808 -63.7454316810216 2233.7501425137 37 40 31
-466.29537919433 -65.1194653124469 2248.35904622765 18 21 14
-474.241294554874 -65.4306437037619 2242.3293464152 18 21 14
-479.882142449347 -65.1414700209472 2224.49275840475 18 21 14
-491.750959161372 -66.4590899291282 2238.13157796852 19 21 16
-510.910916782602 -69.7160631006268 2290.16805325505 21 22 17
-522.88606155796 -71.1166221127432 2305.80919631869 21 22 16
-522.101787268917 -69.0954022248034 2253.4981728969 18 21 14
-536.613695518007 -71.1873983008246 2282.9333844695 22 25 16
-544.543954673428 -71.4989827735343 2276.90563952829 22 25 16
-555.836009853655 -72.743449185253 2289.60855577614 20 23 14
-551.84972874599 -69.6867120863734 2215.52359883612 20 23 14
-569.181699110348 -72.6400609208208 2262.74872078176 20 23 14
-574.869358365263 -72.2800356636741 2242.89048994005 19 22 13
-584.117933094364 -72.9413098074333 2243.75367839792 23 26 17
-596.10895596104 -74.4205064309642 2261.40866152411 22 25 16
-597.807701486957 -72.8234458126632 2215.84317914204 18 21 12
-623.777395327289 -76.4391777294157 2265.01541018917 16 17 12
-626.579838214629 -75.1021058530456 2224.35179360093 19 20 15
-640.282515146056 -77.1832472974759 2254.89541070202 20 21 16
-649.005151598564 -77.6990250770398 2252.80054842467 22 23 17
-657.018744316601 -77.9806874126272 2245.75463805044 24 25 19
-661.278555455324 -77.002016859358 2211.96438458225 26 27 21
-671.493935296575 -77.9918142491479 2219.76207685691 31 32 26
-677.481204030985 -77.539750729779 2196.84291258063 34 35 27
-683.3237154771 -77.002971818948 2171.92621586677 20 21 13
-690.202286069932 -76.7972318540203 2153.93538710063 15 16 8
-699.833624663117 -77.5615490503158 2156.76645444773 21 22 14
-706.095893785304 -77.0899969354147 2132.80523332812 20 23 14
-710.542582754277 -75.8976966406494 2092.94449289858 15 18 9
-713.659451558142 -74.1290929279945 2040.14729513783 21 18 9
-722.713516806127 -68.124886590206 1863.65130012959 91 74 66
-731.530475376149 -68.3093263873152 1852.47388975287 84 64 55
-740.716457043125 -68.6309980946577 1844.27409043396 62 39 31
-749.940132485757 -68.9553100006169 1836.06959410756 64 37 26
-759.798959752016 -69.5473366679824 1833.83314273248 63 35 24
-770.050370163196 -70.3158951734659 1835.57915285367 71 41 30
-780.567622369548 -71.2151422091598 1840.31563321737 73 43 33
-790.320337842628 -71.7632544461301 1837.08438095273 88 63 59
-266.32862143997 -57.3947242359189 2153.36995821388 94 76 66
-276.304490791793 -58.1262597598179 2155.15025673158 114 92 81
-283.06794840362 -58.1979631576812 2144.22857397824 61 37 25
-290.130219597593 -58.3238241374593 2134.27791131415 43 27 12
-295.558549863617 -58.1004775254073 2117.47570469878 154 141 125
-305.356340525371 -58.7861690482017 2118.27041855748 149 138 120
-314.204050095152 -59.2713865925999 2115.1519400483 64 56 35
-323.296440627978 -59.8073604559212 2113.01098783336 74 68 46
-453.75592135283 -72.8427925029697 2234.82772772443 21 24 15
-465.727469516936 -74.1255545844881 2248.45363521349 15 18 11
-464.793948925398 -72.3071414104276 2198.17738539731 15 18 11
-480.672933584848 -74.5405099829162 2231.47311460817 18 21 14
-490.031000221191 -75.2015180737714 2232.32263842268 21 23 18
-508.270757233591 -78.0768152099161 2279.43426841506 20 21 16
-521.16943623295 -77.9770705654964 2251.62254015526 20 23 16
-541.843734841628 -79.8465075829048 2265.17162792471 20 23 14
-547.725916397723 -79.6207846041954 2247.30508999521 18 21 12
-565.460394629808 -82.5356236053238 2296.49525412068 18 21 12
-567.769191451362 -81.3459613469567 2257.90900403741 21 24 15
-574.974980159422 -81.4506638374872 2246.93244814897 19 22 13
-581.905971707965 -81.4678610920984 2233.97458068314 19 22 13
-591.65816236965 -82.2613721178985 2237.79833038566 20 23 14
-607.91865692807 -84.9081134882484 2282.13305717423 13 16 7
-604.815728923136 -82.0412897172129 2205.92298892292 8 11 2
-631.459756237815 -85.7335585520319 2260.05018472476 14 15 10
-634.523741347009 -84.5582234217103 2220.36204223961 15 16 11
-642.903721666463 -84.949739016193 2215.28607234981 14 15 9
-651.878242276059 -85.5196758213382 2214.16760614285 15 16 10
-662.257211987026 -86.5301917728121 2222.95262502869 14 15 9
-667.900266044659 -86.0461916653718 2198.06095840884 19 20 14
-675.293586802274 -86.0949620819033 2185.04547813778 22 23 15
-680.900159475223 -85.5388204916472 2158.1425597319 18 19 11
-689.627992387829 -85.9887997516835 2154.03126122388 19 20 12
-700.148248341222 -87.0444283133723 2163.80645432259 21 22 14
-702.415013137326 -85.2585495136587 2108.09199745959 20 23 14
-707.773143791388 -84.4768696861125 2075.17312634409 4 7 0
-712.473638278891 -83.4078948029963 2035.2810372594 19 16 7
-713.324910408804 -80.8657524367976 1960.59373744156 31 27 18
-721.98180306933 -78.0499126282318 1862.76106378271 82 65 57
-730.260591876155 -78.0519701096512 1846.61165775378 82 64 54
-739.672209426571 -78.4773203961153 1840.39934764079 79 56 48
-749.213162876737 -78.9462281644434 1835.17893924616 64 37 26
-759.274265094735 -79.6239469298965 1834.93284501641 67 39 28
-769.523705839281 -80.3840636410407 1836.67907870919 70 40 29
-779.850855869489 -81.1844215652189 1839.42340781452 80 52 41
-789.606181327205 -81.7380725666044 1836.1920846941 99 75 73
-265.989541876252 -66.7658658546492 2154.44463900491 68 50 38
-274.719068216985 -67.2488846547179 2151.34090327371 135 113 100
-282.230247784947 -67.492976424766 2143.34990505143 75 49 36
-288.563458445624 -67.5006836054727 2130.46661211459 48 29 15
-292.073897946017 -66.9411008372862 2105.8406438706 154 137 121
-304.761112121612 -68.1934486611094 2118.36947327934 138 123 104
-315.020674417334 -68.9683592026353 2121.12216991958 74 62 38
-325.027339380761 -69.6950183927287 2122.89861248537 78 68 41
-450.345094335658 -81.25662137536 2221.16695584079 20 23 12
-451.747505316525 -80.1121184740966 2182.6939362775 20 23 14
-463.427961235725 -81.2710140564079 2194.34022969466 18 21 14
-479.323984045606 -83.4098951148397 2227.63382408431 19 22 15
-493.879070837867 -85.2696478494458 2255.0474211603 20 22 17
-503.544097558458 -86.0098931304101 2257.87422103573 19 20 15
-513.375004056627 -86.7932170049593 2261.68836090846 18 19 13
-527.70228218031 -87.0829179919611 2240.75366773977 18 21 12
-538.961073120998 -88.2164441498566 2252.45251564391 19 22 13
-551.908289531549 -89.781078586878 2274.01938512773 17 20 11
-557.634260394184 -89.560088453158 2255.16442646611 16 19 10
-570.785506234869 -91.202835022471 2278.72165445391 19 22 13
-576.088265043661 -90.8581965862914 2256.89588296788 18 21 12
-583.155242893177 -90.9494924108208 2244.92892744978 18 21 12
-597.746739353085 -93.0080298049931 2278.38510743345 20 23 14
-597.310103709964 -91.1015915413657 2219.98439991056 18 21 12
-612.716368498476 -93.4064988156541 2259.38615355663 10 13 4
-631.506376774963 -94.8253124198473 2264.09929822906 13 14 9
-637.08122192738 -94.4668226605421 2241.23184840075 14 15 10
-644.527786236329 -94.6159038547282 2230.22536201051 15 16 10
-649.162940685948 -93.9391486659121 2199.41236456281 16 17 11
-662.396173959705 -95.7510723603285 2227.99848228531 11 12 6
-669.262624940028 -95.7020374673116 2212.02495284877 16 17 11
-671.344721754513 -94.1838685888953 2160.36547539294 19 20 12
-681.253351973763 -95.008270706789 2165.17771108107 18 19 11
-687.756272606087 -94.7748401488565 2144.21038672367 19 20 12
-694.621785454074 -94.629431489467 2125.2134190003 21 24 15
-706.57843247048 -93.6762141927238 2070.30752937177 8 11 2
-707.481298222906 -91.4370988517989 1998.6381308178 26 26 18
-714.462260834117 -91.1704264270542 1975.5954476412 30 25 19
-720.141987273489 -87.5870412881805 1851.93049871969 72 58 49
-728.772413050396 -87.7495922420898 1838.76069442417 74 55 48
-738.415789463903 -88.2680496504566 1834.53532183463 70 50 41
-748.383082213359 -88.9043820844369 1833.29313838435 96 69 60
-758.350088959396 -89.5409053260307 1832.05099112808 78 49 41
-769.191665181573 -90.5244894868444 1839.77052143412 78 48 38
-779.511587476749 -91.3132935656089 1842.51572209141 76 47 39
-262.127280878364 -75.493989864243 2141.84871819646 50 34 19
-274.377973875622 -76.6209704161212 2152.41607825219 120 98 84
-281.639002525811 -76.8392796092479 2143.44830212114 96 73 59
-289.431820050656 -77.1506536648344 2136.43002143056 47 25 12
-293.644866929 -76.7907598489051 2114.74043964538 146 129 111
-302.975233770778 -77.3776178403693 2113.57761049372 138 121 101
-313.720134821557 -78.2320931382107 2118.28556372271 65 51 25
-442.665471601711 -88.854544617429 2186.87364482408 17 20 9
-452.57119174285 -89.5986990775559 2189.67065814701 18 21 12
-458.898531994082 -89.5825020731347 2174.77218011788 18 21 12
-480.508191157724 -92.8477362031919 2236.58080094622 17 20 11
-495.620674874309 -94.7526131342384 2266.94801830889 16 19 12
-505.254133353208 -95.4801993523698 2269.7789646458 23 24 18
-511.690748868054 -95.5012651880066 2255.8748752071 26 27 21
-516.17339948703 -95.0724775356102 2231.12792520745 20 23 14
-528.405818923 -96.3803959242892 2247.74464531558 22 25 16
-542.864535339802 -98.2150820483167 2277.18557702905 25 28 19
-551.524487528701 -98.733555366052 2275.09854447582 22 25 16
-557.937948134081 -98.7243203428368 2260.1895777385 20 23 14
-567.668697807151 -99.4889036628833 2264.01592696956 17 20 11
-570.658698744838 -98.6403327467157 2228.36910672381 17 20 11
-586.225127132811 -100.812968775349 2266.74259720099 19 22 13
-596.377258091608 -101.693737937773 2273.53996807337 21 24 15
-601.055779396863 -101.219567828144 2246.75308086058 22 25 16
-601.165114876233 -99.5663919348258 2190.30052079192 19 22 13
-616.39217638584 -101.718244456247 2228.71630751658 16 15 11
-619.426543311066 -100.754929935802 2189.03265982316 15 14 10
-630.266002892935 -101.798757931143 2199.77567421797 15 14 10
-643.525819652354 -103.500236929762 2227.35049652824 12 13 7
-653.47246153264 -104.339567277821 2233.16571499695 10 11 5
-648.320456148467 -101.049498396817 2133.02407264982 8 9 3
-655.030619406201 -100.942821871956 2114.0465936366 13 14 8
-672.124091820095 -103.747847360864 2170.37099280218 17 18 10
-674.977738989528 -102.537315153187 2122.64702923514 18 21 12
-682.373461952359 -102.593286160054 2107.6154134117 20 23 14
-695.152449105691 -99.7649015965037 1982.05881989244 13 18 11
-709.382303419323 -101.826117551004 2019.59112639337 21 22 16
-719.074896228504 -97.4415683967359 1848.05862825841 205 192 184
-727.714325149954 -97.6375550389076 1834.88778847537 103 84 77
-737.895812882755 -98.3464535357054 1835.634440054 86 66 57
-748.066215957583 -99.0548523999563 1836.38271388538 79 55 45
-757.725024304858 -99.5828481151128 1832.15544060054 83 56 47
-767.984047127487 -100.326882906894 1833.90043615545 88 60 49
-778.415805920322 -101.141347719152 1837.63967522257 92 65 56
-260.779954729479 -84.7220751887023 2139.01785680546 71 58 42
-269.801424616054 -85.2625042592025 2136.88576680053 86 69 53
-277.843798977751 -85.6333984489484 2130.84418673442 100 77 61
-285.914646610985 -86.0062384205545 2124.79929876525 123 101 87
-294.013912179841 -86.3809659343889 2118.75062910775 114 93 76
-301.664915854064 -86.6736357687066 2110.74230959224 99 81 59
-445.33906706619 -98.6732966744815 2202.69004816509 21 25 11
-448.584849974972 -98.0967624723591 2173.0583870984 18 21 10
-464.847028461063 -100.094362791685 2207.31360246475 18 21 10
-469.0133215689 -99.6840866305352 2181.59873393211 16 19 10
-516.453469609262 -106.832169710206 2330.89241389472 22 23 15
-520.289235523454 -106.374499751719 2304.21074102497 26 27 19
-520.765273203969 -105.192731489653 2258.79893901108 20 23 14
-533.469802301516 -106.562258831195 2278.3799661641 22 25 16
-544.809305231833 -107.657045756618 2291.07656703764 25 28 19
-554.488242207529 -108.404554879883 2294.90933722273 23 26 17
-556.509006493155 -107.482737171172 2255.35205015801 22 25 16
-561.644410703598 -107.215985528039 2232.53992181912 18 21 12
-570.260213625981 -107.708198027073 2229.45040230948 17 20 11
-577.068934370897 -107.790011791254 2215.50003631543 18 21 12
-588.827026447705 -108.993022906834 2231.1677460373 21 24 15
-596.655899756411 -109.301301659748 2223.13727054849 22 25 16
-606.095114704958 -109.980919192278 2224.98440363887 22 25 16
-612.428931713901 -109.925658885118 2207.06195318228 19 18 14
-617.792965395382 -109.620757785051 2182.20557830668 15 14 10
-623.883690879747 -109.469705202035 2161.2896701376 14 13 9
-642.230230752846 -112.329138224749 2222.49675320107 12 11 6
-648.744431685958 -112.285998995755 2204.55158354884 8 9 3
-646.613606086916 -110.026795826629 2125.1985012482 6 7 1
-657.21263331707 -110.969481440594 2133.95587962784 14 15 9
-670.874305647848 -112.725324017954 2165.51168456461 17 20 11
-674.530432980691 -111.856038885173 2123.73507800605 20 23 14
-681.66107663317 -111.879814336435 2106.72108353118 22 25 16
-690.152316487011 -112.259137793886 2099.61582280531 17 23 13
-688.578570808581 -109.821418059138 2012.13077278396 15 22 14
-697.232636347619 -110.184543201785 2003.99746261931 1 8 1
-706.401602917578 -110.68814151426 1999.83125444266 30 33 26
-728.063919778805 -107.986963884903 1843.94132062226 106 89 82
-737.798810693852 -108.554380515521 1840.71234359452 186 163 157
-747.132388138146 -108.989008072256 1833.50210975858 100 77 69
-757.099811847262 -109.625378710214 1832.25991006591 102 77 70
-767.066885929289 -110.261891310949 1831.01775437849 114 87 80
-265.718583766518 -94.0717037180369 2123.30989946462 73 57 41
-276.017996171626 -94.8172538243123 2126.05754572714 75 54 37
-285.565262220816 -95.4427912378675 2125.87543779577 79 56 42
-295.349980059915 -96.1076728735231 2126.67172826335 98 75 59
-303.932453996461 -96.5756849743716 2122.57861718503 100 79 58
-438.051579543882 -106.589319866176 2170.36425316226 17 21 6
-443.990928637678 -106.577493100714 2153.49883144828 21 25 11
-453.977799077514 -107.305690575113 2156.28567567154 18 22 8
-475.075236059736 -110.115786565543 2215.13347837775 12 15 4
-489.103098459072 -111.632116310603 2239.58866398552 13 16 5
-508.497395738258 -114.18962869622 2292.60198042998 19 20 12
-515.803348046181 -114.458480489411 2283.62873119417 20 21 13
-524.629151128137 -115.017173864556 2282.52879444627 17 20 9
-533.09227296472 -115.504673862393 2279.45855649203 18 21 10
-542.28309247594 -116.135127434807 2280.32863102602 20 23 12
-550.229548085543 -116.517653502014 2274.29929195399 17 20 9
-554.210489509991 -116.093103836599 2245.58397479482 17 20 9
-561.93299040694 -116.413388685834 2237.56680557176 17 20 9
-572.048844282139 -117.223895530406 2243.3608314782 17 20 9
-581.299976202567 -117.858912977135 2244.22363166763 17 20 9
-587.773479086542 -117.907133689002 2228.29939594961 18 21 10
-597.050093082835 -118.544073101176 2229.15902118805 19 22 11
-605.05744462864 -118.907343873498 2222.11410458812 22 25 16
-612.788518070659 -119.204940575079 2213.0881187155 23 22 17
-614.637643915998 -118.187327038117 2165.48978124675 14 13 9
-640.639926236167 -121.118944304919 2215.66383095086 12 11 6
-652.059916651271 -122.255137013275 2231.37379806611 9 10 4
-661.615727492397 -121.414406586906 2169.71328433526 15 16 10
-667.045010620133 -121.108111050762 2141.825461479 18 21 12
-671.557163403431 -120.550569741776 2105.9894520979 23 26 17
-679.385296437662 -120.783323081513 2093.92764116723 23 26 17
-684.084621907253 -120.213884226161 2057.06031504273 22 25 16
-694.721507707168 -121.132457529674 2065.81290539776 7 14 7
-728.959297886154 -118.44293005281 1857.96569859228 94 79 74
-738.232668495846 -118.889876941634 1850.76301065588 162 141 136
-747.435167299223 -119.308395281724 1842.56140513816 100 77 71
-757.177494598014 -119.882063774766 1839.33151655775 116 91 86
-273.203549198823 -103.880595157392 2117.36273536737 71 60 42
-283.507852085507 -104.61615473725 2120.10974501701 66 49 33
-292.584827128954 -105.166957995819 2117.97075561669 80 59 42
-300.952475164576 -105.608650874961 2112.89669713184 85 64 43
-416.975931559375 -113.342810855017 2117.58527954177 13 20 4
-440.524869759848 -116.333780205519 2185.19777067131 26 30 15
-457.06713375645 -118.173784509578 2220.42530509649 19 23 9
-467.663368096126 -119.015710396879 2227.16715220007 15 19 5
-471.180788990569 -118.637730312968 2198.51004257082 11 14 3
-485.837539095501 -120.1872527986 2225.91013568609 14 17 6
-501.098322045048 -121.860904103762 2257.2661646237 21 22 14
-508.687865740261 -122.191374535958 2249.26561449675 22 23 15
-514.10064728642 -122.126871861791 2229.44246501623 20 23 14
-525.620454513403 -123.156710768833 2242.11615367247 18 21 10
-539.75335470961 -124.673726980499 2269.58153455526 19 22 11
-543.845870437224 -124.354535541383 2241.86049840675 16 19 8
-551.561180785345 -124.693652579483 2233.84427611558 15 18 7
-563.078877820177 -125.745307296017 2247.52597266066 16 19 8
-573.674125308888 -126.631516209487 2256.28367400031 16 19 8
-583.884465387056 -127.450602787776 2263.07385854857 16 19 8
-588.022709919867 -127.092151036509 2233.33139785976 16 19 8
-597.606721907797 -127.786116484669 2236.16818601858 17 20 9
-605.436684285687 -128.133328834143 2228.13767715061 20 23 14
-617.175614369819 -129.2641193347 2244.81527508365 27 28 22
-631.403342261948 -130.91702912944 2278.31578302816 15 14 10
-640.954324089485 -130.346822946659 2221.69550037406 9 10 4
-648.041669014733 -130.519173092053 2207.71060215386 8 9 3
-660.765968233289 -130.515321112623 2167.82792200516 13 14 8
-664.566027656933 -129.922802698117 2128.04945662428 17 20 11
-670.175383682506 -129.702220989305 2100.13938745926 23 26 17
-673.322756703887 -128.897350856915 2052.37959667029 25 28 19
-685.026533385713 -130.027377504356 2069.06181979727 22 25 16
-690.632636584202 -129.742882886796 2038.12868669016 16 23 16
-727.467146120464 -128.200178049172 1850.11538808468 149 140 135
-738.669815501815 -129.17124317925 1860.81312469412 101 88 82
-746.707741049599 -129.299508313144 1841.67080777598 96 81 76
-289.817056853066 -114.275780172717 2109.27024005328 58 43 24
-460.516948911424 -127.890724205125 2240.17556135137 16 20 6
-467.292136596837 -128.113849127953 2228.24536668794 16 19 8
-477.453536508042 -128.869376911672 2233.02587683476 19 22 13
-494.448018707666 -129.852168257039 2225.86873804418 14 17 10
-510.93590416345 -131.644369109896 2264.1262342644 17 20 13
-513.163366739081 -131.112697712989 2227.56748147482 21 24 15
-520.685159864784 -131.43992470933 2218.56769057875 17 20 11
-530.044837066071 -132.070616914629 2219.41669329973 17 20 11
-540.984511063726 -132.969764484333 2229.13937368771 20 23 14
-549.081861869508 -133.389893257809 2223.09106254392 20 23 14
-564.570928183702 -135.08215530076 2259.45756810637 20 23 14
-573.787100909666 -135.70425041236 2260.32445669734 19 22 13
-580.505549878028 -135.887880479779 2246.38562421694 17 20 11
-589.089431131778 -136.395413643545 2243.30036895799 16 19 10
-598.647122995567 -137.076907562488 2246.14040886937 15 18 9
-613.387865016956 -138.703632821019 2281.5922009238 15 18 9
-623.27872848277 -139.462539837249 2287.41416841689 23 26 19
-634.198083945181 -140.417544174036 2300.16283309807 22 23 17
-631.729961228492 -138.8613350631 2224.88468345497 14 17 10
-640.977113781717 -139.486404114222 2225.74771377842 10 13 6
-645.60096790399 -139.220773267417 2194.93720922609 7 10 3
-657.601217971221 -140.375581573979 2214.60580105224 10 13 6
-661.857738951687 -140.01224329236 2179.80965126506 14 17 10
-667.387008073321 -139.879181074321 2152.91773431858 18 21 14
-670.124655105619 -139.158409084906 2104.20160928204 23 26 19
-671.947374512959 -138.211732078456 2046.52940247007 25 28 21
-453.440716018431 -136.70420133 2253.17504961374 12 16 1
-469.205510224808 -138.244995754592 2285.47551815051 17 20 9
-473.472286645029 -138.148299258074 2261.7643098918 17 20 9
-474.927561753148 -137.63434166837 2223.28659398534 19 22 13
-480.644405001937 -137.725432995403 2205.44128334957 17 20 13
-501.494769471121 -140.035434435638 2265.32652963047 13 16 9
-509.811169704561 -140.514737246161 2261.26665271096 14 17 10
-512.780590133538 -140.192848706248 2228.64708935363 20 23 14
-535.042353520678 -141.987092776977 2250.0598502088 18 21 12
-540.241012772766 -141.982226247138 2228.24796450924 20 23 14
-552.867843724066 -143.117953291529 2247.83831249554 20 23 14
-564.010165301236 -144.032128018052 2259.55111743351 18 21 12
-573.732938269564 -144.72890373084 2263.37828354124 18 21 12
-580.109149696375 -144.894795206596 2247.4667393724 15 18 9
-602.742233037034 -146.809796846927 2274.88008282999 13 16 7
-613.306065113865 -147.655963717088 2284.6492862762 13 16 7
-614.656079543148 -146.977700108239 2236.10668179797 17 20 13
-621.602598926865 -147.212245315721 2222.13952156128 24 27 20
-636.855843385832 -148.850158964929 2262.56606156531 23 26 19
-633.061629862847 -147.240530019044 2176.36798064949 21 24 17
-640.125161109603 -147.466969587504 2161.37850957996 15 18 11
-660.870200683528 -149.072889643383 2176.93368979775 11 14 7
-666.403260774552 -149.011439455472 2150.0412480797 17 20 13
-672.344426734983 -149.007906670578 2125.11340388165 22 25 18
-670.569926835588 -147.559301738542 2040.67931316218 22 25 18
-692.077646883952 -149.262698537877 2059.1626333618 20 22 17
-458.577118169035 -145.855572645462 2236.43396188731 18 21 12
-462.180681453333 -145.727421080402 2208.77444720977 19 22 13
-474.554101346616 -146.736148198903 2224.36485601793 17 20 11
-478.139562152157 -146.593839063383 2195.69963577233 16 19 12
-486.260407170731 -147.042755091023 2189.64870876864 14 17 10
-522.210793805688 -150.589565702541 2281.91658267252 18 21 12
-531.405368849245 -151.199248738909 2282.78637410856 18 21 12
-535.018455831262 -151.045998783069 2253.10999036901 18 21 12
-544.453875035391 -151.684352824097 2254.95748847992 15 18 9
-547.598743165126 -151.448824253139 2221.30833034574 17 20 11
-565.508719850335 -153.271403693709 2271.48140397331 16 19 10
-576.044374142305 -154.072198337543 2280.24631725616 15 18 9
-580.211751002028 -153.96781659713 2251.50881747644 13 16 7
-600.897832475665 -154.781330621716 2210.63446620742 12 15 6
-606.171061534953 -154.800333643068 2185.79027620182 16 19 12
-615.39044108448 -155.399540619965 2185.64901722688 21 24 17
-625.654233037279 -156.157442838535 2192.43237017036 24 27 20
-639.113464133377 -157.408333103766 2220.98880723915 28 31 24
-637.094192795039 -156.279331838701 2144.64808153608 19 22 15
-647.396895041281 -157.040028911681 2151.42634579638 6 9 2
-655.987684369851 -157.533987673608 2146.32457823771 10 13 6
-665.55488532036 -158.182297210496 2148.1556569832 16 19 12
-671.230211130068 -158.201405094772 2121.24567349134 22 25 18
-672.202004219867 -157.434382299567 2057.63352723951 20 23 16
-682.747782994408 -158.224270816931 2065.3894612277 16 19 12
-419.424616895895 -150.938604667004 2095.20814750045 34 37 28
-445.311701902058 -153.437445095959 2174.62052171215 18 21 12
-467.176579264292 -155.493112737023 2236.39386719911 19 22 13
-471.631465378065 -155.5352050523 2212.65954945813 15 18 9
-478.146211730777 -155.812574186245 2198.74638471838 15 18 11
-486.639608827058 -156.320046627913 2194.66449382051 15 18 11
-493.645946946859 -156.649667773726 2182.70573340342 10 13 6
-513.313911523916 -158.493253575775 2237.69839188315 15 18 9
-519.709138334057 -158.752928173758 2222.79240877959 18 21 12
-533.376761676274 -159.892066440034 2247.29155677164 18 21 12
-542.651856408996 -160.50183251749 2248.15130004518 14 17 8
-557.499994618359 -161.799614467269 2280.56552186646 13 16 7
-567.183352470512 -162.466787731481 2284.39752879067 11 14 5
-576.164099625556 -163.04769186264 2284.28624179664 11 14 5
-576.656252723945 -162.557257466609 2233.83533324856 12 15 6
-577.583693466236 -162.105009568105 2184.33837157437 13 16 7
-588.593748449495 -162.929879543317 2195.05952005348 14 17 8
-594.634559486025 -163.115690186896 2175.15865539665 15 18 9
-606.99915536093 -164.120716617409 2194.78138457475 15 18 11
-616.194384186705 -164.715779673956 2194.6431285545 15 18 11
-627.185651513272 -165.550269780983 2206.3745743233 18 21 14
-635.1593160107 -165.984462262001 2198.32636133946 29 32 25
-635.070133930583 -165.322267228156 2134.84689457659 18 21 14
-643.698013855855 -165.829540430972 2129.74053339383 4 7 0
-656.107350784235 -166.858817269134 2151.37311721194 9 12 5
-665.115461384146 -167.421726761633 2149.24251329965 13 16 9
-674.12921801204 -167.985090483195 2147.11144626139 17 20 13
-679.739751133642 -168.061134307747 2119.20201135454 16 19 12
-681.64488656283 -167.588947443261 2061.52052879443 18 21 14
-441.506226681577 -162.327453458522 2158.99463912776 18 21 14
-471.453432882862 -164.682383152197 2214.72147009409 13 16 9
-483.381580521348 -165.55497674272 2228.3514732793 13 16 9
-484.920925979124 -165.352320678454 2188.85615832477 16 19 12
-495.893719551629 -166.125912168772 2197.56668783995 12 15 6
-506.071253378871 -166.818302516498 2202.34477803051 14 17 8
-519.689859489913 -167.875519801235 2225.84214024904 19 22 13
-530.112654876815 -168.599027328069 2232.60531965802 20 23 14
-542.975916135229 -169.585347490371 2253.17345618024 16 19 10
-555.196717959416 -170.507853732808 2270.79829822667 16 19 10
-565.939723873544 -171.275015605691 2280.54493378041 12 15 6
-574.593055729142 -171.817191203228 2278.45878982475 12 15 6
-578.922963459715 -171.884811525891 2250.70914721272 13 16 7
-579.304554773914 -171.509378804394 2198.2569647781 13 16 7
-595.595055034486 -172.890802840933 2241.57692776608 15 18 9
-600.238204877083 -172.978563887045 2213.78800716148 15 18 9
-610.009918858027 -173.63835893252 2217.60920860165 14 17 10
-617.001531912226 -173.983161099915 2203.63671129925 17 20 13
-626.317891650677 -174.591106691748 2204.49130014984 16 19 12
-634.148298234913 -175.027837480854 2195.45304422425 22 25 18
-639.270595081518 -175.146489968299 2167.60465052649 16 19 12
-662.502294066637 -176.901216345777 2200.98947133806 8 11 4
-663.992943347807 -176.574122508939 2145.37571076126 9 12 5
-684.26910615902 -177.43562675179 2086.41307218727 21 24 17
-479.907519543653 -174.357086261929 2213.69192804516 14 17 10
-488.359389434908 -174.879008659827 2209.61525755042 13 16 9
-494.002890801869 -175.148328299247 2190.77188180764 12 15 8
-500.487437405614 -175.490951201664 2175.8549705633 13 14 6
-513.817584666495 -176.451665742847 2197.37246213932 22 23 15
-532.791511144475 -177.92939133265 2250.43539479447 24 25 17
-544.367076445829 -178.739173598563 2264.10923275952 19 20 12
-557.260626411076 -179.672346868722 2285.68113656794 17 18 10
-564.522828303068 -180.089447827063 2275.70629070483 14 15 7
-573.528373146715 -180.666861563493 2275.59165964529 14 15 7
-578.861995028819 -180.902189352787 2253.76380421933 14 15 7
-586.277706337166 -181.329247679824 2243.76958724224 15 16 8
-594.387847804566 -181.820290215003 2237.71986664836 17 18 10
-603.952637012806 -182.448356888955 2240.55912042311 17 18 10
-608.509071059052 -182.599954899608 2211.77350245142 15 18 11
-618.118131687828 -183.230971330685 2214.60699891395 14 17 10
-626.953806125849 -183.788186025397 2212.49813928693 13 16 9
-632.988651079399 -184.073522022407 2191.59059416026 16 19 12
-640.002320321419 -184.450816094063 2176.6077428441 21 24 17
-657.049846854555 -185.496439341242 2166.42084833655 9 12 5
-661.089775684525 -185.571280907141 2128.62982060573 7 10 3
-660.232432437583 -185.147148982106 2053.15363649261 11 14 7
-674.028109220706 -185.833567901407 2012.13114519469 9 12 5
-436.708860222996 -180.580989282491 2141.50158275705 19 21 16
-444.743406353808 -181.078158946145 2134.45386532039 18 20 15
-480.889454775386 -183.575518565864 2221.65564206977 15 18 11
-491.61404926832 -184.276857314693 2229.38902772078 15 18 11
-490.790268690466 -184.109913467405 2177.08781762024 14 17 10
-499.540309661279 -184.661629424574 2173.98194296474 12 13 5
-508.301917107987 -185.214136993448 2170.87438669738 20 21 13
-530.786119464618 -186.806257401994 2242.64681513945 23 24 16
-545.939951368682 -187.846630344761 2276.03013768434 23 24 16
-558.454991911335 -188.688508224797 2295.63342234269 22 23 15
-572.062896418903 -189.615312992921 2322.15507818466 18 19 11
-578.301647577384 -189.864972817198 2253.85733543977 16 17 9
-583.746073224472 -190.165195424068 2232.01558298846 15 16 8
-595.116728548496 -190.921399737044 2245.71509168037 14 15 7
-604.184353688707 -191.500454109717 2245.59271768739 14 15 7
-609.970671292999 -191.824789925945 2224.71629000928 18 21 14
-609.120333197659 -191.630531544435 2160.32535621353 21 24 17
-625.785411294535 -192.800495945157 2208.63669299029 22 25 18
-625.172848418441 -192.619291369123 2143.20819326269 20 23 16
-630.720072020908 -192.91769485195 2117.32261878217 19 22 15
-644.666076550147 -193.877585285023 2148.84084462989 15 18 11
-648.650719993256 -194.050410185471 2111.05697422412 4 7 0
-648.450879465734 -193.886973677255 2041.54602731747 8 11 4
-664.476392415079 -195.014388908509 2088.92937889366 15 18 11
-665.2317509744 -194.920631122514 2023.330400946 22 25 18
-461.718752011349 -191.475063192209 2221.04553404498 18 20 15
-457.147408788322 -191.221862732756 2152.0798884405 12 15 8
-477.409698855264 -192.479091622332 2206.99707473139 12 15 8
-483.773965497461 -192.891338754158 2192.09511679936 14 17 10
-494.555161347803 -193.571954006245 2199.821384361 14 17 10
-512.674747645173 -194.72420030219 2197.56320151259 13 14 6
-524.986159820268 -195.497333283929 2214.16865545555 16 17 9
-550.185157935702 -197.050183736392 2302.73407203357 21 22 14
-548.092455386449 -196.951105893055 2240.51380282783 20 21 13
-560.304878219876 -197.717524430714 2258.13927947135 19 20 12
-586.304445583222 -199.37388404762 2250.86806047485 24 25 17
-596.494923736256 -200.017901301191 2257.66002236637 24 25 17
-606.165845494475 -200.630555966395 2261.49367793755 24 25 17
-611.905430408579 -201.006933711647 2240.62321927345 17 20 13
-612.382107308555 -201.067822520034 2185.13701819377 15 18 11
-620.092692931764 -201.563623647133 2175.10618367718 15 18 11
-626.075784073091 -201.956183676101 2153.19769239279 17 20 13
-629.992884348461 -202.225638529195 2116.43019254479 15 18 11
-644.150436630362 -203.144366330385 2083.42537069294 9 12 5
-651.835880745539 -203.640472407588 2070.37437292767 16 19 12
-650.978530528256 -203.628484284629 1993.89158795225 13 16 9
-460.238256027334 -200.373647527899 2261.56409244888 21 24 17
-462.947893315322 -200.647998664909 2229.98620576589 18 21 14
-471.933218810664 -201.219532700403 2228.8663953793 13 16 9
-461.101945944623 -200.86630862739 2127.42561164958 13 15 10
-476.112829366998 -201.722442266087 2155.78737210379 13 15 10
-495.872841494729 -202.79511672942 2209.75882632761 14 17 10
-515.956316076929 -204.036645138895 2218.34131610798 10 11 3
-533.99785380983 -205.019840851343 2266.48038701102 16 17 9
-536.992018419163 -205.319120442511 2232.8514441835 18 19 11
-547.880186380922 -205.975729119642 2242.57967323398 19 20 12
-546.798630203509 -206.098119043878 2184.26479082786 12 13 5
-556.226741918021 -206.691543914876 2185.10539545271 13 14 6
-587.8825497962 -208.435880541264 2263.79588019541 19 20 12
-594.480020120512 -208.902015633782 2248.86520200331 22 23 15
-605.13060506022 -209.543688604912 2258.62304067771 22 23 15
-605.87142594867 -209.762471354838 2206.12759336126 24 27 20
-608.892001496059 -210.083506058106 2166.44880876949 19 22 15
-628.576751763413 -211.105666348247 2234.53834291965 18 21 14
-635.727653388417 -211.600590468766 2221.55404978434 21 24 17
-634.795051025151 -211.765784347831 2153.14309975737 21 24 17
-644.824113005483 -212.599328390539 2092.43586359132 14 17 10
-642.591596625042 -212.734699448344 2008.06310196531 10 13 6
-646.470955408026 -213.120563848807 1965.25401546619 14 17 10
-464.465965044148 -210.055835903745 2194.54984320052 16 18 13
-471.991347849512 -210.583131370127 2185.55013120684 16 18 13
-480.903277831823 -211.156408423829 2183.43179763836 15 17 12
-494.547608664648 -211.879890986494 2205.91714331825 14 17 10
-520.17466807747 -212.973405238154 2292.41255653511 13 14 6
-517.409028410813 -213.178022984609 2229.26937857659 12 13 5
-522.222243425933 -213.623404066338 2205.49140555376 12 13 5
-540.526568071703 -214.474410762953 2255.61294855371 16 17 9
-533.45325802371 -214.574068844549 2164.78966481651 20 21 13
-541.042650047072 -215.111635612153 2154.77406453301 19 20 12
-552.253218935233 -215.75283854868 2165.46994665035 18 19 11
-562.897255503037 -216.376124498596 2173.2131799049 13 14 6
-589.385082894129 -217.754343560743 2221.30693117067 13 14 6
-594.540069520645 -218.227684765809 2196.47869360507 14 15 7
-601.390943099207 -218.748573497284 2181.5165363767 14 17 10
-607.702866875532 -219.259349447519 2162.5903813355 22 25 18
-643.77994797522 -222.379474432635 2021.04109526536 4 7 0
-648.695650086904 -222.898238118031 1986.16500655418 19 22 15
-433.975116672862 -217.820094934195 2139.92543145329 21 24 17
-453.813677671212 -218.61760883984 2190.86305705358 19 22 15
-470.998134381968 -219.351585303575 2230.0385256012 16 19 12
-477.451497256318 -219.876823388558 2216.13367391071 15 17 12
-481.481228757682 -220.361989838243 2189.43027820852 13 15 10
-502.682027648216 -221.149595694619 2251.28339763592 12 15 8
-514.211677427614 -221.760806240225 2263.95475555691 16 17 9
-516.476373590387 -222.221488956786 2227.39396956501 15 16 8
-529.25904400272 -222.85098035882 2246.96353655434 11 12 4
-520.166236145079 -223.159732523076 2146.31523305832 12 13 5
-535.161366775699 -223.82465986977 2177.70175739617 16 17 9
-537.352186544449 -224.315829565939 2137.11928236636 21 22 14
-561.893196161963 -225.08766431669 2224.75706814368 19 20 12
-569.360411954071 -225.64238270557 2214.75675989974 13 14 6
-570.283732044403 -226.131966084988 2165.26279273769 11 12 4
-579.092910845525 -226.710633040854 2162.14936873635 11 12 4
-592.21759275701 -227.326804125895 2185.70720829547 12 13 5
-597.998953291402 -227.8796750919 2163.82407370262 8 11 2
-608.668349108854 -228.471350038888 2172.57174612448 18 21 14
-615.350657563021 -229.037662093994 2155.61512998266 22 25 18
-626.725761870602 -229.630343057341 2169.31365283481 24 27 20
-621.53793536264 -230.161532893768 2071.20191809736 25 28 21
-460.248733559266 -227.833393183171 2225.35596095533 20 21 13
-466.877465351906 -228.394241784749 2212.43700513783 17 18 10
-478.442184052428 -228.981134539491 2224.09623552656 15 16 8
-479.948572688099 -229.527127018872 2184.60700492789 18 19 11
-496.249774597851 -230.127347630746 2220.86928491707 20 21 13
-509.919176906602 -230.709874019075 2244.35881772012 14 17 10
-516.279221993523 -231.276656164126 2229.45803384442 13 16 9
-519.997002734606 -231.848152112185 2199.77049353523 11 14 7
-531.423031961401 -233.014625535959 2160.05267154777 11 14 7
-557.028605081982 -233.549985326769 2252.59589937359 22 25 18
-560.476428895047 -234.13887427605 2219.91903260232 20 23 16
-576.341262272238 -234.676643312491 2259.25866563516 15 18 11
-574.824229265585 -235.306864479075 2195.96078975862 14 17 10
-585.171956166703 -235.87385358534 2202.73292508514 15 18 11
-592.125617277684 -236.466879905913 2188.76581765036 15 18 9
-599.934638688585 -237.056710051109 2179.73087391841 14 15 7
-610.562351217971 -237.618447689467 2188.48366932935 16 17 9
-615.229716076312 -238.250394903773 2158.67778573247 19 20 12
-624.219388082373 -238.834670509384 2156.54977938333 27 28 20
-616.275554526174 -239.678417634876 2039.63530466256 28 29 23
-618.321104325441 -241.193184677482 1918.45291976814 21 22 16
