ply
format ascii 1.0
comment KinectMotionCapture
element vertex 752
property float x
property float y
property float z
property uchar red
property uchar green
property uchar blue
end_header
-358.158510019396 586.419064643083 2047.34210307706 161 152 145
-357.181798375599 585.44556255958 2054.79103609711 160 159 155
-356.200966812669 584.472204808533 2062.22476378886 162 164 161
-357.064163261128 584.01415258047 2069.03677320684 159 163 162
-365.324167069156 585.61552120093 2073.43946800869 166 172 170
-366.190614262088 585.156529785677 2080.26295385014 165 171 169
-364.2769102264 583.925442913477 2087.96764162054 171 172 174
-359.576989604704 581.92316408811 2096.52972421664 191 192 194
-353.32721980501 590.751044491954 1919.1378023675 255 255 253
-355.13489078927 590.55318499352 1925.72441230889 68 65 60
-349.656682642034 588.304095073654 1935.13829166529 59 52 44
-345.990271280685 586.568608337859 1943.80970975711 77 67 57
-345.052118778852 585.602402158392 1951.40641156575 98 84 73
-349.587454074709 586.173213223581 1956.91571266661 98 82 67
-351.386458921823 585.975099588103 1963.46998649048 97 78 61
-352.271428702849 585.520767936043 1970.36518500173 103 82 63
-352.2399923953 584.810384259746 1977.59353887997 96 74 53
-353.121876699456 584.35591844414 1984.4771969165 88 66 45
-353.086118183239 583.64560854196 1991.6886208357 97 75 54
-354.88207402488 583.446576678502 1998.23099457875 101 79 58
-352.088353953234 581.969403436175 2006.40930961903 105 86 69
-354.799792993052 582.025700025649 2012.61557368139 108 90 78
-351.996661534755 580.5491313799 2020.75839877574 105 91 80
-352.867001458335 580.094368828911 2027.59900744665 141 131 122
-349.131787118478 578.363200218373 2036.01769980251 161 154 146
-349.995842391503 577.908536392807 2042.83596615024 152 151 146
-350.858872117509 577.453810573152 2049.64945668055 144 145 140
-350.797510808742 576.743869578581 2056.76698438047 162 164 163
-352.581004323317 576.543838415305 2063.26245704009 167 168 170
-352.515903053367 575.833889413422 2070.36516491925 174 175 177
-358.924062676158 576.907238062787 2075.35253083639 177 178 182
-358.858609841207 576.196752057202 2082.45359438758 181 182 186
-353.23047201563 573.958619066907 2091.31773186545 186 187 189
-345.736402595774 571.212501118661 2100.72595670583 187 191 192
-346.580656026554 570.757665098732 2107.46966495734 189 193 194
-346.494680324184 570.048303550726 2114.49617007034 189 193 194
-363.420851062661 585.132787664451 1929.68755235963 219 218 213
-357.026764363289 582.65126876266 1939.44960202964 68 61 53
-361.571068660941 583.213099638653 1944.98653365496 90 82 71
-364.293250641626 583.267287257425 1951.23135265751 83 71 57
-362.447034702359 582.054295973446 1959.19710608718 97 80 62
-357.851034321114 580.081792240066 1968.1638226026 85 67 47
-355.076029125447 578.616535087668 1976.41914550474 88 67 48
-355.042706951807 577.911164132004 1983.64366230119 99 78 59
-355.006972507466 577.205877122171 1990.85834678582 83 62 45
-355.886160357652 576.753615014377 1997.733384723 88 69 52
-352.172244742757 575.036749796102 2006.24018548329 104 88 73
-352.126195061087 574.331782162007 2013.41770217307 117 107 98
-348.398314516912 572.615968835209 2021.87331799722 155 150 144
-346.503143915719 571.40615544743 2029.65931871931 160 157 150
-342.759842429516 569.691562407255 2038.05845003322 150 149 144
-345.46206316397 569.745090811572 2044.22781162481 159 160 155
-348.165710823824 569.798100449409 2050.40307261125 175 177 174
-347.177411450672 568.841376613799 2057.81957557071 170 174 173
-346.184969271448 567.884871965626 2065.22083548666 172 173 175
-346.113169110109 567.180716263317 2072.30325830361 174 173 178
-350.666652117466 567.736994238458 2077.87076286818 178 177 182
-344.109210425334 565.268562634864 2087.03457010175 185 186 190
-332.903508774115 561.5416832838 2097.63017010303 183 187 190
-320.75030200548 557.565034636425 2108.44556941295 192 196 197
-318.788620316074 556.359794202898 2115.98751462425 193 197 198
-314.033512108242 554.399836099878 2124.37234464058 191 195 196
-308.338809469258 552.18923711496 2133.00579451969 193 197 198
-306.355163702674 550.985670440747 2140.46724814127 207 211 212
-384.49468100481 582.487465879242 1936.12109383383 255 254 246
-379.924956433996 580.530769503555 1945.19534722158 251 241 231
-371.6874705272 577.572178778996 1955.60651757051 81 67 54
-363.434630962054 574.615110970001 1965.96071526188 72 59 43
-359.745508819041 572.912101634254 1974.56831720274 79 63 47
-357.881284264385 571.710681267008 1982.47451344415 85 69 54
-356.011553854979 570.509623288989 1990.36049631958 74 60 47
-352.300109825899 568.808372419738 1998.88633167614 111 99 85
-345.823955565524 566.357191572921 2008.36376345915 156 148 137
-344.85200805929 565.407934718237 2015.84569195645 161 154 146
-343.875963834986 564.458848395886 2023.31251780768 167 164 157
-345.65862886772 564.259866196194 2029.8055767373 167 167 159
-343.7549452125 563.061132063193 2037.56696501976 172 171 166
-346.457676265585 563.11175645165 2043.73638788082 177 179 176
-347.315555448767 562.662428233339 2050.53509224054 170 175 171
-344.477200418003 561.214527412438 2058.56523847778 174 178 177
-336.084336154173 558.269776673769 2068.40825728293 176 180 181
-335.077979272522 557.322318753818 2075.76356626657 176 177 181
-334.067686554305 556.375149870898 2083.1035157208 178 179 183
-322.859150676169 552.68569877963 2093.71222303688 186 187 191
-308.848500006348 548.250607547314 2105.13543033347 183 187 190
-298.52599504325 544.814598282947 2115.29655727464 190 194 195
-292.829317106897 542.625774616434 2123.93642105785 191 195 196
-289.909802806051 541.184855828071 2131.6705759444 186 190 191
-290.704623550458 540.740141632881 2138.23714071021 183 187 188
-296.153185126187 541.539363085951 2143.38495797796 186 190 191
-305.334847896713 543.332633174857 2147.43349900158 185 189 190
-307.068233000712 543.135046848649 2153.74447249584 196 200 201
-440.320434605726 590.56552307458 1914.69529236466 255 254 248
-398.312151207369 578.451695533937 1938.11511772344 255 250 242
-386.424687757027 574.528918534608 1949.95211065077 89 79 69
-374.51588966168 570.608219070379 1961.71120386958 79 67 55
-363.502165026773 566.9375905201 1973.05416169429 74 62 50
-357.970626322413 564.755388163943 1982.31133542821 69 59 47
-352.427561632431 562.574208434966 1991.52729009232 160 150 140
-347.791828847128 560.641638544832 2000.37170011687 168 159 150
-341.307809233884 558.214892729796 2009.83535638613 164 160 151
-338.490776636116 556.779126319386 2017.95232966954 160 157 150
-339.34917382639 556.333240194934 2024.75420142342 180 179 174
-341.127608770764 556.13451616051 2031.23171785606 177 176 171
-343.828241576384 556.182718830531 2037.3927504118 171 172 167
-346.53052185036 556.230485455428 2043.55962439858 178 180 177
-344.617082523031 555.042714343415 2051.29171326009 179 184 180
-332.531520747046 551.138862523732 2062.40515429821 175 181 179
-321.349597101172 547.484076629569 2073.13362438502 178 184 184
-315.701655555223 545.312015275781 2081.96501968047 184 188 191
-309.115808371935 542.894244657709 2091.05627660932 185 189 192
-292.319052663759 537.764871830887 2103.38677908285 184 188 191
-283.844091637745 534.857336557998 2112.94755557488 183 187 188
-279.067552377719 532.937166849954 2121.27700758193 180 184 185
-278.927293677424 532.249723653306 2128.11580866241 179 183 184
-278.784299334817 531.562308015381 2134.9444702383 181 185 186
-282.361575679328 531.859882558478 2140.62049937559 181 185 186
-288.735986434404 532.895181588489 2145.45853982376 195 199 200
-298.846559960011 534.913618359092 2149.20178249037 173 177 178
-302.440099544313 535.208561014131 2154.93653221315 169 173 174
-299.50120872981 533.781696444174 2162.60761899994 183 187 188
-294.68668422088 531.863797004889 2170.79747255155 166 170 171
-403.900227229139 573.528682441612 1928.47831528086 255 252 247
-395.680465442017 570.625909320434 1938.99053212499 207 204 199
-383.784406627306 566.743486911697 1950.82016090247 72 67 61
-371.866769263757 562.863163109696 1962.57192673033 96 92 83
-359.928013378384 558.985028958518 1974.24573703417 147 142 136
-355.307074974446 557.069536544305 1983.15585752139 112 105 95
-348.839954685279 554.664924824807 1992.69623197795 154 149 143
-346.035453642613 553.241118185671 2000.86821226533 136 133 126
-339.545966057819 550.838595036744 2010.32593092872 159 158 153
-336.724634936448 549.416200541125 2018.43631598595 176 175 170
-338.501502910782 549.217686617811 2024.90814721911 177 176 171
-340.278583331902 549.018945941581 2031.38062406562 174 175 170
-342.055891195078 548.819904570165 2037.85375551671 173 175 170
-336.44806613369 546.665255865901 2046.84508889206 175 180 176
-325.285228971877 543.045543595536 2057.66749602578 175 180 176
-313.1780504195 539.183682332178 2068.72625982646 181 187 185
-306.601298962637 536.78899165949 2077.86585887408 181 187 187
-300.937946405737 534.639667425947 2086.65439113376 186 190 193
-289.702241229794 531.027198494309 2097.21082667764 187 191 194
-275.664176378241 526.685003502343 2108.59090031347 185 189 192
-270.884025765597 524.783823361315 2116.91893309455 180 184 185
-269.8096826548 523.858626662367 2124.03587710387 181 185 186
-269.660986549678 523.177365406358 2130.8463256851 181 185 186
-271.370200251635 522.983368911471 2137.06982193262 179 183 184
-273.07954622169 522.789111611938 2143.29364460727 177 181 182
-283.175430348691 524.785541484191 2146.96938343486 173 177 178
-292.352166998262 526.536923003145 2150.97318848668 184 188 189
-295.007380041526 526.583721118523 2156.96469960455 181 185 186
-292.994213248327 525.414184887941 2164.33803248087 180 184 185
-293.779586266417 524.974375951574 2170.87261661419 183 187 188
-301.11153627926 526.2355887232 2175.51212237932 160 164 165
-305.64391044096 526.766811237686 2180.985435231 178 182 181
-357.390711696269 554.040732449008 1946.11745264781 254 253 249
-386.641470574038 561.122030013071 1942.29257520907 232 231 227
-378.394099087579 558.250950503013 1952.72136331529 139 136 131
-365.549173533755 554.168667751634 1964.79910391251 134 133 128
-355.432763290445 550.816080357654 1975.77808835655 137 136 132
-349.88680818958 548.677202205222 1985.01001849247 144 143 141
-346.166951291083 547.02403995866 1993.53405013015 164 166 165
-345.196253308527 546.098163954752 2001.03537930915 170 174 173
-339.621476585113 543.961853762203 2010.16192168486 177 181 180
-334.956244354132 542.068669652908 2018.92167216949 177 179 176
-334.888339233409 541.386238460898 2026.03134320486 172 174 171
-335.739618965268 540.945731914225 2032.81111463692 179 181 178
-333.821292320582 539.779711870306 2040.53879033269 182 187 183
-318.96729896981 535.229870540619 2052.6547047256 182 186 185
-305.011537778942 530.924276048648 2064.36439238462 168 174 172
-294.731726019551 527.587496354093 2074.74667917915 172 178 176
-289.062176602345 525.460045760629 2083.52601358231 186 192 192
-284.307657598648 523.575050755988 2091.95942995156 189 195 195
-275.834487249288 520.725666883116 2101.56356862475 177 183 183
-268.273230765295 518.118976373579 2110.81129727249 171 177 177
-262.555273399122 515.996070164511 2119.41377153524 180 184 185
-263.331387528822 515.561780077264 2125.91746354309 180 184 185
-265.036215987381 515.368377407274 2132.1250531513 178 182 183
-265.810218263136 514.93381897347 2138.6216638619 175 179 180
-267.514590432277 514.740021386068 2144.82731002676 175 179 180
-276.67718695389 516.472011313613 2148.76637271922 173 177 178
-285.85123163442 518.202395676958 2152.74785553527 175 179 180
-293.169704420109 519.45005394035 2157.32783636803 179 183 184
-293.956096841153 519.012928775105 2163.86789973731 174 178 179
-296.611272013175 519.056568560345 2169.85727624237 169 173 174
-304.883175049353 520.541822473231 2174.23084179848 179 183 184
-312.22877309062 521.785404861396 2178.90896009455 173 177 176
-317.708424602803 522.54738168283 2184.14869389226 142 146 145
-379.424332186158 552.156491527065 1944.90605377318 250 250 248
-370.250159230122 549.075497221409 1955.65760084251 119 118 114
-361.058727939539 545.996130751326 1966.34702785087 133 134 129
-350.015415922095 542.43891134603 1977.6517341203 142 144 141
-347.215964671152 541.040905474248 1985.85875254842 156 158 157
-347.16660456253 540.362366047247 1993.03973463568 175 179 180
-345.274983096023 539.204731350053 2000.8727845154 180 186 186
-340.61687881057 537.329251429502 2009.67017716269 175 181 181
-334.106856549803 534.97590844011 2019.082704377 174 178 177
-333.114817496607 534.059475929841 2026.51076047095 182 186 185
-327.50585170905 531.947222578861 2035.52555378275 182 186 185
-318.192764603306 528.879593809556 2045.76977814061 187 191 190
-301.470328719207 523.901212495021 2058.47247271351 187 191 190
-288.41845609888 519.881777009838 2069.8206088646 168 172 171
-281.821442377395 517.536827096503 2078.91638180647 183 187 186
-277.064004751917 515.670727099497 2087.35089122374 185 191 189
-276.004084596023 514.760397944385 2094.53077142664 191 197 195
-272.157205062223 513.134368021205 2102.6012518663 170 176 174
-270.158550418621 511.9862166213 2110.04196677235 165 171 169
-263.508969210882 509.646089981243 2118.94561210295 176 180 181
-261.495460403528 508.499179966817 2126.33196015613 176 180 181
-259.476315054963 507.352676339358 2133.69763740798 178 182 183
-259.313806590557 506.683027884199 2140.46506414337 175 179 180
-261.012481135213 506.489759281141 2146.64989011824 173 177 178
-269.239808982659 507.962679761131 2150.85017005123 176 180 181
-279.344188798673 509.91021697678 2154.52565442069 175 179 180
-287.593408849579 511.380201149317 2158.80536198356 176 180 181
-292.113630233575 511.897535540131 2164.22478571927 178 182 183
-295.702817342257 512.176402625304 2169.93322627989 175 179 180
-300.230957656284 512.692279676089 2175.38206038504 162 166 167
-312.259746723321 515.108032258796 2178.70453600994 170 174 175
-320.553502906607 516.571753602047 2183.14564348095 129 133 134
-322.288472841578 516.372265431963 2189.46130041733 134 138 139
-383.189051963114 546.08652755676 1943.36157278049 248 250 249
-374.012300162598 543.037227543123 1954.12355522247 149 151 150
-364.818293499429 539.989583846714 1964.82344847577 151 155 156
-354.68942316767 536.706558545705 1975.80008891739 166 170 171
-348.216499213667 534.373396324714 1985.36402497683 182 186 187
-343.569621961515 532.515305370516 1994.21407988136 185 191 191
-338.912883915882 530.658123800761 2003.02809773009 183 189 189
-333.325570849278 528.565093506083 2012.13449075988 183 188 191
-326.805293745994 526.236397001431 2021.52543327652 184 190 190
-322.116792221593 524.382138073525 2030.22336475711 191 197 197
-313.726454070992 521.582652051463 2040.16747506294 189 195 195
-304.397067508062 518.548362197969 2050.372231177 188 192 193
-288.579658357692 513.861228977667 2062.72174202473 189 190 192
-277.360669715461 510.358366299929 2073.40851341017 196 198 197
-271.676494293101 508.274654075644 2082.16208746189 177 181 180
-268.760857696199 506.900404058093 2089.9518016524 189 193 192
-269.547011228492 506.470809015838 2096.49666122253 158 164 162
-266.620170127319 505.097392724013 2104.24530165549 157 163 161
-267.401110954465 504.668017771039 2110.77001740341 171 177 175
-261.674457857521 502.588062974103 2119.36825241772 181 185 186
-258.727153435252 501.216305729242 2127.04196398555 179 183 184
-255.772542859857 499.845097508452 2134.68982488635 178 182 183
-255.6056900323 499.18112159296 2141.44470319741 174 178 179
-259.165584834386 499.459072883274 2147.04380897985 171 175 176
-264.594466429876 500.207194275232 2152.08629643469 172 176 177
-272.830581935902 501.660324340182 2156.30670858963 172 176 177
-282.946012742994 503.582494866725 2160.0072079235 173 177 178
-291.204022899337 505.032659458033 2164.30703837902 174 178 179
-294.792647847827 505.306233726689 2170.01005014176 174 178 179
-297.447428601682 505.344258021634 2175.99441692287 174 178 179
-306.665658064413 507.0260701189 2180.10835416674 157 161 162
-320.585962950175 509.88027294577 2182.93783106204 168 172 173
-325.136802112868 510.384953588697 2188.46294369514 150 154 155
-323.114959717411 509.246408798485 2195.82456115618 141 145 146
-461.061033144152 560.362718671796 1898.59693869197 254 255 255
-394.287989011409 542.549627080752 1931.68085582147 226 228 227
-381.459487877998 538.591938726924 1943.8982394526 192 196 195
-372.275834808824 535.574818473655 1954.65491545273 164 168 169
-363.992439021573 532.793840171285 1965.00776659886 170 174 175
-352.020505585582 529.076869946801 1976.66014562615 184 188 189
-344.622201924248 526.533671821102 1986.55204291131 190 194 195
-339.049084645521 524.460279492205 1995.72446952523 184 188 189
-333.464893516519 522.388001747282 2004.85555577095 182 188 188
-327.869178611781 520.316731932355 2013.9454218727 189 195 195
-321.340533348955 518.01259351504 2023.31987072129 190 196 196
-316.644248783018 516.177503357237 2032.00100745204 191 197 197
-305.474435973313 512.706450943825 2042.89137142357 191 197 197
-295.208854000752 509.471239609905 2053.39061557338 190 194 195
-278.451193680904 504.602218569568 2066.03064404969 189 190 192
-265.366875344625 500.670564119819 2077.31466498952 189 191 190
-262.448393283599 499.309900582098 2085.10239232154 178 180 179
-263.230674068629 498.883475600041 2091.63394552767 166 170 169
-266.794515266175 499.157006334879 2097.24584161818 145 149 148
-264.791174465596 498.030467205075 2104.68280259775 156 162 160
-265.569623933975 497.603878786777 2111.20002769099 177 183 181
-260.767663656455 495.778627689095 2119.49502308399 181 185 186
-258.74724429925 494.653320121079 2126.87028129627 179 183 184
-254.858755323667 493.062559869542 2134.8085414581 177 181 182
-256.553841132298 492.869706321731 2140.98030520365 175 179 180
-261.047280873151 493.374945581427 2146.29265771482 172 176 177
-266.478791474646 494.112198802451 2151.33711553701 170 174 175
-270.981868132488 494.615890256594 2156.68427082879 170 174 175
-276.424216870267 495.351391841601 2161.768791658 170 174 175
-284.67935067864 496.783302759275 2166.04641838332 170 174 175
-289.199352093141 497.284430233618 2171.45479321679 175 179 180
-291.849551893493 497.320269318146 2177.42077218792 178 182 183
-298.25263171669 498.284485341149 2182.31944815515 165 169 170
-311.232362677184 500.872361627914 2185.38586318512 158 162 163
-323.290563050281 503.226065313465 2188.7783627996 172 176 177
-327.844918391809 503.722136464632 2194.31109473318 118 122 123
-461.146355506564 553.777037392705 1890.85954912181 212 216 215
-433.747256777755 546.140109260101 1909.00112249319 190 194 193
-398.975427377212 536.651750991601 1929.77457499623 182 186 187
-376.978034861493 530.416917530204 1945.47798267794 188 192 193
-367.785309841019 527.432256970791 1956.22146965236 188 192 193
-357.657402828457 524.217501227383 1967.24478853406 196 200 201
-349.348527144348 521.468027980232 1977.52199943714 188 192 191
-340.104459366596 518.488475158979 1988.07901459768 187 191 190
-333.603810639001 516.205252460235 1997.57154320666 193 195 194
-326.169601233343 513.69185529268 2007.34894426536 193 195 192
-319.642736076017 511.411202523831 2016.74575892823 195 197 196
-313.10333269006 509.131862584825 2026.09592143515 194 198 201
-307.473904899581 507.084912254229 2035.07597224896 189 193 196
-297.214496686386 503.883343457725 2045.61937849418 191 195 198
-289.709994634194 501.376848449973 2055.14015439565 192 193 197
-273.864421279679 496.792937307403 2067.45026608955 188 188 190
-262.621315998842 493.366429343632 2078.09570349177 187 187 187
-258.771221145685 491.788471889005 2086.18459652086 189 189 189
-261.404374833523 491.826491761036 2092.08773442974 130 132 131
-264.96693640142 492.094711567092 2097.69152646376 159 161 158
-264.817598139813 491.44015488786 2104.51645071559 162 167 163
-264.665317817485 490.785642503612 2111.33140866065 176 182 178
-261.719750422324 489.44008360548 2119.0281097343 179 183 184
-258.766892894343 488.095057436992 2126.69900933374 178 182 183
-257.670424980423 487.211166391602 2133.75988651269 176 180 181
-257.502114641316 486.557670346139 2140.51596981033 176 180 181
-261.996838558118 487.054717113944 2145.82791790463 174 178 179
-263.694418536129 486.861069647028 2152.00844077327 166 170 171
-266.326858138197 486.897121399618 2157.90768485406 166 170 171
-268.960626807882 486.932737911463 2163.8125177367 166 170 171
-276.276186293984 488.116785713055 2168.34152174355 166 170 171
-283.600520174139 489.299587646565 2172.9023167799 172 176 177
-289.995983423691 490.251564455595 2177.76591572553 176 180 181
-296.39898188864 491.202532500396 2182.65592554563 183 187 188
-305.625836794402 492.840650519002 2186.77523023759 146 150 151
-316.743693202923 494.935929506081 2190.41051059486 160 164 165
-324.114655808064 496.112327682708 2195.14038595124 129 133 134
-326.788801847122 496.141642449427 2201.19115350065 131 135 136
-463.973526835193 547.874740410873 1882.04367026981 199 200 202
-446.649849408889 542.845276757504 1896.37721348384 160 164 163
-424.718576496231 536.67185595915 1912.36488303308 184 188 187
-393.587861112806 528.208981005343 1931.71737514085 187 191 192
-372.492127837172 522.273583568987 1947.06026568437 188 192 193
-363.290110322444 519.321299982075 1957.79062159688 193 197 198
-353.152730895051 516.14169306071 1968.80096238504 189 193 194
-343.915923127244 513.192942125993 1979.40437923824 189 191 190
-336.501805186836 510.703837146693 1989.27171278554 190 192 191
-332.755891969293 509.131600869066 1997.75009483776 196 196 194
-326.237500838072 506.873753349978 2007.19276993953 195 196 191
-318.78445110052 504.38844338915 2016.91795333045 196 196 196
-306.703507718439 500.76145165873 2028.22333652651 193 197 200
-301.065394090161 498.73645334397 2037.18406885804 191 194 199
-290.795048135899 495.5702894914 2047.70921824255 192 195 200
-286.055474222511 493.776252193454 2056.25554873727 186 187 191
-271.12423688147 489.471905209841 2068.24059263455 184 184 186
-258.019942976882 485.626712230509 2079.50503545047 191 189 190
-256.017343745459 484.521504225535 2086.9582170865 169 169 169
-260.503497883838 485.013014528369 2092.23485183899 132 134 133
-264.065726872437 485.275893219592 2097.83310794846 170 172 169
-262.98484581859 484.398806668854 2104.95615208561 166 171 167
-260.969939227798 483.294198900339 2112.36401786636 178 183 179
-257.088005374189 481.73459644953 2120.34628731557 179 183 184
-255.060174870347 480.630999686299 2127.7077364585 178 182 183
-254.891216357045 479.983015783623 2134.46396426829 174 178 179
-256.585005804896 479.790081100832 2140.63086365595 176 180 181
-261.07957366824 480.279101946472 2145.93716520724 174 178 179
-260.907157931414 479.630875321561 2152.68133280408 164 168 169
-263.53695515771 479.664423870884 2158.57011489252 164 168 169
-267.104167921994 479.924790989315 2164.18528910874 165 169 170
-273.483694747476 480.865779481129 2168.9818527645 166 170 171
-279.870318975945 481.805694478595 2173.80501896087 168 172 173
-286.264482365644 482.744600255476 2178.65461039371 170 174 175
-294.543014439973 484.136083590769 2182.99358643548 170 174 177
-302.831745354429 485.526156313674 2187.3695381849 180 184 187
-313.9508161811 487.594837838241 2190.99253519331 155 159 162
-325.084407029359 489.661608984201 2194.66823608298 153 157 160
-331.525161687555 490.594158661026 2199.68679885528 130 134 137
-486.82220183353 547.610932287972 1857.60443572011 209 213 214
-469.539957340504 542.632363513842 1872.12394365714 182 186 187
-454.970974554322 538.337618722699 1885.46003003828 182 186 187
-434.885400868149 532.684711320903 1900.83547418659 186 190 189
-413.849490266607 526.808689336453 1916.43889016857 188 192 191
-391.86129403183 520.70982861016 1932.26228790568 192 196 197
-372.587969454361 515.294685013092 1946.90724503306 193 197 198
-361.544471070969 511.921502013752 1958.32745031454 192 196 197
-350.481048281441 508.550377864329 1969.67498003117 191 195 196
-343.995160825954 506.312946369155 1979.2512245191 193 197 198
-334.735823448703 503.397994949702 1989.79233259263 192 196 197
-327.30142494699 500.937143746855 1999.60220634603 191 195 196
-319.852828706286 498.47773240106 2009.36027572761 194 195 197
-312.390053193755 496.019715451702 2019.06658060086 194 198 199
-301.220651006726 492.659418630713 2030.02746539433 191 195 196
-292.802792424468 489.978756502626 2039.94348789491 198 202 205
-285.293780902114 487.525408223621 2049.48107507976 195 199 200
-278.6957563437 485.299169627902 2058.64804309356 180 184 185
-266.528871005832 481.720575491552 2069.6648963592 187 188 190
-258.047596098194 479.046337957553 2079.34952262529 160 161 163
-256.970125854257 478.177175290515 2086.49023315649 138 138 138
-262.385665553756 478.885782274026 2091.45823743756 132 134 133
-263.162798177322 478.467216826751 2097.975638628 171 173 172
-262.079347636179 477.598168147006 2105.09421745339 165 169 168
-258.200692291441 476.05408672054 2113.09845852569 176 180 179
-256.175725482907 474.960881560003 2120.47617169946 180 184 185
-254.145127341001 473.868125508917 2127.83326038032 178 182 183
-254.906417771688 473.450410261666 2134.29237938536 174 178 179
-254.733019042836 472.807857340228 2141.03647940482 175 179 180
-256.424842996919 472.614817819837 2147.19601511038 173 177 178
-256.247352917653 471.972348160344 2153.92497731486 162 166 167
-259.808830886069 472.228179560999 2159.51599574325 163 167 168
-263.373308796023 472.483476262646 2165.11781478564 165 169 170
-270.687854796845 473.63566044209 2169.62386791984 167 171 172
-277.073899517136 474.562406653539 2174.43563941133 168 172 173
-287.220334206296 476.384954794285 2178.18835372362 168 172 173
-295.501763437289 477.757531162891 2182.52614947128 171 175 176
-304.733045623204 479.352751051979 2186.63480815349 190 194 197
-312.095191369203 480.498570724252 2191.3126425731 172 176 179
-322.28960887124 482.314818449866 2195.23952991294 137 141 144
-328.729331914846 483.234150705329 2200.24684673704 157 161 164
-329.520797559926 482.810273848024 2206.81411028093 179 183 186
-469.555093401695 536.666716969927 1856.72385378827 202 206 207
-464.140738915772 534.66091932699 1866.52841128129 185 189 190
-454.144512111937 531.534826971373 1878.09661039084 186 190 191
-439.555640549238 527.289584698493 1891.38917791891 190 194 195
-422.194095748833 522.374625091422 1905.65534787768 188 192 191
-402.053855206409 516.790760048178 1920.87141443392 190 194 193
-389.215499867895 513.002268267532 1933.15903319162 193 197 198
-372.683394527721 508.320621938831 1946.75480168362 194 198 199
-357.95976470438 504.089650946454 1959.55604834123 193 197 198
-345.967832433517 500.532501068084 1971.23600683665 194 198 199
-340.39414335804 498.543159904369 1980.45844696435 193 197 198
-332.967803583446 496.107747028868 1990.31430162026 192 196 199
-326.448584053821 493.897233787841 1999.7837854263 192 196 199
-317.150346909544 491.017787433364 2010.20288232832 193 197 200
-309.680737918358 488.586728986957 2019.90083602212 195 199 202
-297.579421833506 485.04095172784 2031.18092490878 196 200 201
-286.380623365038 481.720512633531 2042.05876017533 196 200 201
-278.861875492209 479.294501913901 2051.57745770299 190 194 195
-270.403283790471 476.646942957778 2061.36314572422 172 176 177
-261.929015135931 474.000966053977 2071.09162711732 179 183 184
-256.220225420953 472.025076577204 2079.82188676301 159 163 164
-256.995254556831 471.609541637355 2086.33339141967 136 140 141
-260.554524599011 471.861953092556 2091.91498209866 152 156 157
-261.329166574721 471.446130772941 2098.42486786896 154 158 159
-260.242405991498 470.585248937847 2105.53631327503 165 169 170
-255.428558239981 468.834995956552 2113.83452269145 178 182 183
-251.536147718169 467.308015662127 2121.79849024673 177 181 182
-251.364126367127 466.670899475856 2128.5502076475 176 180 181
-251.189134860586 466.033859717068 2135.29187471786 167 171 172
-252.878723813832 465.841179776879 2141.44333932347 175 179 180
-253.634160803717 465.426293307516 2147.88251159233 178 182 183
-255.323276499358 465.233292620366 2154.03201658237 163 167 168
-258.883967069303 465.483734584586 2159.61763796905 162 166 167
-263.38431977852 465.955478545295 2164.93450979857 163 167 168
-267.889110685768 466.426521465446 2170.26741718722 163 167 168
-271.460433994884 466.675293147765 2175.89053229942 167 171 172
-281.605516574187 468.474111262369 2179.62324459659 173 177 178
-291.763457000181 470.271218541734 2183.40354444916 178 182 181
-300.054357268524 471.62393990073 2187.76396888859 165 169 170
-308.355658215815 472.975393298316 2192.16127946351 179 183 184
-319.491674428478 474.988941037597 2195.81238278316 165 169 170
-327.815271749698 476.337360921542 2200.29148924531 138 142 143
-328.604717846398 475.916266661023 2206.85394041032 139 143 144
-452.299450219795 525.816280871038 1855.94597639439 187 191 192
-445.961406259983 523.610866414565 1866.09134868734 181 185 186
-441.438478104448 521.850102570043 1875.46304953615 188 192 193
-435.076568484089 519.647043931661 1885.52130064924 190 194 195
-424.125744136138 516.337675808555 1897.3258758328 189 193 194
-409.491086609923 512.144649665541 1910.48141558299 193 197 196
-393.913915886526 507.732947479338 1923.89677736054 194 198 197
-382.896949270151 504.430521401631 1935.46016210901 195 199 200
-365.4327854413 499.581759492462 1949.38712148891 194 198 199
-349.77668499955 495.178499862776 1962.51383385773 193 197 198
-336.852048953239 491.441174316733 1974.51341293989 194 198 199
-334.028039025861 490.136774226963 1982.68834760622 194 198 199
-329.355134960769 488.391232930527 1991.51282801728 193 197 200
-323.750670435995 486.425885963544 2000.63615361328 193 197 200
-311.677321607004 482.916639177596 2012.04407189038 193 197 200
-302.352202124437 480.071524636414 2022.38503524875 195 199 202
-290.238413920274 476.566586521699 2033.64460129869 195 199 200
-279.952357563509 473.504803890274 2044.17732187646 195 199 200
-272.42387775998 471.106101335651 2053.67712759862 169 173 174
-264.881170386734 468.708856529752 2063.12502948919 167 171 172
-258.250969046278 466.533260094082 2072.20450422644 174 178 179
-255.318267886944 465.239545975843 2079.98170719193 152 156 157
-256.091291188417 464.826647630702 2086.48835820895 124 128 129
-257.792181230701 464.633729341425 2092.68163106207 150 154 155
-260.423090229274 464.660556635141 2098.56936847165 142 146 147
-262.125025212162 464.46719977809 2104.7662440957 164 168 169
-258.240223752036 462.955239657941 2112.76794555741 175 179 180
-253.415100581767 461.224458266429 2121.03658489636 180 184 185
-252.310319027587 460.372895887639 2128.08700578612 177 181 182
-250.267875442159 459.302110845685 2135.4149150243 163 167 168
-248.220003310061 458.231859688137 2142.72207717683 178 182 183
-248.970766421036 457.820041056006 2149.14583312118 170 174 175
-253.462069398417 458.28513429125 2154.42490615021 162 166 167
-257.95781625561 458.749540270411 2159.7200445365 161 165 166
-259.647209586957 458.556059783741 2165.8702774132 163 167 168
-263.211856494665 458.800354187813 2171.46670665892 163 167 168
-267.718012864246 459.26305079891 2176.79941431898 164 168 169
-276.924157938191 460.819188888336 2180.78914060634 168 172 173
-288.021432414635 462.811280191505 2184.28285698208 185 189 188
-292.549505571984 463.270922119061 2189.69500881228 174 178 179
-297.081974291968 463.729911261853 2195.12306837091 165 169 170
-307.27055336634 465.499083168127 2198.99948658775 185 189 190
-320.30055636754 467.921832661452 2202.14737041642 157 161 162
-326.743752940498 468.814118436124 2207.15050804215 146 150 151
-452.385091803394 519.225175956073 1848.20634783017 210 214 215
-442.399245602698 516.16635065172 1859.85555697933 186 190 191
-434.222115460227 513.547601613564 1870.70444567914 186 190 191
-425.115070022313 510.711434542524 1881.86072418819 187 191 192
-415.076149207527 507.658097710467 1893.31634283166 189 193 194
-403.187593303543 504.169063199635 1905.42219297076 198 202 203
-388.528260129844 500.025963393516 1918.51856677608 193 197 196
-378.428986373182 496.978971250318 1929.75411247961 194 198 199
-371.064808612547 494.589672968528 1939.86987685026 195 199 200
-358.175296678943 490.890793905699 1952.02320895305 194 198 199
-344.34334011474 486.975823220336 1964.43917834791 193 197 198
-330.487341479842 483.063481400018 1976.76661495165 194 198 199
-325.814326650648 481.336365952462 1985.60231723368 194 198 199
-321.13145008009 479.610217765371 1994.4020154805 194 198 201
-317.360835098963 478.103088965427 2002.83071920145 194 198 201
-306.198772842869 474.852638099498 2013.8882067054 195 199 202
-295.940303652843 471.822180295546 2024.54312988254 195 199 202
-280.117276125662 467.486512186433 2037.0936774701 196 200 201
-271.667580131299 464.896008507656 2046.94841522455 186 190 191
-265.053627212125 462.742491473295 2056.10215694353 165 169 170
-260.279961283153 461.025500460332 2064.57055345716 174 178 179
-257.350685487615 459.744510457904 2072.36943649017 167 171 172
-254.414594184755 458.464214748809 2080.14252419827 143 147 148
-255.186062051222 458.054030714343 2086.64418484113 119 123 124
-255.956038976 457.643780912091 2093.14119740988 159 163 164
-259.515293769813 457.885182328023 2098.71485128977 138 142 143
-262.146618496626 457.908907226288 2104.60310254925 177 181 182
-259.190441096603 456.630082520337 2112.30254322972 180 184 185
-252.497923095413 454.484063354295 2121.16932195906 171 175 176
-249.524478207169 453.206824217788 2128.80658190815 163 167 168
-246.544164779814 451.930271066406 2136.41784439031 166 170 171
-243.556538332701 450.654325499651 2144.00326768305 177 181 182
-245.237713985293 450.462185351746 2150.12383614889 173 177 178
-249.726682808844 450.919504573014 2155.38933481679 163 167 168
-256.093382928488 451.809120285853 2160.10584134449 160 164 165
-256.843414451011 451.399408089411 2166.52821093753 159 163 164
-259.468057051199 451.422273908336 2172.39111039279 159 163 164
-263.032943161222 451.66098063193 2177.98489998088 160 164 165
-268.480104482354 452.33152322408 2183.0453482589 163 167 168
-278.633878046226 454.081382937858 2186.78034772962 159 163 162
-283.155266569365 454.533826214218 2192.16313597164 179 183 184
-287.681055568144 454.985587254404 2197.56183158903 192 196 197
-296.923282529939 456.515687712692 2201.6690840569 173 177 178
-311.835599723557 459.338526099527 2204.26558597239 184 188 189
-322.992916715596 461.296335239328 2207.96058447726 131 135 136
-325.663662300402 461.312367091512 2213.99034066963 127 131 132
-452.470615299049 512.628979509655 1840.46213727964 219 223 224
-439.751901386025 508.954112151446 1853.26569771312 188 192 193
-432.489741009198 506.580439645722 1863.77009793197 186 190 191
-421.557629944968 503.342638904248 1875.69026479094 187 191 192
-409.691310893872 499.890703662182 1887.90209854264 189 193 194
-399.634275973666 496.873414015659 1899.3132213688 196 200 201
-386.810543231245 493.209638372954 1911.73387020038 194 198 199
-377.631219748046 490.412504574732 1922.64643805843 193 197 196
-369.352553405017 487.833154367054 1933.14321710514 194 198 199
-361.05831743477 485.255446006952 1943.58322575415 194 198 199
-349.072459942655 481.816014660165 1955.36006003064 193 197 198
-337.065470195451 478.378890085311 1967.05896173832 193 197 198
-326.877792205341 475.375294685736 1977.9936782819 194 198 199
-319.43502219971 473.020402112349 1987.83936701366 194 198 199
-310.134290160179 470.235937868247 1998.30916759071 194 198 201
-304.506944844154 468.314951737178 2007.37554840278 195 199 202
-293.328279802646 465.103052265393 2018.39666137313 195 199 202
-283.977966681378 462.323845664563 2028.68476748953 195 199 202
-270.911469538453 458.685677424051 2040.22024685575 190 194 195
-267.076625938745 457.200844610639 2048.42455882305 171 175 176
-265.08577786202 456.146852166325 2055.95370501715 165 169 170
-262.162298295701 454.878369759931 2063.78200495458 172 176 177
-259.232020741345 453.610594062277 2071.5845824512 162 166 167
-254.437924430484 451.913931273932 2079.98995913794 136 140 141
-256.137336997657 451.720988900449 2086.17773121005 120 124 125
-256.906985591612 451.313232143091 2092.67509872884 156 160 161
-259.536670835968 451.334583188166 2098.55483516215 135 139 140
-259.374035620699 450.712231186821 2105.35165180136 179 183 184
-254.54901637362 449.018328840186 2113.64396048505 178 182 183
-250.646639218731 447.539660277515 2121.60142538341 167 171 172
-249.535954617234 446.704355879932 2128.64019385365 159 163 164
-248.421062180559 445.869393723518 2135.66355552976 167 171 172
-243.562650613335 444.178674610367 2143.83389480044 176 180 181
-244.30766740799 443.772582348799 2150.23993112913 173 177 178
-247.860016412946 444.008002206816 2155.78509774846 163 167 168
-254.226635609706 444.884283241508 2160.49288500766 159 163 164
-253.098592904161 444.050047691444 2167.46788105404 157 161 162
-256.658695332988 444.284180820352 2173.04009322067 158 162 163
-260.221556364862 444.517763921199 2178.62312930333 159 163 164
-265.667275477385 445.177750508616 2183.67248745717 161 165 166
-270.178298729834 445.623550792165 2189.01259744276 166 170 169
-274.693721747011 446.068712246556 2194.36863956917 171 175 176
-280.155549773683 446.726351964025 2199.47632527316 181 185 186
-290.337280762012 448.448730733899 2203.29684612955 180 184 185
-306.193198562783 451.447596111888 2205.61063697903 174 178 179
-321.126450689449 454.230811710654 2208.25985044368 137 141 142
-327.575499681803 455.095847998271 2213.26658403348 134 138 139
-330.248895593294 455.108742773571 2219.30419978326 164 168 171
-437.061024144582 502.389333762974 1839.13034050934 233 237 238
-441.666860690451 502.822074383698 1844.81422848307 184 188 189
-431.671114459508 499.832442880803 1856.47036610417 185 189 190
-424.397814122998 497.486082528086 1866.95064929969 192 196 197
-414.36742678985 494.500074739333 1878.48045912118 193 197 198
-401.573457617298 490.875170675556 1891.03615573416 191 195 196
-388.756737242582 487.252688498774 1903.50891064528 191 195 196
-375.000857084728 483.419193547302 1916.25784731689 198 202 203
-365.806683056239 480.655122779001 1927.13615227714 194 198 197
-356.595726817679 477.892870119796 1937.95236701702 194 198 199
-346.448939450803 474.919176469288 1949.05778082931 194 198 199
-339.041816650065 472.586820309958 1959.05004895821 195 199 200
-329.780273672718 469.829804575579 1969.68268039439 195 199 200
-323.264128084373 467.713492185976 1979.22305062804 193 197 198
-315.813791148903 465.385614059637 1989.05770034002 193 197 198
-301.893544616627 461.56954754535 2001.2073802812 194 198 201
-291.640855501419 458.606989957934 2011.92663238537 194 198 201
-278.598532731654 455.008455247659 2023.57688899723 194 198 201
-274.777518090026 453.537966571233 2031.84160131265 194 198 201
-266.322477133815 451.005934108752 2041.7134099363 155 159 160
-265.258557228934 450.174680387612 2048.9283639445 135 139 140
-263.263993912698 449.13147225564 2056.45052483271 184 188 189
-259.409169954526 447.664258365211 2064.59177731069 169 173 174
-258.329964211103 446.834332058892 2071.75081605656 148 152 153
-254.460352534602 445.368510726782 2079.83804382312 128 132 133
-255.229709936564 444.963466480068 2086.33511371783 126 130 131
-255.997791889014 444.558446991872 2092.82746374972 143 147 148
-256.764372798222 444.153377345784 2099.31513805768 129 133 134
-256.598323224812 443.536626344637 2106.10188501011 180 184 185
-251.767653342598 441.861725573446 2114.38521059303 177 181 182
-249.726048790251 440.822492256877 2121.73615510425 170 174 175
-247.679032105573 439.783812588711 2129.06642595099 169 173 174
-246.560822603122 438.957025310072 2136.08263320187 161 165 166
-241.697471912891 437.28526880723 2144.2466064763 177 181 182
-242.439974067808 436.882001876897 2150.64509020674 171 175 176
-245.054397547516 436.901023911772 2156.46762130653 158 162 163
-251.42020844602 437.764076055309 2161.16405548339 156 160 161
-250.2881179845 436.938143215788 2168.12926490196 160 164 165
-254.784984962159 437.378042228661 2173.41308966044 162 166 167
-258.346538189697 437.606411529661 2178.98797840164 158 162 163
-265.672455223665 438.677339038469 2183.48401972275 157 161 162
-267.360917982954 438.483085239581 2189.63030933894 156 160 159
-273.7583069308 439.341611507244 2194.44112922278 158 162 163
-280.162758537905 440.199111623643 2199.27845254053 161 165 166
-289.404328454258 441.686909200864 2203.35655770292 176 180 181
-301.489062109684 443.804175247842 2206.69922486948 184 188 189
-316.423688050033 446.550189257293 2209.33005189912 183 187 188
-328.542699250066 448.663252564891 2212.79640245846 125 129 130
-437.197083966166 495.195174714864 1838.99073796265 220 224 225
-430.852796156058 493.084562102454 1849.1718519621 179 183 184
-419.929106274345 489.919324030203 1861.1690972919 189 193 194
-412.641778732605 487.600602534062 1871.61474995078 193 197 198
-403.511033388893 484.861357278293 1882.7432976924 194 198 199
-396.194079426025 482.545708406578 1893.08089315046 195 199 200
-384.282053272914 479.177282422773 1905.17667778713 198 202 203
-371.431888004379 475.600390093936 1917.55404140585 192 196 197
-364.06467264725 473.290034305978 1927.70836793398 193 197 196
-353.92829923516 470.349348377116 1938.87328606678 197 201 202
-343.773464373469 467.410609866335 1949.97088995338 194 198 199
-331.760752912016 464.052976503319 1961.69873464722 195 199 200
-323.408386152341 461.539006775162 1971.96408532637 195 199 200
-317.804281154513 459.657574461666 1981.14172509468 194 198 199
-311.266812555155 457.56703692525 1990.6192000606 195 199 200
-297.33543556437 453.79694001075 2002.75657758961 195 199 202
-287.996780471335 451.079624861828 2013.12704270261 190 194 197
-274.020212272975 447.314285268006 2025.10056668086 198 202 205
-268.343008661193 445.44046956163 2034.01161434949 193 197 200
-263.579949710834 443.777584784377 2042.55355234053 134 138 139
-265.29080613899 443.58362214478 2048.78316908291 147 151 152
-265.147814139767 442.970248312836 2055.65858547949 171 175 176
-261.291352263958 441.518878548853 2063.80375984229 157 161 162
-257.426643174087 440.068390324638 2071.91794145126 152 156 157
-253.55322400225 438.618685703872 2080.00120798171 139 143 144
-254.320576674751 438.216270703275 2086.49342369971 122 126 127
-255.08687933441 437.813904850173 2092.98084293247 146 150 151
-255.851899757833 437.411557319708 2099.46351304135 130 134 135
-255.683443018514 436.800124921042 2106.24560956824 166 170 171
-251.781246890308 435.353026419088 2114.22367826681 172 176 177
-249.737588027878 434.324544093921 2121.57285411798 170 174 175
-246.7541547388 433.087770114034 2129.19764765145 165 169 170
-246.568208572463 432.477790011814 2135.9157262676 160 164 165
-241.701360961551 430.824829321378 2144.07858285291 177 181 182
-242.442792651976 430.424220696199 2150.4747704732 175 179 180
-245.993983245859 430.648972214347 2156.00890070797 165 169 170
-249.548389904461 430.87330114921 2161.55377574123 159 163 164
-250.289917198096 430.472183315624 2167.95092585248 157 161 162
-252.908936370817 430.487583249764 2173.7873040324 160 164 165
-256.469179702617 430.710746213597 2179.35404237873 157 161 162
-263.795409766055 431.765686773118 2183.84115259405 156 160 161
-267.364702606958 431.987600849895 2189.43977248961 158 162 161
-273.76321473068 432.832653263115 2194.24718484152 160 164 165
-277.340582784241 433.053359010834 2199.87502354326 158 162 163
-285.638787638456 434.312152232974 2204.20326716996 161 165 166
-296.780147169463 436.192573101085 2207.79015984619 171 175 176
-311.716144210737 438.901385834965 2210.40259056694 180 184 185
-325.726715660927 441.400240178816 2213.34286109474 154 158 159
-329.344762371517 441.61551193591 2219.11830094002 200 204 207
-424.561216771532 485.08502551306 1844.14174255248 192 196 197
-414.550535469093 482.165119593699 1855.78645026358 191 195 196
-403.60781574325 479.038720670373 1867.73663349474 185 189 190
-397.217209438106 476.956427249106 1877.76458427757 189 193 194
-390.813955632795 474.875423275225 1887.7463914607 190 194 195
-386.229835997578 473.212242030622 1896.95250888374 186 190 191
-375.219916676861 470.092957983377 1908.65768515018 189 193 194
-366.942036603319 467.600022016468 1919.21194088917 194 198 199
-357.730415191839 464.900725092713 1930.06636195046 194 198 197
-345.745556559812 461.579454916871 1941.9215055762 195 199 200
-334.658963065779 458.468359865633 1953.34717576823 193 197 198
-323.552452109398 455.359380627625 1964.70023214 197 201 202
-317.030390997491 453.290868113928 1974.24881753337 199 203 204
-312.338914392013 451.638882924113 1983.06340817009 196 200 201
-305.792839096936 449.572837276283 1992.52439105796 195 199 200
-290.92663724133 445.641338579942 2004.98536683328 193 197 200
-280.653497880882 442.749317732639 2015.67322439007 189 193 196
-267.588296830805 439.23749355633 2027.29328292295 189 193 196
-263.752476312821 437.799925548452 2035.52380830804 179 183 186
-261.760185003744 436.777423848948 2043.06747767098 133 137 138
-263.468946039734 436.583472486342 2049.28932175265 147 151 152
-263.323052670507 435.975495992708 2056.1573735279 171 175 176
-258.534025283083 434.333464411026 2064.61606141779 142 146 147
-256.521597286406 433.312757280876 2072.08610020351 154 158 159
-252.644377879898 431.879146869322 2080.16541824861 120 124 125
-254.340376677913 431.686036092942 2086.34040934414 109 113 114
-253.243526829386 430.873198561455 2093.44472794373 151 155 156
-255.869349812431 430.886454174399 2099.30594254823 144 148 149
-255.699641899978 430.280379813579 2106.08584747659 172 176 177
-255.526974721647 429.674438387198 2112.85577818109 175 179 180
-251.616063508394 428.243901430262 2120.81194556951 169 173 174
-246.76207366517 426.608133882802 2129.0333953766 160 164 165
-243.768861376221 425.385430565616 2136.63076488 156 160 161
-237.960134652056 423.545535339154 2145.07583764796 175 179 180
-239.634316873232 423.353749106164 2151.17066431697 178 182 183
-240.371176568272 422.956059339689 2157.55171982907 164 168 169
-246.736076069609 423.79257936189 2162.22801917444 156 160 161
-247.474366635883 423.39437037258 2168.61498844337 158 162 163
-252.909745384018 424.023889669441 2173.60671939863 160 164 165
-255.530024820802 424.036284411186 2179.44587937086 157 161 162
-263.798331280374 425.280519637524 2183.65392496174 156 160 161
-267.367757295841 425.497067699645 2189.24965148762 152 156 155
-271.882404324642 425.91828816432 2194.5886264562 155 159 160
-274.515247186661 425.928695544024 2200.47317724761 158 162 163
-281.869496355305 426.963939352242 2205.05188141133 156 160 161
-292.066445760903 428.612841140281 2208.88344477105 165 169 170
-307.94942091773 431.489347360261 2211.22044311368 186 190 191
-322.90778443794 434.158386182237 2213.89080502123 169 173 174
-325.576731623645 434.163881478759 2219.90723188056 184 188 191
-433.776677626387 480.619608102734 1832.67540044569 215 219 220
-415.564008249346 475.878886563155 1847.78690782338 187 191 192
-404.626726692886 472.788518770648 1859.78095910386 191 195 196
-390.013447939756 468.877180184358 1873.19371682517 186 190 191
-385.437501424891 467.231430612022 1882.44118488749 186 190 191
-384.513884733168 466.409186817319 1890.18274562334 184 188 189
-381.753639071259 465.176190993137 1898.63950542513 184 188 189
-369.816919846775 461.889219204067 1910.69410641937 187 191 192
-360.61178743148 459.220668922454 1921.59203167193 192 196 197
-354.144913175917 457.169855139134 1931.35668909839 194 198 197
-348.58464306595 455.325638103154 1940.7205749919 192 196 197
-338.413693011518 452.456841091616 1951.80250372748 192 196 197
-322.700764785839 448.359629396892 1964.91237733934 196 200 201
-313.410000890107 445.70028232246 1975.49725108907 197 201 202
-306.868039634378 443.657416204249 1984.98814294025 197 201 202
-299.390669383654 441.411082497296 1994.77390612858 194 198 199
