ply
format ascii 1.0
comment KinectMotionCapture
element vertex 751
property float x
property float y
property float z
property uchar red
property uchar green
property uchar blue
end_header
-224.272266030312 256.853520870209 2138.99993896484 194 196 195
-218.941017985344 257.465660572052 2144.00005340576 197 199 198
-213.184118270874 257.597178220749 2144.99998092651 203 205 204
-620.985746383667 204.380482435226 1751.99997425079 161 162 157
-615.194737911224 204.04015481472 1748.99995326996 141 141 139
-609.420359134674 203.700080513954 1746.00005149841 149 149 147
-602.277040481567 202.893510460854 1738.9999628067 159 159 157
-595.859169960022 202.320486307144 1733.99996757507 145 145 143
-590.491414070129 202.097699046135 1731.99999332428 153 153 151
-585.134565830231 201.875105500221 1730.00001907349 155 155 153
-578.782081604004 201.302617788315 1725.00002384186 165 165 165
-571.125507354736 200.263500213623 1715.99996089935 164 166 163
-564.508020877838 199.574589729309 1710.00003814697 161 163 160
-558.905124664307 199.235945940018 1707.00001716614 161 163 160
-553.967952728271 199.130892753601 1705.9999704361 162 164 161
-549.680233001709 199.259504675865 1707.00001716614 163 165 162
-545.06778717041 199.271589517593 1707.00001716614 164 166 163
-540.771782398224 199.400559067726 1707.99994468689 167 169 166
-536.470293998718 199.529752135277 1708.99999141693 175 177 174
-532.163321971893 199.659109115601 1710.00003814697 176 178 175
-527.850687503815 199.788615107536 1710.99996566772 177 179 176
-523.532569408417 199.91834461689 1712.00001239777 178 180 177
-520.421028137207 200.515314936638 1717.00000762939 177 177 177
-518.183588981628 201.462894678116 1725.00002384186 186 188 187
-517.986416816711 203.228324651718 1740.00000953674 187 189 188
-519.182860851288 205.578148365021 1759.99999046326 184 188 187
-524.947285652161 209.79742705822 1796.0000038147 163 167 166
-531.385660171509 214.367881417274 1835.00003814697 134 140 138
-532.161831855774 216.719269752502 1855.00001907349 105 111 109
-528.85103225708 217.435419559479 1860.99994182587 108 114 112
-524.381518363953 217.684358358383 1863.00003528595 121 125 124
-519.06430721283 217.582866549492 1861.99998855591 131 133 132
-513.752102851868 217.481464147568 1860.99994182587 136 138 137
-508.444786071777 217.38013625145 1860.00001430511 140 140 140
-503.142297267914 217.278867959976 1858.99996757507 141 143 142
-497.844696044922 217.177659273148 1858.00004005432 132 134 133
-492.551863193512 217.07646548748 1856.99999332428 128 130 129
-487.263947725296 216.97536110878 1855.99994659424 124 126 125
-481.980741024017 216.87425673008 1855.00001907349 123 125 124
-476.188153028488 216.53938293457 1851.99999809265 117 119 118
-471.174329519272 216.555267572403 1851.99999809265 129 131 130
-465.656399726868 216.337308287621 1850.00002384186 136 138 137
-460.148751735687 216.119378805161 1848.00004959106 148 150 149
-452.927142381668 215.082690119743 1838.99998664856 150 152 151
-445.997208356857 214.16287124157 1830.9999704361 147 149 148
-440.073370933533 213.710814714432 1827.00002193451 154 156 155
-435.599446296692 213.960587978363 1828.9999961853 152 154 153
-432.055771350861 214.678347110748 1835.00003814697 151 153 152
-428.246080875397 215.27923643589 1840.0000333786 155 157 156
-424.408555030823 215.880170464516 1845.00002861023 161 163 162
-419.633775949478 216.013118624687 1845.99995613098 165 167 166
-415.302067995071 216.380104422569 1848.99997711182 166 168 167
-410.731375217438 216.630086302757 1850.99995136261 163 165 164
-406.587451696396 217.114165425301 1855.00001907349 158 160 159
-401.771515607834 217.247098684311 1855.99994659424 157 159 158
-397.163152694702 217.49709546566 1858.00004005432 161 163 162
-392.332047224045 217.629998922348 1858.99996757507 158 160 157
-387.494713068008 217.762857675552 1860.00001430511 160 162 159
-382.651001214981 217.895656824112 1860.99994182587 164 166 163
-378.004014492035 218.14551949501 1863.00003528595 166 168 165
-373.545438051224 218.512445688248 1866.00005626678 169 171 168
-368.872314691544 218.762248754501 1868.00003051758 170 172 169
-364.382147789001 219.129115343094 1871.00005149841 173 175 172
-359.29873585701 219.14453804493 1871.00005149841 173 175 172
-354.782372713089 219.511285424232 1873.99995326996 176 178 175
-350.062310695648 219.760850071907 1876.00004673004 175 177 174
-345.146536827087 219.89318728447 1876.99997425079 173 175 172
-340.586841106415 220.259755849838 1879.99999523163 177 179 178
-336.723655462265 221.09492123127 1886.99996471405 178 180 179
-333.524465560913 222.398802638054 1898.00000190735 182 184 183
-329.57249879837 223.233982920647 1904.99997138977 183 185 184
-325.581610202789 224.069133400917 1911.99994087219 180 182 181
-321.049004793167 224.552676081657 1916.00000858307 183 185 184
-316.823452711105 225.270569324493 1922.00005054474 186 188 187
-312.402248382568 225.871175527573 1927.00004577637 187 189 188
-307.79355764389 226.354494690895 1930.99999427795 185 187 186
-303.632169961929 227.189391851425 1937.99996376038 182 184 183
-299.89367723465 228.37595641613 1947.99995422363 180 182 181
-297.309637069702 230.500444769859 1965.99996089935 180 182 181
-294.626593589783 232.625022530556 1983.99996757507 174 176 175
-291.990399360657 234.866932034492 2003.00002098083 172 174 173
-288.963675498962 236.874416470528 2019.99998092651 167 169 168
-288.369327783585 240.992829203606 2055.0000667572 176 178 177
-288.959115743637 246.284261345863 2099.99990463257 188 190 189
-288.088917732239 250.520557165146 2135.99991798401 139 141 140
-284.114241600037 252.176761627197 2150.00009536743 97 99 96
-278.768122196198 252.659887075424 2154.00004386902 97 99 96
-273.145854473114 252.908229827881 2155.99989891052 115 117 114
-267.263919115067 252.921760082245 2155.99989891052 125 127 124
-261.381059885025 252.935081720352 2155.99989891052 123 125 122
-255.141854286194 252.596169710159 2153.00011634827 118 120 117
-248.686641454697 252.022355794907 2148.00000190735 124 126 125
-242.031782865524 251.213520765305 2141.00003242493 124 126 125
-235.745295882225 250.756442546844 2137.00008392334 128 130 129
-229.802593588829 250.651061534882 2135.99991798401 144 146 145
-224.074319005013 250.780135393143 2137.00008392334 149 151 150
-218.748241662979 251.378357410431 2141.99995994568 162 164 163
-212.897181510925 251.389622688293 2141.99995994568 179 181 180
-614.852786064148 199.172422289848 1748.00002574921 147 147 145
-610.128402709961 199.182212352753 1748.00002574921 148 148 146
-603.672623634338 198.622465133667 1743.00003051758 160 160 158
-597.244203090668 198.062926530838 1738.00003528595 146 146 144
-591.18390083313 197.617515921593 1733.99996757507 152 152 150
-585.483610630035 197.286248207092 1730.99994659424 160 160 158
-578.457534313202 196.499243378639 1723.99997711182 170 170 170
-570.803821086884 195.484429597855 1715.0000333786 165 167 164
-564.849376678467 195.039629936218 1710.99996566772 166 168 165
-559.244096279144 194.708973169327 1707.99994468689 167 169 166
-554.304420948029 194.606527686119 1707.00001716614 167 169 166
-549.692153930664 194.618225097656 1707.00001716614 169 171 168
-544.760525226593 194.516077637672 1705.9999704361 173 175 172
-540.150821208954 194.528147578239 1705.9999704361 172 174 171
-535.854876041412 194.654375314713 1707.00001716614 176 178 175
-531.553447246552 194.780811667442 1707.99994468689 180 182 179
-527.246475219727 194.907397031784 1708.99999141693 184 186 183
-522.628009319305 194.920122623444 1708.99999141693 183 185 182
-519.221782684326 195.389226078987 1713.00005912781 186 186 186
-516.995251178741 196.314781904221 1720.99995613098 187 189 188
-515.61838388443 197.582870721817 1731.99999332428 192 194 193
-516.541659832001 199.763908982277 1751.00004673004 193 195 194
-521.453976631165 203.542679548264 1784.00003910065 186 190 189
-529.373049736023 208.577185869217 1827.99994945526 128 132 131
-532.463610172272 211.786761879921 1855.99994659424 108 112 111
-529.718637466431 212.714552879333 1863.9999628067 107 111 110
-524.678170681 212.729588150978 1863.9999628067 120 124 123
-518.800854682922 212.402313947678 1860.99994182587 133 135 134
-513.215303421021 212.189197540283 1858.99996757507 142 144 143
-507.91347026825 212.090328335762 1858.00004005432 153 153 153
-502.616465091705 211.991488933563 1856.99999332428 157 159 158
-497.592210769653 212.006852030754 1856.99999332428 151 153 152
-492.832779884338 212.136507034302 1858.00004005432 146 148 147
-487.542122602463 212.037831544876 1856.99999332428 143 145 144
-482.256233692169 211.939185857773 1855.99994659424 142 144 143
-476.718127727509 211.726412177086 1853.99997234344 153 155 154
-471.190065145493 211.513608694077 1851.99999809265 154 156 155
-465.168803930283 211.072400212288 1848.00004959106 153 155 154
-458.919525146484 210.516929626465 1843.00005435944 148 150 149
-451.711446046829 209.504440426826 1833.99999141693 147 149 148
-444.794893264771 208.606049418449 1825.99997520447 152 154 153
-439.607262611389 208.50732922554 1825.00004768372 152 154 153
-435.615092515945 208.979859948158 1828.9999961853 147 149 148
-432.542413473129 209.909543395042 1837.00001239777 151 153 152
-428.727298974991 210.49652993679 1842.00000762939 159 161 160
-424.424350261688 210.855036973953 1845.00002861023 162 164 163
-419.649541378021 210.984960198402 1845.99995613098 166 168 167
-415.093272924423 211.229205131531 1848.00004959106 161 163 162
-410.747140645981 211.587741971016 1850.99995136261 158 160 159
-406.603246927261 212.060630321503 1855.00001907349 165 167 166
-401.787251234055 212.190553545952 1855.99994659424 164 166 165
-396.965146064758 212.320476770401 1856.99999332428 156 158 157
-392.136663198471 212.450355291367 1858.00004005432 160 162 159
-387.301951646805 212.580174207687 1858.99996757507 159 161 158
-382.255345582962 212.595611810684 1858.99996757507 162 164 161
-377.613693475723 212.839707732201 1860.99994182587 163 165 162
-373.160541057587 213.19817006588 1863.9999628067 172 174 171
-368.690222501755 213.556572794914 1866.99998378754 179 181 178
-363.81322145462 213.686183094978 1868.00003051758 179 181 178
-358.92990231514 213.815718889236 1868.99995803833 175 177 174
-354.608237743378 214.288413524628 1873.00002574921 174 176 173
-349.890768527985 214.532226324081 1875 175 177 174
-344.977647066116 214.661568403244 1876.00004673004 175 177 174
-340.239405632019 214.905232191086 1878.00002098083 178 180 179
-336.381614208221 215.721011161804 1884.99999046326 177 179 178
-332.836359739304 216.765701770782 1894.00005340576 178 180 179
-329.068213701248 217.69592165947 1901.99995040894 181 183 182
-325.085431337357 218.51173043251 1909.00003910065 179 181 180
-320.896029472351 219.212979078293 1914.99996185303 182 184 183
-316.508233547211 219.799742102623 1919.99995708466 185 187 186
-311.930298805237 220.271959900856 1924.00002479553 187 189 188
-307.329565286636 220.7440584898 1927.99997329712 184 186 185
-303.019613027573 221.445083618164 1934.00001525879 182 184 183
-299.753755331039 222.947597503662 1947.00002670288 181 183 182
-297.172456979752 225.022718310356 1965.0000333786 180 182 181
-294.937580823898 227.44145989418 1985.99994182587 180 182 181
-292.295962572098 229.631319642067 2005.00011444092 172 174 173
-289.120584726334 231.477588415146 2020.99990844727 170 172 171
-287.821859121323 234.927535057068 2051.00011825562 173 175 174
-288.422733545303 240.095913410187 2095.99995613098 181 183 182
-288.102954626083 244.691908359528 2135.99991798401 147 149 148
-284.392446279526 246.538728475571 2151.99995040894 94 96 93
-278.911232948303 246.896132826805 2154.99997138977 106 108 105
-273.286074399948 247.138798236847 2157.00006484985 124 126 123
-267.277181148529 247.03748524189 2155.99989891052 128 130 127
-261.27290725708 246.935948729515 2154.99997138977 126 128 125
-255.154699087143 246.719613671303 2153.00011634827 120 122 119
-248.814970254898 246.273756027222 2148.9999294281 109 111 110
-242.044061422348 245.369210839272 2141.00003242493 124 126 125
-235.536649823189 244.693577289581 2134.99999046326 150 152 151
-229.491546750069 244.476050138474 2132.99989700317 185 187 186
-223.771214485168 244.602188467979 2134.0000629425 189 191 190
-218.248873949051 244.957312941551 2137.00008392334 192 194 193
-212.808787822723 245.426818728447 2141.00003242493 197 199 198
-205.026134848595 243.144825100899 2121.00005149841 206 208 207
-615.91762304306 194.75482404232 1751.00004673004 158 158 156
-610.836386680603 194.653257727623 1750 145 145 143
-604.02899980545 193.995743989944 1743.99995803833 159 159 157
-596.567153930664 193.115919828415 1735.99994182587 145 145 143
-590.853452682495 192.792490124702 1733.00004005432 148 148 146
-584.817826747894 192.357957363129 1728.99997234344 166 166 166
-577.79735326767 191.589832305908 1722.00000286102 170 170 170
-570.814847946167 190.821841359138 1715.0000333786 164 166 163
-564.86052274704 190.387725830078 1710.99996566772 163 165 162
-559.910297393799 190.2876496315 1710.00003814697 160 162 159
-554.640591144562 190.076410770416 1707.99994468689 157 159 156
-550.025880336761 190.087959170341 1707.99994468689 158 160 157
-544.453024864197 189.765766263008 1705.00004291534 156 158 155
-539.846241474152 189.777612686157 1705.00004291534 157 159 156
-535.867154598236 190.012261271477 1707.00001716614 161 163 160
-531.254649162292 190.024450421333 1707.00001716614 165 167 164
-526.950418949127 190.14810025692 1707.99994468689 168 170 167
-522.640705108643 190.271928906441 1708.99999141693 168 170 167
-519.537687301636 190.841287374496 1713.99998664856 174 174 174
-516.707897186279 191.522166132927 1720.00002861023 177 177 177
-514.738500118256 192.537382245064 1728.99997234344 180 182 181
-514.195144176483 194.10964846611 1743.00003051758 182 184 183
-517.668008804321 197.241500020027 1771.00002765656 169 173 172
-525.622665882111 202.155962586403 1815.00005722046 146 150 149
-530.757009983063 206.068724393845 1850.00002384186 113 117 116
-530.017733573914 207.754209637642 1865.00000953674 108 112 111
-524.693071842194 207.6575756073 1863.9999628067 116 118 117
-518.815875053406 207.338184118271 1860.99994182587 127 127 127
-512.402176856995 206.795990467072 1855.99994659424 137 137 137
-506.835162639618 206.588119268417 1853.99997234344 151 151 151
-501.549005508423 206.491693854332 1853.00004482269 161 163 162
-497.071623802185 206.729665398598 1855.00001907349 164 166 165
-492.58279800415 206.967711448669 1856.99999332428 160 162 161
-487.294942140579 206.871464848518 1855.99994659424 151 153 152
-482.011914253235 206.775322556496 1855.00001907349 152 154 153
-476.990699768066 206.790596246719 1855.00001907349 160 162 161
-471.460074186325 206.583008170128 1853.00004482269 157 159 158
-464.680790901184 205.817893147469 1845.99995613098 148 150 149
-457.68991112709 204.941228032112 1838.00005912781 146 148 147
-450.741589069366 204.064428806305 1830.00004291534 150 152 151
-444.810301065445 203.633606433868 1825.99997520447 152 154 153
-439.863502979279 203.648820519447 1825.99997520447 151 153 152
-436.106830835342 204.221725463867 1830.9999704361 151 153 152
-432.557880878448 204.906269907951 1837.00001239777 155 157 156
-428.510040044785 205.367773771286 1840.99996089935 159 161 160
-424.209803342819 205.717802047729 1843.99998188019 160 162 161
-419.665038585663 205.956280231476 1845.99995613098 161 163 162
-415.333360433578 206.306353211403 1848.99997711182 154 156 155
-410.762667655945 206.544861197472 1850.99995136261 152 154 153
-406.399488449097 206.894963979721 1853.99997234344 154 156 155
-401.58623456955 207.021862268448 1855.00001907349 154 156 155
-396.766752004623 207.148760557175 1855.99994659424 149 151 150
-391.729891300201 207.163959741592 1855.99994659424 155 157 154
-386.90060377121 207.290798425674 1856.99999332428 157 159 156
-381.859332323074 207.305908203125 1856.99999332428 172 174 171
-377.425998449326 207.655891776085 1860.00001430511 175 177 174
-372.575044631958 207.782536745071 1860.99994182587 167 169 166
-368.112832307816 208.132475614548 1863.9999628067 165 167 164
-363.243937492371 208.259046077728 1865.00000953674 174 176 173
-358.75278711319 208.608880639076 1868.00003051758 173 175 172
-354.244470596313 208.958700299263 1871.00005149841 173 175 172
-349.532335996628 209.196746349335 1873.00002574921 174 176 173
-344.992339611053 209.546446800232 1876.00004673004 174 176 173
-340.435177087784 209.896057844162 1878.99994850159 175 177 176
-336.574614048004 210.692510008812 1886.0000371933 175 177 176
-332.675129175186 211.488917469978 1893.00000667572 176 178 177
-328.909665346146 212.397083640099 1901.00002288818 179 181 180
-324.759215116501 213.08171749115 1906.99994564056 177 179 178
-320.407569408417 213.654577732086 1911.99994087219 176 178 177
-315.698146820068 214.003905653954 1914.99996185303 180 182 181
-311.133682727814 214.464873075485 1919.0000295639 185 187 186
-306.705892086029 215.037554502487 1924.00002479553 185 187 186
-303.033471107483 216.169014573097 1934.00001525879 181 183 182
-299.92151260376 217.747524380684 1947.99995422363 179 181 180
-297.337412834167 219.773292541504 1965.99996089935 178 180 179
-294.357270002365 221.575513482094 1981.99999332428 174 176 175
-291.87223315239 223.825007677078 2002.00009346008 171 173 172
-288.418889045715 225.403755903244 2016.00003242493 173 175 174
-287.133783102036 228.771507740021 2046.0000038147 182 184 183
-287.473171949387 233.593165874481 2088.99998664856 191 193 192
-288.251638412476 238.974288105965 2137.00008392334 163 165 164
-284.802585840225 241.000831127167 2154.99997138977 100 102 99
-279.313027858734 241.349786520004 2157.99999237061 111 113 110
-273.552715778351 241.474896669388 2158.99991989136 128 130 127
-267.414212226868 241.26423895359 2157.00006484985 131 133 130
-261.164456605911 240.94146490097 2154.00004386902 129 131 128
-255.04869222641 240.730285644531 2151.99995040894 122 124 121
-248.595684766769 240.183249115944 2147.0000743866 124 126 125
-242.05607175827 239.52405154705 2141.00003242493 137 139 138
-235.438078641891 238.752692937851 2134.0000629425 150 152 151
-229.503035545349 238.652288913727 2132.99989700317 160 162 161
-223.782449960709 238.775447010994 2134.0000629425 168 170 169
-218.157738447189 239.010244607925 2135.99991798401 161 163 162
-212.819561362267 239.580541849136 2141.00003242493 201 203 202
-207.066610455513 239.702984690666 2141.99995994568 207 209 208
-618.037581443787 190.646231174469 1756.99996948242 189 189 187
-611.195147037506 190.004721283913 1751.00004673004 138 138 136
-604.038953781128 189.254879951477 1743.99995803833 146 146 144
-597.264587879181 188.613697886467 1738.00003528595 138 138 136
-591.545641422272 188.298255205154 1735.00001430511 138 138 136
-585.504829883575 187.874466180801 1730.99994659424 154 154 152
-578.14359664917 187.016680836678 1723.00004959106 162 162 162
-571.491360664368 186.376079916954 1717.00000762939 158 160 157
-565.531849861145 185.952723026276 1713.00005912781 157 159 156
-559.921503067017 185.638025403023 1710.00003814697 158 160 157
-554.002523422241 185.214936733246 1705.9999704361 164 166 163
-548.427164554596 184.900552034378 1702.99994945526 168 170 167
-543.506741523743 184.803441166878 1702.00002193451 170 172 169
-539.224803447723 184.92366373539 1702.99994945526 170 172 169
-535.251259803772 185.152649879456 1705.00004291534 173 175 172
-531.266748905182 185.381814837456 1707.00001716614 174 176 173
-526.962697505951 185.502529144287 1707.99994468689 177 179 176
-522.958993911743 185.732036828995 1710.00003814697 178 180 177
-519.550323486328 186.178952455521 1713.99998664856 176 176 176
-516.420245170593 186.734691262245 1718.99998188019 179 179 179
-513.560593128204 187.399253249168 1725.00002384186 177 177 177
-512.438237667084 188.715875148773 1736.99998855591 173 175 174
-515.635311603546 191.662609577179 1764.00005817413 166 170 169
-523.609399795532 196.457043290138 1807.99996852875 149 153 152
-529.910624027252 200.70892572403 1847.00000286102 132 136 135
-529.74808216095 202.570676803589 1863.9999628067 137 141 140
-524.426281452179 202.476486563683 1863.00003528595 154 156 155
-518.830597400665 202.273681759834 1860.99994182587 155 155 155
-512.140870094299 201.636135578156 1855.00001907349 154 154 154
-506.576597690582 201.433390378952 1853.00004482269 162 162 162
-501.293182373047 201.339408755302 1851.99999809265 162 164 163
-496.550679206848 201.462924480438 1853.00004482269 171 173 172
-492.067337036133 201.695218682289 1855.00001907349 173 175 174
-486.784994602203 201.601415872574 1853.99997234344 166 168 167
-481.507360935211 201.507672667503 1853.00004482269 162 164 163
-476.234436035156 201.41389966011 1851.99999809265 155 157 156
-470.457464456558 201.102644205093 1848.99997711182 152 154 153
-463.689059019089 200.356304645538 1842.00000762939 147 149 148
-456.708937883377 199.50108230114 1833.99999141693 145 147 146
-450.264066457748 198.863327503204 1827.99994945526 150 152 151
-444.825351238251 198.660671710968 1825.99997520447 151 153 152
-440.119475126266 198.784396052361 1827.00002193451 152 154 153
-436.598360538483 199.452206492424 1832.99994468689 154 156 155
-433.044046163559 200.120121240616 1838.99998664856 157 159 158
-428.758025169373 200.461640954018 1842.00000762939 159 161 160
-424.225002527237 200.694367289543 1843.99998188019 158 160 159
-419.680267572403 200.927093625069 1845.99995613098 158 160 159
-415.123969316483 201.159849762917 1848.00004959106 154 156 155
-410.77783703804 201.501443982124 1850.99995136261 153 155 154
-406.633853912354 201.951935887337 1855.00001907349 155 157 156
-401.817888021469 202.075839042664 1855.99994659424 156 158 157
-396.781861782074 202.090814709663 1855.99994659424 154 156 155
-391.533881425858 201.996847987175 1855.00001907349 157 159 156
-386.498868465424 202.011719346046 1855.00001907349 159 161 158
-381.874293088913 202.244356274605 1856.99999332428 169 171 168
-377.643823623657 202.694773674011 1860.99994182587 170 172 169
-372.589915990829 202.709496021271 1860.99994182587 165 167 164
-367.732673883438 202.833101153374 1861.99998855591 166 168 165
-363.063842058182 203.065544366837 1863.9999628067 172 174 171
-358.959466218948 203.624814748764 1868.99995803833 173 175 172
-354.637742042542 204.075127840042 1873.00002574921 174 176 173
-349.733471870422 204.198464751244 1873.99995326996 175 177 174
-345.006763935089 204.430729150772 1876.00004673004 175 177 174
-340.449512004852 204.771891236305 1878.99994850159 176 178 177
-336.588889360428 205.54892718792 1886.0000371933 176 178 177
-332.513570785522 206.216976046562 1891.99995994568 177 179 178
-328.750789165497 207.10301399231 1899.99997615814 181 183 182
-324.262380599976 207.553014159203 1904.00004386902 178 180 179
-319.918841123581 208.111941814423 1909.00003910065 175 177 176
-315.217435359955 208.452746272087 1911.99994087219 177 179 178
-310.823142528534 209.011524915695 1917.00005531311 187 189 188
-306.400686502457 209.57025885582 1922.00005054474 186 188 187
-302.890330553055 210.783168673515 1932.99996852875 182 184 183
-299.781054258347 212.323248386383 1947.00002670288 181 183 182
-297.199636697769 214.299604296684 1965.0000333786 180 182 181
-294.667720794678 216.385066509247 1983.99996757507 179 181 180
-291.739821434021 218.252509832382 2000.99992752075 175 177 176
-288.002967834473 219.574615359306 2013.00001144409 176 178 177
-286.445379257202 222.642049193382 2040.99988937378 187 189 188
-287.348985671997 227.782398462296 2088.00005912781 194 196 195
-288.669854402542 233.468636870384 2140.00010490417 174 176 175
-285.080343484879 235.336676239967 2157.00006484985 103 105 102
-279.455691576004 235.568091273308 2158.99991989136 116 118 115
-273.565739393234 235.581055283546 2158.99991989136 136 138 135
-267.550975084305 235.484719276428 2157.99999237061 141 143 140
-261.540770530701 235.388144850731 2157.00006484985 140 142 139
-255.179554224014 234.963938593864 2153.00011634827 134 136 133
-248.839318752289 234.539434313774 2148.9999294281 121 123 122
-242.067843675613 233.678087592125 2141.00003242493 124 126 125
-235.559910535812 233.034759759903 2134.99999046326 130 132 131
-229.51428592205 232.827678322792 2132.99989700317 137 139 138
-223.793476819992 232.947885990143 2134.0000629425 144 146 145
-218.168511986732 233.176976442337 2135.99991798401 170 172 171
-212.730720639229 233.624249696732 2140.00010490417 165 167 166
-206.88359439373 233.634561300278 2140.00010490417 178 180 179
-611.902892589569 185.456365346909 1753.00002098083 150 150 148
-603.009700775146 184.196412563324 1741.00005626678 146 146 144
-596.587181091309 183.677151799202 1735.99994182587 137 137 135
-591.555774211884 183.581322431564 1735.00001430511 138 138 136
-586.191654205322 183.379873633385 1733.00004005432 154 154 152
-578.825116157532 182.54366517067 1725.00002384186 163 163 163
-571.169137954712 181.601747870445 1715.99996089935 161 163 160
-564.882397651672 181.083232164383 1710.99996566772 160 162 159
-559.277534484863 180.776506662369 1707.99994468689 161 163 160
-554.013609886169 180.575788021088 1705.9999704361 168 170 167
-548.116505146027 180.163502693176 1702.00002193451 170 172 169
-542.879521846771 179.963052272797 1700.00004768372 176 178 175
-538.286507129669 179.974466562271 1700.00004768372 177 179 176
-534.321188926697 180.197775363922 1702.00002193451 179 181 178
-530.033767223358 180.315375328064 1702.99994945526 181 183 180
-526.357769966125 180.644899606705 1705.9999704361 187 189 186
-522.971272468567 181.080535054207 1710.00003814697 190 192 189
-519.562780857086 181.516334414482 1713.99998664856 188 186 187
-516.132414340973 181.952312588692 1718.00005435944 194 194 194
-512.977838516235 182.494387030602 1723.00004959106 193 193 193
-511.56610250473 183.672189712524 1733.99996757507 188 190 189
-515.063881874084 186.651095747948 1761.99996471405 168 172 171
-523.043811321259 191.325560212135 1805.99999427795 146 150 149
-529.350876808167 195.471063256264 1845.00002861023 133 137 136
-528.909802436829 197.180286049843 1860.99994182587 141 145 144
-524.722158908844 197.512373328209 1863.9999628067 163 165 164
-519.402682781219 197.420716285706 1863.00003528595 165 165 165
-512.707591056824 196.799233555794 1856.99999332428 162 162 162
-506.591141223907 196.389690041542 1853.00004482269 166 166 166
-501.307845115662 196.298137307167 1851.99999809265 168 168 168
-496.297389268875 196.31265103817 1851.99999809265 168 170 169
-491.551607847214 196.43323123455 1853.00004482269 170 172 171
-485.749542713165 196.12979888916 1850.00002384186 169 171 170
-480.482697486877 196.038410067558 1848.99997711182 168 170 169
-474.963515996933 195.840999484062 1847.00000286102 153 155 154
-469.709008932114 195.749685168266 1845.99995613098 151 153 152
-462.445259094238 194.809973239899 1837.00001239777 150 152 151
-455.72766661644 194.082275032997 1830.00004291534 151 153 152
-449.53989982605 193.566590547562 1825.00004768372 150 152 151
-445.08370757103 193.793326616287 1827.00002193451 149 151 150
-440.616071224213 194.020122289658 1828.9999961853 147 149 148
-437.089651823044 194.671347737312 1835.00003814697 155 157 156
-433.294355869293 195.216506719589 1840.0000333786 157 159 158
-428.772926330566 195.443466305733 1842.00000762939 162 164 163
-424.009829759598 195.564314723015 1843.00005435944 163 165 164
-419.467806816101 195.79128921032 1845.00002861023 163 165 164
-415.36346077919 196.230515837669 1848.99997711182 161 163 162
-410.792708396912 196.457520127296 1850.99995136261 158 160 159
-406.64878487587 196.896806359291 1855.00001907349 154 156 155
-401.832699775696 197.017654776573 1855.99994659424 154 156 155
-397.01047539711 197.138503193855 1856.99999332428 156 158 157
-391.337543725967 196.834623813629 1853.99997234344 157 159 156
-386.305183172226 196.849182248116 1853.99997234344 160 162 159
-381.683260202408 197.076052427292 1855.99994659424 170 172 169
-377.252578735352 197.409078478813 1858.99996757507 169 171 168
-372.604489326477 197.635889053345 1860.99994182587 163 165 162
-367.747157812119 197.756439447403 1861.99998855591 164 166 163
-363.078236579895 197.983145713806 1863.9999628067 171 173 170
-358.973860740662 198.528468608856 1868.99995803833 174 176 173
-354.273349046707 198.755100369453 1871.00005149841 175 177 174
-349.56106543541 198.981672525406 1873.00002574921 174 176 173
-344.837009906769 199.208185076714 1875 172 174 171
-340.644747018814 199.753358960152 1879.99999523163 176 178 177
-336.60289645195 200.404763221741 1886.0000371933 174 176 175
-332.527548074722 201.056152582169 1891.99995994568 175 177 176
-328.418582677841 201.707512140274 1898.00000190735 183 185 184
-323.935478925705 202.146261930466 1901.99995040894 181 183 182
-319.262117147446 202.478677034378 1904.99997138977 178 180 179
-314.901262521744 203.023612499237 1909.9999666214 173 175 174
-310.51230430603 203.568458557129 1914.99996185303 180 182 181
-306.414067745209 204.325869679451 1922.00005054474 180 182 181
-302.90362238884 205.508500337601 1932.99996852875 181 183 182
-299.948275089264 207.116395235062 1947.99995422363 182 184 183
-297.364085912704 209.043353796005 1965.99996089935 180 182 181
-294.532358646393 210.864037275314 1983.00004005432 178 180 179
-291.607111692429 212.684795260429 2000 178 180 179
-287.586748600006 213.761135935783 2009.99999046326 175 177 176
-285.896986722946 216.645509004593 2036.99994087219 188 190 189
-287.086814641953 221.869975328445 2085.99996566772 194 196 195
-288.548171520233 227.520331740379 2138.99993896484 192 194 193
-285.225629806519 229.554429650307 2157.99999237061 122 124 121
-279.727518558502 229.886472225189 2161.00001335144 131 133 130
-273.578494787216 229.686439037323 2158.99991989136 140 142 139
-267.563492059708 229.592561721802 2157.99999237061 137 139 136
-261.431753635406 229.392021894455 2155.99989891052 125 127 124
-255.191594362259 229.08490896225 2153.00011634827 116 118 115
-248.619556427002 228.458270430565 2147.0000743866 109 111 110
-242.079392075539 227.831333875656 2141.00003242493 117 119 118
-235.571175813675 227.204129099846 2134.99999046326 138 140 139
-229.525327682495 227.002292871475 2132.99989700317 176 178 177
-223.699390888214 227.013096213341 2132.99989700317 189 191 190
-218.179076910019 227.342948317528 2135.99991798401 190 192 191
-212.840437889099 227.885469794273 2141.00003242493 192 194 193
-206.893682479858 227.789148688316 2140.00010490417 197 199 198
-603.019237518311 179.463282227516 1741.00005626678 175 175 173
-597.627997398376 179.266735911369 1738.9999628067 146 146 144
-592.588663101196 179.173469543457 1738.00003528595 143 143 141
-587.21661567688 178.97729575634 1735.99994182587 154 154 152
-579.506576061249 178.059563040733 1726.99999809265 163 163 161
-570.846796035767 176.832616329193 1715.0000333786 158 160 157
-564.893007278442 176.430612802505 1710.99996566772 155 157 154
-558.633387088776 175.925612449646 1705.9999704361 155 157 154
-553.699851036072 175.833240151405 1705.00004291534 158 160 157
-548.127591609955 175.534769892693 1702.00002193451 157 159 156
-543.529391288757 175.545826554298 1702.00002193451 155 157 154
-537.981271743774 175.247594714165 1699.00000095367 155 157 154
-533.704936504364 175.362095236778 1700.00004768372 152 154 151
-529.111742973328 175.373584032059 1700.00004768372 152 154 151
-525.752544403076 175.797864794731 1703.9999961853 161 163 160
-522.065699100494 176.119193434715 1707.00001716614 166 166 164
-518.665492534637 176.543846726418 1710.99996566772 179 179 179
-514.94300365448 176.865518093109 1713.99998664856 178 178 178
-511.799395084381 177.393704652786 1718.99998188019 181 181 181
-510.398626327515 178.54131758213 1730.00001907349 191 193 192
-513.030588626862 181.134134531021 1754.99999523163 181 185 184
-520.740270614624 185.585334897041 1797.99997806549 161 165 164
-527.643144130707 189.830809831619 1838.99998664856 140 144 143
-527.78697013855 191.702648997307 1856.99999332428 138 142 141
-524.173259735107 192.232728004456 1861.99998855591 148 150 149
-518.859207630157 192.143484950066 1860.99994182587 159 159 159
-512.72177696228 191.744521260262 1856.99999332428 158 158 158
-506.332039833069 191.242322325706 1851.99999809265 160 160 160
-500.780761241913 191.049933433533 1850.00002384186 167 167 167
-495.507746934891 190.960839390755 1848.99997711182 167 169 168
-490.504920482636 190.975084900856 1848.99997711182 168 170 169
-485.238820314407 190.886095166206 1848.00004959106 167 169 168
-479.717582464218 190.693795681 1845.99995613098 169 171 170
-473.949491977692 190.398260951042 1843.00005435944 150 152 151
-467.942357063293 189.999341964722 1838.99998664856 150 152 151
-460.949271917343 189.187124371529 1830.9999704361 150 152 151
-454.247891902924 188.478127121925 1824.00000095367 151 153 152
-449.061661958694 188.38906288147 1822.99995422363 150 152 151
-444.854617118835 188.713401556015 1825.99997520447 149 151 150
-441.353350877762 189.347863197327 1832.00001716614 146 148 147
-437.580525875092 189.879044890404 1837.00001239777 157 159 158
-433.779954910278 190.410330891609 1842.00000762939 159 161 160
-429.253101348877 190.631538629532 1843.99998188019 163 165 164
-424.484550952911 190.749391913414 1845.00002861023 163 165 164
-419.709771871567 190.867200493813 1845.99995613098 161 163 162
-415.37806391716 191.191852092743 1848.99997711182 160 162 161
-411.029249429703 191.516503691673 1851.99999809265 158 160 159
-406.882554292679 191.94458425045 1855.99994659424 155 157 156
-402.063757181168 192.06240773201 1856.99999332428 156 158 157
-397.02495932579 192.076787352562 1856.99999332428 160 162 161
-391.140908002853 191.677331924438 1853.00004482269 161 163 160
-386.319577693939 191.795021295547 1853.99997234344 161 163 160
-381.491959095001 191.912680864334 1855.00001907349 169 171 168
-377.469807863235 192.444130778313 1860.00001430511 172 174 171
-373.019158840179 192.768663167953 1863.00003528595 165 167 164
-368.353843688965 192.989692091942 1865.00000953674 163 165 162
-363.287180662155 193.003684282303 1865.00000953674 168 170 167
-358.79585146904 193.328097462654 1868.00003051758 172 174 171
-354.287356138229 193.652465939522 1871.00005149841 173 175 172
-349.574953317642 193.873256444931 1873.00002574921 170 172 169
-344.850838184357 194.094017148018 1875 168 170 167
-340.114921331406 194.314688444138 1876.99997425079 172 174 173
-336.081147193909 194.94940340519 1883.00001621246 170 172 171
-332.189649343491 195.687651634216 1889.99998569489 175 177 176
-328.259080648422 196.42585515976 1896.99995517731 179 181 180
-324.11926984787 197.060510516167 1902.99999713898 179 181 180
-319.443106651306 197.384476661682 1906.00001811981 178 180 179
-314.914554357529 197.811886668205 1909.9999666214 177 179 178
-310.525476932526 198.342815041542 1914.99996185303 179 181 180
-306.427121162415 199.08082485199 1922.00005054474 179 181 180
-302.759945392609 200.129553675652 1932.000041008 181 183 182
-299.191296100616 201.281860470772 1942.999958992 182 184 183
-296.771943569183 203.262954950333 1962.00001239777 179 181 180
-294.396698474884 205.347776412964 1981.99999332428 177 179 178
-291.619956493378 207.225441932678 2000 182 184 183
-287.45636343956 208.170607686043 2009.0000629425 177 179 178
-285.348236560822 210.670098662376 2032.99999237061 189 191 190
-286.549121141434 215.760469436646 2082.00001716614 192 194 193
-288.426220417023 221.576735377312 2138.00001144409 195 197 196
-285.106360912323 223.558694124222 2157.00006484985 92 94 91
-279.481291770935 223.778605461121 2158.99991989136 97 99 96
-273.464232683182 223.687380552292 2157.99999237061 101 103 100
-267.575740814209 223.699629306793 2157.99999237061 107 109 106
-261.080056428909 223.193317651749 2153.00011634827 129 131 128
-254.96631860733 222.997754812241 2151.00002288818 131 133 130
-248.399466276169 222.387224435806 2144.99998092651 118 120 119
-242.090687155724 221.983790397644 2141.00003242493 126 128 127
-235.471844673157 221.269026398659 2134.0000629425 155 157 156
-229.536116123199 221.176102757454 2132.99989700317 162 164 163
-223.605051636696 221.082970499992 2131.99996948242 168 170 169
-218.291595578194 221.611827611923 2137.00008392334 184 186 185
-212.949976325035 222.140461206436 2141.99995994568 179 181 180
-207.09690451622 222.150340676308 2141.99995994568 185 187 186
-600.950539112091 174.127802252769 1735.00001430511 189 190 185
-596.26293182373 174.137219786644 1735.00001430511 143 144 139
-592.257499694824 174.347579479218 1736.99998855591 146 148 143
-587.226629257202 174.257025122643 1735.99994182587 151 153 148
-579.516768455505 173.363611102104 1726.99999809265 171 173 170
-569.858431816101 171.867907047272 1712.00001239777 161 161 159
-563.58277797699 171.376183629036 1707.00001716614 159 159 157
-557.989060878754 171.085357666016 1703.9999961853 158 158 156
-553.710639476776 171.196326613426 1705.00004291534 159 159 157
-548.138380050659 170.905768871307 1702.00002193451 161 161 159
-543.221116065979 170.816197991371 1700.99997520447 160 160 160
-537.992417812347 170.626327395439 1699.00000095367 161 161 161
-533.088326454163 170.537024736404 1697.99995422363 161 161 161
-528.50067615509 170.548260211945 1697.99995422363 161 161 161
-524.838507175446 170.86099088192 1700.99997520447 162 162 162
-521.159887313843 171.173885464668 1703.9999961853 163 163 163
-517.767906188965 171.587392687798 1707.99994468689 165 165 165
-514.053642749786 171.900629997253 1710.99996566772 157 159 158
-511.216104030609 172.51543700695 1717.00000762939 161 163 162
-509.525895118713 173.532366752625 1726.99999809265 185 187 186
-510.704576969147 175.554409623146 1746.99997901917 186 188 187
-516.119241714478 179.084315896034 1781.99994564056 182 184 183
-523.639619350433 183.418825268745 1825.00004768372 154 156 155
-525.811076164246 185.944870114326 1850.00002384186 141 143 142
-523.342490196228 186.863049864769 1858.99996757507 139 141 140
-518.036663532257 186.776220798492 1858.00004005432 147 149 148
-512.183487415314 186.488375067711 1855.00001907349 151 153 152
-505.525767803192 185.898929834366 1848.99997711182 157 159 158
-500.25337934494 185.812219977379 1848.00004959106 168 170 167
-494.717866182327 185.624986886978 1845.99995613098 167 169 166
-489.723116159439 185.638889670372 1845.99995613098 169 171 168
-484.202653169632 185.451731085777 1843.99998188019 169 171 168
-478.952169418335 185.365155339241 1843.00005435944 162 164 161
-473.192125558853 185.077413916588 1840.0000333786 153 155 152
-467.193216085434 184.689074754715 1835.99996566772 151 153 150
-459.704667329788 183.697104454041 1825.99997520447 152 154 151
-453.763902187347 183.308660984039 1822.00002670288 151 153 150
-449.075758457184 183.423221111298 1822.99995422363 150 152 149
-445.599645376205 184.04096364975 1828.9999961853 152 154 151
-441.849380731583 184.558168053627 1833.99999141693 155 157 154
-437.833040952683 184.974804520607 1838.00005912781 156 158 155
-433.558732271194 185.290843248367 1840.99996089935 157 159 156
-428.801834583282 185.405626893044 1842.00000762939 157 159 156
-424.268782138824 185.621067881584 1843.99998188019 156 158 155
-419.72404718399 185.836523771286 1845.99995613098 156 158 155
-415.392369031906 186.152681708336 1848.99997711182 155 157 154
-410.599619150162 186.267465353012 1850.00002384186 154 156 153
-406.458348035812 186.684295535088 1853.99997234344 166 168 165
-401.645004749298 186.799094080925 1855.00001907349 167 169 166
-397.039145231247 187.014549970627 1856.99999332428 165 167 164
-391.155034303665 186.625689268112 1853.00004482269 158 160 159
-386.333674192429 186.740338802338 1853.99997234344 158 160 159
-381.505995988846 186.854958534241 1855.00001907349 166 168 167
-377.280831336975 187.271729111671 1858.99996757507 170 172 171
-372.832864522934 187.587738037109 1861.99998855591 164 166 165
-368.170201778412 187.803000211716 1863.9999628067 159 161 160
-363.106161355972 187.816694378853 1863.9999628067 167 169 168
-358.233392238617 187.931060791016 1865.00000953674 168 170 169
-353.543519973755 188.146144151688 1866.99998378754 168 170 169
-348.841965198517 188.361153006554 1868.99995803833 168 170 169
-344.496488571167 188.777685165405 1873.00002574921 167 169 168
-340.128362178802 189.194157719612 1876.99997425079 173 175 172
-336.273014545441 189.913019537926 1883.99994373322 172 174 171
-332.202970981598 190.531060099602 1889.99998569489 175 177 174
-328.099310398102 191.149070858955 1896.00002765656 179 181 178
-323.96212220192 191.767036914825 1901.99995040894 179 181 178
-319.456189870834 192.183330655098 1906.00001811981 173 175 172
-314.927488565445 192.599549889565 1909.9999666214 175 177 174
-310.538351535797 193.116530776024 1914.99996185303 178 180 177
-306.599348783493 193.935990333557 1922.99997806549 176 178 177
-302.615940570831 194.755434989929 1930.99999427795 179 181 180
-299.049973487854 195.877447724342 1942.00003147125 179 181 180
-296.179503202438 197.5037753582 1957.99994468689 175 177 176
-293.369472026825 199.231028556824 1975.00002384186 179 181 180
-290.611773729324 201.059222221375 1993.00003051758 188 190 189
-286.896467208862 202.282190322876 2005.00011444092 182 184 183
-284.378111362457 204.413145780563 2026.00002288818 191 193 192
-285.598188638687 209.369421005249 2075.00004768372 191 193 192
-288.438886404037 215.73880314827 2138.00001144409 195 197 196
-285.383313894272 217.870384454727 2158.99991989136 87 89 86
-279.882103204727 218.185484409332 2161.99994087219 103 105 102
-273.603171110153 217.894896864891 2158.99991989136 132 134 131
-267.463743686676 217.704996466637 2157.00006484985 137 139 136
-260.728001594543 217.010200023651 2150.00009536743 131 133 130
-254.7407746315 216.920733451843 2148.9999294281 123 125 122
-248.410746455193 216.528251767159 2144.99998092651 118 120 119
-242.101699113846 216.135457158089 2141.00003242493 125 127 126
-235.372275114059 215.338602662086 2132.99989700317 141 143 142
-229.331433773041 215.147227048874 2131.00004196167 148 150 149
-223.510503768921 215.157553553581 2131.00004196167 160 162 161
-218.199521303177 215.672463178635 2135.99991798401 175 177 176
-212.95990049839 216.288208961487 2141.99995994568 176 178 177
-207.203239202499 216.39883518219 2142.99988746643 187 189 188
-598.881483078003 168.824732303619 1728.99997234344 198 199 194
-596.959710121155 169.615134596825 1736.99998855591 144 145 140
-592.608153820038 169.722244143486 1738.00003528595 136 138 133
-587.574779987335 169.634237885475 1736.99998855591 144 146 141
-579.526722431183 168.667405843735 1726.99999809265 157 159 154
-570.201396942139 167.309984564781 1713.00005912781 162 162 160
-563.26287984848 166.636303067207 1705.9999704361 165 165 163
-557.999432086945 166.45111143589 1703.9999961853 171 171 169
-553.07149887085 166.363745927811 1702.99994945526 173 173 171
-548.149108886719 166.276544332504 1702.00002193451 175 175 173
-543.231964111328 166.189476847649 1700.99997520447 174 174 174
-538.63662481308 166.200235486031 1700.99997520447 176 176 176
-533.727288246155 166.113406419754 1700.00004768372 180 180 180
-528.511822223663 165.928989648819 1697.99995422363 181 181 181
-524.232804775238 166.037887334824 1699.00000095367 170 170 170
-520.559668540955 166.342347860336 1702.00002193451 171 171 171
-517.173290252686 166.744738817215 1705.9999704361 174 176 175
-513.464629650116 167.049542069435 1708.99999141693 172 174 173
-510.632574558258 167.647749185562 1715.0000333786 168 170 169
-508.947908878326 168.637186288834 1725.00002384186 170 172 171
-508.962869644165 170.213460922241 1741.00005626678 171 173 172
-513.525187969208 173.354461789131 1773.00000190735 170 172 171
-520.496487617493 177.37603187561 1814.00001049042 162 164 163
-524.687528610229 180.518180131912 1845.99995613098 152 154 153
-522.229909896851 181.411564350128 1855.00001907349 146 148 147
-516.934931278229 181.327119469643 1853.99997234344 147 149 148
-511.092662811279 181.04712665081 1850.99995136261 151 153 152
-504.719197750092 180.571511387825 1845.99995613098 156 158 157
-499.184280633926 180.389359593391 1843.99998188019 164 166 163
-493.65958571434 180.20723760128 1842.00000762939 167 169 166
-488.410443067551 180.122956633568 1840.99996089935 165 167 164
-483.428716659546 180.136576294899 1840.99996089935 166 168 165
-477.926462888718 179.954558610916 1838.99998664856 164 166 163
-471.920073032379 179.576769471169 1835.00003814697 153 155 152
-465.425789356232 179.00325357914 1828.9999961853 150 152 149
-459.214925765991 178.527534008026 1824.00000095367 148 150 147
-453.777700662613 178.345412015915 1822.00002670288 147 149 146
-449.58233833313 178.652763366699 1825.00004768372 148 150 147
-446.100801229477 179.253831505775 1830.9999704361 151 153 150
-442.10422039032 179.659202694893 1835.00003814697 157 159 156
-437.608778476715 179.868802428246 1837.00001239777 162 164 161
-433.337241411209 180.176347494125 1840.0000333786 161 163 160
-428.582936525345 180.288061499596 1840.99996089935 155 157 154
-424.512833356857 180.693626403809 1845.00002861023 155 157 154
-419.965356588364 180.903315544128 1847.00000286102 156 158 155
-415.630966424942 181.210964918137 1850.00002384186 156 158 155
-410.613536834717 181.224748492241 1850.00002384186 158 160 157
-406.033784151077 181.434437632561 1851.99999809265 162 164 161
-401.442319154739 181.644126772881 1853.99997234344 159 161 158
-396.625369787216 181.75582587719 1855.00001907349 155 157 154
-391.379922628403 181.671500205994 1853.99997234344 158 160 159
-386.347383260727 181.685119867325 1853.99997234344 160 162 161
-381.931006908417 181.992694735527 1856.99999332428 167 169 168
-377.700418233871 182.39825963974 1860.99994182587 170 172 171
-373.046725988388 182.607799768448 1863.00003528595 166 168 167
-368.183761835098 182.719245553017 1863.9999628067 163 165 164
-363.119661808014 182.732626795769 1863.9999628067 167 169 168
-358.054667711258 182.745903730392 1863.9999628067 168 170 169
-353.367537260056 182.955220341682 1866.00005626678 169 171 170
-348.481923341751 183.06639790535 1866.99998378754 170 172 171
-344.325721263886 183.569744229317 1871.99997901917 170 172 171
-340.141475200653 184.073090553284 1876.99997425079 170 172 169
-336.286067962646 184.772521257401 1883.99994373322 169 171 168
-331.688642501831 185.079663991928 1886.99996471405 173 175 172
-327.76615023613 185.779064893723 1894.00005340576 176 178 175
-323.6343562603 186.380356550217 1899.99997615814 178 180 177
-318.966120481491 186.68732047081 1902.99999713898 174 176 173
-314.445525407791 187.092274427414 1906.99994564056 178 180 177
-310.226619243622 187.693417072296 1912.99998760223 179 181 178
-306.133508682251 188.392609357834 1919.99995708466 180 182 179
-302.314877510071 189.288035035133 1929.00002002716 179 181 178
-298.600316047668 190.281555056572 1939.00001049042 176 178 175
-295.284152030945 191.569492220879 1952.00002193451 175 177 174
-292.34191775322 193.151876330376 1968.00005435944 175 177 174
-290.186494588852 195.323213934898 1990.00000953674 187 189 186
-286.765456199646 196.709379553795 2003.99994850159 192 194 191
-283.688336610794 198.390051722527 2020.99990844727 184 186 183
-284.784525632858 203.114047646523 2069.00000572205 192 194 191
-288.181453943253 209.703758358955 2135.99991798401 200 202 199
-285.527855157852 212.072253227234 2160.00008583069 116 118 115
-279.764741659164 212.182492017746 2161.00001335144 120 122 119
-273.615062236786 211.997985839844 2158.99991989136 121 123 120
-267.351418733597 211.715057492256 2155.99989891052 126 128 125
-260.73944568634 211.137324571609 2150.00009536743 132 134 131
-254.633486270905 210.952118039131 2148.00000190735 125 127 124
-248.537555336952 210.766673088074 2145.99990844727 114 116 113
-242.225542664528 210.384592413902 2141.99995994568 121 123 120
-235.493168234825 209.609389305115 2134.0000629425 156 158 155
