ply
format ascii 1.0
comment KinectMotionCapture
element vertex 751
property float x
property float y
property float z
property uchar red
property uchar green
property uchar blue
end_header
-203.808164628735 536.037392027115 1902.2604220649 151 152 146
-201.893857917913 534.855570079847 1909.99304649269 177 179 176
-194.549756484294 532.179118217585 1920.00205659266 183 185 184
-186.286661635893 529.254899772418 1930.33984681842 188 190 189
-174.386352771584 525.336200592623 1942.1307927406 193 195 194
-161.558400910234 521.170634106126 1954.21897234082 197 199 198
-145.080064262825 516.01200192211 1967.71322955216 195 197 196
-129.480827187432 511.105035467797 1980.73397935816 194 196 195
-116.579668124538 506.946982614326 1992.55509868182 198 200 199
-110.019337779102 504.531604238046 2001.74260496469 184 186 185
-108.905414013494 503.608782811986 2008.71316436074 162 164 163
-106.876541262765 502.437647699475 2016.02810366719 174 176 175
-106.664974288722 501.763773306302 2022.60978871297 190 194 193
-102.802748953877 500.096742186048 2030.59740719165 193 197 196
-104.408283580467 499.919805695306 2036.4467341464 192 196 195
-102.360486356939 498.750115466528 2043.69139379589 190 194 193
-103.963640389125 498.573049938654 2049.5318006029 186 190 189
-103.737251881012 497.899785031367 2056.05977001761 184 188 187
-107.170654135036 498.218274044958 2061.21482715726 180 184 185
-110.606949268948 498.5361902799 2066.381192393 179 183 184
-115.880682612691 499.349111025716 2070.88762669457 178 182 183
-118.406966207898 499.418113483185 2076.41446670047 177 181 182
-122.771905489505 499.98188585763 2081.28667693628 176 180 181
-128.060486333662 500.79244684845 2085.84767629359 178 182 181
-137.954600587189 502.839326432451 2088.80520541121 173 177 176
-147.861689800419 504.884438311713 2091.81072099746 162 166 165
-159.6249269465 507.422477478514 2094.22445973404 169 173 172
-166.793850904672 508.722524895905 2098.28227085023 174 178 177
-170.280341808517 509.032902747459 2103.63024380099 133 135 134
-170.999620751393 508.601662183369 2109.92484320883 123 125 124
-223.98736153123 536.909953439901 1872.52463219076 149 151 148
-213.082809444121 533.26798707007 1884.29102208847 153 155 152
-204.865380593422 530.368215071527 1894.81286639751 182 183 178
-197.535432304695 527.716612219544 1904.89011271475 180 181 176
-198.324888202437 527.285451031128 1911.44624453785 190 192 189
-193.68665231488 525.375381816215 1920.29556678273 193 195 194
-181.797343201976 521.494922674517 1932.15149538415 198 200 199
-165.356994448979 516.384876089662 1945.81839762833 201 203 202
-148.888391844275 511.277801067375 1959.38134592527 203 205 204
-131.484039141444 505.927547405953 1973.21282763197 201 203 202
-114.957761080204 500.826492966373 1986.56543934361 192 194 193
-107.490685939253 498.188539955217 1996.1421783296 186 188 187
-106.375878295343 497.273554313991 2003.11533218559 149 151 150
-107.077527946378 496.850562553046 2009.34968535055 160 162 161
-104.134120265488 495.444351969966 2017.01704174379 188 190 189
-102.095572699779 494.284495379144 2024.30225200409 192 196 195
-100.051522751214 493.125029659206 2031.56727977069 193 197 196
-101.654274148516 492.948140672456 2037.40630313212 191 195 194
-101.429562063341 492.280126361227 2043.9438117281 190 194 193
-102.116897666951 491.857620321867 2050.12532629963 187 191 192
-100.057275418351 490.699118003486 2057.3331454096 184 188 189
-100.739815526956 490.276682877259 2063.4978290414 177 181 182
-104.171468916714 490.589655282616 2068.64291009317 176 180 181
-108.523569677778 491.147142915944 2073.46348556195 177 181 182
-112.880218883255 491.703931199769 2078.30050698071 176 180 181
-115.403609597926 491.770177731182 2083.81486634073 174 178 179
-121.607132008658 492.815355493732 2088.02373975162 172 176 175
-130.578751321671 494.593687638342 2091.28392857138 174 178 177
-140.483282471853 496.615201661432 2094.26411909737 156 160 159
-149.479100642425 498.390431813712 2097.61219509684 157 161 160
-160.331666859125 500.653125994024 2100.36820215605 174 178 177
-165.65973226417 501.447422703121 2105.06553153314 155 157 156
-169.14608599016 501.752191333509 2110.40852477831 130 132 131
-214.22665403467 528.23443685773 1869.77376221188 174 176 173
-214.134407774983 527.559947607602 1876.79807349534 149 151 148
-205.019525134538 524.444346632442 1887.74883406893 161 163 160
-198.595868571092 522.06258040162 1897.46500426601 180 180 178
-192.15958565847 519.682014522374 1907.13505314244 191 191 189
-192.039855887902 519.009909589633 1914.0588288698 197 199 198
-187.393137443999 517.118916748019 1922.88870086895 199 201 200
-171.869668313376 512.304061919973 1936.24891666249 199 201 200
-153.600282909609 506.761033228418 1950.64424283705 201 203 202
-135.299748673984 501.221354243144 1964.92510531061 203 205 204
-118.782998947949 496.171830294538 1978.34655654021 201 203 202
-105.871954024297 492.099021357068 1990.18386112394 191 193 192
-102.02966428884 490.461831584072 1998.26433684032 181 183 182
-102.728360631368 490.041614881146 2004.49040599849 147 149 148
-103.426098820181 489.621429480948 2010.7120084601 175 177 176
-102.299911280911 488.714980780862 2017.64830077274 183 185 184
-99.345700552107 487.322807576226 2025.2834810098 192 196 195
-97.2970348756213 486.174078761566 2032.5390792257 192 196 195
-96.1567115243938 485.268737736648 2039.4226583447 190 194 193
-97.7547591789447 485.091930630083 2045.24426932607 189 193 192
-97.5230925669308 484.429529697019 2051.75950112006 187 191 192
-99.1201774434902 484.252472900569 2057.57737985432 184 188 189
-97.9683573146204 483.34757346083 2064.4194815075 175 179 180
-100.48077927755 483.412763485768 2069.89244901925 173 177 178
-102.995074459632 483.47764290942 2075.37124630667 172 176 177
-107.347972879717 484.026705486995 2080.18946418792 171 175 176
-112.624604013234 484.817231630534 2084.69344765797 167 171 172
-117.90721324508 485.606936402751 2089.21910806458 176 180 179
-125.957907713005 487.121933371999 2092.79014777119 169 173 172
-134.940478671993 488.877560266899 2096.07573397745 173 177 176
-143.012489802709 490.38977414244 2099.72416117539 157 161 160
-152.940390870194 492.384171878839 2102.77492884259 165 167 166
-161.034650404658 493.893545362031 2106.50323770554 168 170 169
-169.138968927499 495.401488387134 2110.26891952697 140 142 141
-171.703387228178 495.458614068848 2115.92984784564 125 127 126
-288.22412202003 542.762537913084 1822.47275293572 207 211 212
-238.681531343347 528.794518910575 1851.8182031591 179 183 182
-216.986820333826 522.32457602816 1868.49697216906 167 169 168
-210.583415637042 519.964281764202 1878.30188985361 167 169 168
-202.362752851191 517.122375791203 1888.84826077447 181 183 182
-192.320308264367 513.79928751239 1900.12048940118 199 201 200
-185.874759861562 511.443159740212 1909.77156627 201 203 202
-182.130228059091 509.811863718101 1918.21871903729 206 207 209
-181.093169503387 508.904696027442 1925.4854758641 203 204 206
-160.120692895951 502.694935705876 1941.11277589634 210 211 213
-141.832466675857 497.211765794418 1955.47594151268 205 206 208
-121.698188513788 491.250141027653 1970.47564750512 198 199 201
-107.886404838145 486.977675007879 1982.74081104238 192 193 195
-101.321620827234 484.63364045779 1991.95589547269 154 155 157
-101.110938061356 483.975311357558 1998.55160691674 137 138 140
-102.718323598218 483.798261890989 2004.40773461153 175 176 178
-101.592923528508 482.899520579462 2011.35181668596 174 175 177
-100.463454201751 482.001076598654 2018.28097812558 187 188 190
-98.4175561813956 480.862591636513 2025.55239051596 194 198 199
-98.1923499192612 480.205032430447 2032.09466513581 189 193 194
-95.2230345050391 478.827112582685 2039.6827634597 189 193 194
-96.8197330039917 478.650201563926 2045.49929968604 186 190 191
-95.6706369556066 477.753074365994 2052.35642230276 188 192 193
-95.433456046166 477.096120241372 2058.85461942088 182 186 187
-96.1105415689856 476.67917547949 2065.00158855085 172 176 177
-102.291447963267 477.700786278707 2069.11161417838 171 175 174
-105.72488893629 478.002280357015 2074.25701438415 171 175 174
-109.161655195377 478.303295895246 2079.41352957768 168 172 171
-112.601303444731 478.603682147872 2084.58127676073 167 171 170
-116.964570540997 479.143068317761 2089.43188232719 173 177 176
-120.411346758202 479.44236293198 2094.62447603198 167 171 170
-130.313930186607 481.416156110835 2097.56730660593 177 181 180
-140.229478473163 483.388197194843 2100.55809599869 171 175 174
-149.235231063269 485.119509503317 2103.91440010083 151 153 152
-158.252490288891 486.849252809275 2107.31336452185 156 158 157
-167.281698657758 488.577505741396 2110.75482380326 167 169 168
-174.471688745013 489.8264630094 2114.85859368216 139 141 140
-289.244610399563 536.812878124408 1814.71175276571 194 198 199
-277.51755004743 533.033685535151 1827.23494263831 186 190 191
-242.352983011751 523.043049008373 1850.12851644064 180 184 185
-221.551330734528 516.881183752989 1866.42122119025 169 173 174
-208.832814151731 512.872519341283 1879.0147722871 177 178 180
-198.799998772667 509.582500660831 1890.34363068815 190 191 193
-190.555945281717 506.771663239746 1900.82277156265 203 204 206
-182.296166963825 503.96236294601 1911.24542872094 204 205 207
-176.735952876714 501.870227725051 1920.45300005302 209 210 212
-165.730528780069 498.348542971515 1931.9208114654 204 205 207
-143.828614075899 491.968576779496 1947.88708033992 210 211 213
-126.425000138967 486.783904560386 1961.82677341649 203 204 206
-110.807409257603 482.078838588558 1974.90591951068 194 195 197
-102.430773037681 479.281493802257 1984.90225426378 190 191 193
-99.4944141165459 477.91401622945 1992.61930629295 139 140 142
-100.190982999418 477.498977300106 1998.83981656306 122 123 125
-101.7970361119 477.321764219899 2004.69089393019 170 171 173
-101.580411796331 476.66875804278 2011.26790617975 142 143 145
-100.449110539112 475.778165539642 2018.19522303258 193 194 196
-98.4009648153688 474.650194070767 2025.46492781008 189 193 194
-95.4335723500694 473.285114334204 2033.06920126296 188 192 193
-93.3736737282858 472.158155548325 2040.29590918856 188 192 193
-94.0533533559522 471.743813526617 2046.4541529553 184 188 189
-93.8159209382579 471.092116348943 2052.95473523366 185 189 190
-96.3252533957379 471.152248091072 2058.41303848224 177 181 182
-97.9191394739374 470.974882496487 2064.21884574616 171 175 174
-102.266977053036 471.508557977338 2069.00855910938 168 172 171
-103.863480960631 471.330543019336 2074.8236758867 168 172 171
-108.21825484747 471.863084124776 2079.63842621583 168 172 171
-112.5775591855 472.394942403319 2084.46956612113 173 177 176
-118.783061913756 473.399642396423 2088.66023651827 167 171 170
-119.466689243016 472.983204765584 2094.83274329189 171 175 174
-126.604851979738 474.222934680441 2098.73826270844 170 174 173
-136.520732763621 476.171029158932 2101.71423894299 175 179 178
-146.449782691332 478.117485027367 2104.7380750949 166 168 167
-154.543154301711 479.589492559091 2108.44042538662 148 150 149
-163.571831993535 481.296440604992 2111.86739260084 139 141 140
-173.538243452786 483.238069969716 2115.02689759492 142 144 143
-177.031954836287 483.525235395661 2120.38609463862 130 132 131
-291.162755282298 531.089349778143 1806.53095144905 196 202 202
-280.342104843774 527.585244019996 1818.6958896968 197 201 202
-261.398757740926 521.955720491214 1834.43064024766 199 203 204
-233.412354672976 513.966637287562 1854.06658484678 184 188 189
-217.101736238808 509.053452134631 1868.3385093181 191 195 198
-206.177589748687 505.560160883936 1880.1260147248 189 190 192
-197.03988613086 502.540997452957 1891.05293109899 198 199 201
-188.789336728497 499.759592331676 1901.52653594087 204 205 207
-179.618513681321 496.743782755381 1912.3326038134 205 206 208
-166.80939002622 492.786409462377 1924.62213113652 207 208 210
-147.635143171773 487.181150013073 1939.51491523436 203 204 206
-130.241786189363 482.05069663596 1953.5259922887 208 209 211
-119.171004643573 478.572559262083 1964.7786378379 198 199 201
-105.355695394884 474.389916067619 1977.08649202055 190 191 193
-101.514501885639 472.799534706658 1985.20059019091 190 191 193
-100.393977048408 471.915970892825 1992.1723553255 140 141 143
-102.910864852141 471.973842427935 1997.65728311752 135 136 138
-100.874079019343 470.855388330021 2004.9751737134 157 158 160
-102.479030461576 470.677869415517 2010.82196770706 142 143 145
-99.5214305645224 469.324943390408 2018.4702722637 187 188 190
-97.4703163117763 468.207612106679 2025.7356731307 190 194 195
-91.7578145361717 466.151257248888 2034.40041997116 187 191 192
-91.5220599632356 465.504723853238 2040.91049189991 185 189 190
-92.1992560466482 465.09305192963 2047.06120051375 187 191 192
-92.8752453386124 464.681360719894 2053.20741637121 187 191 192
-95.3836212123567 464.738700334353 2058.66040520862 178 182 183
-96.9761497693491 464.561260678297 2064.46112550383 167 171 170
-101.323841319388 465.086779103222 2069.24514675169 166 170 169
-101.999805949286 464.674347087181 2075.39173235992 168 172 171
-104.514350010842 464.730402793015 2080.86588285455 168 172 171
-107.030326993706 464.786054571703 2086.34602750919 173 177 176
-113.232879863633 465.777650602183 2090.51747250451 171 175 174
-115.755047865551 465.832225318622 2096.01992319878 175 179 178
-121.046760003633 466.588181514597 2100.55807382785 166 170 169
-130.038018773209 468.278654038973 2103.83478111339 171 175 174
-140.889010804274 470.435110140222 2106.51787036839 179 181 180
-151.754632885627 472.58970090389 2109.2541004562 169 171 170
-160.783747627809 474.27525371972 2112.66918252454 143 145 144
-171.677143492329 476.426329033052 2115.50631175443 143 145 144
-177.023367657792 477.174998612042 2120.24225446859 133 135 134
-328.116342326351 535.138867545762 1774.83792773865 216 220 221
-301.166757128773 527.455749313495 1794.62022376088 196 202 202
-284.063915548449 522.349924905262 1809.7254770053 195 201 201
-265.13117234644 516.779685281315 1825.53702651563 200 204 205
-245.264882937506 510.979146845049 1841.63435272269 200 204 205
-221.758955487594 504.247849968254 1859.21606561676 193 197 198
-206.332403395007 499.622611073429 1873.05582895102 201 205 208
-198.102031913582 496.867914329968 1883.62121273014 206 210 213
-192.566743599352 494.81489979269 1892.94695634579 208 212 215
-187.020507227592 492.763014174025 1902.2318356872 207 208 212
-172.412551117789 488.379975128605 1915.36747738642 207 208 212
-155.06197528188 483.30021737834 1929.56939901768 209 210 212
-134.055691868672 477.291364831851 1945.19802365757 209 210 212
-123.899858260084 474.082120711383 1956.12113631188 198 199 201
-114.633465388952 471.107648295289 1966.59847027816 186 187 189
-103.532975262776 467.669281929696 1977.7659230237 186 187 189
-98.7780189782033 465.862206599456 1986.24691025803 181 182 184
-98.5634788512257 465.219371768245 1992.83808234667 128 129 131
-101.989632458865 465.507086464244 1997.94679738992 140 141 143
-100.861328850895 464.631729753092 2004.89486300835 140 141 143
-100.641114306002 463.989089065497 2011.46508966753 150 151 153
-97.6794215928449 462.649561625933 2019.10665756564 190 191 193
-94.7110326952663 461.310656913019 2026.72282797791 194 198 201
-90.8211462720452 459.740175430399 2034.66870264364 180 184 187
-91.4984816831201 459.331057997435 2040.82154132545 176 180 183
-90.3428961214323 458.457802343799 2047.66964089456 191 195 196
-90.099714155333 457.816778158081 2054.15561459496 193 197 198
-92.6059159687726 457.871560238769 2059.59798785713 181 185 186
-95.1135541754131 457.925966873966 2065.0463861516 165 169 168
-97.6228805707557 457.979976079324 2070.50080144345 166 170 169
-97.3757812407587 457.338834429416 2076.97122755624 171 175 174
-99.8862751345308 457.392376450977 2082.42968258554 171 175 174
-103.319426948773 457.677101088007 2087.5624928316 174 179 175
-108.59872959856 458.424022344168 2092.04886527481 174 178 177
-112.961757321168 458.938827714475 2096.88306306375 173 177 176
-117.329311549132 459.452950714241 2101.73363606688 173 177 176
-119.853792647386 459.5040807578 2107.24250004836 168 172 171
-129.775849079512 461.40334158455 2110.21057424322 173 175 174
-146.187202441836 464.917750404626 2111.01668424888 183 185 184
-157.992566416492 467.274946511992 2113.47265680285 182 184 183
-167.960622124916 469.168482927894 2116.60790320165 139 141 140
-175.159514541334 470.368081870446 2120.71449244368 152 154 153
-306.672192254503 522.603093184522 1784.72101157191 203 207 208
-282.38881713125 515.701154163344 1803.2057285205 193 199 199
-268.860545379731 511.577667672781 1816.61664511827 195 201 201
-248.105033198267 505.608005410171 1833.20107688539 197 203 203
-237.226069594235 502.183162432976 1845.20048117161 199 205 205
-215.505549506872 495.989302269544 1861.95680128713 207 211 214
-197.358010183398 490.722746437839 1876.97906856681 203 207 210
-187.308746067942 487.536501173792 1888.312373136 205 209 212
-183.569061955041 485.967032198947 1896.8165587855 204 208 211
-176.202279291972 483.475875317284 1906.85834347636 206 207 211
-154.334451565517 477.297514071621 1923.07845342725 208 209 213
-132.429547840399 471.123137576832 1939.16342322491 209 210 214
-121.370104236521 467.717297742378 1950.50380921182 200 201 205
-117.551446008525 466.155893840128 1958.7198713151 187 188 192
-110.999506724327 463.904612469888 1968.04213422276 180 181 185
-101.708005140325 460.964230550712 1978.44683839192 186 187 191
-96.0382545088523 458.945772396107 1987.29516686852 173 174 178
-96.730735083475 458.538326008238 1993.50529158459 134 135 139
-99.2442933251447 458.59064712673 1998.97435312276 156 157 161
-99.0240220898762 457.953233549881 2005.54674040328 143 144 148
-99.7134928963495 457.545637105317 2011.74652472468 160 161 165
-97.661948074101 456.449064871769 2019.02343314904 192 193 197
-92.8626651338051 454.664258318452 2027.35390353843 191 195 198
-89.8832240766398 453.339369333137 2034.93788824499 175 179 182
-90.5585954813519 452.932739241271 2041.08593435556 172 176 179
-90.3168158355769 452.29683119082 2047.57941563395 193 197 198
-87.3213254507061 450.973213589414 2055.10554404008 192 196 197
-88.9073083485341 450.796141048369 2060.88219336292 177 181 182
-91.4118316002393 450.848005182308 2066.31742123804 163 167 166
-95.7563405317821 451.357558244727 2071.07954635311 164 168 167
-96.4261205966035 450.950701018782 2077.20576049147 169 174 170
-98.0151556851974 450.77266892948 2082.99313619188 169 174 170
-101.447032763505 451.05202430535 2088.11782372284 173 178 174
-105.803947722286 451.55952156 2092.92471205612 171 175 174
-110.165155858085 452.066312967841 2097.74802350202 171 175 174
-113.607749986863 452.343937848931 2102.91140879708 173 177 176
-117.053418080145 452.621077236282 2108.08590060452 171 175 174
-128.825919489361 454.952995988072 2110.40483111738 169 171 170
-146.168120168016 458.652683582041 2110.88672067907 172 174 173
-158.903538726252 461.208370423045 2113.02479988997 184 186 185
-167.021124568785 462.621269664176 2116.7797349995 135 137 136
-174.221300307416 463.804754912898 2120.87998660016 131 133 132
-180.501650093666 464.759083995497 2125.31767692056 135 137 136
-293.316890851514 512.911060649136 1783.56855454167 194 198 199
-276.221752698297 507.914650232647 1798.77148736759 195 199 200
-261.794759905573 503.607021781189 1812.62662069651 200 204 205
-246.442239282175 499.073633213545 1826.79923785424 204 208 209
-239.170131913531 496.598763516476 1837.20281623316 204 208 209
-230.081053940027 493.668734753565 1848.365616035 203 207 208
-211.952423748436 488.457902797456 1863.49327035314 205 209 210
-193.792539399283 483.250396708815 1878.5069838885 205 209 210
-183.73453521799 480.099071151004 1889.8298847807 203 207 208
-177.275942518765 477.861724936113 1899.506594168 208 212 213
-164.468719782315 474.030076975432 1911.88255562252 204 208 209
-137.145382672287 466.555180285018 1930.40864422822 206 210 211
-117.935409369072 461.135179310021 1945.28574552625 209 213 214
-114.116283400191 459.589469755832 1953.50997958906 165 169 170
-112.104891208592 458.49980694901 1960.94032911164 171 175 174
-106.453248368511 456.50047638356 1969.8670354046 178 182 181
-98.9714120695124 454.047335605147 1979.50564987258 171 175 176
-95.1160352607214 452.505125444934 1987.59750100593 157 161 160
-94.8957391154925 451.872877704355 1994.17398626174 144 148 147
-96.4960944601887 451.695240479545 2000.00364115111 160 164 165
-97.1844710202938 451.290333890083 2006.20013196141 142 146 147
-96.9585039290433 450.658308774777 2012.75570266005 171 175 174
-94.9025429306523 449.5725152708 2020.02301981352 190 194 195
-91.9264536882585 448.260272258014 2027.62836217893 180 184 185
-91.6892187726148 447.629181978373 2034.14175883783 175 179 180
-93.2810399231299 447.451650838224 2039.93979491317 176 180 181
-90.289864186718 446.140647197874 2047.48990655803 197 201 202
-86.3744232865131 444.603737407605 2055.36209786832 190 194 195
-87.0410414322533 444.200090868359 2061.47859948035 168 172 173
-90.4628289302707 444.475688569402 2066.56345397803 158 162 163
-92.048627487102 444.298088567561 2072.33908586775 161 165 166
-92.7142605514768 443.89402892328 2078.45259827535 167 171 172
-96.1417709361241 444.168517054334 2083.55800020503 166 170 169
-100.493977374042 444.66857266881 2088.34270846116 168 172 173
-103.00584877159 444.715918786883 2093.8023661229 170 171 173
-103.673263992313 444.311096942024 2099.92108509168 169 170 172
-108.034734465908 444.809647876534 2104.73923892042 167 168 170
-113.325233992448 445.533236278212 2109.25245202966 170 171 173
-126.024074994101 448.061511953396 2111.23741996686 173 174 176
-139.666362178263 450.813215449092 2112.96995891432 167 168 170
-153.327581159844 453.562628296656 2114.77134171974 181 182 184
-161.443023752888 454.957059103263 2118.50665936126 174 176 175
-171.425165558849 456.800904750842 2121.66283252964 125 127 126
-178.633547407915 457.9672014278 2125.78362886812 127 129 128
-280.868296456794 503.518335333289 1782.07516944862 208 212 213
-271.855143207092 500.611607592264 1793.535502937 193 197 198
-254.733721490778 495.67308619335 1808.67739813975 194 198 199
-240.281845129446 491.415379075224 1822.47073234941 201 205 206
-230.306841192227 488.28934502726 1834.11776461555 204 208 209
-223.01715615857 485.842416503186 1844.47372116328 204 208 209
-217.517167579473 483.84818365475 1853.967637458 203 207 208
-202.076968199742 479.373892593156 1867.85203164957 205 209 210
-189.319903941422 475.57894517917 1880.43739250648 204 208 209
-179.252670935006 472.462646316902 1891.74721357919 204 208 209
-169.166848426163 469.348215896014 1902.99012413141 207 211 212
-151.818371566693 464.433708973733 1917.3050985951 203 207 208
-126.284017058946 457.495936593538 1935.01887135164 204 208 209
-112.497313010086 453.488902032253 1947.54380113255 201 205 204
-110.48626189633 452.409554404408 1954.98192947431 153 157 156
-108.469541202678 451.33062428916 1962.40020039523 173 177 176
-105.538520163875 450.027386583771 1970.1776286246 172 176 175
-97.1415208257915 447.37619903003 1980.18970611373 160 164 163
-96.013344708326 446.524078548019 1987.15291521806 150 154 153
-94.8811185890426 445.672282052961 1994.10129200782 146 150 149
-95.5686792206647 445.269859998046 2000.29725106312 156 160 159
-95.3426677504812 444.643031686409 2006.85500895876 146 150 149
-96.9407597736018 444.465078562093 2012.67606113632 173 177 176
-95.7966245045534 443.614096197341 2019.58073558638 185 189 188
-91.9038030870154 442.090802707955 2027.54550522206 179 183 184
-90.7493783504001 441.240692656353 2034.41252762859 175 179 180
-90.5073428593428 440.614995522834 2040.911505642 173 177 178
-87.5113421176499 439.317489590964 2048.45222473445 191 195 196
-87.2616529259487 438.692280585931 2054.92402325872 188 192 193
-88.8463518570997 438.514851086089 2060.69568009985 168 172 173
-90.4312780704908 438.337250883932 2066.46807302289 161 165 166
-90.1767290888156 437.712235593376 2072.92102137816 163 167 168
-93.6017982966049 437.981554438926 2078.01502510287 169 173 174
-96.1089058992313 438.026960254145 2083.45484169959 169 173 174
-98.6174323757756 438.071978208468 2088.90061044452 171 175 176
-99.2821577611811 437.670038061085 2095.01116193489 171 172 174
-100.869085157177 437.491325474638 2100.79028255551 164 165 167
-107.077308332357 438.428189223057 2104.94915420776 160 161 163
-115.142960143195 439.810239934261 2108.49179228955 163 164 166
-125.070371379477 441.636962289179 2111.43395082904 175 176 178
-133.158049629286 443.016176700713 2115.05657807053 175 176 178
-144.964689919963 445.2854635999 2117.4617880638 178 179 181
-156.787175053671 447.5526942028 2119.92545763841 180 181 183
-169.554433680658 450.040664531762 2122.1390001234 157 158 160
-180.480503782367 452.081266374476 2125.027695226 130 131 133
-277.401348245519 496.428714564037 1776.41694501148 204 208 209
-269.287734115398 493.776653587147 1787.48062480212 201 205 206
-260.259789510669 490.902801510408 1798.90679686169 205 209 210
-243.1199692696 486.021300509795 1814.01638164247 205 209 210
-232.251562300482 482.705360932884 1826.12280752834 205 209 210
-223.1650631063 479.837703322959 1837.33548873572 204 208 209
-213.160130294283 476.748779624052 1848.89483048726 204 208 209
-202.234583554171 473.438856441533 1860.792906039 205 209 210
-188.579852855981 469.462345675713 1873.82802715389 204 208 209
-178.516497927111 466.379666025955 1885.17347217923 204 208 209
-171.147828384568 463.966964816523 1895.25871308317 207 211 212
-159.239386997606 460.442624237877 1907.2684419185 202 206 207
-138.250266582853 454.694862173012 1923.12655729213 204 208 209
-119.03886967324 449.395930910289 1938.07481009688 196 200 201
-111.590424741862 446.991726738594 1947.86829617992 169 173 172
-108.66840726432 445.700604022869 1955.68680163784 155 159 158
-105.73927382175 444.410080543005 1963.48019426096 186 190 189
-101.893774378359 442.898051843922 1971.62777311068 149 153 152
-98.9502947271181 441.608978087831 1979.36788732997 151 155 154
-97.8216936059835 440.764531923779 1986.33436364158 160 164 163
-96.6890604762534 439.920393224076 1993.28606401242 156 160 159
-95.5523773447058 439.076578511325 2000.22293206869 156 160 159
-95.3248988950852 438.45491665637 2006.77850518748 166 170 169
-95.0945997577177 437.833342825404 2013.32459024175 184 188 187
-93.9471787553483 436.990365636286 2020.2221194568 184 188 187
-90.9652859526697 435.70468031633 2027.82175245477 185 189 190
-91.6401517065903 435.305358388098 2033.97253517499 172 176 177
-89.5638673047396 434.24201809277 2041.17857129519 171 175 176
-84.7297432462861 432.515310434684 2049.41636404247 191 195 196
-85.3947515744995 432.116774664064 2055.5301153893 189 193 194
-85.1395245674298 431.497065733035 2061.98482554928 158 162 163
-89.4797412771005 431.982716131196 2066.7159235949 158 162 163
-87.3822879607782 430.921073163433 2073.84443528844 161 165 166
-91.7265624123766 431.405987093893 2078.59013396738 167 171 172
-94.2317580153072 431.448660818216 2084.02205580732 167 171 172
-96.7386053465526 431.490999095921 2089.45989840732 169 173 174
-96.477689772811 430.871168145968 2095.89248197532 170 171 173
-97.1377244234959 430.471980153843 2101.98828427629 162 163 165
-103.344661827542 431.395634045493 2106.13311307781 157 158 160
-110.484305881646 432.538664992272 2109.98308166927 158 159 161
-116.706554022064 433.460230489347 2114.18436675361 172 173 175
-124.789910448075 434.821257312556 2117.77946521925 175 176 178
-133.811228320282 436.401140013322 2121.09795543626 166 167 169
-151.198416888494 439.960032362083 2121.65798546739 173 174 176
-166.752276162119 443.07599065686 2122.92514756771 174 175 177
-180.468682794817 445.749571128308 2124.88355471284 133 134 136
-266.760743750678 487.587855264879 1774.19112158165 206 210 211
-269.414893143353 487.614832548829 1780.16616973802 200 204 205
-259.492818211262 484.551115733702 1792.04906086485 206 210 211
-251.350825841862 481.930700141967 1803.02735705457 207 211 212
-235.994348899628 477.547138598661 1817.27987811551 206 210 211
-224.21320813057 474.048504407214 1829.77940788451 205 209 210
-214.213761610616 470.993078826227 1841.3793390987 203 207 208
-203.293614529428 467.71913346206 1853.32110605926 204 208 209
-192.353889377808 464.447344003803 1865.19061558513 204 208 209
-180.490794595414 460.957408357045 1877.3913579709 204 208 209
-171.319202444995 458.130157732671 1888.31268754237 206 210 211
-159.415785664377 454.644495603258 1900.36642032677 209 213 214
-147.49133764147 451.16116466714 1912.34261100146 202 206 207
-126.482151818734 445.481302567052 1928.16909593112 205 209 210
-112.693838876833 441.563667058819 1940.7444940895 188 192 193
-109.774408987025 440.285141507108 1948.58148896591 152 156 155
-108.665132701026 439.446569287063 1955.62342310355 162 166 165
-105.733556168034 438.169253509987 1963.41515464037 187 191 190
-101.884995625689 436.673096340191 1971.56138868234 143 147 146
-99.8494454709711 435.616562100741 1978.92296006583 146 150 149
-99.6310156338338 434.999132216651 1985.51572977665 146 150 149
-97.5859574437434 433.943430459409 1992.84252527402 152 156 155
-96.4481480550177 433.10736394729 1999.78010356638 158 162 161
-94.3928163377592 432.052583205206 2007.06933695168 170 174 173
-93.2461697054423 431.217271594875 2013.97458089611 183 187 186
-91.1805677758468 430.163389822174 2021.22625055812 185 189 188
-87.2780235069657 428.672320812111 2029.17526600167 184 188 189
-86.1162900637531 427.838328039657 2036.02532821937 165 169 170
-84.9504908353866 427.004661079579 2042.86050067455 167 171 172
-80.1092949333992 425.296982171599 2051.08405080947 192 196 197
-79.850935171188 424.68279121012 2057.53061342073 187 191 192
-78.6709352588213 423.850405506371 2064.31294141514 155 159 160
-83.0064484509685 424.328346599861 2069.02263799317 156 160 161
-84.5845463297206 424.150879035969 2074.76976238887 159 163 164
-90.770182738364 425.064215679211 2078.82899099881 167 171 172
-93.2744195476709 425.104111973048 2084.25559950173 166 170 171
-94.8574756093223 424.925695488968 2090.02053356022 167 171 172
-95.5172070734487 424.529170849122 2096.11596266762 165 166 168
-97.099956153619 424.350501037008 2101.87959702598 163 164 166
-101.458072251828 424.824997515833 2106.6701099923 162 163 165
-107.672115154212 425.734218497987 2110.83313695553 160 161 163
-112.967362221754 426.424894116199 2115.34226832303 157 158 160
-121.050003316246 427.767316242234 2118.92296487112 158 159 161
-130.998662922344 429.543281273625 2121.91289794878 175 176 178
-149.318714066987 433.273998037687 2122.14769542404 168 169 171
-164.876756266263 436.349736413402 2123.40406613361 171 172 174
-178.596097181977 438.988353870999 2125.35222290238 123 124 126
-254.285992484855 477.73843779266 1780.10585942438 194 198 199
-257.828144931911 477.981643881239 1785.61715501856 196 200 201
-249.688637369288 475.389621924388 1796.62260306347 195 199 200
-242.432967334986 473.017134036109 1807.15277757998 193 197 198
-231.562467485158 469.774575988387 1819.29776226594 199 203 204
-221.573134989165 466.751932952507 1830.95687107411 201 205 206
-211.565467310261 463.731222731335 1842.54912521974 203 207 208
-201.539442035446 460.712491241843 1854.07447047735 202 206 207
-189.688959324624 457.260544089365 1866.34509393703 203 207 208
-178.721023904596 454.028359572927 1878.13486875228 205 209 210
-162.305604637356 449.493656942531 1892.25757134424 206 210 211
-151.293756510162 446.266161226864 1903.88726714778 206 210 211
-135.731953574692 441.954415521907 1917.42279379937 202 206 207
-116.516268226133 436.776834758058 1932.43173882303 206 210 211
-107.249897151754 433.991024783934 1943.02733628313 167 171 172
-107.048020950811 433.377218742265 1949.68385430511 138 142 141
-105.934747893304 432.546661724977 1956.71600959291 183 187 186
-104.817444089209 431.716455350876 1963.73342088638 195 199 198
-101.875570155868 430.453060788924 1971.49570932038 142 146 145
-100.748756106513 429.623701594214 1978.47834580189 154 158 157
-99.6179124155145 428.7946856941 1985.44623775198 113 117 116
-95.7455276441381 427.316389827736 1993.51529379291 149 153 152
-94.6044251043632 426.48830046595 2000.44568161598 161 165 164
-93.4592692479401 425.660557136892 2007.36123873571 172 176 175
-92.3100532881436 424.833153404681 2014.26193589105 183 187 186
-87.4953647387868 423.141211750586 2022.59383830924 189 193 192
-82.6708516965198 421.450247490584 2030.88988138626 184 188 189
-83.3373663083723 421.056649836709 2037.01234293742 163 167 168
-83.0850014501956 420.447043938991 2043.48405822161 169 173 174
-79.157069928077 418.974045887114 2051.35022482663 195 199 200
-76.139838955672 417.717713180095 2058.83718582968 186 190 191
-74.9548775423485 416.893490442622 2065.60717543554 155 159 160
-81.1291949759902 417.794871573374 2069.61683082505 156 160 161
-84.5473213452936 418.048529970253 2074.67516996376 160 164 165
-88.890551820425 418.517231193573 2079.40675670816 168 172 173
-92.3158233599848 418.769889832894 2084.49006424653 167 171 172
-92.0508438440795 418.160710309041 2090.91521296912 168 172 173
-93.6312877691265 417.982234891638 2096.67041146895 166 167 169
-93.3623947794624 417.373219148598 2103.08113363312 159 160 162
-97.7181761727461 417.83985502759 2107.85801552642 158 159 161
-102.078487543281 418.305837017696 2112.65130350619 154 155 157
-108.297190101244 419.201037771193 2116.8218501964 154 155 157
-118.233734043522 420.954618642674 2119.75173897966 156 157 159
-130.039977409349 423.136059961698 2122.10094319072 179 180 182
-147.43670790647 426.603617629467 2122.63873659757 177 178 180
-162.068772054885 429.424432688595 2124.19343646114 171 172 174
-174.860326800446 431.813787483696 2126.43492498698 113 114 116
-244.550056408099 469.239478695435 1777.55843002526 204 208 209
-248.981893021514 469.693455280628 1782.6096976291 191 195 196
-245.331637592354 468.207708785518 1791.49877244456 196 200 201
-238.975585688371 466.076729363947 1801.62335013207 192 196 197
-233.506652866065 464.16228333273 1811.28294358448 190 194 195
-225.324738679157 461.603406460246 1822.151870216 196 200 201
-215.324506958062 458.615860640162 1833.79267088224 199 203 204
-203.50164885205 455.200144212588 1846.18966229081 203 207 208
-193.463319635227 452.216672401419 1857.69158653828 201 205 206
-185.21378096538 449.66500287024 1868.31398705667 203 207 208
-174.236005341358 446.470464784293 1880.09099510852 205 209 210
-160.52345404228 442.633843262507 1892.99882938773 205 209 210
-146.786591781473 438.799751897449 1905.81892826186 205 209 210
-129.400185045824 434.110017689435 1920.13405723164 202 206 207
-113.798042778297 429.85247933439 1933.55403553254 205 209 210
-106.339621269866 427.52767358592 1943.3606085482 160 164 165
-106.135807166362 426.919073940205 1950.01228954114 140 144 143
-106.838400800207 426.524870725855 1956.26925213298 192 196 195
-108.450007627168 426.344914078202 1962.13921720861 190 194 193
-105.508374351338 425.09435914753 1969.91050542782 109 113 112
-101.648215427246 423.630419526736 1978.0340174254 128 132 131
-97.7797112240544 422.167315104768 1986.12707233814 114 118 117
-94.815875219739 420.918938107386 1993.81730121115 144 148 147
-93.6721965657608 420.09875018784 2000.74311298407 161 165 164
-91.6099922635203 419.065177578173 2008.02114853538 168 172 171
-91.3726770979704 418.459427144115 2014.55024549405 180 184 183
-87.4694988095857 416.99967586056 2022.51667932045 191 195 194
-84.4743573071804 415.754190283413 2030.09343152865 179 183 184
-82.3896179314612 414.722790635857 2037.2882416409 169 173 174
-80.2993697002856 413.691876478165 2044.46290496543 176 180 181
-76.3662002408503 412.235045042601 2052.319830891 190 194 195
-73.3441482089985 410.992209587707 2059.79741370363 178 182 183
-74.9154527861728 410.8152605335 2065.51964326189 154 158 159
-81.0909121411538 411.702985121817 2069.52584537806 155 159 160
-84.5094164981583 411.951140794446 2074.5811847565 159 163 164
-87.9308093152762 412.198753082794 2079.64783437933 168 172 173
-89.5094754051349 412.02049772251 2085.3965710581 167 171 172
-92.0121968383292 412.054770891508 2090.81307409737 167 171 172
-93.5920024889012 411.876131007356 2096.56579897347 169 170 172
-93.3216332063109 411.272369447743 2102.97435716771 158 159 161
-96.7521881513678 411.518409329729 2108.07310221829 157 158 160
-101.11232713401 411.976280637235 2112.86062949521 148 149 151
-109.186154593166 413.282426675344 2116.38569991988 142 143 145
-117.270252744105 414.587283765453 2119.94808963586 139 140 142
-126.293309129275 416.102895329213 2123.23338620199 147 148 150
-139.04613899649 418.465015098988 2125.31390207519 161 162 164
-156.467295211079 421.884538385502 2125.91205699 177 178 180
-172.05146857071 424.877486391065 2127.21317807082 141 142 144
-250.962720970684 464.6273208569 1767.28217154677 204 208 207
-247.321655783208 463.156057845532 1776.21451204177 203 207 208
-248.163447063976 462.749958149496 1782.97984837639 199 203 204
-240.913579136961 460.428875623769 1793.56401963488 195 199 200
-235.449259359264 458.534756876612 1803.2526449783 194 198 199
-226.372227151535 455.791292452731 1814.57888432697 195 199 200
-219.080524917121 453.474744916311 1825.00966713373 195 199 200
-209.971326009424 450.734798465838 1836.21776987165 198 202 203
-199.942593962501 447.784248321582 1847.77611154698 201 205 206
-187.185815502334 444.198793789679 1860.49479635507 201 205 206
-176.214357861807 441.040213879111 1872.31796395084 202 206 207
-167.936884728907 438.520124050292 1882.85751607629 208 212 213
-155.117146075717 434.941438502457 1895.34671560973 204 208 209
-144.087015784842 431.789167804226 1906.95602646067 207 211 212
-128.502867336816 427.579516305892 1920.4730455411 202 206 207
-116.522021612423 424.220111023047 1932.31808277371 200 204 205
-107.244485032408 421.498139043531 1942.9134578901 175 179 180
-108.857758740017 421.317823534418 1948.78938520054 146 150 149
-108.652060032428 420.714279788175 1955.43726105812 178 182 181
-110.264461713475 420.533884613306 1961.30990040807 169 173 172
-106.410321999597 419.084889092275 1969.4651954757 92 96 95
-102.547830219894 417.636722334188 1977.59000419743 127 131 130
-99.5894815173641 416.400636017604 1985.30929506142 124 128 127
-95.7112085074208 414.954128275499 1993.37562956164 145 149 148
-94.5663968095398 414.141682120703 2000.3021223096 157 161 160
-91.5879784958356 412.907563135733 2007.94814071103 176 180 179
-90.4336159894115 412.095976072475 2014.8397155642 176 180 179
-88.3590805378418 411.073916994839 2022.07830799376 187 191 190
-86.2790335469885 410.052387042262 2029.29677122006 182 186 187
-85.1110291929804 409.242023907651 2036.13846929136 168 172 173
-81.1839152443308 407.800204581501 2044.02735600162 174 178 179
-76.3294169448625 406.148711172066 2052.23698952433 183 187 188
-73.3044761570896 404.919077364489 2059.71311080391 173 177 178
-75.7957772775204 404.952331810701 2065.08656929197 146 150 151
-81.0521816670029 405.616089385029 2069.43541978757 153 157 158
-84.4708452047001 405.858673852881 2074.48783280568 160 164 165
-87.8923776304035 406.100767745658 2079.55151674176 165 169 170
-88.5470912998971 405.712318628599 2085.63341422347 167 171 172
-91.9726522678066 405.953715534766 2090.71161530633 159 163 164
-92.6270501162696 405.565071878406 2096.79221738453 166 167 169
-93.2801950852817 405.176457591023 2102.86818630892 159 160 162
-96.7106793545871 405.416931273619 2107.96408376989 154 155 157
-101.998514742802 406.076266545063 2112.42591037044 153 154 156
-110.075226575992 407.363384341271 2115.94967647479 150 151 153
-116.305278186413 408.230266814161 2120.14541031503 146 147 149
-120.684548437611 408.677455497202 2124.99722379262 154 155 157
-132.507430751283 410.79841889275 2127.36909353855 149 150 152
-152.721547296529 414.800310043069 2127.01474916233 191 192 194
-172.964704391966 418.7987703007 2126.76606057113 139 140 142
-252.839694773552 458.306940809838 1766.36432993005 201 205 204
-247.401359729422 456.430771558291 1776.16076386819 207 211 212
-246.444828240537 455.606601209577 1783.77890208796 197 201 202
-235.591615889796 452.471807231587 1796.05703748438 193 197 198
-226.519026579295 449.759239358078 1807.41834988161 194 198 199
-215.627724781557 446.628569003722 1819.55767006675 196 200 201
-210.125793477063 444.759170092615 1829.12225799321 191 195 196
-201.003749722318 442.051838162801 1840.30419045503 197 201 202
-193.670715116883 439.765726421809 1850.60072983701 198 202 203
-180.901838881911 436.223443382499 1863.30175419873 198 202 203
-169.014790388361 432.893178768421 1875.51344005842 207 211 212
-158.011511567373 429.774650302884 1887.24374823359 207 211 212
-147.894141060975 426.867610641255 1898.50046292248 205 209 210
-140.477949750898 424.590408750202 1908.49388297122 205 209 210
-130.325979019705 421.687081945431 1919.62447791036 197 201 202
-121.063505102158 418.994843358326 1930.29454984769 197 201 202
-109.966912842743 415.88634887413 1941.68473844546 180 184 185
-109.762849162054 415.287555139386 1948.34261276857 185 189 188
-109.556428449589 414.689019481802 1954.99096980856 161 165 164
-110.257943539933 414.299410681222 1961.24682865211 152 156 155
-108.223910958615 413.283736729793 1968.63983153499 119 123 122
-105.272179271721 412.059961906262 1976.39053389084 168 172 171
-105.052282229444 411.462501143719 1982.99046361449 126 130 129
-100.26140878968 409.822870969429 1991.44381359677 120 124 123
-96.3750749447856 408.39263256481 1999.49142042718 175 179 178
-90.6502383054431 406.546623684545 2008.2431717746 174 178 177
-88.5772992877412 405.534676915037 2015.4950048547 176 180 179
-87.4155600089543 404.731459864522 2022.36447558576 183 187 186
-85.3325392812572 403.720527374607 2029.57858859314 172 176 177
-82.3260399061137 402.502155224678 2037.12936022197 167 171 172
-77.4750326009204 400.868598894782 2045.36327965521 172 176 177
-75.3723424770385 399.859522546166 2052.5064649426 174 178 179
-75.1047836154921 399.266519790652 2058.93132120252 158 162 163
-75.7551763454596 398.881328840943 2065.00016194146 152 156 157
-79.1694375199277 399.118999643747 2070.03312761687 160 164 165
-80.7420475481635 398.941155865266 2075.75963917699 165 169 170
-86.0070680710607 399.592890780047 2080.1328892094 162 166 167
-87.5829869208302 399.414469358243 2085.87132108161 162 166 167
-91.932635435084 399.857711506947 2090.61066322045 165 169 170
-90.7354397020379 399.057223220596 2097.35021388497 166 167 169
-93.2380597393236 399.085543736237 2102.76258226739 161 162 164
-96.6686915088828 399.320498110553 2107.85554276559 156 157 159
-104.739454412845 400.589703150899 2111.34591248536 156 157 159
-110.964417413283 401.443938337918 2115.51383945737 155 156 158
-115.339016866012 401.883666576404 2120.34360104156 153 154 156
-118.788408083804 402.116032520459 2125.50457749493 125 126 128
-128.752990170662 403.794227633699 2128.49097179243 142 143 145
-147.109775998891 407.329525184102 2128.73878048686 140 141 143
-167.356026332466 411.274562038531 2128.46784774259 134 135 137
-244.003895409083 450.098279078121 1763.44588989671 208 212 211
-248.434629464579 450.527355888939 1768.47734350507 199 203 202
-243.887086454406 448.880220379644 1777.82939320534 205 209 210
-239.329852161799 447.234104624381 1787.14610489268 190 194 195
-228.464839525638 444.137205348747 1799.40342385088 190 194 195
-215.779104364219 440.627786591815 1812.43388351091 196 200 201
-209.378846169267 438.571521217734 1822.44243146501 196 200 201
-202.966009446333 436.516602301255 1832.40512789288 191 195 196
-198.345826167201 434.877232571574 1841.49238141831 198 202 203
-191.00598049886 432.617852896259 1851.78050988549 196 200 201
-181.843945559956 429.946116155269 1862.83643585737 198 202 203
-162.71279080325 425.000973501153 1878.30597565523 209 213 214
-148.981793220154 421.299976302687 1891.23094859498 205 209 210
-137.039110873345 418.015015584791 1903.26467936982 204 208 209
-132.330355943314 416.385138645837 1912.02907696615 205 209 210
-124.888938679921 414.136719165731 1921.94700970187 196 200 201
-121.975057228975 412.921961439961 1929.84486451133 197 201 202
-109.963671083527 409.644318533764 1941.62906065313 181 185 186
-108.848668864564 408.844397088348 1948.67320857713 174 178 177
-106.818779515993 407.838555336634 1956.08873102983 164 168 167
-108.428465369313 407.657759401667 1961.95103402477 146 150 149
-110.038422697113 407.476859861326 1967.81427954023 96 100 99
-108.910664657078 406.677966084514 1974.81264543933 122 126 125
-107.779107619909 405.879482713759 1981.79623649304 119 123 122
-102.072664824449 404.052344661951 1990.6291236534 103 107 106
-99.099679263877 402.843570483629 1998.31038516402 161 165 164
-94.2883809167512 401.22415245175 2006.70159137954 178 182 181
-90.3838880029464 399.811387232332 2014.69187977806 183 187 186
-86.4707831790859 398.399423145488 2022.65162865811 189 193 192
-83.4669278953588 397.193684949437 2030.22112271973 174 178 179
-79.537754376187 395.783355442691 2038.12224367176 163 167 168
-74.6811025144245 394.168670010834 2046.34712006988 167 171 172
-72.5741952922392 393.170443154094 2053.48056887649 170 174 175
-75.0645552892397 393.198015448558 2058.84787476706 154 158 159
-76.6353461309377 393.020331522491 2064.56773296656 157 161 162
-78.2063593611615 392.842535226488 2070.28834590658 161 165 166
-78.8549071939251 392.459817674827 2076.35096945533 164 168 169
-82.2726560997888 392.691337347753 2081.39300089244 162 166 167
-83.8450347511452 392.513072639601 2087.1183876426 162 166 167
-85.4176081701885 392.334698756 2092.84442859934 166 170 171
-85.1390486811341 391.747192529396 2099.2328409285 168 169 171
-91.342441270017 392.59078780816 2103.31396370903 163 164 166
-95.6990069606429 393.024745511574 2108.0731262553 157 158 160
-104.698942835123 394.47930030242 2111.23403284668 154 155 157
-109.996598579329 395.115765278198 2115.71881041939 152 153 155
-116.229587138622 395.955562153577 2119.90741912435 150 151 153
-120.609959156232 396.386398275587 2124.75299909372 129 130 132
-134.301638037362 398.855746108353 2126.49065514743 132 133 135
-146.149355326723 400.915146641157 2128.9167937444 138 139 141
-163.605906948594 404.195114075345 2129.55825660981 138 139 141
-247.672587807392 444.203997613667 1761.65579480506 198 202 201
-243.127007337419 442.574701566882 1771.02639393516 194 198 197
-235.875613286597 440.331794536329 1781.65332588768 194 198 199
-228.610210105997 438.090413861222 1792.22920834798 183 187 188
-215.029897705109 434.417516308915 1805.73138648131 192 196 197
-204.1278917978 431.361129544988 1817.87786317577 200 204 205
-199.517266629507 429.738850786522 1827.01139443791 193 197 198
-196.701556895602 428.526566758386 1835.27437433228 196 200 201
-192.072894217893 426.906200828799 1844.34214351724 198 202 203
-189.24183182745 425.695454209443 1852.55002166885 197 201 202
-177.359772354584 422.443095458834 1864.82941646829 201 205 206
-160.025302951401 417.968065476953 1879.47386060505 207 211 212
-142.661206069585 413.496375327639 1894.00948329341 203 207 208
-132.519871795243 410.659903281005 1905.22177790654 202 206 207
-125.989356701732 408.641065583636 1914.77033740167 205 209 210
-119.446192055227 406.623582558267 1924.27278685476 199 203 204
-116.525555191236 405.42250239374 1932.15326641324 201 205 206
-108.141188797246 403.000081744846 1942.35667899542 189 193 194
-103.381779614188 401.393631511956 1950.94872669654 179 183 182
-99.5238599194575 399.991798873742 1959.11883458882 164 168 167
-102.950251160031 400.218210466374 1964.19065736888 158 162 161
-109.117071571342 401.054265597147 1968.13123436732 132 136 135
-110.725936225506 400.873051961207 1973.99022469621 127 131 130
-109.593733641712 400.082160187055 1980.97714092101 84 88 87
-102.970436381048 398.073020636474 1990.18734131648 112 116 115
-99.995504381007 396.877346258923 1997.86964660727 162 166 165
-96.0975442166485 395.479408063235 2005.89447985318 167 171 170
