ply
format ascii 1.0
comment KinectMotionCapture
element vertex 752
property float x
property float y
property float z
property uchar red
property uchar green
property uchar blue
end_header
-569.688677787781 526.626646518707 2130.00011444092 124 123 119
-564.711332321167 527.389287948608 2132.99989700317 120 119 115
-559.979856014252 528.399705886841 2137.00008392334 127 126 122
-554.967045783997 529.163181781769 2140.00010490417 135 134 130
-550.194442272186 530.174136161804 2144.00005340576 139 138 134
-545.653820037842 531.432747840881 2148.9999294281 141 140 136
-542.090594768524 533.680975437164 2157.99999237061 146 145 141
-538.478434085846 535.929620265961 2167.00005531311 149 148 144
-534.325480461121 537.683844566345 2174.00002479553 155 154 150
-530.620455741882 539.933264255524 2183.00008773804 163 162 158
-527.106761932373 542.430341243744 2193.00007820129 175 174 170
-526.152372360229 547.64860868454 2213.99998664856 177 176 172
-524.848997592926 552.6202917099 2233.99996757507 183 184 179
-522.972285747528 557.097733020782 2252.00009346008 187 189 184
-519.849896430969 560.338735580444 2265.00010490417 195 197 192
-763.944864273071 496.462374925613 2032.00006484985 190 191 186
-756.925165653229 495.482534170151 2028.00011634827 192 194 189
-750.299155712128 494.747877120972 2025.00009536743 186 188 185
-744.058549404144 494.258373975754 2023.00000190735 178 180 177
-737.100005149841 493.281185626984 2019.00005340576 171 173 170
-730.889141559601 492.793381214142 2016.99995994568 165 167 164
-724.69037771225 492.306500673294 2015.00010490417 162 164 161
-719.931185245514 492.797523736954 2016.99995994568 159 161 158
-714.453876018524 492.800772190094 2016.99995994568 158 160 157
-710.032045841217 493.537783622742 2019.99998092651 160 162 159
-705.246210098267 494.031250476837 2022.0000743866 162 164 161
-701.488494873047 495.258361101151 2026.99995040894 164 166 163
-697.361290454865 496.241956949234 2030.99989891052 164 166 163
-692.872524261475 496.981889009476 2033.99991989136 163 165 162
-687.692523002625 497.233897447586 2035.00008583069 164 166 163
-683.84861946106 498.463928699493 2039.99996185303 165 167 164
-679.978251457214 499.694675207138 2045.00007629395 158 160 157
-676.41144990921 501.170516014099 2051.00011825562 154 156 153
-671.504139900208 501.669466495514 2052.99997329712 152 154 151
-667.235314846039 502.657830715179 2056.99992179871 160 162 159
-663.267135620117 503.891229629517 2062.00003623962 163 165 162
-658.953309059143 504.880905151367 2065.99998474121 163 165 162
-655.250787734985 506.359875202179 2072.00002670288 162 164 161
-651.20255947113 507.595121860504 2076.99990272522 161 163 160
-646.505951881409 508.342206478119 2079.99992370605 161 163 160
-641.485452651978 508.845448493958 2082.00001716614 161 163 160
-636.454463005066 509.349286556244 2084.00011062622 160 162 159
-631.715357303619 510.097861289978 2086.99989318848 159 161 158
-627.260506153107 511.091589927673 2091.00008010864 158 160 157
-622.486710548401 511.841356754303 2094.00010108948 161 163 160
-617.99144744873 512.83597946167 2098.00004959106 160 162 159
-612.890839576721 513.342201709747 2099.99990463257 158 160 157
-608.358025550842 514.337956905365 2104.00009155273 158 160 157
-603.51699590683 515.089631080627 2107.00011253357 157 159 156
-598.376035690308 515.59716463089 2108.99996757507 157 159 156
-593.505322933197 516.349673271179 2111.99998855591 161 163 160
-588.618338108063 517.102599143982 2115.00000953674 161 163 160
-583.71514081955 517.856001853943 2118.00003051758 161 163 160
-579.341232776642 519.09863948822 2122.99990653992 136 138 135
-574.399828910828 519.852757453918 2125.99992752075 130 132 129
-569.709599018097 520.851850509644 2130.00011444092 124 125 120
-564.732670783997 521.606624126434 2132.99989700317 123 122 118
-560.00143289566 522.606432437897 2137.00008392334 130 129 125
-555.248260498047 523.606479167938 2141.00003242493 139 138 134
-550.473213195801 524.606883525848 2144.99998092651 146 145 141
-545.93026638031 525.852203369141 2150.00009536743 149 148 144
-542.113363742828 527.831554412842 2157.99999237061 155 154 150
-537.755966186523 529.322147369385 2164.00003433228 157 156 152
-533.611476421356 531.057715415955 2171.0000038147 161 160 156
-529.914796352386 533.28275680542 2180.0000667572 166 165 161
-526.169061660767 535.508155822754 2188.99989128113 170 169 165
-523.800075054169 539.201974868774 2203.9999961853 169 170 165
-521.114408969879 542.651474475861 2217.99993515015 165 167 162
-517.887949943542 545.612096786499 2230.00001907349 170 172 167
-513.218939304352 547.105014324188 2236.00006103516 180 182 177
-508.516788482666 548.598170280457 2242.00010299683 209 211 206
-504.902184009552 551.315069198608 2253.00002098084 203 205 200
-770.605504512787 491.665482521057 2035.00008583069 183 184 179
-762.06237077713 489.729791879654 2026.99995040894 191 192 187
-755.803644657135 489.244639873505 2025.00009536743 195 197 192
-748.075067996979 487.793892621994 2019.00005340576 183 185 182
-741.483926773071 487.068831920624 2016.00003242493 173 175 172
-734.910190105438 486.344635486603 2013.00001144409 163 165 162
-730.528354644775 487.070858478546 2016.00003242493 163 165 162
-725.052356719971 487.07303404808 2016.00003242493 163 165 162
-719.934344291687 487.317621707916 2016.99995994568 159 161 158
-714.81192111969 487.562954425812 2017.99988746643 156 158 155
-709.333717823029 487.567514181137 2017.99988746643 157 159 156
-703.856408596039 487.572759389877 2017.99988746643 161 163 160
-700.456440448761 489.028364419937 2023.9999294281 165 167 164
-697.368144989014 490.726411342621 2030.99989891052 164 166 163
-692.539513111115 491.217046976089 2032.99999237061 162 164 161
-686.348915100098 490.741819143295 2030.99989891052 163 165 162
-681.510925292969 491.233885288239 2032.99999237061 165 167 164
-678.657710552216 493.176281452179 2040.99988937378 160 162 159
-675.102293491364 494.63614821434 2046.99993133545 156 158 155
-670.533657073975 495.371788740158 2049.99995231628 154 156 153
-665.30054807663 495.624780654907 2051.00011825562 161 163 160
-660.705804824829 496.361583471298 2053.99990081787 165 167 164
-656.733274459839 497.582346200943 2059.00001525879 167 169 166
-653.366506099701 499.287098646164 2065.99998474121 164 166 163
-649.648666381836 500.750780105591 2072.00002670288 163 165 162
-644.655406475067 501.248359680176 2073.99988174438 162 164 161
-639.651656150818 501.746416091919 2075.99997520447 161 163 160
-634.637355804443 502.24506855011 2078.00006866455 160 162 159
-630.520522594452 503.469288349152 2082.99994468689 161 163 160
-626.376867294312 504.694163799286 2088.00005912781 164 166 163
-621.314406394959 505.194246768951 2089.99991416931 163 165 162
-616.830468177795 506.178319454193 2094.00010108948 162 164 161
-612.033069133759 506.921172142029 2096.99988365173 161 163 160
-607.797861099243 508.148014545441 2101.99999809265 161 163 160
-602.962732315063 508.891761302948 2105.00001907349 161 163 160
-597.827672958374 509.394228458405 2107.00011253357 161 163 160
-592.681646347046 509.896993637085 2108.99996757507 162 164 161
-587.524950504303 510.400354862213 2111.00006103516 162 164 161
-583.184003829956 511.629223823547 2115.9999370575 163 165 162
-578.543066978455 512.616872787476 2119.99988555908 165 167 164
-574.150502681732 513.846695423126 2125 164 166 163
-569.46325302124 514.835059642792 2128.99994850159 170 170 168
-565.019011497498 516.065657138824 2134.0000629425 171 171 169
-560.285329818726 517.054736614227 2138.00001144409 163 163 161
-555.270314216614 517.802298069 2141.00003242493 159 159 157
-550.238966941834 518.550217151642 2144.00005340576 159 159 157
-545.95285654068 520.024001598358 2150.00009536743 160 160 158
-541.885137557983 521.740078926086 2157.00006484985 167 167 165
-537.282109260559 522.972643375397 2161.99994087219 170 170 168
-532.897531986237 524.447381496429 2167.99998283386 170 170 168
-528.966248035431 526.406407356262 2176.00011825562 168 168 166
-524.991154670715 528.365612030029 2184.00001525879 167 167 165
-521.923065185547 531.293034553528 2196.00009918213 169 169 167
-518.789410591125 534.220695495605 2207.99994468689 159 161 156
-515.358150005341 536.906898021698 2219.00010108948 170 172 167
-510.489463806152 538.14160823822 2223.99997711182 170 172 167
-504.912734031677 538.650631904602 2226.0000705719 178 180 175
-499.997049570084 539.885640144348 2230.99994659424 179 181 176
-495.939403772354 542.088985443115 2240.00000953674 184 186 181
-493.800520896912 546.470642089844 2257.99989700317 205 207 202
-492.427408695221 551.820993423462 2279.99997138977 197 199 194
-770.602464675903 486.132591962814 2035.00008583069 189 190 185
-760.932326316834 483.502566814423 2023.9999294281 197 198 193
-753.936111927032 482.545584440231 2019.99998092651 190 192 189
-746.963143348694 481.589555740356 2016.00003242493 175 177 174
-740.748703479767 481.112062931061 2013.99993896484 171 173 170
-734.911501407623 480.874329805374 2013.00001144409 165 167 164
-730.530381202698 481.592923402786 2016.00003242493 160 162 159
-725.055158138275 481.595605611801 2016.00003242493 156 158 155
-719.937980175018 481.83798789978 2016.99995994568 158 160 157
-714.107871055603 481.603354215622 2016.00003242493 156 158 155
-708.987355232239 481.847196817398 2016.99995994568 157 159 156
-703.16469669342 481.614023447037 2016.00003242493 160 162 159
-699.078679084778 482.575982809067 2019.99998092651 164 166 163
-695.658624172211 484.016537666321 2026.00002288818 168 170 167
-691.184818744659 484.741061925888 2029.00004386902 160 162 159
-684.329926967621 483.793884515762 2025.00009536743 149 151 148
-679.508805274963 484.280824661255 2026.99995040894 154 156 153
-676.340103149414 485.962986946106 2033.99991989136 169 171 168
-673.793733119965 488.123744726181 2042.99998283386 172 174 171
-669.563591480255 489.090472459793 2046.99993133545 158 160 157
-663.690268993378 488.863170146942 2046.0000038147 157 159 156
-658.144772052765 488.875418901443 2046.0000038147 160 162 159
-654.832422733307 490.560829639435 2052.99997329712 167 169 166
-651.798844337463 492.485821247101 2061.00010871887 166 168 165
-648.408651351929 494.172543287277 2068.00007820129 164 166 163
-643.737614154816 494.903922080994 2071.00009918213 164 166 163
-638.742327690125 495.396822690964 2072.99995422363 163 165 162
-634.042084217072 496.129304170609 2075.99997520447 162 164 161
-629.628539085388 497.101306915283 2079.99992370605 163 165 162
-625.793397426605 498.55175614357 2085.99996566772 166 168 165
-621.034264564514 499.285817146301 2088.99998664856 163 165 162
-616.553425788879 500.259280204773 2092.99993515015 164 166 163
-611.17547750473 500.516295433044 2094.00010108948 163 165 162
-606.948792934418 501.729667186737 2098.99997711182 163 165 162
-601.835787296295 502.226591110229 2101.0000705719 163 165 162
-596.995651721954 502.962827682495 2104.00009155273 164 166 163
-592.13924407959 503.699541091919 2107.00011253357 163 165 162
-586.709916591644 503.958463668823 2108.00004005432 162 164 161
-581.826388835907 504.695951938629 2111.00006103516 163 165 162
-577.47209072113 505.911946296692 2115.9999370575 163 165 162
-572.820544242859 506.889224052429 2119.99988555908 163 165 162
-568.414688110352 508.106052875519 2125 161 163 162
-563.716769218445 509.084105491638 2128.99994850159 165 167 166
-559.259057044983 510.30170917511 2134.0000629425 164 166 165
-554.514586925507 511.280417442322 2138.00001144409 164 166 165
-550.261497497559 512.73775100708 2144.00005340576 167 169 168
-545.721709728241 513.956308364868 2148.9999294281 168 170 169
-541.405737400055 515.414357185364 2154.99997138977 165 167 166
-536.311388015747 516.155183315277 2157.99999237061 168 170 169
-531.692147254944 517.374694347382 2163.00010681152 169 171 170
-528.260767459869 519.790410995483 2173.00009727478 169 171 170
-524.77490901947 522.206544876099 2183.00008773804 168 170 169
-521.234393119812 524.623036384583 2193.00007820129 168 170 167
-517.40425825119 526.800632476807 2201.99990272522 158 160 157
-513.292729854584 528.739333152771 2210.00003814697 167 169 166
-508.678197860718 530.199825763702 2216.00008010864 169 171 168
-503.123223781586 530.703365802765 2217.99993515015 161 163 160
-498.45352768898 532.16427564621 2223.99997711182 163 165 162
-493.750661611557 533.625304698944 2230.00001907349 177 179 176
-489.889651536942 536.04382276535 2240.00000953674 179 181 178
-485.541790723801 537.983894348145 2247.99990653992 194 196 193
-480.936825275421 539.685010910034 2255.00011444092 191 193 190
-780.33047914505 483.200579881668 2046.0000038147 182 183 178
-771.736085414886 481.30863904953 2038.00010681152 196 197 192
-760.930776596069 478.000581264496 2023.9999294281 190 190 188
-753.562331199646 476.818919181824 2019.00005340576 180 182 179
-746.222257614136 475.638061761856 2013.99993896484 171 173 170
-739.646255970001 474.930346012115 2010.99991798401 167 169 166
-734.183013439178 474.931955337524 2010.99991798401 162 164 163
-729.808270931244 475.642949342728 2013.99993896484 158 160 159
-725.058495998383 476.118475198746 2016.00003242493 155 157 156
-719.942092895508 476.358622312546 2016.99995994568 158 160 157
-713.758647441864 475.891023874283 2015.00010490417 158 160 157
-708.289921283722 475.896447896957 2015.00010490417 153 155 152
-701.775789260864 475.194007158279 2012.00008392334 158 160 157
-697.701394557953 476.145565509796 2016.00003242493 164 166 163
-693.606078624725 477.097809314728 2019.99998092651 167 169 166
-689.830601215363 478.287011384964 2025.00009536743 161 163 160
-683.663010597229 477.823406457901 2023.00000190735 145 147 144
-678.512632846832 478.069096803665 2023.9999294281 144 146 143
-675.020277500153 479.496449232101 2029.99997138977 164 166 163
-672.485411167145 481.633126735687 2039.00003433228 173 175 172
-668.266713619232 482.589364051819 2042.99998283386 153 155 152
-662.404954433441 482.365131378174 2042.00005531311 152 154 151
-656.549036502838 482.141435146332 2040.99988937378 161 163 160
-653.250813484192 483.808159828186 2048.00009727478 161 163 160
-650.23136138916 485.711723566055 2055.99999427795 165 167 164
-646.855235099792 487.379640340805 2062.99996376038 165 167 164
-642.198264598846 488.103210926056 2065.99998474121 166 168 165
-637.833476066589 489.063531160355 2069.9999332428 167 169 166
-633.141756057739 489.788144826889 2072.99995422363 165 167 164
-629.039525985718 490.985810756683 2078.00006866455 164 166 163
-624.310433864594 491.711467504501 2081.00008964539 164 166 163
-619.862377643585 492.673844099045 2085.00003814697 166 168 165
-615.098416805267 493.400454521179 2088.00005912781 166 168 165
-610.318064689636 494.127482175827 2091.00008010864 166 168 165
-605.810761451721 495.091289281845 2095.00002861023 166 168 165
-601.281940937042 496.055543422699 2098.99997711182 167 169 166
-596.73136472702 497.020244598389 2102.9999256134 167 169 166
-591.596961021423 497.512668371201 2105.00001907349 163 165 162
-586.173355579376 497.769117355347 2105.99994659424 164 166 163
-581.295549869537 498.498648405075 2108.99996757507 168 170 167
-576.947271823883 499.701321125031 2114.00008201599 168 170 167
-572.841763496399 501.140713691711 2119.99988555908 168 170 167
-568.43626499176 502.344191074371 2125 167 169 168
-563.47382068634 503.075122833252 2128.00002098084 167 169 168
-558.494925498962 503.806471824646 2131.00004196167 170 172 171
-553.758919239044 504.774570465088 2134.99999046326 171 173 172
-549.257636070251 505.979359149933 2140.00010490417 171 173 172
-545.236825942993 507.65734910965 2147.0000743866 165 167 166
-540.675282478333 508.862793445587 2151.99995040894 164 166 165
-535.837769508362 509.83202457428 2155.99989891052 170 172 171
-531.224191188812 511.03812456131 2161.00001335144 171 173 172
-527.555465698242 513.190388679504 2170.00007629395 171 173 172
-524.077951908112 515.579462051392 2180.0000667572 171 173 172
-520.070374011993 517.495930194855 2187.99996376038 171 173 172
-516.019105911255 519.412755966187 2196.00009918213 172 174 171
-511.923968791962 521.329820156097 2203.9999961853 170 172 169
-507.555425167084 523.010551929474 2210.99996566772 169 171 168
-502.01416015625 523.508846759796 2213.00005912781 168 170 167
-496.909886598587 524.48034286499 2217.00000762939 168 170 167
-491.783320903778 525.451958179474 2220.99995613098 174 176 173
-487.072020769119 526.897013187408 2226.99999809265 178 180 177
-482.759535312653 528.81532907486 2234.99989509583 182 184 181
-478.829741477966 531.207203865051 2244.99988555908 183 185 182
-475.687354803085 534.54577922821 2259.0000629425 185 187 184
-472.260594367981 537.648022174835 2272.0000743866 195 197 194
-786.661624908447 478.107869625092 2048.00009727478 172 172 170
-779.56485748291 477.171093225479 2043.99991035461 192 192 190
-770.219385623932 474.834501743317 2033.99991989136 196 196 194
-760.177910327911 472.03204035759 2022.0000743866 180 180 178
-752.069175243378 470.397591590881 2015.00010490417 174 176 173
-745.85235118866 469.931185245514 2013.00001144409 167 169 168
-739.647746086121 469.465583562851 2010.99991798401 165 167 166
-734.185397624969 469.467729330063 2010.99991798401 163 165 164
-729.086577892303 469.704151153564 2012.00008392334 160 162 161
-724.343061447144 470.174670219421 2013.99993896484 157 159 158
-718.518972396851 469.945669174194 2013.00001144409 155 157 154
-713.055372238159 469.950765371323 2013.00001144409 155 157 154
-707.592904567719 469.956636428833 2013.00001144409 147 149 146
-701.782524585724 469.729781150818 2012.00008392334 150 152 149
-696.670472621918 469.970434904099 2013.00001144409 162 164 161
-692.584037780762 470.912247896194 2016.99995994568 165 167 164
-688.817322254181 472.088217735291 2022.0000743866 161 163 160
-683.334469795227 472.097426652908 2022.0000743866 149 151 148
-678.522646427155 472.574263811111 2023.9999294281 146 148 145
-674.033284187317 473.285168409348 2026.99995040894 154 156 153
-670.847535133362 474.930763244629 2033.99991989136 159 161 158
-666.315913200378 475.642949342728 2036.99994087219 157 159 156
-660.795331001282 475.655287504196 2036.99994087219 152 154 151
-654.631972312927 475.201100111008 2035.00008583069 161 163 160
-650.712490081787 476.381987333298 2039.99996185303 165 167 164
-648.347795009613 478.731155395508 2049.99995231628 168 170 167
-644.988477230072 480.38038611412 2056.99992179871 167 169 166
-640.659213066101 481.329649686813 2061.00010871887 168 170 167
-636.308431625366 482.27933049202 2065.00005722046 168 170 167
-631.630837917328 482.996046543121 2068.00007820129 166 168 165
-627.542495727539 484.180361032486 2072.99995422363 166 168 165
-622.827410697937 484.898090362549 2075.99997520447 168 170 167
-618.69078874588 486.083418130875 2081.00008964539 167 169 166
-613.938093185425 486.802160739899 2084.00011062622 167 169 166
-609.168887138367 487.521201372147 2086.99989318848 167 169 166
-604.962170124054 488.708019256592 2092.00000762939 167 169 166
-600.441813468933 489.661574363709 2095.99995613098 167 169 166
-595.899701118469 490.615606307983 2099.99990463257 167 169 166
-590.492844581604 490.869224071503 2101.0000705719 166 168 165
-585.637152194977 491.590440273285 2104.00009155273 166 168 165
-580.765068531036 492.312014102936 2107.00011253357 168 170 167
-576.695263385773 493.734836578369 2112.99991607666 168 170 167
-572.052597999573 494.690895080566 2117.00010299683 167 169 166
-567.655444145203 495.880901813507 2121.99997901917 167 169 168
-562.436699867249 496.370255947113 2124.00007247925 167 169 168
-557.730972766876 497.32717871666 2128.00002098084 168 170 169
-553.003251552582 498.284518718719 2131.99996948242 170 172 171
-548.76708984375 499.709665775299 2138.00001144409 169 171 170
-544.498085975647 501.135110855103 2144.00005340576 164 166 165
-540.196180343628 502.56085395813 2150.00009536743 164 166 165
-535.364329814911 503.519356250763 2154.00004386902 170 172 171
-531.247973442078 505.179524421692 2161.00001335144 171 173 172
-526.606917381287 506.372332572937 2165.99988937378 171 173 172
-523.140668869019 508.734524250031 2176.00011825562 171 173 172
-518.668711185455 510.161697864532 2181.99992179871 171 173 172
-514.63395357132 512.056887149811 2190.00005722046 172 174 171
-510.090708732605 513.484656810761 2196.00009918213 170 172 169
-505.97357749939 515.380322933197 2203.9999961853 169 171 168
-501.132011413574 516.574740409851 2209.00011062622 167 169 166
-496.262788772583 517.76921749115 2213.99998664856 166 168 165
-490.923047065735 518.49627494812 2217.00000762939 161 163 160
-486.003935337067 519.691109657288 2221.99988365173 170 172 169
-481.273114681244 521.120071411133 2227.9999256134 188 190 187
-477.149188518524 523.250877857208 2236.99998855591 188 190 187
-473.186314105988 525.615870952606 2246.99997901917 185 187 184
-468.960732221603 527.747094631195 2256.00004196167 181 183 180
-463.865041732788 528.942763805389 2260.99991798401 183 185 182
-459.75387096405 531.308233737946 2270.99990844727 191 193 190
-785.506129264832 471.84744477272 2045.00007629395 180 180 178
-776.511549949646 469.768494367599 2036.00001335144 197 197 195
-766.810119152069 467.228978872299 2025.00009536743 193 193 191
-757.545709609985 464.921027421951 2015.00010490417 178 178 176
-750.949859619141 464.229047298431 2012.00008392334 170 172 169
-745.112538337708 463.999330997467 2010.99991798401 165 167 166
-739.282011985779 463.770419359207 2009.99999046326 164 166 165
-732.727766036987 463.080793619156 2006.99996948242 163 165 164
-727.640569210052 463.314920663834 2007.99989700317 161 163 162
-722.908675670624 463.780492544174 2009.99999046326 158 160 159
-717.453122138977 463.785380125046 2009.99999046326 156 158 155
-712.706863880157 464.252442121506 2012.00008392334 156 158 155
-707.247853279114 464.25873041153 2012.00008392334 147 149 146
-701.789677143097 464.265674352646 2012.00008392334 148 150 147
-696.678280830383 464.504063129425 2013.00001144409 160 162 159
-692.249119281769 465.204626321793 2016.00003242493 161 163 160
-688.826501369476 466.598182916641 2022.0000743866 162 164 161
-683.682203292847 466.838508844376 2023.00000190735 162 164 161
-678.868353366852 467.310279607773 2025.00009536743 160 162 159
-673.379242420197 467.3210978508 2025.00009536743 147 149 146
-669.210076332092 468.255639076233 2029.00004386902 141 143 140
-664.692640304565 468.960016965866 2032.00006484985 164 166 163
-659.834802150726 469.434082508087 2033.99991989136 156 158 155
-654.323399066925 469.447255134583 2033.99991989136 152 154 151
-649.450421333313 469.922512769699 2036.00001335144 166 168 165
-646.46452665329 471.78316116333 2043.99991035461 171 173 170
-642.808496952057 473.182857036591 2049.99995231628 170 172 169
-639.120399951935 474.583119153976 2055.99999427795 170 172 169
-634.167373180389 475.060552358627 2058.00008773804 165 167 164
-629.814624786377 476.000159978867 2062.00003623962 163 165 162
-625.74303150177 477.171123027802 2066.99991226196 164 166 163
-621.04469537735 477.880895137787 2069.9999332428 168 170 167
-616.92476272583 479.052901268005 2075.00004768372 169 171 168
-611.893951892853 479.532688856125 2076.99990272522 170 172 169
-607.728123664856 480.705618858337 2082.00001716614 171 173 170
-603.824436664581 482.109874486923 2088.00005912781 170 172 169
-599.315285682678 483.05281996727 2092.00000762939 167 169 166
-594.500780105591 483.76527428627 2095.00002861023 166 168 165
-589.38866853714 484.247148036957 2096.99988365173 166 168 165
-584.822535514832 485.191345214844 2101.0000705719 166 168 165
-580.234587192535 486.135900020599 2105.00001907349 169 171 168
-576.170742511749 487.542688846588 2111.00006103516 170 172 169
-571.80380821228 488.718867301941 2115.9999370575 169 171 168
-567.409813404083 489.895582199097 2121.00005149841 167 169 168
-562.723577022552 490.841537714005 2125 167 169 168
-557.753384113312 491.556882858276 2128.00002098084 166 168 167
-553.026020526886 492.503494024277 2131.99996948242 167 169 168
-548.276603221893 493.450403213501 2135.99991798401 167 169 168
-543.505370616913 494.397670030594 2140.00010490417 167 169 168
-538.963258266449 495.576173067093 2144.99998092651 166 168 167
-534.393846988678 496.755093336105 2150.00009536743 170 172 171
-530.534327030182 498.6272752285 2157.99999237061 172 174 173
-525.901734828949 499.806761741638 2163.00010681152 172 174 173
-521.722495555878 501.448571681976 2170.00007629395 172 174 173
-517.029345035553 502.628445625305 2174.99995231628 173 175 174
-513.01372051239 504.501938819885 2183.00008773804 173 175 172
-508.489549160004 505.913376808167 2188.99989128113 172 174 171
-504.391610622406 507.78740644455 2197.00002670288 171 173 170
-499.569147825241 508.968234062195 2201.99990272522 168 170 167
-494.719058275223 510.149300098419 2207.00001716614 165 167 164
-490.284204483032 511.792838573456 2213.99998664856 159 161 158
-485.154569149017 512.74299621582 2217.99993515015 164 166 163
-480.434745550156 514.155685901642 2223.99997711182 173 175 172
-475.041836500168 514.874935150146 2226.99999809265 174 176 173
-470.474451780319 516.519129276276 2233.99996757507 174 176 173
-465.868502855301 518.163442611694 2240.9999370575 176 178 175
-460.81355214119 519.345462322235 2246.00005149841 178 182 181
-456.540703773499 521.45254611969 2255.00011444092 184 188 187
-451.81879401207 523.097217082977 2262.00008392334 188 192 191
-448.043376207352 525.898337364197 2273.9999294281 175 179 178
-794.934570789337 468.570679426193 2055.0000667572 175 175 173
-784.351229667664 465.603768825531 2042.00005531311 187 187 185
-774.984419345856 463.321834802628 2032.00006484985 197 197 195
-764.915943145752 460.584670305252 2019.99998092651 186 186 184
-756.041944026947 458.532422780991 2010.99991798401 175 175 173
-750.577449798584 458.53316783905 2010.99991798401 166 168 167
-744.743764400482 458.306670188904 2009.99999046326 162 164 163
-738.916635513306 458.080977201462 2009.0000629425 162 164 163
-732.000768184662 457.171946763992 2005.00011444092 163 165 164
-726.557493209839 457.175761461258 2005.00011444092 161 163 162
-722.194015979767 457.864314317703 2007.99989700317 159 161 160
-717.458546161652 458.325684070587 2009.99999046326 156 158 155
-712.713062763214 458.787709474564 2012.00008392334 156 158 155
-707.606136798859 459.022402763367 2013.00001144409 148 150 147
-702.843487262726 459.485858678818 2015.00010490417 147 149 146
-697.032451629639 459.265798330307 2013.99993896484 157 159 156
-691.914558410645 459.502607584 2015.00010490417 160 162 159
-687.132477760315 459.967941045761 2016.99995994568 162 164 161
-682.67834186554 460.662037134171 2019.99998092651 165 167 164
-677.53791809082 460.900574922562 2020.99990844727 164 166 163
-672.725439071655 461.367905139923 2023.00000190735 147 149 146
-667.902648448944 461.835771799088 2025.00009536743 139 141 138
-663.396596908569 462.53228187561 2028.00011634827 167 169 166
-658.550202846527 463.001251220703 2029.99997138977 163 165 162
-653.693616390228 463.470846414566 2032.00006484985 152 154 151
-649.145483970642 464.169055223465 2035.00008583069 166 168 165
-645.214080810547 465.323954820633 2039.99996185303 173 175 172
-640.942275524139 466.251403093338 2043.99991035461 172 174 171
-637.892603874207 468.091756105423 2052.00004577637 171 173 170
-632.950842380524 468.564003705978 2053.99990081787 165 167 164
-628.304004669189 469.264835119247 2056.99992179871 162 164 161
-623.641014099121 469.966173171997 2059.99994277954 162 164 161
-619.862079620361 471.352458000183 2065.99998474121 166 168 165
-616.050720214844 472.739189863205 2072.00002670288 169 171 168
-610.733926296234 472.985595464706 2072.99995422363 170 172 169
-606.5793633461 474.145174026489 2078.00006866455 171 173 170
-602.686941623688 475.533366203308 2084.00011062622 170 172 169
-598.188996315002 476.465553045273 2088.00005912781 167 169 166
-593.385696411133 477.170079946518 2091.00008010864 166 168 165
-588.846981525421 478.10310125351 2095.00002861023 166 168 165
-584.843218326569 479.492992162704 2101.0000705719 166 168 165
-580.255627632141 480.426818132401 2105.00001907349 168 170 167
-575.646102428436 481.361031532288 2108.99996757507 169 171 168
-571.014761924744 482.295602560043 2112.99991607666 169 171 168
-566.629230976105 483.45884680748 2118.00003051758 168 168 166
-561.421751976013 483.937472105026 2119.99988555908 168 168 166
-556.98961019516 485.101372003555 2125 168 168 166
-552.01119184494 485.808998346329 2128.00002098084 169 169 167
-547.786414623261 487.201780080795 2134.0000629425 170 170 168
-543.020725250244 488.138258457184 2138.00001144409 172 172 170
-538.735628128052 489.531666040421 2144.00005340576 168 168 166
-533.920466899872 490.468680858612 2148.00000190735 172 172 170
-530.066668987274 492.319315671921 2155.99989891052 173 173 171
-525.439620018005 493.485242128372 2161.00001335144 173 173 171
-521.025598049164 494.879871606827 2167.00005531311 173 173 171
-516.340792179108 496.046215295792 2171.99993133545 174 174 172
-512.568414211273 498.126447200775 2180.99999427795 172 174 173
-508.514523506165 499.978542327881 2188.99989128113 172 174 173
-503.728032112122 501.145720481873 2194.00000572205 172 174 173
-498.233139514923 501.627743244171 2196.00009918213 171 173 172
-493.399441242218 502.795219421387 2200.99997520447 168 170 169
-488.980948925018 504.41974401474 2207.99994468689 164 166 165
-484.523922204971 506.044507026672 2214.99991416931 165 167 166
-479.812294244766 507.44092464447 2220.99995613098 170 172 171
-475.067585706711 508.837580680847 2226.99999809265 171 173 172
-469.868421554565 509.777247905731 2230.99994659424 171 173 172
-464.439123868942 510.488629341125 2233.99996757507 166 168 167
-458.992838859558 511.20001077652 2236.99998855591 164 168 169
-454.541951417923 513.054072856903 2244.99988555908 179 183 184
-450.246721506119 515.136778354645 2253.99994850159 171 175 176
-446.099102497101 517.448246479034 2263.99993896484 172 176 175
-443.645358085632 521.816909313202 2282.99999237061 172 176 175
-791.83703660965 461.181223392487 2046.99993133545 185 185 183
-782.428681850433 458.926111459732 2036.99994087219 193 193 191
-771.55065536499 455.770671367645 2023.00000190735 188 188 186
-762.643575668335 453.74259352684 2013.99993896484 179 179 177
-754.162728786469 451.940625905991 2006.00004196167 165 165 163
-748.339414596558 451.716512441635 2005.00011444092 161 163 162
-742.893278598785 451.718479394913 2005.00011444092 159 161 160
-737.816095352173 451.946526765823 2006.00004196167 160 162 161
-732.004582881927 451.724737882614 2005.00011444092 163 165 164
-726.199388504028 451.50363445282 2003.99994850159 161 163 162
-721.839547157288 452.184498310089 2006.99996948242 158 160 159
-717.10741519928 452.640801668167 2009.0000629425 153 155 152
-712.719619274139 453.323155641556 2012.00008392334 152 154 151
-707.613348960876 453.55549454689 2013.00001144409 151 153 150
-703.200221061707 454.239189624786 2016.00003242493 147 149 146
-697.040915489197 453.796923160553 2013.99993896484 148 150 147
-691.923797130585 454.031348228455 2015.00010490417 145 147 144
-686.120331287384 453.81560921669 2013.99993896484 152 154 151
-682.012796401978 454.727202653885 2017.99988746643 160 162 159
-677.549004554749 455.414086580276 2020.99990844727 165 167 164
-672.404527664185 455.650925636292 2022.0000743866 148 150 147
-667.255043983459 455.888271331787 2023.00000190735 137 139 136
-662.42790222168 456.351578235626 2025.00009536743 166 168 165
-658.239126205444 457.266181707382 2029.00004386902 166 168 165
-653.385698795319 457.730561494827 2030.99989891052 157 159 156
-648.521840572357 458.195507526398 2032.99999237061 164 166 163
-643.963754177094 458.886384963989 2036.00001335144 164 166 163
-640.016794204712 460.028499364853 2040.99988937378 172 174 171
-636.975884437561 461.847454309464 2049.00002479553 171 173 170
-632.350981235504 462.539911270142 2052.00004577637 167 169 166
-627.09903717041 462.781995534897 2052.99997329712 165 167 164
-622.14457988739 463.249921798706 2055.0000667572 165 167 164
-618.679702281952 464.845538139343 2062.00003623962 168 170 167
-614.879608154297 466.216176748276 2068.00007820129 171 173 170
-609.57396030426 466.460049152374 2069.00000572205 171 173 170
-605.138719081879 467.380672693253 2072.99995422363 171 173 170
-601.260244846344 468.752771615982 2078.9999961853 170 172 169
-597.062826156616 469.89980340004 2084.00011062622 170 172 169
-592.838168144226 471.047192811966 2088.99998664856 170 172 169
-588.867425918579 472.420573234558 2095.00002861023 170 172 169
-584.864139556885 473.794370889664 2101.0000705719 168 170 167
-580.276787281036 474.717497825623 2105.00001907349 168 170 167
-575.394749641418 475.415498018265 2108.00004005432 168 170 167
-570.496201515198 476.113826036453 2111.00006103516 168 170 167
-565.848767757416 477.038025856018 2115.00000953674 170 171 166
-560.649693012238 477.511405944824 2117.00010299683 171 172 167
-555.963814258575 478.436201810837 2121.00005149841 172 173 168
-551.515340805054 479.586899280548 2125.99992752075 170 171 166
-547.03950881958 480.737924575806 2131.00004196167 170 171 166
-542.282104492188 481.66361451149 2134.99999046326 172 173 168
-537.251532077789 482.363998889923 2138.00001144409 170 170 168
-533.198535442352 483.967036008835 2144.99998092651 173 173 171
-528.861403465271 485.344856977463 2151.00002288818 173 173 171
-524.977624416351 487.174183130264 2158.99991989136 172 172 170
-520.328760147095 488.326877355576 2164.00003433228 173 173 171
-516.3654088974 490.156799554825 2171.99993133545 174 174 172
-512.35830783844 491.987019777298 2180.0000667572 172 174 173
-507.842659950256 493.366092443466 2186.00010871887 172 174 173
-502.834796905518 494.294017553329 2190.00005722046 173 175 174
-497.350871562958 494.770646095276 2191.99991226196 172 174 173
-492.752254009247 496.150285005569 2197.99995422363 171 173 172
-488.120585680008 497.53013253212 2203.9999961853 165 167 166
-483.674556016922 499.135911464691 2210.99996566772 166 168 167
-478.973865509033 500.51611661911 2217.00000762939 173 175 174
-474.666684865952 502.347946166992 2224.99990463257 175 177 176
-469.683676958084 503.502726554871 2230.00001907349 173 175 174
-464.257061481476 504.205942153931 2233.00004005432 163 165 164
-458.403050899506 504.457533359528 2233.99996757507 159 163 164
-453.150510787964 505.386590957642 2237.99991607666 176 180 181
-448.874354362488 507.44491815567 2246.99997901917 172 176 177
-444.942802190781 509.954988956451 2257.99989700317 174 178 177
-440.950810909271 512.465357780457 2269.00005340576 178 182 181
-441.689014434814 520.622491836548 2305.0000667572 166 170 169
-788.740038871765 453.835695981979 2039.00003433228 189 189 187
-778.586149215698 451.163113117218 2026.99995040894 194 194 192
-768.498957157135 448.491424322128 2015.00010490417 187 187 185
-761.507749557495 447.601139545441 2010.99991798401 180 180 178
-754.16374206543 446.489125490189 2006.00004196167 162 162 160
-747.594654560089 445.823043584824 2003.00002098083 160 162 161
-742.154717445374 445.825457572937 2003.00002098083 158 160 159
-736.716032028198 445.828676223755 2003.00002098083 160 162 161
-731.643497943878 446.055114269257 2003.99994850159 162 164 163
-726.204216480255 446.059763431549 2003.99994850159 160 162 161
-721.845090389252 446.73290848732 2006.99996948242 158 160 159
-717.113673686981 447.184205055237 2009.0000629425 153 155 152
-712.372243404388 447.636097669601 2010.99991798401 151 153 150
-706.917822360992 447.643518447876 2010.99991798401 153 155 152
-702.51077413559 448.319405317307 2013.99993896484 148 150 147
-696.357727050781 447.882980108261 2012.00008392334 146 148 145
-690.903067588806 447.892338037491 2012.00008392334 137 139 136
-684.767663478851 447.457045316696 2009.99999046326 148 150 147
-681.009709835052 448.580741882324 2015.00010490417 159 161 158
-676.554441452026 449.259728193283 2017.99988746643 166 168 165
-672.083735466003 449.939340353012 2020.99990844727 151 153 150
-666.937708854675 450.174361467361 2022.0000743866 141 143 140
-662.113666534424 450.632452964783 2023.9999294281 170 172 169
-657.279431819916 451.091170310974 2026.00002288818 170 172 169
-652.434647083282 451.550424098969 2028.00011634827 165 167 164
-647.898375988007 452.23280787468 2030.99989891052 169 171 168
-643.34625005722 452.915728092194 2033.99991989136 166 168 165
-639.405250549316 454.044580459595 2039.00003433228 169 171 168
-636.370182037354 455.842018127441 2046.99993133545 169 171 168
-632.367551326752 456.971973180771 2052.00004577637 167 169 166
-627.115964889526 457.211494445801 2052.99997329712 166 168 165
-622.161984443665 457.674235105515 2055.0000667572 166 168 165
-617.797434329987 458.582878112793 2059.00001525879 169 171 168
-613.411247730255 459.491938352585 2062.99996376038 172 174 171
-608.119547367096 459.73327755928 2063.99989128113 171 173 170
-604.574084281921 461.311519145966 2071.00009918213 171 173 170
-600.990653038025 462.890177965164 2078.00006866455 172 174 171
-597.369253635406 464.469283819199 2085.00003814697 172 174 171
-592.574656009674 465.157777070999 2088.00005912781 172 174 171
-588.325798511505 466.292172670364 2092.99993515015 169 171 168
-583.771586418152 467.204242944717 2096.99988365173 168 170 167
-579.471111297607 468.33947300911 2101.99999809265 169 171 168
-574.05149936676 468.583762645721 2102.9999256134 171 173 170
-569.166719913483 469.274044036865 2105.99994659424 171 173 170
-564.533114433289 470.187425613403 2109.99989509583 171 172 167
-559.877634048462 471.101224422455 2114.00008201599 172 173 168
-555.724382400513 472.460955381393 2119.99988555908 173 174 169
-551.019430160522 473.375350236893 2124.00007247925 170 171 166
-546.549260616302 474.512845277786 2128.99994850159 168 169 164
-541.289627552032 474.981993436813 2131.00004196167 169 170 165
-537.27513551712 476.56586766243 2138.00001144409 174 175 170
-532.973885536194 477.927178144455 2144.00005340576 175 176 171
-528.88560295105 479.511678218842 2151.00002288818 174 175 170
-524.515688419342 480.873554944992 2157.00006484985 172 173 168
-520.353257656097 482.458561658859 2164.00003433228 172 173 168
-515.914678573608 483.820974826813 2170.00007629395 173 173 171
-511.678099632263 485.406517982483 2177.00004577637 172 174 173
-506.938457489014 486.54642701149 2181.99992179871 170 172 171
-501.711845397949 487.240463495255 2184.99994277954 171 173 172
-496.468484401703 487.934708595276 2187.99996376038 171 173 172
-491.656750440598 489.075094461441 2193.00007820129 171 173 172
-487.038642168045 490.438580513 2198.99988174438 167 169 168
-482.825100421906 492.24841594696 2207.00001716614 166 168 167
-478.135347366333 493.612319231033 2213.00005912781 172 174 173
-474.265813827515 495.868653059006 2223.00004959106 177 179 178
-469.288200139999 497.009754180908 2227.9999256134 176 178 177
-463.451236486435 497.258722782135 2229.00009155273 166 168 167
-457.813292741776 497.730672359467 2230.99994659424 150 154 153
-452.568829059601 498.648881912231 2234.99989509583 164 168 169
-447.701573371887 500.013411045074 2240.9999370575 164 168 167
-443.589270114899 502.270519733429 2250.99992752075 165 169 168
-438.838928937912 503.858327865601 2257.99989700317 180 184 183
-434.049993753433 505.446314811707 2265.00010490417 183 187 186
-785.256862640381 446.314126253128 2029.99997138977 190 192 189
-775.512337684631 443.894565105438 2019.00005340576 189 191 188
-767.354667186737 442.355215549469 2012.00008392334 176 178 175
-759.615182876587 441.036611795425 2006.00004196167 169 171 168
-753.037393093109 440.378308296204 2003.00002098083 161 163 160
-746.477246284485 439.720809459686 2000 156 158 155
-742.157816886902 440.38325548172 2003.00002098083 157 159 156
-737.087607383728 440.606683492661 2003.99994850159 161 163 160
-732.01310634613 440.830916166306 2005.00011444092 159 161 158
-726.209461688995 440.616071224213 2003.99994850159 158 160 157
-721.131682395935 440.84170460701 2005.00011444092 160 162 159
-716.406345367432 441.287875175476 2006.99996948242 157 159 156
-711.671054363251 441.734731197357 2009.0000629425 157 159 156
-706.222772598267 441.742539405823 2009.0000629425 149 151 148
-701.472938060761 442.190736532211 2010.99991798401 146 148 145
-695.674657821655 441.979885101318 2009.99999046326 149 151 148
-690.569400787354 442.209422588348 2010.99991798401 139 141 138
-684.778153896332 441.999852657318 2009.99999046326 140 142 139
-680.344760417938 442.670434713364 2013.00001144409 153 155 152
-676.230847835541 443.561494350433 2016.99995994568 162 164 161
-671.430885791779 444.013386964798 2019.00005340576 146 148 145
-666.620552539825 444.465756416321 2020.99990844727 133 135 132
-661.472797393799 444.698840379715 2022.0000743866 163 165 162
-656.644225120544 445.152312517166 2023.9999294281 164 166 163
-650.840282440186 444.946527481079 2023.00000190735 159 161 158
-645.999133586884 445.401072502136 2025.00009536743 156 158 155
-641.147434711456 445.856124162674 2026.99995040894 161 163 160
-637.539446353912 447.191506624222 2032.99999237061 165 167 164
-633.58861207962 448.307514190674 2038.00010681152 162 164 161
-630.227029323578 449.863910675049 2045.00007629395 164 166 163
-625.300347805023 450.320899486542 2046.99993133545 166 168 165
-620.968639850616 451.218396425247 2051.00011825562 169 171 168
-616.315186023712 451.896280050278 2053.99990081787 171 173 170
-612.240374088287 453.014671802521 2059.00001525879 174 176 173
-607.254564762115 453.473448753357 2061.00010871887 174 176 173
-603.425562381744 454.812705516815 2066.99991226196 174 176 173
-599.27499294281 455.932468175888 2072.00002670288 176 178 175
-596.243262290955 457.932829856873 2081.00008964539 177 179 176
-591.743648052216 458.833336830139 2085.00003814697 177 179 176
-587.784469127655 460.174411535263 2091.00008010864 168 170 167
-582.95750617981 460.855633020401 2094.00010108948 169 171 168
-578.389883041382 461.757302284241 2098.00004959106 171 173 170
-572.981357574463 461.998969316483 2098.99997711182 172 174 171
-567.56716966629 462.240934371948 2099.99990463257 171 173 170
-563.485205173492 463.583767414093 2105.99994659424 172 174 171
-559.370398521423 464.926987886429 2111.99998855591 172 174 171
-555.48506975174 466.490715742111 2118.99995803833 172 174 171
-550.523638725281 467.174142599106 2121.99997901917 172 174 171
-545.545637607574 467.857837677002 2125 170 172 169
-540.805101394653 468.761950731277 2128.99994850159 170 172 169
-536.545038223267 470.1067507267 2134.99999046326 169 171 168
-532.252073287964 471.451789140701 2141.00003242493 172 174 171
-527.680337429047 472.576916217804 2145.99990844727 173 175 172
-523.567378520966 474.142760038376 2153.00011634827 170 172 169
-519.656479358673 475.929111242294 2161.00001335144 168 170 167
-514.988362789154 477.054923772812 2165.99988937378 166 168 165
-510.057747364044 477.960765361786 2170.00007629395 172 174 171
-505.801856517792 479.527622461319 2177.00004577637 171 173 170
-501.048147678375 480.654031038284 2181.99992179871 170 172 169
-496.26687169075 481.780737638474 2187.00003623962 170 172 169
-491.233706474304 482.687264680862 2190.99998474121 172 174 171
-486.842662096024 484.254866838455 2197.99995422363 173 175 172
-482.194364070892 485.602349042892 2203.9999961853 166 168 165
-477.296769618988 486.729651689529 2209.00011062622 168 170 167
-472.371369600296 487.857013940811 2213.99998664856 173 175 172
-467.62889623642 489.204883575439 2220.00002861023 173 175 172
-462.645292282104 490.332454442978 2224.99990463257 172 174 171
-457.223445177078 491.019427776337 2227.9999256134 151 153 150
-452.189683914185 492.147207260132 2233.00004005432 156 158 157
-446.528673171997 492.613732814789 2234.99989509583 167 169 166
-441.84148311615 494.182407855988 2242.00010299683 170 172 169
-437.115639448166 495.751172304153 2249.00007247925 177 179 176
-432.925969362259 497.981339693069 2259.0000629425 180 182 179
-780.613541603088 438.190311193466 2017.99988746643 190 192 189
-772.439002990723 436.669737100601 2010.99991798401 186 188 185
-765.82944393158 436.018466949463 2007.99989700317 173 175 172
-758.858859539032 435.15083193779 2003.99994850159 166 168 165
-753.039300441742 434.935450553894 2003.00002098083 158 160 157
-747.226357460022 434.72084403038 2002.00009346008 157 159 156
-742.531716823578 435.158371925354 2003.99994850159 156 158 155
-737.091779708862 435.162395238876 2003.99994850159 159 161 158
-731.287717819214 434.949934482574 2003.00002098083 159 161 158
-725.85266828537 434.955388307571 2003.00002098083 156 158 155
-720.418632030487 434.961527585983 2003.00002098083 155 157 154
-715.699374675751 435.402631759644 2005.00011444092 155 157 154
-711.324334144592 436.061531305313 2007.99989700317 159 161 158
-706.23105764389 436.286866664886 2009.0000629425 149 151 148
-701.481759548187 436.729907989502 2010.99991798401 145 147 144
-695.684254169464 436.522126197815 2009.99999046326 146 148 145
-690.57959318161 436.749309301376 2010.99991798401 142 144 141
-685.129463672638 436.759829521179 2010.99991798401 135 137 134
-680.356025695801 437.205374240875 2013.00001144409 151 153 150
-675.572216510773 437.651515007019 2015.00010490417 159 161 158
-671.110689640045 438.315331935883 2017.99988746643 148 150 147
-666.303634643555 438.762664794922 2019.99998092651 126 128 125
-660.831928253174 438.776016235352 2019.99998092651 158 160 157
-655.360579490662 438.789874315262 2019.99998092651 162 164 161
-649.246156215668 438.369780778885 2017.99988746643 162 164 161
-644.738078117371 439.036309719086 2020.99990844727 157 159 156
-639.581382274628 439.268887042999 2022.0000743866 156 158 155
-635.360240936279 440.153628587723 2026.00002288818 158 160 157
-631.117820739746 441.038876771927 2029.99997138977 155 157 154
-627.162098884583 442.141950130463 2035.00008583069 158 160 157
-622.873902320862 443.028181791306 2039.00003433228 161 163 160
-618.564128875732 443.914890289307 2042.99998283386 162 164 161
-614.232957363129 444.802045822144 2046.99993133545 164 166 163
-610.177457332611 445.90699672699 2052.00004577637 169 171 168
-605.210959911346 446.360439062119 2053.99990081787 170 172 169
-601.693332195282 447.900891304016 2061.00010871887 170 172 169
-597.2700715065 448.789805173874 2065.00005722046 173 175 172
-594.830751419067 451.20045542717 2075.99997520447 174 176 173
-590.345084667206 452.090233564377 2079.99992370605 175 177 174
-586.961984634399 453.849792480469 2088.00005912781 172 174 171
-581.586718559265 454.088240861893 2088.99998664856 171 173 170
-577.032804489136 454.979062080383 2092.99993515015 170 172 169
-571.911156177521 455.435514450073 2095.00002861023 170 172 169
-567.318916320801 456.327021121979 2098.99997711182 170 172 169
-562.97242641449 457.436323165894 2104.00009155273 169 171 168
-559.128224849701 458.980739116669 2111.00006103516 169 171 168
-555.245816707611 460.525542497635 2118.00003051758 169 171 168
-550.287306308746 461.200922727585 2121.00005149841 170 172 169
-545.312285423279 461.876541376114 2124.00007247925 172 174 171
-540.574610233307 462.769865989685 2128.00002098084 173 175 172
-536.568820476532 464.315891265869 2134.99999046326 170 172 169
-532.027542591095 465.427279472351 2140.00010490417 172 174 171
-527.704477310181 466.75631403923 2145.99990844727 173 175 172
-523.105382919312 467.868208885193 2151.00002288818 172 174 171
-518.478631973267 468.98028254509 2155.99989891052 171 173 170
-513.348758220673 469.657480716705 2158.99991989136 170 172 169
-508.67223739624 470.769971609116 2164.00003433228 173 175 172
-504.432797431946 472.317785024643 2171.0000038147 173 175 172
-500.384449958801 474.08339381218 2178.99990081787 172 174 171
-495.384484529495 474.97895359993 2183.00008773804 173 175 172
-490.810602903366 476.309716701508 2188.99989128113 175 177 174
-486.203640699387 477.640718221664 2194.9999332428 173 175 172
-481.344789266586 478.754341602325 2200.00004768372 169 171 168
