ply
format ascii 1.0
comment KinectMotionCapture
element vertex 752
property float x
property float y
property float z
property uchar red
property uchar green
property uchar blue
end_header
-642.075622286448 396.841128838164 2299.78028548807 179 183 184
-649.32094078957 398.242087524121 2288.79483140979 174 178 179
-656.909701261384 399.249916741492 2279.7831675618 178 182 183
-664.40015432082 400.448677020254 2269.77534172061 178 182 183
-672.496045889197 400.866844680621 2263.72524532594 183 187 188
-680.892033475143 400.894582032188 2259.65410110314 176 180 181
-688.368406037793 402.277715694451 2248.63985978577 177 181 182
-695.899022542074 403.656736762192 2237.61885997554 188 192 193
-703.355529961537 405.225207041167 2225.59868226628 187 191 192
-711.499693856039 405.822459460233 2218.53416279042 185 189 190
-720.168060869837 405.644115254887 2215.43749730069 184 188 189
-728.606893490513 405.850509230152 2210.3528486868 170 174 175
-737.419873720596 405.476248455628 2208.24609909139 163 167 168
-745.549503908372 406.257007297386 2200.17522298038 160 164 165
-753.492760325215 407.419695018214 2190.11098495293 188 192 193
-761.594046242159 408.386273427475 2181.03546959195 176 180 181
-770.165269999006 408.580769440374 2175.93433067981 181 185 186
-778.134085700126 409.925066374374 2164.85873764519 175 179 180
-785.650387451306 412.224287351635 2148.79818488937 180 184 185
-793.149061922336 414.709421551083 2131.73165521985 156 160 159
-801.596952877788 415.464948413367 2123.6211284941 170 174 173
-808.591618507206 419.278106591538 2099.55970861964 187 191 190
-816.615132459948 421.171435830945 2085.45254214624 184 188 187
-825.32301821838 421.722862047958 2078.31779419613 173 177 176
-834.063070987163 422.271584601567 2071.17927938204 173 178 174
-847.777242523408 411.381654028417 2123.91545769845 183 185 180
-407.990726712893 408.370649352754 2296.71418441727 38 41 34
-420.477854742122 404.497270085423 2312.29794708177 185 190 186
-431.154805415253 402.198472720139 2320.0412449815 184 190 190
-442.208632875268 399.50991284203 2329.75439204587 154 158 159
-452.994376353808 397.020352546331 2338.49254298097 159 163 164
-462.899766180412 395.316299662798 2343.30749957993 172 174 173
-471.344677806434 394.982268906856 2341.24657682598 175 179 178
-479.997308209807 394.452009179004 2340.16817612558 157 161 160
-489.246875168651 393.335504266403 2342.04012669126 137 141 140
-497.304829954026 393.389733189417 2338.01109719893 136 140 139
-505.379803358107 393.442220984629 2333.97994846879 141 145 144
-513.281058476411 393.687818674107 2328.96228310748 109 113 112
-522.144317640487 392.958815426208 2328.8660479339 107 111 110
-531.373212202519 391.840818017007 2330.74034195418 136 140 139
-540.40413479779 390.917358660254 2331.63138256703 146 150 149
-548.705553080674 390.770033131841 2328.58018815421 147 151 150
-557.018408106957 390.621503743584 2325.5278099425 137 141 140
-565.342677675702 390.471647457649 2322.47377048896 143 147 146
-573.850061776149 390.126831020505 2320.40532021199 146 150 149
-582.53241816613 389.587869246782 2319.32323280073 160 164 163
-590.716316805102 389.627744271106 2315.27852406052 156 160 159
-599.407796375236 389.086827688025 2314.19530327824 146 150 149
-607.938853998922 388.738173946082 2312.12390879092 153 157 156
-616.792189951462 388.003051752099 2312.02868782075 155 159 160
-625.796078469782 387.075163235405 2312.92311379062 151 155 156
-633.567044493556 387.68615717246 2305.90513101491 165 169 170
-641.520933194469 388.102200676653 2299.87252106374 179 183 184
-648.912591840779 389.283965575461 2289.8773092067 174 178 179
-656.353215013372 390.462011427109 2279.8757563915 179 183 184
-663.842769494791 391.636283129436 2269.86810717733 177 181 182
-671.799141541563 392.232419806907 2262.82702595212 183 187 188
-680.471158815103 391.869052795793 2260.73807928072 175 179 180
-688.479350661873 392.460574366362 2253.69054340455 175 179 180
-695.601843478842 394.386160780475 2239.69573409399 187 191 192
-702.794780147151 396.306781739416 2225.6921468836 183 187 188
-710.435478930972 397.650302448447 2214.65750294461 178 182 183
-718.991892522145 397.656293359633 2210.56639577326 178 182 183
-727.323866421483 398.04120595192 2204.48692527543 168 172 173
-736.153576743911 397.663251598035 2202.37809759031 163 167 168
-744.183962647056 398.613981477541 2193.31147186843 161 165 166
-752.594377503042 398.991687209574 2187.22223138196 187 191 192
-760.812633901968 399.746492003772 2179.14012332408 177 181 182
-769.282417638472 400.119161431339 2173.04348721524 180 184 185
-777.466643776828 401.057341080185 2163.95745592335 175 179 180
-785.186736726855 402.937570828521 2149.88818909432 180 184 185
-793.075716267866 404.623627382746 2136.80628493232 156 160 159
-800.357028311421 407.626213238868 2116.74221655488 156 160 159
-807.834190379123 410.432848453241 2097.66215064825 180 184 183
-815.499038060349 413.044287026674 2079.56662355951 181 185 184
-824.310789266096 413.390214221817 2073.42738235691 157 161 160
-832.723081176789 414.674009192181 2062.29660544291 162 167 163
-420.777383832853 394.945056450359 2316.31671169817 197 202 198
-431.230601101482 392.864592718397 2323.07966813204 170 174 173
-442.066286572245 390.399442483975 2331.81152231875 151 157 155
-452.429550141002 388.32339793463 2338.58593307354 147 153 151
-461.71552716264 387.214367931586 2340.45332019372 132 137 133
-471.190375162334 385.912875220002 2343.30533127433 125 129 128
-479.838128227659 385.382806762192 2342.22753873318 163 167 166
-488.685528822106 384.659648789881 2342.13302695326 173 177 176
-496.547352248729 384.897784898327 2337.12030208377 167 171 170
-504.431518063827 385.134019890858 2332.1047940228 150 154 153
-512.338026267398 385.368353767475 2327.08650277036 123 127 126
-520.454980641144 385.408850471985 2323.05014664151 101 105 104
-529.886595573876 384.106170290208 2325.90755608044 131 135 134
-539.297302830002 382.804165103313 2328.76757289623 138 142 141
-547.967090529056 382.268213748452 2327.68704605546 138 142 141
-556.282876433072 382.113943482582 2324.63431720593 134 138 137
-564.260889855433 382.340255675329 2319.60688338099 132 136 135
-572.948673408346 381.801366215525 2318.52411850145 139 143 142
-581.637039645211 381.261842413486 2317.44128257691 155 159 158
-589.992949764531 381.102627117124 2314.38355948508 150 154 153
-598.3601305655 380.942153810037 2311.32419292301 143 147 146
-607.221905276532 380.209778739279 2311.22791161122 149 153 152
-616.237133423068 379.287199764603 2312.12090848003 151 155 156
-625.086264369031 378.554495452594 2312.02620590241 149 153 154
-632.706570614159 379.338497000689 2304.01888186881 163 167 168
-640.815929444171 379.551069243714 2298.97533336591 176 180 181
-648.209349531698 380.708233325898 2288.97972620807 172 176 177
-656.231282178177 381.105073718249 2282.93891561421 181 185 186
-663.711840028871 382.255432458767 2272.9324521003 178 182 183
-672.078122451699 382.269295540961 2268.86505144363 184 188 189
-680.597633182534 382.092787390686 2265.78671723406 176 180 181
-688.1897813982 383.23406885604 2255.76659207573 174 178 179
-695.173925897722 385.313183020395 2240.78071614049 188 192 193
-702.23395959174 387.386688722892 2225.78562472084 184 188 189
-710.251482405775 388.139293632166 2217.72881308969 176 180 181
-718.553462564379 388.513037837781 2211.65311504494 176 180 181
-727.244165858897 388.321741796166 2208.55345595888 168 172 173
-736.06359850908 387.941697472035 2206.4461566391 164 168 169
-744.427879633066 388.309618856739 2200.36245886763 162 166 167
-752.369447313882 389.423441962104 2190.29856026767 187 191 192
-760.46939015581 390.346568454805 2181.22332694359 177 181 182
-768.398442335396 391.639648580323 2170.15283103902 179 183 184
-776.590136514885 392.555556375806 2161.06616670062 175 179 180
-784.824934722591 393.46811847149 2151.97389177637 180 184 185
-792.806086643987 394.935742033407 2139.88874737991 156 160 159
-800.365431501628 397.329159836226 2122.81488793669 149 153 152
-807.169447831355 401.389308225946 2096.76099506267 177 181 180
-815.198081151105 403.211540534482 2082.65337695377 178 182 181
-823.296711844489 405.028656664463 2068.53703705974 148 152 151
-831.379939606087 407.025930426802 2053.41445782362 157 162 158
-420.642537549137 385.794753877227 2318.37325117844 188 193 187
-430.661649329606 384.11767456481 2323.17370464719 175 179 178
-441.074494979411 382.06074773004 2329.94187750557 151 157 155
-450.185740543026 381.148532715989 2330.82262440652 149 155 153
-460.323069568348 379.284989805926 2336.61698374292 157 162 158
-470.014438132536 377.803427108015 2340.45013564323 126 130 129
-479.07439768564 376.892749867495 2341.33751895416 130 134 133
-487.526980539453 376.551541524783 2339.27565777825 146 150 149
-495.20037018924 376.967779163404 2333.27829220786 170 174 173
-502.707798154927 377.571314777249 2326.29321706501 154 158 157
-510.63041340175 377.7935739372 2321.27294754713 151 155 154
-518.951842727041 377.635716650737 2318.21928360954 100 104 103
-528.583826308312 376.153878511886 2322.06008739873 128 132 131
-538.372370787708 374.484383222869 2326.88953460004 141 145 144
-546.86790699685 374.136556562401 2324.82233052843 137 141 140
-555.724471156621 373.410906212121 2324.72692202206 134 138 137
-563.527590683129 373.814576811298 2318.71315975612 129 133 132
-572.218672449591 373.275357791976 2317.62998414691 138 142 141
-580.232873547966 373.487303243121 2312.59831241699 154 158 157
-588.602505843907 373.321716819778 2309.53865338804 149 153 152
-596.983504717032 373.154751840004 2306.47781977658 141 145 144
-606.020815806414 372.236795492655 2307.36780838241 146 150 149
-615.047826024659 371.318781207499 2308.25932289738 148 152 153
-624.064402628934 370.40095132201 2309.15189871134 151 155 156
-631.998550510781 370.79149939144 2303.12205970774 165 169 170
-640.110557760255 370.992973753765 2298.07820992363 173 177 178
-648.392256204415 371.00589476848 2294.02136732834 171 175 176
-656.690512078246 371.017044313589 2289.96246312883 181 185 186
-664.720603703655 371.39908882432 2283.92043303833 176 180 181
-672.498745665185 372.150938120272 2275.89349671224 182 186 187
-680.862711453274 372.15605017875 2271.8264082034 174 178 179
-688.303483724789 373.459692102699 2260.81681893056 170 174 175
-694.877822819198 376.058307654917 2242.85765490414 187 191 192
-701.544247296 378.650399895651 2224.8870163453 184 188 189
-709.563939433187 379.383695782878 2216.82998484507 173 177 178
-718.115262806994 379.373587367259 2212.73955529976 172 176 177
-726.682881737137 379.361903331444 2208.64709631469 166 170 171
-735.738815499888 378.609574496325 2208.52663764863 161 165 166
-744.328141932136 378.59519367981 2204.43147679751 158 162 163
-752.483265719194 379.316517350883 2196.35757575644 186 190 191
-760.23660595748 380.771599671422 2184.30089393814 179 183 184
-767.834939550652 382.590129280031 2170.24698444214 176 180 181
-775.607968474226 384.219846471057 2157.17945833067 175 179 180
-783.547548845609 385.660854505104 2145.09957190894 176 180 181
-792.140967346892 385.996500754866 2138.98736414285 154 158 157
-799.701033318213 388.346337644346 2121.91376974643 147 151 150
-806.785274439433 391.788936676692 2098.84983433267 171 175 174
-813.897243531805 395.406258156684 2074.7742914085 167 171 170
-822.104294430565 397.003965936845 2061.65268621608 138 142 141
-830.204784670594 398.962096943772 2046.52805580576 152 157 153
-404.719758164582 383.214358201465 2290.13409965813 28 29 23
-418.108810547508 378.724487262825 2309.63815993454 191 193 190
-429.446413382768 375.933568947009 2320.32360989649 154 158 157
-440.507506322993 373.33389061571 2330.03561620549 155 161 159
-449.409585614466 372.614654848415 2329.93427051845 152 158 156
-459.136628040727 371.144916462003 2333.76317966151 137 142 138
-468.018891512842 370.425808354479 2333.66430653539 161 165 164
-477.300483981865 369.331988220662 2335.53220076717 117 121 122
-485.371209219692 369.361036938125 2331.50164390905 113 117 116
-494.048542813796 368.82777014263 2330.4201683155 95 99 98
-501.563623479202 369.414334910521 2323.43418285308 158 162 161
-509.494144415375 369.625101549314 2318.41295701705 163 167 166
-517.258503386067 370.020431701562 2312.4040538036 95 99 98
-526.90814928905 368.550965586894 2316.24262085818 117 121 120
-536.897515678506 366.710522624084 2322.05514395517 138 142 141
-545.948082523556 365.801279863667 2322.94369564288 135 139 138
-554.277831938576 365.63500921036 2319.88901556358 132 136 135
-562.618999617869 365.467473648354 2316.83291388349 128 132 131
-571.316080186223 364.927753026538 2315.74899098022 137 141 140
-579.505130893098 364.943114850596 2311.70394411578 153 157 156
-587.544020264993 365.142078074416 2306.66898535477 149 153 152
-595.769225920237 365.153939673023 2302.6191955155 141 145 144
-605.141227478493 363.871065256753 2305.48423246209 143 147 146
-614.174526418037 362.958142281756 2306.3747085053 147 151 152
-623.197535531437 362.045100943129 2307.26670923842 153 157 158
-631.29016614012 362.237477769424 2302.22530150256 166 170 171
-639.254140449217 362.611909338611 2296.19154251067 170 174 175
-647.393459025173 362.800057707393 2291.144319528 170 174 175
-655.69995373154 362.802560173439 2287.08440994267 182 186 187
-663.595418387592 363.353963136782 2280.05104740438 175 179 180
-671.383805657989 364.086108368431 2272.02288441428 182 186 187
-680.032934831904 363.715898075904 2269.93681206393 174 178 179
-688.015658746041 364.259831013542 2262.89257975816 169 173 174
-694.845716798461 366.446954453452 2246.91796136379 187 191 192
-701.112091546508 369.541619927104 2225.97262157399 185 189 190
-709.128548186816 370.256070554727 2217.91604347296 173 177 178
-717.924507697652 369.873281328644 2215.8116806908 172 176 177
-726.605044529649 369.67170378786 2212.71331739512 165 169 170
-735.532828750856 369.104804081085 2211.60067561504 159 163 164
-743.998723705243 369.264443497419 2206.51277290835 156 160 161
-752.147921437439 369.967093312873 2198.43966058083 185 189 190
-759.344298436403 372.300142626738 2181.4112563588 179 183 184
-767.163967897586 373.720302188277 2169.34638901346 175 179 180
-774.729007657668 375.679515587725 2154.28833653831 175 179 180
-783.287287682334 376.004383426099 2148.18078249967 174 178 179
-791.276905732817 377.411685732566 2136.09474043423 156 160 159
-799.036145397869 379.356437206755 2121.01249104401 153 157 156
-805.36930516329 384.182883546479 2089.97666450746 171 175 174
-812.866998746293 387.015093068579 2069.88604167314 164 168 167
-820.820936381433 389.119692271418 2053.77162734453 141 145 144
-829.027120390204 390.858528895995 2039.64207157888 156 161 157
-404.585701034055 373.995981777778 2292.19071992681 28 29 23
-417.536857347528 369.934222839287 2309.73268516103 177 179 176
-428.230244549273 367.731668327849 2317.47391869577 158 162 161
-439.088897867003 365.346336813399 2326.2026964312 147 156 155
-447.792271706196 364.813919436911 2325.1179689321 148 157 154
-457.119091502816 363.726415280356 2326.98020242788 126 132 130
-466.225706948827 362.824050782129 2327.86150119915 138 142 143
-475.524594403746 361.737191354402 2329.72721878816 144 148 151
-483.61150519538 361.756847852278 2325.69466680269 115 119 120
-491.912156266497 361.590820935181 2322.64385765155 107 111 112
-499.25422039939 362.343752567806 2314.67109814138 104 108 107
-507.400185694915 362.358153900043 2310.63119034223 103 107 106
-515.374527724874 362.554602500554 2305.60453359881 74 78 77
-525.230418896558 360.913962657406 2310.42550034128 118 122 121
-534.504892571359 359.824776585096 2312.29427075286 129 133 134
-543.402812633242 359.102282175255 2312.19345269461 135 139 140
-552.118133700746 358.562593972799 2311.1072533995 121 125 126
-561.709747033247 357.107873471507 2314.95302374375 132 136 135
-570.757599902695 356.202384434559 2315.84166396553 139 144 140
-579.116440565402 356.026976898242 2312.7836178009 151 156 152
-586.31750549118 357.126818754262 2302.81216638609 151 156 152
-594.882213075311 356.76539076649 2300.73660622317 143 147 146
-603.776051130583 356.038975850441 2300.63630789972 141 145 144
-613.300587382039 354.584885490465 2304.49044740767 143 147 146
-622.017518777655 354.040137758909 2303.40406047722 154 158 157
-630.734877951419 353.494884997893 2302.31762149257 169 173 172
-638.8493928981 353.674338779263 2297.27327648435 170 174 173
-647.430232512514 353.308240034847 2295.19571543969 170 174 175
-655.435252216418 353.665069010445 2289.15712084973 179 183 184
-662.754178920566 354.923857944984 2278.1628553021 179 183 184
-670.12743072208 356.178526611026 2267.16158088533 180 184 185
-678.790537726407 355.804738351827 2265.07377360683 175 179 180
-687.190132184068 355.790559834778 2261.00228965171 171 175 176
-694.551179813466 357.215868195727 2248.99464204046 186 190 191
-700.809387578445 360.256647035938 2228.0504633504 188 192 193
-708.69341292963 361.132131794514 2219.00206044674 177 181 182
-716.868376820994 361.645007955597 2211.93415978398 170 174 175
-725.196882064417 361.975672377958 2205.85502474578 166 170 171
-734.144249194456 361.407405683112 2204.73994273436 162 166 167
-743.091638230541 360.838540370803 2203.62485956563 156 160 161
-751.587253435223 360.984760053515 2198.53328328781 183 187 188
-759.002077976255 362.916816380215 2183.49428856985 183 187 188
-766.707588919272 364.486036275527 2170.43534762067 175 179 180
-774.268266169225 366.407487059337 2155.37817927623 177 181 182
-782.210878302555 367.788577256615 2143.29783203128 177 181 182
-789.914557010402 369.699365249821 2128.2228460304 151 155 154
-797.403607647343 372.138479311058 2110.14995145268 155 159 158
-804.326241306768 375.81517232152 2085.0901930202 169 173 172
-811.652326058421 378.95025348384 2063.00457388669 159 163 162
-820.066387882016 380.126017699208 2051.87386059317 140 144 143
-828.620100699985 381.120338130864 2041.7338846051 156 160 159
-409.097443477034 360.9446425239 2314.84053652007 164 163 159
-417.620494292545 360.593990529517 2312.77014649741 165 167 166
-427.444650867528 359.146729562847 2316.58663690662 148 152 153
-437.029568775855 357.883016410534 2319.42481242222 147 153 153
-446.804387489627 356.437646886642 2323.24769519252 146 152 152
-456.137611374891 355.357797248838 2325.10910933799 140 146 146
-465.250544983841 354.460288304175 2325.98984712169 130 134 137
-473.948941252325 353.926456083934 2324.90574451992 154 158 161
-482.049362903698 353.937069922163 2320.87153027255 134 138 141
-490.166751569164 353.946065364485 2316.83520290411 101 105 106
-497.718572677637 354.497442349551 2309.84472511738 114 118 117
-505.686542926203 354.683905207656 2304.81888983171 92 96 95
-513.488138779276 355.049390948347 2298.80541826967 68 72 71
-523.36451564351 353.423630763107 2303.62378933377 110 114 113
-532.475595508195 352.521820470367 2304.50476978124 135 139 140
-541.57654795017 351.62011534896 2305.38677352549 133 137 138
-550.311370761282 351.079065329124 2304.29814411437 111 115 116
-560.449213491659 349.096154952529 2311.10044079159 131 135 134
-569.33620979722 348.375252281545 2311.00098176176 138 143 139
-577.708772636549 348.193473618247 2307.94099966001 149 154 150
-585.089590804561 349.088177795037 2298.95558369296 145 150 146
-594.158935414114 348.184962664622 2299.84153588439 138 142 141
-602.894490999028 347.640222909163 2298.75282474422 137 141 140
-612.425887218823 346.199192745279 2302.60607377511 145 149 148
-621.148828553294 345.654121868317 2301.51893769082 156 160 159
-629.872197573943 345.108307078985 2300.43175019289 170 174 173
-638.143054861164 345.097790971952 2296.37632223073 169 173 172
-646.282228539736 345.26414997136 2291.32917471193 170 174 175
-654.152250262638 345.784983533951 2284.29906780472 179 183 184
-661.340759565136 347.193811368151 2272.3129953575 178 182 183
-669.149644739953 347.886309118223 2264.28237876034 179 183 184
-677.271510621752 348.22034321437 2258.22902221892 174 178 179
-685.824884407912 348.019162526642 2255.14652707449 170 174 175
-693.597048779659 348.881171819183 2246.11235951565 185 189 190
-700.248603456468 351.33535725455 2228.14393979261 191 195 196
-708.131923155354 352.189148089251 2219.09568208036 179 183 184
-715.934726503814 353.216437441879 2209.04956860101 172 176 177
-724.513604991493 353.179370842229 2204.95577133381 166 170 171
-733.464333122639 352.610949754515 2203.84027029591 161 165 166
-742.530890436388 351.865469134448 2203.71846783896 156 160 161
-751.139586354566 351.824532160998 2199.6209597252 179 183 184
-758.439593438821 353.89476414235 2183.5882425682 181 185 186
-765.820632806563 355.959234176358 2167.54518796642 177 181 182
-773.492702171544 357.666283113372 2153.4823702624 178 182 183
-781.541848958249 358.841644522842 2142.39719726891 175 179 180
-789.246557122833 360.714383619477 2127.32218299832 150 154 153
-796.542327744791 363.457570733136 2107.25699339313 147 151 150
-803.092970017394 367.768894228497 2078.21075707949 166 170 169
-810.526624816475 370.670827878418 2057.12025519262 142 146 145
-818.778367433914 372.167746648202 2043.99357843093 154 158 157
-827.266821158648 373.310761964342 2032.85366771101 176 180 179
-401.129351700605 351.612911012312 2321.90608517633 12 12 10
-410.075511145493 350.900601803588 2321.7992203059 216 215 213
-418.361284085661 350.728356045754 2318.75028423464 158 160 159
-427.954629030166 349.475274092821 2321.58738010907 144 148 149
-437.314035884163 348.402834222856 2323.44550726148 148 154 154
-447.289925785304 346.79193586427 2328.25142054879 144 150 150
-456.194900269284 346.079682319665 2328.14969517141 143 149 149
-464.685058630354 345.725691043918 2326.08341872648 142 146 149
-472.978998584349 345.54993638693 2323.033232432 111 115 118
-480.88501395268 345.730790575728 2318.01514351934 142 146 149
-488.616330789122 346.088570165918 2312.01046265696 158 162 163
-495.598040844142 347.158430652671 2302.06646438808 91 95 94
-503.204147588075 347.689390732484 2295.06950611091 98 102 101
-511.221354854934 347.861188022942 2290.03732468895 58 63 59
-521.496195393736 345.893857031913 2296.82248382184 108 112 111
-531.177784139588 344.46236733974 2300.65672432018 118 122 121
-540.471356043574 343.38743264841 2302.52307385516 106 110 109
-549.571196111292 342.490459226511 2303.40544422511 98 102 103
-559.713666240499 340.528990432141 2310.20686669593 135 139 138
-568.085872982435 340.34222029403 2307.14718244664 144 149 145
-576.299389165146 340.331296035383 2303.09891139017 150 155 151
-584.027629205836 340.84951607738 2296.08650488131 141 146 142
-593.270714961304 339.774214311935 2297.95915575583 137 141 140
-602.336139585251 338.875847515905 2298.84558437037 142 146 145
-611.869013066334 337.448280179637 2302.69861359391 149 153 152
-620.905671523881 336.550494291357 2303.58887079489 161 165 164
-629.470353881566 336.181062633005 2301.51309458872 171 175 174
-637.587472420989 336.338375287716 2296.46872324413 167 171 172
-645.57814514035 336.669482150831 2290.43198681128 170 174 175
-654.033374218464 336.471448290297 2287.36173125913 180 184 185
-661.355526516473 337.675445652282 2276.36720746812 179 183 184
-668.732037148286 338.875382854499 2265.36591077069 179 183 184
-676.438114064283 339.721115081443 2256.33979313196 173 177 178
-684.997215248547 339.514017865593 2253.25683909181 168 172 173
-693.038454916392 340.004534149928 2246.20544503677 181 185 186
-700.205786981219 341.714234986866 2232.20560858015 186 190 191
-707.570355284388 343.244556860004 2219.18931769334 176 180 181
-715.372271076832 344.247237489647 2209.14337978193 171 175 176
-723.829876988562 344.376167755141 2204.05635210149 165 169 170
-733.021347328266 343.459680576992 2204.92733894399 162 166 167
-742.318005141294 342.369618747484 2206.79334321255 158 162 163
-751.032008305916 342.147574496217 2203.69085741477 177 181 182
-758.098146768316 344.5244652572 2185.67090363905 182 186 187
-765.256165048344 346.894845802353 2167.63950094971 178 182 183
-772.716356787824 348.912706730195 2151.5866913433 179 183 184
-780.769890792353 350.060615051239 2140.50104314769 171 175 176
-788.378553474465 352.067586699179 2124.42997419067 155 159 158
-795.291693707832 355.448712343558 2100.37986594596 136 140 139
-801.574155081334 360.199741631217 2068.34263751019 159 163 162
-809.12383802968 362.873602825178 2048.24618398386 152 156 155
-817.932232539416 363.304616392881 2041.09921023821 148 152 151
-826.514028140536 364.248235314623 2030.95586320545 135 139 138
-396.746324287284 345.866857405061 2305.33631110001 70 70 68
-408.397583943747 343.02364034696 2316.9906836388 192 191 189
-418.009984902364 341.780572188701 2319.82537506436 154 156 155
-427.601791892245 340.538457651292 2322.66263398413 145 149 150
-436.746107860185 339.650953630888 2323.53942908735 149 154 157
-446.934271864831 337.879307189239 2329.32696224405 143 149 149
-455.837251410856 337.169748787899 2329.22547872556 141 147 147
-463.91429140788 337.166085512953 2325.19421996869 134 138 141
-471.400463558889 337.690171118081 2318.21200665462 105 109 112
-478.919916897406 338.211482080324 2311.22588762076 111 115 118
-486.275288615817 338.906531249782 2303.251619834 145 149 150
-493.474791049521 339.774444632064 2294.28890155128 128 132 131
-501.485692906404 339.93613501138 2289.25777389213 103 107 106
-510.086348100761 339.569308896635 2287.17750162701 53 58 54
-520.184852080287 337.798240708534 2292.97646257071 103 107 106
-529.878672456538 336.379469006749 2296.80914314151 108 112 111
-539.727240120816 334.786715133698 2301.63089770841 108 112 111
-549.009053297122 333.719935092647 2303.49869318811 116 120 121
-558.802214122591 332.129397064999 2308.32735636558 134 138 137
-566.834114155366 332.285925015803 2303.29338158456 143 148 144
-574.718051111069 332.614753786438 2297.26997114327 148 153 149
-582.964623985128 332.592944464568 2293.21760347258 141 145 144
-592.381751850911 331.351088550924 2296.07666063328 138 142 141
-601.93992479329 329.936003931139 2299.92649976083 143 147 146
-611.312123512743 328.695696373752 2302.79115973583 150 154 153
-620.976569395711 327.109058228842 2307.63587550696 161 165 166
-629.068876890709 327.257559828032 2302.59462363763 171 175 176
-637.183150453199 327.404181781226 2297.55039521418 168 172 173
-644.576454729673 328.413841930283 2287.55543122396 170 174 175
-653.185956966916 328.036956379562 2285.47408139136 180 184 185
-660.512415248549 329.213326661629 2274.47909299398 180 184 185
-668.595739494074 329.523063042974 2268.43085047682 180 184 185
-675.879572198411 330.86454075625 2256.43281932801 174 178 179
-684.303879358883 330.824125136687 2252.35856073689 169 173 174
-691.817880074032 331.98627594217 2241.33996533029 181 185 186
-698.997174050634 333.659742258368 2227.33897178886 186 190 191
-706.754779204929 334.641414071383 2217.29837864036 176 180 181
-714.68544548662 335.447994234758 2208.24433668211 168 172 173
-723.267302341 335.39437401538 2204.15021132572 164 168 169
-732.103175671002 334.996799000526 2202.04090647274 163 167 168
-741.64141749006 333.572234113085 2205.8932578526 163 167 168
-749.791196260171 334.198701117976 2197.8202736397 174 178 179
-756.539062072712 337.04034462175 2176.81527266721 181 185 186
-763.611167138246 339.533502517789 2157.78658101115 173 177 178
-771.517895749918 340.827715972212 2145.7111808731 178 182 183
-779.586613722675 341.947304223285 2134.62371238792 173 177 178
-787.409482502886 343.5727811304 2120.54229062543 156 160 159
-794.330224435881 346.890714201026 2096.49140014895 143 147 146
-800.33540817431 352.065844081176 2061.46435590565 158 162 161
-807.626051300443 355.195192609048 2038.37572794471 111 115 114
-816.550253559759 355.438995237124 2032.2224821881 138 142 141
-825.501199470785 355.680320256482 2026.0661457753 158 162 161
-834.981027830947 354.905764678001 2025.89284610286 176 178 177
-380.588468473237 342.841937403803 2277.12790663607 22 31 36
-395.499337108041 337.57709541038 2302.49045695771 199 199 199
-407.16140159243 334.768366393959 2314.14339029482 190 188 189
-417.221159320049 333.186107100865 2318.93876195326 153 154 156
-427.033149229755 331.779873978175 2322.75666264499 151 152 156
-436.60547671642 330.548974003027 2325.59632295846 146 151 155
-446.57904004529 328.970593288645 2330.40244095418 144 149 152
-455.479987714089 328.263612939427 2330.30120421276 138 142 145
-462.937738459777 328.773386663176 2323.32281568061 145 149 152
-471.037283669104 328.759510514781 2319.28877530153 153 157 160
-478.153163062537 329.611726449115 2310.33629374979 141 145 146
-484.918254177052 330.80737571656 2299.41130988557 101 105 106
-491.348819571963 332.345422298752 2286.51179696594 122 126 125
-498.997067926157 332.840848006502 2279.50943297471 140 145 141
-508.003820531785 332.123723110597 2279.39501911798 63 68 64
-518.125611475222 330.370160562488 2285.19078761704 107 112 108
-528.394277737664 328.445864553562 2291.97660393202 107 111 110
-538.257918863322 326.868392346912 2296.79619690759 113 117 116
-547.375807551583 325.980959396708 2297.67628979191 122 126 125
-557.010975743623 324.577453062675 2301.51648987649 138 142 141
-565.407911502637 324.378116156986 2298.45351241746 141 145 144
-573.98670474597 324.005697781391 2296.37622339034 147 151 150
-582.236037731006 323.975411239888 2292.32353359858 146 150 149
-590.997145741942 323.429401981389 2291.2316370099 143 147 146
-600.894859524157 321.684619992825 2297.05534589065 142 146 145
-610.595637017802 320.112508974007 2301.8954894349 149 153 154
-620.264413047522 318.541839410187 2306.73962277663 158 162 163
-628.205107423703 318.849969356516 2300.7089435857 170 174 175
-636.324741002497 318.985144022038 2295.66431667866 170 174 175
-644.020039889467 319.629336231771 2287.64800218963 171 175 176
-652.337844969058 319.589909849479 2283.58679155471 180 184 185
-659.66860556798 320.738713007386 2272.5913388506 179 183 184
-667.616404774925 321.204245889787 2265.55167140557 181 185 186
-675.320978084139 322.006416982582 2256.52585612477 174 178 179
-683.339622989804 322.466184925216 2249.47760300588 173 177 178
-690.595567461182 323.939105958823 2236.47501889416 181 185 186
-697.916598856162 325.407343082108 2223.46432465409 188 192 193
-705.811282298428 326.19489724013 2214.41506351452 180 184 185
-713.998229721349 326.641492232694 2207.34560165822 171 175 176
-722.704642195098 326.410913500972 2204.24408560904 163 167 168
-731.302944572468 326.347528671213 2200.1481739321 161 165 166
-740.848056565004 324.936199992427 2203.9993928291 158 162 163
-749.002690120429 325.543127173728 2195.92585422512 168 172 173
-755.753256221885 328.330194240352 2174.92090026639 178 182 183
-763.261208433588 330.103070654636 2159.87070296034 167 171 172
-770.950300107584 331.702968559441 2145.80604315121 175 179 180
-778.606759744031 333.465127528504 2130.73710095179 176 180 181
-785.838339299581 336.05790517406 2110.68055837892 157 161 160
-793.075091365059 338.810535517225 2089.61502197406 144 148 147
-799.662280607066 342.89079476458 2060.56483331417 153 157 156
-807.044572791318 345.793621420632 2038.47305172808 118 122 121
-816.147177689595 345.690761292379 2034.31406976599 143 147 146
-825.005948215994 346.085240635421 2027.16090560287 155 159 158
-834.567802169217 345.147427338628 2027.98572692167 161 163 162
-375.235844467854 337.566246375577 2256.64666486888 22 31 38
-394.251365428038 329.26965864295 2299.64477222116 191 191 193
-407.033767202277 325.634861591486 2316.19874526835 181 179 180
-416.651275053436 324.412851143573 2319.03298419791 153 154 156
-425.165577506826 324.050690083346 2316.9634759591 152 153 157
-434.327705978296 323.172741576646 2317.83802300307 144 149 153
-444.324378089171 321.609013692126 2322.64121857171 144 149 153
-453.664424752501 320.560621054859 2324.50169843393 139 143 146
-461.754894891438 320.53949943335 2320.46880965068 131 135 138
-469.456430683971 320.858804045003 2314.46794660901 140 144 145
-476.584963400538 321.688238627172 2305.51418625996 153 157 158
-482.967145517235 323.196935847599 2292.62054830917 146 150 149
-489.414949602112 324.701153961063 2279.71873292027 77 82 78
-496.697230881991 325.5194799891 2270.74581491346 87 92 88
-505.91851967526 324.633223743748 2271.61300097716 59 64 60
-515.6900995794 323.237089966563 2275.43591800242 110 115 111
-526.171785661973 321.162808084942 2283.20323278387 108 112 111
-536.24277036095 319.430339121682 2289.00528605266 109 113 112
-545.74053423512 318.207832330325 2291.854229361 118 122 121
-555.04134976406 317.155429222526 2293.71961559829 137 141 140
-564.326548159216 316.103483516052 2295.58694955699 138 142 141
-573.084413641413 315.558696102512 2294.49545439905 143 147 146
-581.674992978217 315.182122720159 2292.4167054792 144 148 147
-590.436658054739 314.636018251193 2291.32473962276 139 143 142
-600.661085377453 312.573225505426 2299.12388825157 136 140 139
-610.677614345953 310.680997636755 2305.94108535991 149 153 154
-620.023062437314 309.463356737387 2308.80902396331 157 161 162
-627.958103150052 309.758053532004 2302.77932596062 170 174 175
-636.223889653311 309.714834090701 2298.72461692538 171 175 176
-644.208344760464 310.005185957054 2292.68852347187 172 176 177
-651.488997692274 311.130485441009 2281.69938580448 177 181 182
-658.536951954126 312.586258048842 2268.72280280106 177 181 182
-666.776837775096 312.700513629688 2263.66322421479 179 183 184
-674.900497754867 312.97973040729 2257.61002840875 173 177 178
-682.780571833762 313.590054165673 2249.5707442595 172 176 177
-689.504200888303 315.696713421181 2232.60193237624 180 184 185
-696.704611104108 317.297941765665 2218.59825362038 184 188 189
-704.484753958071 318.229205600218 2208.55498064782 179 183 184
-713.061364097532 318.160272412325 2204.46155037659 171 175 176
-721.776217493369 317.923664007623 2201.3592370979 162 166 167
-730.025122224628 318.348634195145 2194.28210028397 160 164 165
-739.471459759539 317.115368841576 2197.13748962771 159 163 164
-747.530696427349 317.86747613834 2188.06778656647 169 173 174
-755.077741942119 319.442321826972 2174.02091925237 183 187 188
-761.936367760975 322.167378782073 2153.00240311243 164 168 169
-769.748528014953 323.565809868161 2139.93084299473 170 174 175
-777.625454188483 324.959515267647 2126.85097264935 172 176 177
-784.96555086062 327.335446443849 2107.78914593752 161 165 164
-792.110136628284 330.197752775862 2085.726895147 149 153 152
-798.893813682997 333.872923555161 2058.6688672209 106 110 109
-806.278647946693 336.718434128183 2036.57691933819 113 117 116
-814.939581883646 337.426177914124 2027.43224484468 146 150 149
-823.903680870128 337.639548627919 2021.27410035376 130 134 133
-832.810443028352 338.014009525974 2014.11499983657 150 152 151
-378.747459499541 325.555005875162 2274.37987662763 35 44 53
-393.901564819075 320.266118234938 2300.71982287056 190 191 193
-407.351154189254 316.171753042308 2320.21528693854 162 162 162
-416.739549664358 315.130311132649 2322.06947458165 150 150 152
-425.029438398531 314.934750408908 2319.02008628276 156 157 161
-433.545004990463 314.56910715473 2316.9506697259 141 144 149
-443.123387356615 313.358783938485 2319.78952023804 143 146 151
-452.055294179838 312.65502714417 2319.68441148806 138 139 143
-459.953390314368 312.793027522043 2314.66742370294 136 140 143
-468.077142216673 312.761066221123 2310.63041009829 133 137 138
-475.015059222 313.736011069974 2300.69212690006 122 126 127
-480.815847898539 315.714881128929 2284.84674393542 110 114 113
-486.698465776147 317.688296805472 2268.99092326545 99 104 100
-494.586686659021 317.980123517128 2262.96707565898 93 98 94
-504.020104581855 316.930318977461 2264.81566678947 81 86 80
-513.438067710842 315.880964001022 2266.6664256717 101 106 102
-524.130458830651 313.662338153347 2275.41551293306 102 106 105
-534.587974206284 311.613365516996 2283.18577742484 114 118 117
-544.639770342609 309.900334243942 2288.99017412434 132 136 135
-553.597488945512 309.188545320435 2288.88210563792 133 137 136
-562.897289070892 308.14361245151 2290.74759891896 137 141 140
-572.010717111238 307.265419495128 2291.62798386383 140 144 143
-581.281965087756 306.221170840304 2293.4970384824 139 143 142
-590.372234740776 305.34320154396 2294.38055313684 139 143 144
-600.590665217866 303.305157486113 2302.18038496174 140 144 145
-609.96128999752 302.097322129809 2305.04539610947 151 155 156
-618.996230117187 301.221143194834 2305.93557057898 156 160 161
-627.402704269049 301.005852539257 2302.87168506728 166 170 173
-635.21307531427 301.449622344074 2295.84922515666 170 174 177
-643.50363227743 301.396045720048 2291.79145218974 171 175 178
-650.053745607398 303.317442276706 2275.852469024 179 183 184
-657.691356003481 304.081359594402 2266.83535132757 182 186 187
-665.513545001687 304.677454306976 2258.80332836587 179 183 184
-674.341977197237 304.121004725718 2257.70305761118 178 182 183
-682.763858342285 304.056075887977 2253.62892605839 169 173 174
-689.740336990401 305.792158865158 2238.64515040525 177 181 182
-696.141787906366 308.341366625105 2218.69207744992 184 188 189
-703.666037015831 309.575138202134 2206.66432739535 182 186 187
-712.622509868056 309.007485864369 2205.54810742575 169 173 174
-721.579074700572 308.439170722817 2204.43187772301 161 165 166
-730.058227685548 308.52241695332 2199.34252167123 156 160 161
-738.909039369447 308.114991672941 2197.23137854032 156 160 161
-747.19545112322 308.520014123344 2190.14961360337 164 168 169
-754.624268801211 310.222323566225 2175.1094776549 177 181 182
-761.586013820614 312.730940156285 2155.08659020329 175 179 180
-769.073836559491 314.583523972402 2139.03100793164 176 180 181
-776.745797085241 316.268489928548 2123.96033459793 174 178 179
-784.091630278788 318.595143179963 2104.89792177381 155 159 158
-791.045983445336 321.723049005302 2080.84333724407 151 155 154
-797.839469003373 325.326824128835 2053.78427329266 115 119 118
-805.604218981587 327.46923303314 2035.67775442954 125 129 128
-814.177554483422 328.316342349365 2025.53571732176 116 120 119
-823.146868650221 328.515823888602 2019.37695858381 140 144 143
-831.637662384072 329.677452701562 2007.22901972841 154 156 153
-840.269050547604 330.674060953626 1996.07165719334 184 186 183
-381.582502469995 314.141172957992 2289.1724054961 129 138 147
-394.677017843636 310.432197709582 2306.69555132385 191 192 194
-406.558766290839 307.56246239812 2319.32891715726 165 165 165
-416.170401574425 306.362204107401 2322.16359139627 153 153 153
-424.243566737163 306.327316590214 2318.13313869248 155 156 158
-432.762079966318 305.958556727026 2316.06312235146 145 149 152
-441.498491257934 305.422780509167 2314.974280819 141 145 148
-450.027098131033 305.052424571741 2312.90324932283 139 140 144
-458.14988777297 305.012641242952 2308.86637640161 139 143 146
-466.086440763868 305.136784759638 2303.84462591973 139 143 144
-472.239635171265 306.747333734728 2289.97160896013 134 138 139
-477.474050792035 309.179230025645 2271.17217114398 109 113 112
-483.782923534381 310.779204453189 2257.27975429624 94 99 95
-492.858518522901 310.065997790992 2257.15697926733 70 75 71
-502.499061268038 308.858403487375 2259.98806534516 87 92 86
-512.493054504048 307.322497637569 2264.79152195321 99 104 100
-522.824228237486 305.459194785262 2271.56913681331 109 114 110
-534.385093154734 302.448584658495 2285.25084536997 121 126 122
-544.970345067352 300.262643902472 2294.01321689596 129 133 132
-553.562564614773 299.881964642409 2291.93427410021 134 138 137
-562.160801240291 299.500362056318 2289.85434257149 138 142 141
-571.277876369858 298.627194816227 2290.73449941489 145 149 148
-580.889355585905 297.264074249188 2294.5773091204 144 148 149
-590.639873402218 295.738781961248 2299.41112207098 141 145 146
-600.684155709571 293.888861023482 2306.22474431291 141 145 146
-610.045177607379 292.692384916582 2309.09068366061 154 158 159
-618.440589258014 292.472899282174 2306.02794946226 164 168 171
-627.001993787735 292.089644228986 2303.9528589818 165 169 172
-634.201202595933 293.166501642416 2292.97401263001 164 168 171
-642.649227091212 292.941932324264 2289.90472604738 169 173 176
-649.935743463651 294.012212467494 2278.91500154874 176 180 181
-657.996121345763 294.269182913328 2272.86976155929 180 184 185
-665.801468558196 294.847179720606 2264.83988801307 177 181 182
-674.475779949312 294.453265461296 2262.75049522571 176 180 181
-682.7484623568 294.542259500758 2257.68689034471 169 173 174
-689.313140828648 296.724330977249 2239.73002886086 176 180 181
-695.709255488045 299.22209954669 2219.77775730209 183 187 188
-702.846599501982 300.908517829921 2204.77403739252 182 186 187
-711.934038947495 300.179862444654 2204.64958466032 171 175 176
-720.649458136947 299.932288834469 2201.54722965041 162 166 167
-729.495255209409 299.523090233004 2199.4364767146 158 162 163
-738.346521490698 299.112948493511 2197.32528400632 155 159 160
-746.632539795654 299.501632128186 2190.24361119715 162 166 167
-753.94819495232 301.325647916157 2174.20958965481 174 178 179
-760.910053291283 303.782418424242 2154.1868245964 175 179 180
-768.186659153216 305.913163820747 2136.14125394855 176 180 181
-775.865000414487 307.559501084381 2121.06988606405 175 179 180
-783.015333717204 310.154893824856 2100.01554828951 160 164 163
-790.077899415588 313.060600091224 2076.95597199711 156 160 159
-796.307308963942 317.545612075879 2043.91837756439 105 109 108
-804.096907219015 319.640213025538 2025.80888368376 124 128 127
-813.055535790921 319.827415582781 2019.65149078114 147 151 150
-822.127997471888 319.854052153575 2014.48824239123 165 169 168
-831.052964979579 320.194744949417 2007.32695888115 173 175 172
-839.601687865844 321.322165302654 1995.17188089677 164 166 163
-374.952174112663 303.836334333755 2302.12017495601 8 24 40
-384.650904417429 302.642830361919 2304.94396246401 162 167 171
-395.454762875156 300.62930615458 2312.67091203453 173 175 174
-406.211065660685 298.618214294577 2320.40378986629 165 165 163
-415.381697060713 297.756384090275 2321.27699307933 161 161 159
-423.891465625516 297.385675484208 2319.2083134214 145 147 146
-432.407609165748 297.014082978081 2317.13884053195 147 148 150
-441.353404736136 296.314935832545 2317.03198640908 141 142 144
-449.667948057033 296.105140861484 2313.97931858017 137 138 140
-457.78799695242 296.057051582682 2309.94280956135 131 135 136
-465.518123849632 296.333090079343 2303.93873272736 136 140 141
-470.263706333294 299.046861210664 2283.18418189302 134 138 137
-475.118182940202 301.753456272582 2262.41606061381 123 127 126
-481.644985591549 303.154159828948 2249.50465927275 62 67 63
-491.51383220289 301.793398753955 2253.31558510397 46 51 47
-501.166354692433 300.595910710853 2256.14514956605 92 97 91
-511.172742900956 299.075340222064 2260.94701896968 96 101 97
-522.070458825504 296.747949253451 2270.67845643655 107 112 108
-534.001017870239 293.45469301806 2286.33014788655 118 123 119
-544.765054165965 291.13450432081 2296.07824881386 128 132 131
-553.705276238918 290.428906413021 2295.97234748712 134 138 137
-562.119255474342 290.206147640166 2292.90730478364 138 142 141
-570.715790018419 289.821251825363 2290.82783460597 143 147 146
-579.991932539947 288.792756629643 2292.69623692808 142 146 147
-589.749466334042 287.283261819941 2297.52913272401 141 145 146
-599.47504663898 285.775262627273 2302.36577191909 141 145 146
-608.527607610535 284.909131696738 2303.25396121813 154 158 159
-616.939467837932 284.683044029706 2300.18919172086 161 165 168
-625.827266474118 283.976187186914 2300.08983584445 161 165 168
-633.492656221524 284.546258429769 2292.07744903414 162 166 169
-641.794178855266 284.475380460147 2288.01835317884 168 172 175
-649.378454422205 285.199454141495 2279.00775601183 176 180 181
-658.158829840692 284.647141052212 2277.91347156552 182 186 187
-665.808701215118 285.365843964187 2268.894942842 178 182 183
-673.918030772658 285.60488229978 2262.8434009277 177 181 182
-681.64686440464 286.317420141103 2253.81503441676 171 175 176
-688.886226573348 287.660426794969 2240.81486180328 177 181 182
-695.538065824762 289.790063708641 2222.84726125399 183 187 188
-702.921149008345 291.122720065147 2209.82918036467 183 187 188
-711.495377413812 291.029273341982 2205.73611187528 170 174 175
-720.208365088243 290.776419913766 2202.63407420829 159 163 164
-729.17162764344 290.207021144723 2201.51701152305 154 158 159
-738.017929798131 289.794448427743 2199.40644471032 154 158 159
-745.840952001655 290.796150087595 2188.34994805474 160 164 165
-752.602092018392 293.364435585162 2167.34401041863 172 176 177
-759.580323478723 295.768326672464 2147.31958161629 175 179 180
-767.298331042466 297.224661706936 2133.25169134278 176 180 181
-774.569165131039 299.458743154539 2114.19864147938 174 178 179
-781.937240401862 301.685855896118 2095.1337151119 156 160 159
-788.323789916379 305.624465256981 2065.10125103557 158 162 161
-794.866999104191 309.55237783122 2035.04926492779 98 102 101
-802.771376841977 311.443409744885 2017.9336704363 109 113 112
-811.661507629733 311.771331569474 2010.77676797481 119 123 122
-820.845545366096 311.630080667062 2006.60796504543 125 129 128
-829.876327785844 311.797815784211 2000.44161903598 146 148 145
-839.015609557546 311.80795248231 1995.27007534561 181 183 180
-376.45353174072 293.542626162307 2311.029827204 99 115 131
-384.989029257996 293.169200970952 2308.9577036102 172 177 181
-395.784090600913 291.180424678175 2316.68568583589 170 172 171
-404.973403264086 290.323080482343 2317.55678619273 158 158 156
-413.933024288248 289.627053962933 2317.44819851691 167 168 163
-422.019435071005 289.574597906012 2313.41589883543 145 147 146
-431.41008249632 288.55594835991 2315.26998569432 147 148 150
-440.361885304909 287.859046295282 2315.1623759913 141 142 144
-449.100185164755 287.322194209712 2314.07330160995 138 139 141
-456.807403561343 287.586314338279 2308.072115008 138 139 141
-463.931386869623 288.328602950533 2299.11891162528 127 131 130
-468.68741493971 290.987062832144 2278.36320290372 126 130 129
-473.949056768885 293.318685544008 2259.56087175336 125 130 126
-481.069153535638 294.207252311768 2249.60008107154 43 48 42
-490.746424649925 293.019355689178 2252.4265317929 45 50 44
-499.832366262528 292.310028774254 2252.3024553493 95 100 94
-510.788540252739 290.00937200939 2262.0265271916 102 107 101
-522.055623538068 287.393863811269 2273.72824300711 119 124 120
-533.617335172049 284.464718032313 2287.40939109632 121 126 122
-543.663637591813 282.808715604862 2293.21456346448 135 139 138
-553.142690805947 281.629922990815 2296.06572663284 139 143 144
-562.078777937077 280.926676275393 2295.96009486187 139 143 144
-570.667604347627 280.539345125515 2293.88159302706 136 140 141
-579.262377762027 280.151154835933 2291.80211103509 135 139 140
-589.190089308067 278.499840662548 2297.62207049684 142 146 147
-598.917276989459 277.007864062681 2302.45846690591 146 150 151
-608.452090583966 275.674773082569 2306.31100521465 155 159 162
-616.540572917063 275.758182288211 2301.27040212141 156 160 163
-625.271335075791 275.211179847244 2300.18229513119 163 167 170
-633.393098393475 275.291331637615 2295.13730707738 167 171 174
-641.98583745696 274.899272064871 2293.05832941874 170 174 177
-649.555837962488 275.602339608894 2284.04980928267 172 176 177
-658.034792762431 275.363556803404 2280.97670021159 180 184 185
-665.675757015694 276.060849383373 2271.95933942749 175 179 180
-673.637898024326 276.442813096626 2264.91810228683 175 179 180
-680.952205089391 277.601572846183 2252.91698956795 172 176 177
-688.593031011273 278.444543962119 2242.89133504062 176 180 181
-695.629269319354 280.061615797137 2227.90041514681 179 183 184
-702.485399319354 281.984011847978 2210.91555317948 183 187 188
-710.806419834345 282.192961485164 2204.8376727227 172 176 177
-719.154617543111 282.399525338901 2198.75664726443 161 165 166
-728.129315171491 281.829398090067 2197.63815946809 157 161 162
-736.869684300866 281.568108916599 2194.53248670389 155 159 160
