ply
format ascii 1.0
comment KinectMotionCapture
element vertex 779
property float x
property float y
property float z
property uchar red
property uchar green
property uchar blue
end_header
-466.00405006283 -103.435444075344 2101.83530563615 13 16 9
-464.852889143331 -103.583376705686 2109.15776402027 12 15 8
-449.060502205775 -103.42420843876 2120.76355810765 20 17 10
-316.061651222137 -100.801469027081 2166.35105478441 34 24 14
-289.381298638017 -100.398658152244 2180.54810089151 109 90 75
-287.10765981994 -100.507220865742 2187.62512434912 96 70 53
-287.764457180006 -100.676860801553 2193.85290282776 86 55 35
-284.502247075283 -100.76256608777 2201.1693771975 136 103 84
-280.252488124571 -100.826037485551 2208.73056297636 135 102 85
-280.898288777673 -100.993076970182 2214.91915462609 108 79 65
-281.542341282098 -101.159488161781 2221.10258143624 89 61 47
-284.149754392068 -101.36765216729 2226.75472201213 116 90 77
-287.741202063309 -101.596675862051 2232.15182897095 122 93 79
-292.319334343366 -101.846966995975 2237.30162594289 64 34 23
-292.964002116081 -102.011651451116 2243.48749827211 76 50 37
-291.636714377027 -102.132686532326 2250.17301399956 91 72 58
-298.191924354057 -102.4253780589 2254.84390280692 98 80 68
-328.432796871967 -103.238392273895 2253.6073884564 75 61 48
-390.309659365491 -104.751461534045 2244.69558377134 30 17 8
-400.895910210854 -105.139080875532 2248.68679424794 26 22 13
-419.405453863976 -105.702916128414 2250.81010533103 24 21 12
-435.960066570064 -106.225049237178 2253.49596832804 20 20 12
-454.516643549906 -106.793262587986 2255.79206985563 15 18 9
-438.415430883425 -106.588549658612 2266.27908003279 15 18 9
-425.262856426955 -106.447177797565 2275.98485457897 16 19 8
-410.103925862855 -106.258286357567 2286.06406427561 17 20 9
-411.802719262063 -106.446788537548 2292.25234080414 18 21 10
-422.445639575332 -106.837055617345 2296.4513532423 18 21 10
-431.112215110444 -107.183194565825 2301.1340148552 19 22 11
-430.831429238796 -107.326299150125 2307.79473299438 19 22 13
-429.551716040166 -107.446020029952 2314.65771338402 18 21 12
-438.234540233746 -107.792615803209 2319.39948564341 17 20 11
-458.895687334003 -108.414190983411 2321.68311290951 17 20 11
-459.621803022891 -108.57945703845 2328.1710181964 19 22 13
-486.316181974921 -109.342694789006 2329.38470514296 20 23 14
-487.057490479833 -109.508800843846 2335.92941706864 16 17 9
-480.79544369001 -109.512022334907 2343.85005190407 14 17 8
-485.532596202496 -109.769382739604 2349.58579666441 14 17 8
-506.301369871648 -110.40007676534 2352.26233410238 13 16 9
-507.048280645252 -110.565097758684 2358.82853120472 18 21 14
-505.78735507238 -110.682514625653 2365.76272099963 28 30 25
-524.599620101366 -111.270356619543 2368.99482062002 25 27 22
-509.279477054827 -111.056559633837 2378.4921330464 31 36 30
-516.013323797878 -109.412302231603 2014.87084612975 28 33 26
-544.94803324635 -110.252131861275 2012.66512386116 27 30 23
-490.591462337567 -109.184541716934 2037.52622587279 24 27 20
-492.393566829876 -109.400820333173 2044.08053965384 25 28 21
-455.378980629961 -108.720436919611 2062.94615786442 21 24 17
-481.430616352786 -109.494521891778 2061.76754582985 18 21 14
-486.137533382723 -109.775766683193 2067.37595281807 21 24 17
-494.739056354855 -110.147713187821 2071.80079347468 20 23 16
-491.671168026947 -110.24731444853 2079.82997332486 16 19 12
-501.258162106251 -110.642474772078 2084.00269868104 16 19 12
-436.576835146117 -109.45716723815 2117.36388636948 10 13 6
-337.501580020443 -107.435124936098 2159.93686303155 29 19 9
-294.204925184242 -106.56127268952 2178.9803180911 95 76 61
-290.954153577964 -106.636090439701 2186.34706420646 86 60 45
-289.654355577206 -106.756463381184 2193.13506198472 88 57 37
-286.390740122039 -106.828922043097 2200.45468178882 128 97 77
-284.100289395628 -106.923633360954 2207.4771019494 119 88 70
-284.747491278383 -107.088213670872 2213.67337770688 101 72 58
-284.411529094444 -107.228424568886 2220.13013491232 71 45 30
-281.124320757372 -107.296313208567 2227.36597326528 108 85 71
-286.680690439344 -107.578217033432 2232.23056597633 103 77 64
-295.194885891546 -107.9323807436 2236.34240379265 49 22 11
-300.76453562722 -108.214932230946 2241.2568228626 59 35 23
-299.440971096802 -108.32854169009 2247.96085028302 79 61 49
-306.989546086809 -108.659361218992 2252.3985872579 93 76 66
-342.18257522755 -109.672120947961 2249.93982004713 79 67 55
-383.350850733644 -110.836423028599 2246.19051521639 25 15 5
-403.819454873014 -111.49233358378 2247.73666162532 23 19 10
-414.423688035921 -111.905045441533 2251.77786579886 20 20 10
-432.959737188356 -112.516115733975 2253.97069389728 18 19 11
-439.632789216639 -112.832458751988 2259.064174831 17 20 11
-433.425930360407 -112.826523842947 2267.19549251899 18 21 12
-422.247055970899 -112.69428551886 2276.42989235098 18 21 10
-412.041996309144 -112.584490559138 2285.36938545503 18 21 10
-411.754547335324 -112.722860387261 2292.00742505646 18 21 10
-424.388499833854 -113.187353590657 2295.75924650961 17 20 9
-438.033197035978 -113.678294208762 2299.34981802676 17 20 9
-450.699187006263 -114.145366261096 2303.21896018315 16 19 10
-447.439218168715 -114.20764653904 2310.55854526254 17 20 11
-444.17162892213 -114.268706017299 2317.87153702825 20 23 14
-449.876954490301 -114.558370782726 2323.28520292112 20 23 14
-465.573280569516 -115.104283870874 2326.66479381982 18 21 12
-494.279463292722 -115.985915186405 2327.48052559847 16 19 10
-490.025605682148 -116.021011384833 2335.04440847198 15 16 8
-456.743106774461 -115.305020498898 2348.30648507959 13 16 7
-453.452251326124 -115.360926915852 2355.53541834889 11 14 7
-466.18769580046 -115.831699248884 2359.66009530258 11 14 7
-501.001233185982 -116.877494646363 2359.66781297563 15 18 11
-511.776711764246 -117.300162721439 2364.33853197879 21 23 18
-523.569103122525 -117.749998717133 2368.87137603757 23 25 20
-509.287771085597 -115.968984414812 2016.9339913393 23 28 21
-464.610138510561 -114.997071599036 2038.70469779719 25 28 21
-519.709249415115 -116.581189287301 2027.96335395799 24 27 20
-456.53530374192 -115.125791559463 2055.40271258242 25 28 21
-481.60953380656 -115.940127644942 2054.4660928438 21 24 17
-477.572376682567 -116.003283052607 2062.81589801354 17 20 13
-482.27676707803 -116.292091855867 2068.41014858207 18 21 14
-484.06650861113 -116.504976576681 2074.92070384655 18 21 14
-499.488057290742 -117.073215652116 2077.26693367835 14 17 10
-500.313281869229 -117.26081136466 2084.10964209323 15 18 11
-493.336192879896 -117.243010110866 2093.28505843114 12 15 8
-423.677010775891 -115.733191593485 2127.85278481637 20 17 8
-299.031594527513 -112.744081898214 2177.41108274142 92 73 58
-288.930339117106 -112.623821290969 2186.7425881476 86 63 47
-286.647652531543 -112.709870232099 2193.79930401261 91 62 44
-286.319610656726 -112.847069038555 2200.2873694504 126 97 79
-286.969242812639 -113.009793065082 2206.49384029595 119 88 70
-288.599161037526 -113.198214600045 2212.42644771645 92 64 50
-292.193808314869 -113.439010071222 2217.82707307975 73 47 32
-289.892759834903 -113.520653594932 2224.8183961796 106 83 69
-294.472421155676 -113.787325043897 2229.96352850664 104 81 67
-300.040761455684 -114.080671820351 2234.8662703182 52 28 16
-305.614773214231 -114.374212398154 2239.78994678771 43 21 8
-306.264771208086 -114.533765563677 2245.99884881097 58 38 27
-314.806565363328 -114.908017872301 2250.20047231307 70 56 45
-344.093692428165 -115.850069804176 2249.23866977185 69 57 45
-389.231280631337 -117.22961494225 2244.50361224082 28 20 9
-407.733197001778 -117.882286410542 2246.54344720497 24 21 12
-414.384637123856 -118.210282670461 2251.54933011988 21 21 11
-422.033584348742 -118.565881487809 2256.34408518493 19 20 12
-430.681970348956 -118.949400056813 2260.93561308426 20 23 14
-428.431407948548 -119.031163674693 2268.11430528133 21 24 15
-422.205216467956 -119.001590401665 2276.18876874971 19 22 11
-416.960426881529 -118.997821941689 2283.99437290925 19 22 11
-427.607340895452 -119.436157559591 2288.17879423915 18 21 10
-435.28345759026 -119.792039225293 2293.07424564531 17 20 9
-435.00555033754 -119.925302713645 2299.75093566267 17 20 9
-443.688809883247 -120.309504131467 2304.47151108638 16 19 10
-456.368972142522 -120.806520813448 2308.37436670256 18 21 12
-462.08242140017 -121.107898556841 2313.81079930116 21 24 15
-456.82128725454 -121.099178148004 2321.5588457171 21 24 15
-459.541172149125 -121.315216005117 2327.62452987019 16 19 10
-494.251131071554 -122.438505044993 2327.19782655913 14 17 8
-518.003998526764 -123.253646586945 2329.14830769968 16 17 9
-472.713975437598 -122.104030087618 2344.86120062256 13 16 7
-455.406414877464 -121.747307541331 2354.86249782942 11 14 7
-490.202332128776 -122.878234572577 2354.75104774073 11 14 7
-492.941802049237 -123.093764748796 2360.88976777948 14 17 10
-507.730059216407 -123.654999499918 2364.78545289528 18 20 15
-524.546229486592 -124.275598023148 2368.37933293341 18 20 15
-512.23923371754 -122.755738970119 2015.81382229459 29 34 27
-511.151147346151 -122.892654539755 2023.37741970894 27 30 23
-481.935062232028 -122.228988224232 2040.01436856677 26 29 22
-504.109676863116 -123.025194067853 2040.0124526709 25 28 21
-489.408003355602 -122.770274566113 2051.83105486025 20 23 16
-481.485398900817 -122.706737494283 2061.42208219891 15 18 11
-493.0016627232 -123.199301026876 2064.90274290646 14 17 10
-518.159683751191 -124.085080232257 2064.23211714636 15 18 11
-493.67295163926 -123.542036676028 2078.8686119115 13 16 9
-479.870301119002 -123.303769936821 2090.11827618208 14 17 10
-484.580038091884 -123.599147037169 2095.72823066574 12 15 8
-452.195703474029 -122.817546734489 2112.36643759709 6 9 2
-464.702468641993 -123.337169659529 2115.61123139973 14 14 4
-302.882942702178 -118.918484048344 2176.12229921138 102 86 73
-298.653870495487 -118.938510336842 2183.78771978392 95 76 61
-296.375940956045 -119.014624853395 2190.86836970442 80 57 41
-294.092191107552 -119.089632974169 2197.92810847854 86 60 43
-290.821119917261 -119.134490639168 2205.23840144643 86 60 45
-293.435269850122 -119.352127634369 2210.90957377555 81 58 44
-298.998864963531 -119.656854366891 2215.78751293078 43 21 7
-300.634270796106 -119.844986308772 2221.740677597 60 40 29
-303.253716511227 -120.061885414417 2227.43290701504 64 46 34
-307.844455755327 -120.337232179133 2232.61369235997 58 41 31
-317.367498239223 -120.759684901515 2236.53174698473 35 18 8
-321.970290176584 -121.035472474892 2241.75700331396 43 29 18
-327.564546331748 -121.340878736434 2246.74742286628 58 48 38
-369.712860387692 -122.744361432277 2242.58948258536 70 62 51
-403.023612212859 -123.886333251214 2240.85325163743 29 25 14
-425.498506976938 -124.704797587892 2241.95309319728 21 21 11
-409.395106017189 -124.359257048833 2252.52088985076 16 18 7
-416.051164219729 -124.700380486973 2257.5356309802 13 16 5
-417.757386467037 -124.8914748422 2263.74985280197 16 19 10
-421.447796851349 -125.142334883143 2269.49967356992 18 21 12
-427.126481470551 -125.453526974084 2274.8008356144 15 18 7
-434.797998524021 -125.825542273294 2279.66902352218 16 19 8
-445.460855063205 -126.289167743259 2283.89574061257 17 20 9
-447.181412172784 -126.479493808318 2290.16367002658 17 20 9
-440.935867555541 -126.42487165933 2298.18302266314 17 20 9
-436.67160639038 -126.429765904329 2305.72734710982 20 23 14
-458.324813422155 -127.231856727742 2307.6830809294 20 23 14
-473.021470377936 -127.821114292019 2311.22098027626 19 22 13
-468.763376739307 -127.825328311727 2318.78770397628 18 21 12
-454.502989271931 -127.518582847777 2328.38111455813 16 19 10
-476.220911894148 -128.325992112676 2330.57376689558 15 18 9
-512.978694474015 -129.602723872576 2329.86164401545 16 17 9
-510.729073772517 -129.668161863215 2337.05413970239 13 16 7
-510.477975949011 -129.794994540772 2343.83442795319 13 16 7
-508.217626303845 -129.858418966206 2350.98928945727 11 14 7
-495.915164736834 -129.606553304472 2360.02387713898 14 17 10
-507.696834491716 -130.108005544752 2364.48432619105 20 22 17
-555.675375161749 -131.74727270606 2362.34055270054 16 18 13
-470.778677513732 -128.012679143088 2022.21747976853 36 41 34
-512.285890910211 -129.46172906213 2015.64956060959 28 33 26
-498.592724399562 -129.198547655479 2027.32144736629 28 31 24
-478.085258633969 -128.720441994877 2041.10496921308 28 31 24
-490.555323593814 -129.269064917939 2044.19519325543 25 28 21
-480.69410053624 -129.119513799035 2054.43545521579 16 19 12
-479.566532866411 -129.241927339319 2061.86162212931 17 20 13
-490.111292786029 -129.730345018351 2065.63514613715 13 16 9
-502.616927489154 -130.281197215003 2068.85509719567 15 18 11
-491.750024834351 -130.095242119124 2079.28170089142 15 18 11
-456.483504007783 -129.135441983724 2097.02131154374 10 13 6
-435.801541200839 -128.632620206613 2110.17256453855 10 13 6
-462.943352028367 -129.64504139679 2108.99383658147 10 13 6
-484.258214440472 -130.474778927635 2109.67590845822 13 13 3
-309.673063763198 -125.201609987089 2173.98607074091 79 65 52
-302.507089728442 -125.112031322701 2182.50643944759 89 71 57
-299.249387420299 -125.146297085658 2189.87212660461 69 50 35
-295.984175302204 -125.179181541082 2197.21173241694 90 67 51
-289.766758542768 -125.116021037683 2205.33997992411 91 68 54
-295.326851238534 -125.431231663598 2210.19829630764 81 59 45
-305.808554996243 -125.905533010836 2213.74568843538 43 24 10
-314.335290678584 -126.31709381498 2217.86784814802 58 40 28
-314.010554564974 -126.44191571296 2224.37693038385 69 52 42
-317.624319744075 -126.694020472212 2229.84139667692 53 39 30
-340.961464605744 -127.587936623369 2230.19864714273 37 24 15
-346.568834828208 -127.905806324186 2235.22988789356 31 21 11
-353.169026887649 -128.256036607309 2240.03145939796 41 32 23
-380.528742727798 -129.285861137338 2239.65078248681 36 29 19
-426.71541462618 -130.935534448654 2234.74390192982 26 22 11
-423.484380170521 -130.966710614739 2242.21148122859 21 21 11
-410.342592955068 -130.670638831191 2252.05404709634 19 21 10
-409.07194062622 -130.763708659387 2258.9674947984 16 19 8
-397.87877122028 -130.52826372254 2268.21397928849 15 18 7
-405.524793865236 -130.914140487048 2272.9787600507 15 18 7
-420.131976532419 -131.530771358946 2276.16717682705 16 19 8
-435.751612834361 -132.181968425176 2279.19649184395 17 20 9
-449.401792043208 -132.76880698743 2282.74780105851 19 22 11
-454.110612199443 -133.058763544998 2288.35777382859 20 23 12
-449.858620815378 -133.049617203706 2295.95558903631 21 24 13
-451.578692256734 -133.23890507009 2302.22237072369 21 24 15
-450.305882835294 -133.327595122498 2309.13057472489 18 21 12
-471.989080100386 -134.184970922667 2311.16275236274 17 20 11
-466.727842327629 -134.13938356872 2318.9336898906 15 18 9
-466.454825924756 -134.260309056026 2325.63725726532 15 18 9
-450.171864091298 -133.841231802986 2335.58480681921 15 18 9
-474.91031176884 -134.803877045714 2337.20417863529 18 19 11
-531.741636421759 -136.853084432922 2332.60150067341 16 19 10
-537.519394363653 -137.179662963399 2338.26078835475 14 17 8
-519.223118186559 -136.690115101169 2348.5713575941 12 15 8
-513.950348273105 -136.640161261798 2356.3022353141 14 17 10
-525.748110483284 -137.16952731914 2360.80480917586 22 24 19
-524.488841036999 -137.254844310523 2367.76541402519 14 16 11
-508.454808936965 -136.030133817805 2016.76201717848 29 34 27
-494.751470452723 -135.723837568705 2028.42335784531 29 32 25
-464.525178616672 -134.854876395852 2045.33553994961 28 31 24
-460.476548462466 -134.87058556078 2053.67363210316 25 28 21
-469.055884020368 -135.314910740791 2057.96947011027 18 21 14
-474.726809850798 -135.660356340512 2063.22019942047 19 22 15
-484.297335163829 -136.139048467426 2067.27904186757 24 27 20
-498.750455045174 -136.785374068585 2069.87670601808 20 23 16
-438.154225726396 -134.859476460189 2095.49285004362 10 13 6
-430.149752078094 -134.73188156374 2104.82035586966 10 13 6
-483.641038747177 -136.71868382928 2095.64881159887 12 15 8
-489.332069031751 -137.063595172989 2100.97452210821 13 16 9
-470.584090078281 -136.564447058427 2113.5103889512 14 15 7
-333.114816288956 -132.092523823996 2167.04826916222 20 13 3
-312.242343373772 -131.504616580898 2179.54591397304 55 43 31
-304.085478679032 -131.355670966208 2188.32110143727 56 42 29
-296.895479755137 -131.238849635028 2196.76947003297 77 59 47
-293.621098016657 -131.257091338128 2204.08334648676 84 66 54
-299.184830216098 -131.583207491546 2208.94829045496 82 66 53
-321.474760147616 -132.495003782194 2209.30246893389 47 30 20
-319.187967820386 -132.546755649421 2216.36559436177 42 28 19
-316.895324869794 -132.597368731669 2223.40771654103 43 33 24
-325.439697896651 -133.028385950952 2227.58307649507 58 49 42
-351.749938015223 -134.085916521665 2227.18565918446 46 39 29
-388.955049754101 -135.530390970467 2224.13122843852 32 25 17
-401.51496120017 -136.106987818737 2227.53644458037 24 20 11
-421.999352006332 -136.965058039227 2229.01357075951 20 17 8
-437.564243079212 -137.650157840482 2231.81822305861 21 18 9
-434.338263666983 -137.668719026296 2239.31253518102 17 19 8
-412.280582489396 -137.01606988448 2251.34692903788 18 20 9
-396.136913269606 -136.571026836192 2261.82896723201 18 21 10
-390.88160792624 -136.512290545695 2269.63023225765 19 22 11
-395.545329481195 -136.80690927832 2275.069819307 20 23 12
-415.118016238496 -137.635249062728 2277.07705766706 20 23 12
-425.76686550646 -138.144976701272 2281.2235910315 20 23 12
-437.424000331078 -138.691431455155 2285.192325042 20 23 12
-439.137099340452 -138.880866070472 2291.4331268064 20 23 12
-448.822102446318 -139.356883484104 2295.9186915352 19 22 11
-458.518468837693 -139.833810753702 2300.44587148053 19 22 13
-458.246759443393 -139.950894384753 2307.15578804633 18 21 12
-443.99024172735 -139.561326218242 2316.815856175 16 19 10
-452.69678203446 -140.001625204745 2321.58745143478 16 19 10
-459.413114317548 -140.370046275424 2326.80781509325 17 20 11
-453.125251292686 -140.265963017333 2334.70127493147 17 20 11
-482.882118192863 -141.472258650609 2335.31576567012 17 18 10
-513.681022209788 -142.719004164538 2335.87820669071 16 19 10
-559.566768160582 -144.518909481025 2333.65551883114 14 17 8
-523.210405939951 -143.317213238867 2347.50148252882 12 15 8
-494.834814237665 -142.403291403127 2359.62344713599 14 17 10
-509.637569797039 -143.068247302792 2363.50747783712 17 19 14
-497.832960455 -142.322756944242 2020.11097445022 24 29 22
-491.876445600052 -142.256678041995 2029.21067114012 28 31 24
-449.981936423885 -140.872378092455 2049.8859677954 28 31 24
-454.664671718071 -141.191724753115 2055.38053721269 25 28 21
-465.186360026433 -141.725586355172 2059.03878091337 19 22 15
-468.909008877043 -142.009693563711 2064.887306267 17 20 13
-477.503771123991 -142.473226622571 2069.22922272034 15 18 11
-419.409659200037 -140.756519717447 2107.90041557908 13 16 9
-467.052895517418 -142.666192055078 2100.44468268838 14 17 10
-470.77760463901 -142.947504808502 2106.30262169704 14 17 10
-467.657584371628 -142.973612737503 2114.18557473826 14 17 8
-382.04548293461 -140.05678563872 2152.75639212584 12 8 0
-321.98463921882 -137.943998355221 2176.58198993535 50 40 30
-305.98135462282 -137.474957195698 2187.60039987408 62 49 40
-297.806599810615 -137.297283308189 2196.32730236605 62 48 37
-294.530083193264 -137.30216513018 2203.64168716255 72 58 49
-304.028218833382 -137.787099927794 2207.42781964665 71 57 48
-322.393520068426 -138.606772930754 2208.85499336256 49 36 27
-337.829181313086 -139.317276483865 2211.16380203882 30 20 11
-326.679073362299 -139.023182135133 2220.60719344041 32 25 17
-335.232841276918 -139.473590730325 2224.80426304926 43 39 30
-371.427893422811 -140.972916552485 2221.862298122 43 39 30
-413.598942046849 -142.702657706554 2217.58185530338 31 27 18
-433.098144136301 -143.573715668424 2219.29021849589 24 21 12
-439.7663272639 -143.957421717409 2224.32216364189 20 20 10
-431.595583241874 -143.774897189464 2233.06701985213 21 21 11
-417.467600110168 -143.363224196788 2243.21826753039 19 21 10
-408.272136122506 -143.138021047291 2252.08273380204 19 21 10
-402.036618190688 -143.024618762514 2260.17549523446 18 21 10
-397.774511330387 -142.985628637725 2267.75552448656 19 22 11
-397.477106951665 -143.097834224434 2274.3731203531 20 23 12
-406.122923187701 -143.553494646912 2278.90956063209 20 23 12
-406.820400090167 -143.703151378132 2285.30191965045 20 23 12
-417.47135604793 -144.236222086883 2289.44060812621 19 22 11
-422.157836710393 -144.539336313088 2294.95933167117 18 21 10
-437.814552872965 -145.266654362811 2298.07825813914 17 20 9
-457.482031314579 -146.150379636901 2300.40247194566 16 19 10
-453.214309554599 -146.107014188427 2307.96441652606 17 20 11
-446.939736793957 -145.984589238786 2315.91787147186 17 20 11
-420.65719387345 -145.082809036213 2328.01060961928 18 21 12
-457.367300369895 -146.630691831502 2326.94935519435 19 22 13
-473.101342677739 -147.363804767653 2330.35171989628 19 22 13
-480.839732237224 -147.785665908305 2335.43672225741 17 18 10
-511.648184488404 -149.109500279004 2335.98501510937 14 17 8
-533.467474481365 -150.083909256893 2338.44858975069 13 16 7
-507.117564777848 -149.17220039273 2350.29747667349 12 15 8
-505.848168040233 -149.241297966342 2357.2307209663 12 15 8
-500.780273832914 -149.08313052642 2018.99298462641 23 28 21
-481.232555998788 -148.461727006258 2032.53401281978 21 24 17
-478.1669577879 -148.48617910155 2040.61914067454 21 24 17
-454.679698105549 -147.704265093183 2055.22097059363 16 19 12
-461.312890938009 -148.108475057696 2060.11005853282 11 14 7
-468.926531631701 -148.551499605348 2064.71946036062 7 10 3
-425.886792379476 -146.988198192791 2085.15207473966 8 11 4
-435.430559702478 -147.505235875968 2089.0864316149 13 16 9
-436.204343248476 -147.674224198544 2095.74896826773 16 19 12
-454.552400145154 -148.541841856254 2097.08184739 20 23 16
-471.947856286267 -149.372948462433 2098.79727816236 19 22 15
-475.675879108656 -149.659908340925 2104.66488401598 15 20 13
-457.87776377682 -149.086476483927 2116.87798679979 11 18 10
-456.699147601981 -149.175315906322 2124.13581755985 13 18 11
-413.37447834288 -147.574410720362 2143.53428372207 12 11 6
-367.041147045661 -145.847167261069 2163.53183096567 23 18 12
-345.174253132861 -145.09726713024 2176.33597972669 27 20 12
-310.504064860339 -143.828973239977 2192.5871736744 33 23 14
-301.336246736608 -143.583803148281 2201.5668897024 47 36 30
-307.891062502957 -143.971438782213 2206.17544312126 51 40 34
-325.280936205922 -144.797018491143 2207.87363678849 58 49 42
-362.39543955152 -146.42187379628 2204.36891180744 29 20 13
-357.172156351743 -146.334751794133 2212.30699002838 30 26 17
-365.74997987713 -146.806290508397 2216.58096197675 37 34 27
-408.891229561496 -148.682175325216 2211.91502672119 34 31 24
-451.105219532384 -150.524241705967 2207.72310043932 26 23 16
-472.615622920742 -151.526902687714 2209.02200282166 21 21 13
-467.440800186469 -151.442872542285 2217.13805321657 19 21 10
-442.453250141667 -150.548482486162 2230.13693094142 23 25 14
-418.41746385067 -149.689755714997 2242.75068462815 22 24 13
-420.124854549793 -149.881736170651 2248.96868524507 19 22 11
-414.886131728733 -149.788496019541 2256.85330185725 18 21 10
-419.567252052687 -150.101214947765 2262.34605960989 18 21 10
-410.340189760707 -149.842174355058 2271.11457076093 18 21 10
-418.002932402533 -150.276486818833 2275.91084982961 18 21 10
-411.741891284726 -150.137314924012 2283.92511825759 18 21 10
-412.440107667397 -150.283908911274 2290.32215647721 18 21 10
-417.123333215073 -150.594474013739 2295.82409032574 18 21 10
-428.791960698605 -151.193706062988 2299.80310252743 17 20 9
-447.461092874795 -152.083236235497 2302.31423681877 17 20 11
-467.153431568825 -153.016338670071 2304.69957771583 17 20 11
-449.890420911542 -152.417412838485 2315.01919445528 18 21 12
-439.60126470691 -152.105818429568 2323.77385918598 18 21 12
-451.315263374375 -152.707691258038 2327.91872942884 18 21 12
-468.051304333055 -153.519219005634 2331.09549134378 18 21 12
-493.830041021168 -154.708748037527 2332.53768943378 16 17 9
-528.670829484937 -156.278141495582 2332.31601261455 14 17 8
-517.384150361953 -155.923107570756 2341.29081607911 12 15 6
-495.028949698649 -155.103330521338 2352.32609420935 12 15 8
-498.7751941519 -155.37390543895 2358.27076899105 11 14 7
-511.617184938836 -156.040700671037 2008.07610532886 16 21 14
-474.618773870958 -154.630749896697 2027.4623892727 22 27 20
-497.768941871179 -155.744649187615 2026.98654546025 22 25 18
-484.022879364373 -155.307134352055 2038.5721047511 19 22 15
-487.7591232111 -155.604453818432 2044.46276413284 10 13 6
-459.815119604919 -154.972625934741 2081.38881174878 14 17 10
-453.772881650908 -154.850990138639 2090.20438206496 15 18 11
-457.48722499415 -155.142664454109 2096.01822224491 16 19 12
-486.621194384061 -156.5158695724 2094.21463870153 17 20 13
-483.512056611555 -156.517558953643 2102.15341290604 16 21 14
-473.542947538292 -156.225555888982 2112.08305193634 11 18 11
-459.63742905197 -155.763533701377 2123.09205508688 13 18 12
-454.532828881768 -155.675754152055 2131.47119527626 9 10 4
-426.851359790017 -154.619652675753 2146.26006587385 12 12 4
-359.567227483681 -151.984630848838 2178.66639094994 20 11 4
-307.16403432693 -149.854045298701 2199.76216020119 36 27 22
-311.756155344511 -150.170739312176 2204.92197131192 51 42 37
-325.215223360708 -150.869377414348 2207.69313774823 58 51 45
-410.63209955818 -154.67394583082 2191.2158652431 25 18 12
-404.454320084597 -154.529470947916 2199.5426158663 17 16 11
-399.251782845866 -154.42591647497 2207.56809437633 16 17 11
-425.643560622869 -155.689398559538 2207.34338340637 16 17 9
-457.013186353742 -157.170725147325 2205.97945067612 18 19 11
-468.644446778308 -157.797775371399 2209.80123434982 22 23 15
-464.452806462763 -157.737589725763 2217.65627381379 24 25 17
-441.432330514134 -156.857004058184 2230.15715598492 21 24 13
-422.340908574766 -156.144662562035 2241.55248547458 19 22 11
-419.090364869605 -156.120495068804 2248.98257184288 19 22 11
-415.832732518345 -156.095067353219 2256.38620607346 18 22 8
-426.475167435149 -156.676290017166 2260.46378599299 18 22 8
-428.183441505128 -156.866899595996 2266.68593189263 17 20 9
-431.881354098793 -157.144188934787 2272.44692081845 18 21 10
-428.612817434707 -157.115658693367 2279.81295726759 18 21 10
-421.352066756585 -156.910872039605 2288.05324614394 18 21 10
-423.051081188643 -157.098562170409 2294.24285600947 18 21 10
-442.708873134659 -158.076026710818 2296.4728527134 17 20 9
-468.383342062545 -159.319718690397 2297.4928003734 17 20 11
-466.115216953902 -159.333055759155 2304.65041564044 18 21 12
-464.841200879324 -159.389430373992 2311.57454185058 19 22 13
-440.54880326009 -158.427806315006 2323.30051193081 19 22 13
-440.25072785838 -158.524770615824 2329.92523897054 18 21 12
-447.965809706536 -158.975938686155 2334.90520150653 18 21 12
-487.777473265816 -160.850008960054 2333.4645217166 15 16 8
-521.62290323201 -162.462429573061 2333.41642917196 12 15 6
-517.354495944572 -162.384180586824 2340.99785216284 12 15 6
-504.033171951114 -161.902421419869 2350.29106645514 12 15 8
-497.729255963014 -161.731234413051 2358.16729058117 10 13 6
-519.420355427279 -163.063096198749 2005.33807432862 33 36 29
-508.621056980659 -162.71917031312 2016.11541368606 31 34 27
-499.746061067503 -162.459364546995 2026.19063236647 15 18 11
-538.49254134612 -164.332792460976 2020.79554137814 2 5 0
-486.6566512446 -162.278178188715 2051.74227216584 8 11 4
-490.394783028949 -162.579997854809 2057.63802892194 11 14 7
-482.435013515811 -162.354460199527 2067.19334837063 10 13 6
-464.702855859597 -161.68658345693 2079.71096663319 10 13 6
-472.331349576359 -162.161357219323 2084.35454100994 9 12 5
-462.378048467408 -161.841324335458 2094.36149749642 10 13 6
-471.966824997872 -162.40409068452 2098.43409405168 15 18 11
-477.652208842887 -162.790374041772 2103.71272031411 18 21 14
-468.652427929979 -162.510186328392 2113.33750484213 13 18 12
-469.437711597692 -162.672771137596 2120.04771105855 12 17 11
-476.106850553215 -163.102454250618 2125.05417749499 6 7 1
-473.949003768139 -163.13015588037 2132.61123650914 13 12 7
-448.210368067713 -162.082051381459 2146.81577706234 20 15 9
-351.360726024504 -157.902682637004 2187.32415169429 28 21 15
-333.343376438802 -157.195352186898 2198.80781722425 50 45 39
-389.184598461912 -159.86754568919 2190.13483241092 53 48 42
-436.231939694455 -162.141557577854 2184.13295332762 17 12 6
-433.028432044658 -162.113616299353 2191.74005792112 20 19 14
-416.982601879545 -161.494682626508 2202.69420976388 20 21 15
-400.910506311144 -160.872285117665 2213.55395921932 18 19 11
-434.250923117344 -162.522566133596 2211.60694871514 18 19 11
-446.858175200922 -163.219853238231 2215.11173385588 19 20 12
-453.539624452651 -163.644266333721 2220.16816224506 18 19 11
-451.309995430258 -163.657196152899 2227.46803402888 17 20 9
-444.116114437 -163.439643378996 2235.96558582148 17 20 9
-427.978009177541 -162.806773829226 2246.5859367075 17 20 9
-420.7514621897 -162.584576573948 2254.96513834697 18 22 8
-434.381913207423 -163.328301637174 2258.3432217084 19 23 9
-440.073154670753 -163.704142426175 2263.6501890505 19 23 9
-445.769994159333 -164.080081874005 2268.97787847514 19 22 11
-444.500716480383 -164.131921065192 2275.9224608486 19 22 11
-427.279923967024 -163.440108349021 2286.45746919814 18 21 10
-423.995497661696 -163.395724903333 2293.77359038438 18 21 10
-445.656703764465 -164.51428979286 2295.55921802907 17 20 9
-468.34527011315 -165.682084573278 2297.23183134957 16 19 10
-470.073146877094 -165.871581967467 2303.52746038503 17 20 11
-458.797119556138 -165.452012935857 2312.58255599079 19 22 13
-440.495230963558 -164.7017805419 2323.03686999776 19 22 13
-432.181591209811 -164.41752397591 2331.31541064601 19 22 13
-441.897446261933 -164.97803315381 2335.86124990518 18 21 12
-458.646455368089 -165.86910313231 2339.03594120951 15 16 8
-489.47132339813 -167.422868914755 2339.50001597466 12 15 6
-514.310042604342 -168.696976417963 2341.29503535799 12 15 6
-507.011426027697 -168.458934323362 2349.41666034156 12 15 8
-485.615224964148 -167.555012304327 2360.16932037138 10 13 6
-524.317667093424 -169.983693999108 2003.56531898521 31 34 27
-520.313935020501 -169.92791096183 2012.11524534857 24 27 20
-574.614272452905 -172.640404684314 2001.59213499011 22 25 18
-540.485911093743 -171.152969561381 2019.99430939654 6 9 2
-484.891665709005 -168.639267202524 2045.06948858813 16 19 12
-491.55043251542 -169.08589650983 2050.02767535039 17 20 13
-509.91358232409 -170.091010766845 2051.329783342 21 24 17
-484.404853685567 -169.001786815893 2066.41295540236 17 20 13
-482.284236802719 -169.027562636191 2074.1103866244 14 17 10
-473.31965772798 -168.72475811667 2083.88014774556 13 16 9
-476.0707336682 -168.981749348492 2090.03578232096 11 14 7
-459.256256937082 -168.299720386641 2102.07225556142 11 14 7
-468.849286943405 -168.883492878776 2106.14831128234 12 15 8
-467.676064294176 -168.949965064073 2113.44028864845 13 12 7
-483.167330636893 -169.817698799117 2115.85628124973 13 12 7
-490.828858319106 -170.308943945169 2120.61210509636 13 12 7
-482.787531831685 -170.043011030605 2129.89012293627 14 13 8
-459.991598230513 -169.063236774967 2143.2863802938 15 14 9
-434.209096996439 -167.936118022158 2157.37794218143 14 13 8
-404.449730116519 -166.613382608884 2172.41389404882 16 15 10
-412.068424385367 -167.097132135329 2177.01541816857 17 16 11
-444.098365114176 -168.879895157124 2181.80911480762 17 16 11
-429.05381261021 -168.263792231182 2192.58270679146 15 16 10
-426.825158145573 -168.268805233905 2199.89119518068 15 18 11
-396.913982448778 -166.925566286483 2214.37645552282 17 20 13
-425.317527684085 -168.4197862378 2213.68179722903 18 21 14
-428.022742011458 -168.662866152127 2219.67593950216 18 21 14
-435.682436280748 -169.147371652162 2224.42921130562 17 20 11
-437.402632605463 -169.34169963831 2230.69327459267 17 20 11
-442.098876428981 -169.681122757517 2236.22532330686 20 23 14
-424.958326385658 -168.951337572591 2247.08223004943 20 23 14
-430.640749924409 -169.337560250553 2252.34897456213 18 21 12
-435.334428933806 -169.675242576316 2257.87259967003 19 22 11
-442.021977612582 -170.110470220165 2262.9448462967 19 22 11
-446.725435093033 -170.448243679838 2268.50471941391 18 20 9
-449.440229916461 -170.687983613962 2274.53654087981 18 19 11
-437.200128016632 -170.191179844339 2283.95729888225 18 19 11
-421.946278648533 -169.544169788731 2293.9733257743 18 19 11
-430.632366285646 -170.075800414742 2298.61132226309 18 19 11
-461.311787202741 -171.692837618928 2298.49543414135 18 19 11
-471.033370480632 -172.276747508308 2303.04869621842 18 19 11
-472.760909313663 -172.465570388752 2309.3434964353 18 19 13
-458.465802711295 -171.861211779976 2318.99589903308 18 19 13
-446.1518258382 -171.353033447307 2328.14955504253 18 19 13
-458.888400117294 -172.084925021265 2332.11356972091 18 19 13
-461.605248174851 -172.320216207107 2338.15489412697 15 16 8
-485.412850898019 -173.602346274468 2340.01376448184 11 14 7
-497.192064897209 -174.28810701009 2344.34873305905 12 15 8
-489.877024977877 -174.024589647583 2352.42453611811 12 15 8
-468.458591852111 -173.057903795735 2363.1342786566 3 5 0
-530.302420040858 -176.848463407147 1994.17537693553 30 33 26
-501.063961607779 -175.513354162035 2011.15224293788 31 34 27
-512.584610129943 -176.219293973249 2014.51446856442 26 29 22
-528.85824413034 -177.292535159292 2023.60181267687 9 12 5
-501.468195667392 -176.041447913025 2039.59670378234 21 24 17
-503.268295753183 -176.257379176847 2046.14379489498 19 22 15
-505.06839125388 -176.472790012823 2052.69119755496 20 23 16
-492.230402807526 -175.948728144489 2063.80564971352 18 21 14
-480.347321996621 -175.470975585069 2074.53992910812 15 18 11
-496.786173624941 -176.423857276171 2076.52404180701 14 17 10
-488.795711960944 -176.140816107242 2086.00171202324 13 16 9
-480.790803997981 -175.855526487723 2095.42716551679 12 15 8
-447.304876083276 -174.276181115313 2112.37534730216 11 10 5
-459.836525897523 -175.029487705888 2115.56499728627 11 10 5
-487.097955710953 -176.532056240656 2114.52093780532 12 11 6
-480.039384349249 -176.290517817406 2123.53508200073 14 13 8
-485.738312478577 -176.697257250015 2128.85108064112 14 13 8
-479.645830851271 -176.502808640782 2137.52700526677 14 13 8
-457.801059645392 -175.503403446208 2150.57081573816 14 13 8
-446.751342687275 -175.052473008951 2160.48595731525 13 12 7
-471.151732846986 -176.411925428985 2160.59966454647 12 11 6
-476.851738691913 -176.816190017005 2165.92122702097 13 12 7
-436.183178115615 -174.845880419413 2183.72463657095 15 14 9
-421.125192169326 -174.18368595809 2194.47745259885 15 16 10
-424.817125035825 -174.481426212195 2200.20332833238 15 18 11
-439.389082910912 -175.337468516557 2203.10981051444 16 19 12
-425.282117091135 -174.720209491998 2213.46888761057 18 21 14
-419.074222643701 -174.507444903617 2221.72787080577 18 21 14
-427.720148811005 -175.058107739988 2226.20381066481 17 20 11
-420.508109680117 -174.79177963947 2234.6647390391 18 21 12
-421.222473842981 -174.932933749185 2241.1251652556 20 23 14
-429.880975438385 -175.483491303964 2245.64786168375 20 23 14
-437.555153325925 -175.983427445907 2250.44609524606 18 21 12
-437.281291843363 -176.072389891533 2257.16577577425 19 22 11
-437.004163308861 -176.160461725784 2263.87481768682 19 21 10
-428.755737269296 -175.835108146869 2272.42143057679 18 20 9
-439.431388690112 -176.48925393699 2276.57536799867 18 19 11
-435.157436073759 -176.368194137293 2284.16323077659 18 19 11
-428.878412810871 -176.141997033475 2292.16567818542 17 18 10
-419.590691787869 -175.758386341357 2300.78762239641 17 18 10
-439.276941472722 -176.87999837897 2303.03134090106 18 19 11
-466.991727702226 -178.420500482698 2303.64655566794 18 19 13
-465.712258595673 -178.45244467234 2310.56585993064 18 19 13
-486.468035350781 -179.632351468362 2312.84739818258 18 19 13
-484.192712380154 -179.611871456787 2319.999639533 18 19 13
-470.876130134832 -179.014203644034 2329.38363765783 18 19 13
-497.695859270762 -180.511801839937 2330.60001755081 15 16 8
-504.45802153276 -180.962179382995 2335.93879591236 12 15 8
-511.226956840281 -181.412943034894 2341.30340651805 12 15 8
-495.868474966118 -180.704845804192 2350.9695206669 12 15 8
-470.417044061736 -179.466153992179 2362.46347378257 5 7 2
-564.319987486548 -185.353869244773 1982.62095730478 30 33 26
-496.243326190248 -181.88358955951 2012.61211565808 22 25 18
-502.903635696047 -182.358645054942 2017.55808335374 10 13 6
-505.680731292753 -182.628112141761 2023.80151818972 13 16 9
-503.591945805805 -182.639315241128 2031.62633359906 15 18 11
-501.49763477412 -182.64935224903 2039.43044093037 14 17 10
-493.548481925442 -182.347635494503 2049.07327346863 12 15 8
-502.169418816311 -182.925049494005 2053.44047278058 15 18 11
-487.369733896026 -182.256798138824 2065.1561338981 14 17 10
-487.200448520654 -182.36537210206 2072.25263235289 12 15 8
-496.805708446451 -182.994050003975 2076.34481542041 12 15 8
-504.465498864457 -183.519234166286 2081.0727618274 11 14 7
-466.113031354842 -181.588191014662 2099.65793944519 10 13 6
-467.876836182609 -181.796227501298 2106.07525772748 10 13 6
-476.504813846688 -182.370874284893 2110.47034512566 12 11 6
-471.404326493223 -182.210784745461 2118.91040813978 13 12 7
-488.880751552414 -183.258926002099 2120.78943631909 13 12 7
-488.690274893741 -183.360889907114 2127.81142893708 12 11 6
-491.447559720057 -183.620267316029 2133.98768035983 10 9 4
-475.506002626167 -182.874963315783 2145.40969031073 12 11 6
-460.523525941121 -182.179043577262 2156.46414980069 12 11 6
-470.157763968249 -182.805411834623 2160.66538106756 12 11 6
-490.653178748246 -184.016792581957 2161.96130435281 13 12 7
-447.015327626693 -181.773350265517 2180.60265194867 14 13 8
-411.213715574374 -179.94792428074 2196.90115557753 16 17 11
-433.680241819681 -181.263800330717 2197.65588675141 15 18 11
-442.327486225276 -181.834436638531 2202.12503978912 17 20 13
-435.14541888992 -181.549443259476 2210.70810282312 18 21 14
-422.005852775822 -180.940714931837 2220.75723920155 18 21 14
-420.74157093086 -180.973318042637 2227.73251478158 18 21 12
-429.394137566665 -181.542663601922 2232.22224312799 18 21 12
-422.171021835355 -181.250908084055 2240.65809979603 20 23 14
-430.832207115603 -181.820203500449 2245.17893011512 20 23 14
-436.520196836434 -182.227988507282 2250.4536564678 18 21 12
-430.273636324346 -181.986894474174 2258.58696587162 18 21 10
-422.024092115212 -181.635589994723 2267.14581125719 20 22 11
-419.73874518385 -181.607762520675 2274.2645453867 20 22 11
-425.424727709656 -182.013466860732 2279.53313304172 19 20 12
-422.135488391289 -181.929505566109 2286.85637183577 18 19 11
-418.838668122226 -181.844328035356 2294.15316093603 18 19 11
-424.528713149278 -182.248993160642 2299.43655894526 17 18 10
-463.22556163053 -184.457165872936 2297.54217486357 17 18 10
-457.941957903158 -184.262727272053 2305.32404887041 17 18 12
-463.664321128735 -184.66951983643 2310.7270238854 17 18 12
-474.403389508341 -185.350929520951 2315.09920305024 17 18 12
-496.187247108074 -186.637771527883 2317.2339703016 17 18 12
-490.901467462695 -186.441290512963 2325.00905502466 17 18 12
-490.627089560441 -186.518762622887 2331.73500160669 15 16 8
-516.481647229231 -188.030501190112 2333.25528190471 12 15 8
-531.306837716609 -188.937493509233 2337.06979997191 12 15 8
-531.052929093383 -189.015823930193 2343.87027405994 12 15 8
-496.549874098473 -187.208913280153 2357.18573515112 9 11 6
-525.545491730487 -189.996875857738 1995.48871589332 21 24 17
-490.446124422002 -188.166653823069 2014.39754459461 14 17 10
-501.965178363437 -188.924803333473 2017.72088738457 15 18 11
-512.525421147938 -189.630075972373 2021.414985366 21 24 17
-492.911136758874 -188.65471478793 2034.93140630439 19 22 15
-492.755335433595 -188.761671097182 2042.0789896964 13 16 9
-491.621501108201 -188.813462529295 2049.52647684802 12 15 8
-487.555413759835 -188.700615393904 2057.88091757918 15 18 11
-493.247732545732 -189.13217379893 2063.15577860041 14 17 10
-491.126210325963 -189.126477759915 2070.8697181683 14 17 10
-487.042790008997 -189.010008521058 2079.16209179072 13 16 9
-476.099051258607 -188.508073653147 2089.50198218683 12 15 8
-471.993248892658 -188.387976023408 2097.7135464242 12 15 8
-468.858974488833 -188.321308901952 2105.60214996056 11 14 7
-472.584710909907 -188.639075530252 2111.44088806264 11 10 5
-488.093847442513 -189.618921024814 2113.85244768068 12 11 6
-487.903912098889 -189.71615292482 2120.87943763559 13 12 7
-501.475551918967 -190.587527464011 2123.95857535026 13 12 7
-481.612096601804 -189.575441557984 2136.57398855794 12 11 6
-477.470869282814 -189.44754266912 2144.65802317187 11 10 5
-449.672637327434 -187.983399642452 2159.27192123787 13 12 7
-450.426801648088 -188.128860870193 2165.87646932828 13 12 7
-458.086803854158 -188.664120879611 2170.59884070046 14 13 8
-447.980425988252 -188.194329924797 2180.13200259666 14 13 8
-415.128106780185 -186.435461851545 2195.64874115427 15 18 11
-428.704638472243 -187.303307883169 2198.74919816828 16 19 12
-441.309011357067 -188.116545747556 2202.17008816875 17 20 13
-438.082950786921 -188.032100064469 2209.72913211226 19 22 15
-428.903235767451 -187.608695081492 2218.77627645525 19 22 15
-429.625628937154 -187.746380402864 2225.26777378937 18 21 12
-426.37618533269 -187.657786195175 2232.74262027066 19 22 13
-439.011415140359 -188.472000466102 2236.27838854839 21 24 15
-433.771040262153 -188.268870861909 2244.22624984407 20 23 14
-435.483236424985 -188.460771663099 2250.46214249557 18 21 12
-429.232123887312 -188.198117060594 2258.59123431286 18 21 10
-430.938289460113 -188.3883961316 2264.80576044107 19 21 10
-425.666389627746 -188.179714217942 2272.6400811982 18 20 9
-425.371995766099 -188.254467017412 2279.29342927629 18 19 11
-411.098598681548 -187.529230202741 2289.10275122993 18 19 11
-406.792096396077 -187.372634353875 2296.59219906708 17 18 10
-435.467912639526 -189.103176307547 2296.75829929968 17 18 10
-452.176770435182 -190.149846566614 2299.68567878619 17 18 10
-457.894314386458 -190.567057372926 2305.0641832477 17 18 12
-456.604285831588 -190.582125616533 2311.95493693725 17 18 12
-448.291593851274 -190.193421490024 2320.30293920431 17 18 12
-447.991024594741 -190.263640355088 2326.93529271786 17 18 12
-481.82464114576 -192.295060745244 2326.57880475366 17 18 12
-507.665861916609 -193.868742101889 2328.01046032909 15 16 8
-525.497681520625 -194.982826062842 2331.16736602653 12 15 8
-534.296455518796 -195.577341828435 2336.18404250294 12 15 8
-558.208666332522 -197.042789939286 2338.31556477958 12 15 8
-511.618376630787 -194.444790042163 2354.01157645313 11 13 8
-486.738098998421 -194.420139848909 2008.37213942282 37 40 33
-499.223623113823 -195.26100013543 2011.33525690737 26 29 22
-486.433188063611 -194.62806772953 2022.69592968608 23 26 19
-483.35620465723 -194.560336530495 2030.79698624759 24 27 20
-490.01381023026 -195.060265450888 2035.71721099246 24 27 20
-496.678848377415 -195.560526950992 2040.66389243239 18 21 14
-497.497206820039 -195.71872705796 2047.49873805452 16 19 12
-498.313877569361 -195.876161447874 2054.32873005835 12 15 8
-494.244044798746 -195.74675717438 2062.6787890585 17 20 13
-488.209598303274 -195.500965390901 2071.60260214645 17 20 13
-478.249559663328 -195.02360634702 2081.68387100216 16 19 12
-476.106315661224 -195.003895425676 2089.32508109011 15 18 11
-480.816989630466 -195.386001603886 2094.88375825817 15 18 11
-479.647811307296 -195.422152047071 2102.20989497488 14 17 10
-483.381403371264 -195.746026195278 2108.07394357102 15 16 10
-492.028353117142 -196.359028958276 2112.51525463306 13 14 8
-499.702552720208 -196.914705046005 2117.27744851462 10 11 5
-505.418116669782 -197.354851179692 2122.63412145285 9 10 4
-510.15515821463 -197.737003047184 2128.29066741541 9 10 4
-465.646069306658 -195.209630320115 2147.77285904984 12 13 7
-454.583901162208 -194.655128854308 2157.70716113786 11 12 6
-458.299527906465 -194.973235311316 2163.50907846381 10 11 5
-466.953936807264 -195.583519246342 2167.97980043176 12 13 7
-458.82423679874 -195.199400100049 2177.00432130814 13 14 8
-448.702981007034 -194.695994251607 2186.50253804341 15 18 11
-461.318683289504 -195.539837116832 2189.94709850401 16 19 12
-459.099522741909 -195.503489838037 2197.31694866296 17 20 13
-425.169792547842 -193.582598145801 2212.83301403411 19 22 15
-418.949710985331 -193.305516452348 2221.08735531274 19 22 15
-420.655792753199 -193.498674150652 2227.29975287508 18 21 12
-441.227465559856 -194.814181934663 2228.81213788481 19 22 13
-433.010512143856 -194.416158913862 2237.52148213892 21 24 15
-432.734111528382 -194.49003949892 2244.24125726148 20 23 14
-428.47416009853 -194.325714517337 2251.9084190716 17 20 11
-425.201155175514 -194.219260529929 2259.30706272495 17 20 9
-436.868851196646 -195.004132694556 2263.16541313884 18 20 9
-442.567501646402 -195.432610806055 2268.46572712307 18 20 9
-439.289748838025 -195.324221308505 2275.84796478842 18 19 11
-426.017794307243 -194.617113522914 2285.46768056264 18 19 11
-428.714868192205 -194.864328260128 2291.42805943536 18 19 11
-435.413403306464 -195.35067893915 2296.50882013561 18 19 11
-454.129185673094 -196.557167491543 2298.99304651279 17 18 10
-474.872449480676 -197.885877496506 2301.13418008687 17 18 10
-460.562932034008 -197.112445188409 2310.83982232685 17 18 12
-448.236334468404 -196.456484930652 2320.03992194961 17 18 12
-461.986130253001 -197.365331884462 2323.75685972203 17 18 12
-483.788380816127 -198.758511706368 2325.89278031203 17 18 12
-503.608790275992 -200.033477748048 2328.53871709922 14 15 7
-524.460914066684 -201.371311970131 2331.07826590156 12 15 8
-541.313824264931 -202.469179776386 2334.50723125182 12 15 8
-530.990463117004 -201.93056445998 2343.27822884835 12 15 8
-508.553438550021 -200.66059535545 2354.29393855703 12 14 9
-494.540171023584 -201.466843519012 2005.61468315516 23 26 19
-471.054673253325 -200.142880133153 2020.56527630883 36 39 32
-444.612234005252 -198.635710377177 2036.34288238654 27 30 23
-468.770046323275 -200.216542752411 2035.41617792122 24 27 20
-477.367300152195 -200.847597689179 2039.66158058626 21 24 17
-491.826624399903 -201.837282229229 2042.06550147411 17 20 13
-489.711963347109 -201.813020839009 2049.81570737856 16 19 12
-487.591530872825 -201.787572057508 2057.54523478289 14 17 10
-493.285111883787 -202.240252783672 2062.8123756931 11 14 7
-483.333105860195 -201.732975496978 2072.94235689126 15 18 11
-478.258542984185 -201.523663431633 2081.50974893514 17 20 13
-474.153435994841 -201.372741204258 2089.74335600681 18 21 14
-485.725566191825 -202.184513225572 2093.22990608474 16 19 12
-482.595884668162 -202.092259745975 2101.15078694953 15 18 11
-473.567828655059 -201.635971958736 2110.78270096248 15 16 10
-479.262149190913 -202.08514956109 2116.05387025015 14 15 9
-503.643721891192 -203.685911003569 2115.94536205854 13 14 8
-515.266753564529 -204.501028313501 2119.61878730164 12 13 7
-510.164448943277 -204.284175297104 2128.08794064439 11 12 6
-492.241669939235 -203.274573012579 2140.11356682085 10 11 5
-485.914670420945 -203.074228302846 2155.71606476171 12 13 7
-481.753000393028 -202.911038267334 2163.74648058654 13 14 8
-466.711241901447 -202.073146693466 2174.67047193228 13 14 8
-465.490997314025 -202.089758198843 2181.81934548098 13 14 8
-465.255976165943 -202.166583138419 2188.69182456702 15 18 11
-458.084862309295 -201.812562018032 2197.36006524537 16 19 12
-424.139146341869 -199.795604500737 2212.877429506 18 21 14
-419.898150693274 -199.620185579057 2220.6219745497 19 22 15
-436.493347560329 -200.738562081408 2223.08115269461 19 22 13
-437.216720118089 -200.870699567175 2229.5797889176 20 23 14
-432.968166241022 -200.692904572342 2237.29777186854 20 23 14
-420.75280796383 -200.018327008592 2246.92263515926 20 23 14
-428.42665890822 -200.580901876682 2251.68010803322 19 22 13
