ply
format ascii 1.0
comment KinectMotionCapture
element vertex 752
property float x
property float y
property float z
property uchar red
property uchar green
property uchar blue
end_header
-1014.54208345663 422.042126239547 2134.31657994207 166 168 167
-1023.3823667059 422.619699629713 2127.16548097892 169 171 168
-617.305318046827 405.236757479549 2359.28392549479 183 188 181
-628.707454288556 401.088073236995 2376.01174109276 181 186 182
-638.927745237793 398.349352244317 2385.82880041462 176 178 177
-648.175256986536 396.816518316826 2389.71771831114 171 173 172
-656.6481204751 396.286303834477 2388.66175133978 180 182 181
-665.415065903743 395.355232457786 2389.58551451965 177 179 178
-674.315737342005 394.22410559967 2391.50104369002 170 174 175
-683.0589856954 393.293172756144 2392.42800402871 141 145 146
-691.514098836657 392.761521018528 2391.37425598072 161 165 166
-699.833341939705 392.428687738841 2389.32901276198 177 181 182
-708.691728997215 391.297686584199 2391.24981844205 134 138 137
-717.403406756357 390.366137192263 2392.18072022791 144 148 147
-725.72050189806 390.031412699393 2390.13599031124 167 171 170
-733.291482876159 390.888371792827 2382.13462964825 153 157 156
-741.022963379112 391.543746440943 2375.12145755708 139 143 142
-749.146537495721 391.601021421206 2371.08423113846 168 173 169
-757.872183668524 390.665414381074 2372.01316016581 159 164 160
-766.358123460461 390.12582658966 2370.95558603338 164 168 167
-774.620557634265 389.981524576357 2367.90948891333 163 167 166
-782.566559531566 390.429066332981 2361.8777802391 145 149 148
-791.284029104613 389.491235472226 2362.80797578285 176 180 179
-799.886930821271 388.750865998156 2362.74402134329 170 174 173
-808.585270698061 387.812880198424 2363.67660456807 167 171 170
-816.683178763982 388.057297183001 2358.63440119084 172 176 177
-825.280245049124 387.315328627067 2358.57117918976 176 180 181
-833.128985144113 388.146709541217 2350.53522319031 181 185 186
-840.835034395028 389.368046198081 2340.50043276492 185 189 190
-848.239731163818 391.371090663998 2326.47020208653 185 189 190
-855.96861025788 392.780421523091 2315.42438045745 181 185 184
-864.161425540022 393.205553468904 2309.36217021612 168 172 171
-872.14288130847 394.215835446602 2300.30125358871 167 171 170
-880.243870263414 395.027025829359 2292.23387159386 188 192 191
-888.677994735289 395.053110030909 2288.15797246666 189 193 192
-896.985488041829 395.468189107546 2282.08147755973 176 180 179
-904.976912888246 396.85661374191 2271.00294682871 178 182 181
-912.824422772824 398.825715140428 2256.91754507921 174 178 177
-921.625406199199 398.062693396289 2256.82893086727 142 146 145
-930.420479091652 397.29945096516 2256.7410548362 140 144 143
-938.690091387447 398.285764336046 2247.64448136696 190 194 193
-946.672239338465 400.434301274759 2232.53387767869 185 189 188
-955.095669486592 401.218679472716 2224.42632753812 181 183 182
-963.804358031053 401.030420724801 2221.32465626933 184 186 185
-972.054009412492 402.77824369967 2208.19733946551 175 176 178
-980.456253289429 404.13416625157 2197.0676265413 156 157 159
-988.621108708885 406.839469180913 2178.90969452313 180 181 183
-996.721776291122 410.311012837099 2156.72676623838 187 188 190
-1005.15181117655 412.616583459274 2140.55216826778 161 162 164
-1013.96282097361 413.180431740294 2133.40451833425 158 160 159
-1022.68255964311 414.51242527577 2122.23524695315 174 176 173
-1031.62359410729 414.685273334284 2117.08801486015 194 196 193
-734.516226783344 222.315072366065 3239.02174343173 156 162 152
-617.560722804394 395.661607256317 2364.31618433674 185 190 184
-628.479423811945 392.156793309811 2378.07909235232 182 187 183
-638.85203672442 389.250097427815 2388.88551251651 181 183 182
-648.3978106081 387.335788904825 2394.75358785805 164 166 165
-657.45685401383 386.015874243763 2397.65753740732 172 174 173
-665.612242645504 385.881318033288 2394.62477327286 185 187 186
-673.923070091711 385.548244490743 2392.58058091106 167 171 172
-681.956333798491 385.608169712328 2388.55485798711 152 156 157
-690.561835280211 384.878862390445 2388.49054998046 131 135 136
-699.162167760013 384.149227419536 2388.42688789754 183 187 188
-708.024409603277 383.026102911063 2390.34719178027 143 147 146
-716.608903290692 382.296163073904 2390.28550708786 141 145 144
-724.5474457272 382.547089510007 2385.26317445661 166 170 169
-732.38229170977 382.992040045108 2379.24558447602 154 158 157
-740.244231857244 383.434605078399 2373.22437931722 139 143 142
-748.613446237614 383.092021404284 2371.17316592456 164 169 165
-757.105424790624 382.552705853246 2370.11483747351 154 159 155
-765.712048341897 381.817474274252 2370.05040504054 162 166 165
-773.977495619273 381.667485867272 2367.00394687789 159 163 162
-782.362908335057 381.321180263684 2364.95048156156 140 144 143
-790.647170196964 381.168619649264 2361.90168222381 167 171 170
-799.149780152652 380.625401818476 2360.84203731307 162 166 165
-807.753391025086 379.887077443842 2360.77798898937 167 171 170
-815.859381937095 380.120169787938 2355.73480674377 164 168 169
-824.178239961481 379.962894363445 2352.68146215702 171 175 176
-831.949658907807 380.968224683059 2343.64701019204 176 180 181
-839.764080402831 381.970156045511 2334.60696044551 182 186 187
-847.358683312629 383.549599398692 2322.56976060701 181 185 186
-855.182242495686 384.737650011396 2312.52039329441 176 180 179
-863.300763984216 385.34203044058 2305.45905506787 169 173 172
-871.371866010279 386.136790079219 2297.39544605483 165 169 168
-879.480451382329 386.928564591666 2289.32716720304 186 190 189
-887.774635958534 387.331472072899 2283.25236520043 185 189 188
-896.024053758834 387.924766434918 2276.17472108279 177 181 180
-904.099374810507 389.092657540372 2266.09398846674 172 176 175
-912.222830230101 390.256705821829 2256.00725908608 169 173 172
-921.027352812487 389.496268060062 2255.91843667231 158 162 161
-929.704729255621 389.119298808521 2253.8286167605 144 148 147
-937.981778292744 390.083518982709 2244.73117341155 191 195 194
-946.135894131151 391.618954540285 2232.62402529159 182 186 185
-954.768739064147 391.61882467418 2228.52363632823 188 190 189
-963.267767325816 392.190722975517 2221.41489864645 182 184 183
-971.421911070341 394.288169481848 2206.28296544482 180 181 183
-979.606601868673 396.570851620381 2190.13928551058 152 153 155
-987.913269237024 398.657031223375 2174.98858820213 173 174 176
-996.021887490541 402.071031178687 2152.80457899116 179 180 182
-1004.5334487844 403.954649546205 2138.63653266813 155 156 158
-1013.28233825078 404.882241335837 2129.48030288265 149 151 150
-1022.0118432018 406.186498827848 2118.30988576924 171 173 170
-1030.87903810358 406.917165010171 2110.1470978596 183 185 182
-607.972902057888 388.209698521589 2362.50901045639 173 178 172
-618.139295710629 385.720894383895 2371.32445059689 180 185 181
-628.252097858043 383.23466822198 2380.14657185141 180 184 183
-639.088003616142 379.775145180748 2393.9199332214 181 182 184
-648.31680985429 378.270673995223 2397.81087049404 167 168 170
-657.219118689466 377.156881705662 2399.72614967698 160 161 163
-665.222134651906 377.21192304836 2395.70397408548 158 159 161
-673.675263394366 376.681592172182 2394.65047020029 171 175 176
-681.419576867428 377.122515708211 2388.64418874662 174 178 179
-689.747613443853 376.784225014036 2386.5978625263 124 128 129
-698.081331365486 376.44497766753 2384.55107009573 127 131 130
-706.420653123946 376.104716380341 2382.50358100964 109 113 112
-714.896569605957 375.569708795985 2381.44724566522 145 149 148
-722.987696072655 375.614657829445 2377.41410098142 163 167 166
-731.346367612998 375.271250236055 2375.36396517389 150 155 151
-739.956406495223 374.540402193569 2375.29933525265 159 164 160
-748.320657661836 374.195384979924 2373.24850737962 163 168 164
-756.925401829071 373.46350063075 2373.18454093659 157 162 158
-765.295124686108 373.116820950792 2371.13303460699 156 160 159
-773.670267338228 372.76902211417 2369.081095135 161 165 164
-781.941398009503 372.612639700963 2366.03394455679 138 142 141
-789.903167412012 373.031346435423 2360.00034412713 159 163 162
-798.515816581785 372.29579071214 2359.9351605862 160 164 163
-806.81910217295 372.135269569259 2356.88400816328 160 164 163
-815.2316169772 371.781981854169 2354.82717905367 156 160 161
-823.265866821395 372.193386173739 2348.78479299278 163 167 168
-831.326912017892 372.602483749769 2342.73882883632 166 170 171
-839.233840080636 373.391517498028 2334.69572284225 185 189 190
-846.915010223423 374.750137718117 2323.6559885529 175 179 180
-854.82011023273 375.723242076453 2314.6049388475 185 189 188
-862.850508219225 376.502260083009 2306.54645091299 167 171 170
-870.918393218043 377.278233007614 2298.48329284008 165 169 168
-878.715870820754 378.812200979822 2286.42065492834 188 192 191
-886.64668914592 380.151572735105 2275.34981671189 181 185 184
-894.77425060811 381.106981412762 2266.27105173329 177 181 180
-902.944589569967 382.059005470171 2257.18671702017 173 177 176
-911.488468236527 382.059882430966 2253.09718760071 162 166 165
-920.365300283755 381.112138154735 2254.00752175645 161 165 164
-928.987825163741 380.921363249123 2250.91636956107 144 148 147
-937.214254341392 382.052456806103 2240.81711671801 191 195 194
-945.433347518831 383.368566579016 2229.71036476386 186 190 189
-954.074416563544 383.359907512145 2225.60873167258 183 185 184
-962.631137284231 383.726558273431 2219.50102192328 188 190 189
-970.88348632824 385.409112202164 2206.37354035082 181 182 184
-979.244538806049 386.898758895046 2194.24092861374 160 161 163
-987.287621647649 390.075409990212 2173.07365025145 163 164 166
-995.35966281713 393.6201526295 2149.88617423992 169 170 172
-1003.80487000348 395.843118956116 2133.71014066007 158 159 161
-1012.6678255027 396.186080250958 2127.56427700622 154 156 155
-1021.4948107809 396.901092748446 2119.40654824331 169 171 168
-1030.35883301935 397.613208279268 2111.24420511578 184 186 183
-607.261486098748 379.821479668253 2361.61219393984 176 181 175
-617.111079160392 377.745189724349 2368.45046811463 179 184 180
-627.86717245778 374.514656990242 2381.22525920311 163 167 166
-638.237036103074 371.673352886276 2392.03185025268 172 173 175
-647.472720779196 370.182000442414 2395.92189458918 186 187 191
-656.831896728763 368.499426468901 2400.80495888686 172 173 177
-665.127123772886 368.162332601244 2398.76296421914 158 159 161
-673.428094848314 367.824215861712 2396.72025542397 157 161 162
-681.166725170308 368.251822561169 2390.71447799464 171 175 174
-688.793348624621 368.868667505567 2383.71449290983 153 157 156
-697.135632109002 368.52612726271 2381.6666402194 109 113 112
-705.215735907826 368.564910451268 2377.63488733692 109 113 112
-713.836984730467 367.837944376155 2377.56860798963 120 124 123
-721.810571083276 368.064839713489 2372.54196536985 152 157 153
-730.183261023142 367.717794350637 2370.49032999761 146 151 147
-738.807593388515 366.988720726002 2370.42367139257 154 159 155
-747.306229633412 366.449757430279 2369.36451117329 154 159 155
-755.922605511868 365.719998739569 2369.29908756362 150 155 151
-764.303611098982 365.369793341914 2367.24618250086 143 147 146
-772.577779522562 365.208260464494 2364.19866639267 143 147 146
-781.081842103651 364.666323703552 2363.13883682923 129 133 132
-789.051526813654 365.070969249857 2357.10428564562 151 155 154
-797.673099681663 364.337592256624 2357.03798274231 158 162 161
-805.57899996112 364.927570395054 2350.00345658231 155 159 158
-814.109674154632 364.381310545209 2348.94031743166 152 156 157
-822.063883851674 364.966954426549 2341.89953368732 149 153 154
-830.143658215196 365.361242187314 2335.85127124266 152 156 157
-838.068977623777 366.130052921962 2327.80592337395 182 186 187
-846.031865186912 366.895753683242 2319.75589541165 179 183 184
-854.202779958939 367.282264444552 2313.69627966327 176 180 179
-862.400419959026 367.666358493031 2307.63357539751 163 167 166
-870.624740942236 368.048153083942 2301.56730728958 160 164 163
-878.335815358141 369.740287662781 2288.50758862916 188 192 191
-886.260207479775 371.05289520664 2277.43762284752 182 186 185
-894.094752108841 372.735787909951 2264.36227990385 177 181 180
-902.614942436412 372.730768402057 2260.2757221772 174 178 177
-911.018198186267 373.097642715905 2254.187403629 163 167 166
-919.766111478708 372.52894349296 2253.0972134164 158 162 161
-928.330683644439 372.519066052715 2249.00512989192 141 145 144
-936.619839112488 373.439154162312 2239.90605168344 183 187 186
-944.896164154752 374.541926023411 2229.80064671564 189 193 192
-953.220450180006 375.640923324432 2219.68902617213 178 180 179
-961.843302955422 375.807226118365 2214.58151850954 184 186 185
-970.202653175957 377.08525628283 2203.4573635869 176 177 179
-978.615299111764 378.359055093658 2192.32656881719 153 154 156
-986.661128108988 381.481420432888 2171.15885044177 156 157 159
-994.499682389934 386.076616917288 2141.95138302287 167 168 170
-1003.00126026518 388.072681030219 2126.7765993514 139 140 142
-1011.95072639025 388.031535027992 2122.63656568091 146 148 147
-1020.8218975654 388.542339597529 2115.48154765179 163 165 162
-1029.72463064557 389.050357104072 2108.32259822314 189 191 188
-1038.78794235538 388.634829071921 2106.1849576836 196 198 193
-593.489290798859 377.102449847066 2335.1206417931 170 176 166
-604.42038787261 373.900364181452 2347.87351853056 178 183 177
-616.242887371814 369.561361423478 2366.56475067257 172 177 173
-627.482617471356 365.798446885208 2382.30413058796 163 167 166
-637.852397738487 362.989753905987 2393.11040589365 168 169 171
-647.086895944343 361.511917044233 2397.00080297057 188 189 193
-655.693589436454 360.793044890282 2396.93631872743 188 189 193
-664.295206182849 360.073898932248 2396.87246875319 164 165 167
-672.74688499628 359.543600702678 2395.8191457246 151 155 156
-681.198858680069 359.012567021868 2394.76578783471 149 153 152
-688.674815023064 359.802539488824 2386.7764620913 166 170 169
-696.735904792926 359.834949261741 2382.7470988314 129 133 132
-704.54532735718 360.242520822967 2376.73277997931 103 107 106
-713.170071054401 359.51813904732 2376.66605768667 125 129 128
-721.146320583984 359.733935563828 2371.63911194652 144 149 145
-729.270257096396 359.75983330647 2367.60192293389 138 143 139
-737.657031558295 359.408426791578 2365.54854138151 149 154 150
-746.169820043703 358.868502194717 2364.48761757782 149 154 150
-755.036188931451 357.765659203955 2366.40735301915 145 150 146
-763.195518026596 357.786734181679 2362.36575992201 139 143 142
-771.48348386584 357.619004550696 2359.31629802811 136 140 139
-779.562784203651 357.823816697047 2354.27652108328 127 131 130
-788.09174726158 357.279517244319 2353.21359030959 148 152 151
-796.51630978921 356.921224248342 2351.15551116531 155 159 158
-804.438036557797 357.493947208402 2344.11881512519 150 154 153
-812.886638256543 357.132866109331 2342.05750310809 146 150 151
-821.148076952837 357.142780292309 2338.00343699669 145 149 150
-829.612523833953 356.779435598142 2335.94015355561 151 155 156
-837.446499473235 357.71484739714 2326.89807901312 183 187 188
-845.323429722937 358.646923015113 2317.85041250617 178 182 183
-853.414192606299 359.204878521509 2310.79290091656 172 176 175
-861.619741032884 359.575028760687 2304.7290061777 162 166 165
-869.851970369604 359.942645665954 2298.66202875918 157 161 160
-877.878963014783 360.86247394942 2289.59566760535 188 192 191
-885.799644324525 362.148263740206 2278.52623553469 181 185 184
-893.84581014719 363.245330293119 2268.44932783279 175 179 178
-902.078555548586 363.970070128774 2260.3657310768 176 180 179
-910.2821774291 364.875901399253 2251.277604768 166 170 169
-919.038801248739 364.306706987924 2250.18632883716 158 162 161
-927.733772707058 363.92061405917 2248.09433719835 142 146 145
-936.083350746586 364.635283208772 2239.99618694062 179 183 182
-944.414467378144 365.530245111027 2230.89217866472 193 197 196
-952.629263760941 366.971577241063 2218.77794605833 181 183 182
-961.254753947318 367.126959518288 2213.6698977525 186 188 187
-969.615750214723 368.377711222649 2202.54560924979 177 178 180
-977.940314645758 369.9897935426 2189.40954147717 152 153 155
-985.90723803524 373.4225050696 2166.23547857309 153 154 156
-993.794764415877 377.758662355945 2138.03026899437 164 165 167
-1002.30547357237 379.716338102274 2122.85420661864 135 136 138
-1011.40211382809 378.938186601028 2122.72897629473 167 169 168
-1020.27292457378 379.4327696957 2115.57404596375 159 161 158
-1029.20395203973 379.743086096447 2109.41977330005 155 157 154
-1038.26500858125 379.325133677193 2107.28242057671 188 190 185
-606.329443336412 362.461077307094 2362.78191246631 179 184 180
-616.019057220818 360.615483089194 2368.63185646945 168 173 169
-626.781193415745 357.460651460751 2381.40569408388 148 152 153
-636.221252502173 355.806846972397 2386.27858888084 156 157 161
-645.782425328087 353.967404632558 2392.14454536799 141 142 146
-654.553882323309 353.063520555502 2393.06791420298 140 141 145
-663.462604983464 351.973089100992 2394.98233145856 185 186 188
-672.210364930441 351.06945799199 2395.90841661015 198 202 203
-680.520623389396 350.724657929214 2393.86456640472 183 187 186
-688.277995839358 351.123182887661 2387.85676692308 156 160 159
-696.336492527772 351.147516192219 2383.8277485335 153 157 156
-704.41141387602 351.170205929756 2379.79668477175 76 81 77
-712.765792060385 350.820144073483 2377.74710227342 107 112 108
-720.739281454086 351.025187265307 2372.72052930041 131 136 132
-728.608413554769 351.413546660769 2366.69880964573 122 127 123
-736.381245754063 351.98446756512 2359.68069951326 140 145 141
-744.548744067347 351.998154064654 2355.63810640329 142 147 143
-753.086551479961 351.455978674423 2354.57406631278 139 144 138
-761.509079297028 351.097695856802 2352.51624106154 126 130 129
-769.936980842569 350.738470976025 2350.4575074129 121 125 124
-778.260386685793 350.562394453664 2347.40388506601 129 133 132
-786.59450835894 350.384916101239 2344.34868886982 144 148 147
-795.148363131224 349.838553125905 2343.28265719156 154 158 157
-802.989559551869 350.577188273313 2335.24788684074 147 151 150
-811.760255590311 349.661288790738 2336.17138228077 145 149 150
-820.038027519017 349.662097453229 2332.11506158886 141 145 146
-828.893895607363 348.562192866962 2334.03609972968 144 148 149
-836.641590915321 349.658684825637 2323.99644089665 178 182 183
-844.525939436716 350.568608701341 2314.94790696907 181 185 186
-852.538854150332 351.292422465436 2306.89174622206 167 171 170
-861.086485900994 350.918286479851 2304.81835048827 164 168 167
-869.318547710979 351.272416842085 2298.75142949243 155 159 158
-877.499765880009 351.806332332914 2291.68245265772 188 192 191
-885.339222789282 353.247326027685 2279.61482082115 180 184 183
-893.598026990927 353.774868014215 2272.5364187614 168 172 171
-901.750082428089 354.663019369728 2263.45453393055 173 177 176
-909.944885823291 355.547673550357 2254.36756388569 164 168 167
-918.694049867015 354.979073813953 2253.27721732473 156 160 159
-927.442638099609 354.409794093716 2252.18694441231 143 147 146
-936.01503624853 354.382636157405 2248.09392975896 172 176 175
-944.267992737442 355.438101194521 2237.99132536056 192 196 195
-952.303234193811 357.39256531627 2222.87484726931 181 183 182
-960.766564556306 358.07890585617 2214.76257599656 185 187 186
-968.885120785497 360.20377233488 2198.62732459874 179 180 182
-977.174084647305 361.962717339419 2184.48738544211 154 155 157
-985.278492313482 364.795513172569 2164.32104673304 154 155 157
-993.326202645843 368.339605905179 2140.12892167946 158 159 161
-1001.75590746206 370.618630979574 2122.94674770811 144 145 147
-1010.64792295554 370.919192121349 2116.7976094668 139 141 140
-1019.53451777258 371.396525243795 2109.64075480422 130 132 129
-1028.6257050446 370.797476946875 2108.50780595159 154 156 153
-1037.76831553599 369.840385776765 2109.38499714348 185 187 182
-1047.39158444284 365.133223876203 2131.37495135901 197 199 194
-596.887028506347 354.778326247254 2361.96488780046 174 179 172
-606.930559722973 352.580800476754 2369.78720627722 180 185 181
-615.473012150371 352.048302778526 2368.72256103048 166 171 167
-625.444516173004 349.854230832022 2376.55385897971 147 151 152
-635.055738590006 348.031188925033 2382.41352638383 157 158 162
-644.476224411969 346.39421885814 2387.28881947563 152 153 157
-652.65961578062 346.231060944396 2384.25239581797 124 125 129
-661.445887245519 345.330951153783 2385.17390595527 143 144 146
-670.947753338574 343.512427262384 2391.04720848408 172 176 177
-679.842001695469 342.429726233981 2392.96341168934 186 190 189
-688.021234248394 342.264384650785 2389.92751277791 172 176 175
-695.526004057944 343.013702109592 2381.93469834773 158 162 161
-703.740845502151 342.84477814742 2378.89436509126 71 76 72
-711.966714151319 342.67461669316 2375.85289923242 96 101 97
-719.945559931481 342.868389491244 2370.82568749423 124 129 125
-727.567247293201 343.607807517174 2362.81806824582 118 123 119
-735.474115704596 343.979429566922 2356.79168339986 135 140 134
-743.528970182063 344.166568508979 2351.75500369563 134 139 133
-751.960026935013 343.805709290767 2349.69588059973 132 137 131
-760.281069537465 343.625602766949 2346.64256378418 121 125 124
-768.951216414052 342.899224381074 2346.57018070118 116 120 119
-777.836069628002 341.809537158784 2348.48757476262 130 134 133
-786.48989892955 341.082944130055 2348.41722858177 141 145 144
-794.928914153296 340.718295694891 2346.35736256328 150 154 153
-802.659506464393 341.619443625755 2337.32827988163 143 147 146
-811.326488385048 340.890041867356 2337.25629972836 141 145 146
-819.601693103589 340.882891857724 2333.20032036797 140 144 145
-828.456007468331 339.791327915098 2335.12153043953 144 148 149
-836.200110988586 340.863502870251 2325.08238387833 177 181 182
-844.257956488051 341.391720970573 2318.02881822729 182 186 187
-852.09075465453 342.456934183369 2307.97886170085 164 168 167
-860.636138606069 342.080370837335 2305.90551260272 164 168 167
-868.383295963094 343.498640117128 2293.84969931729 154 158 157
-876.655285581318 343.836010463175 2287.77759943519 188 192 191
-884.579295878084 345.067240983439 2276.70789560653 181 185 184
-893.134723043141 344.861811156313 2273.62539567124 167 171 170
-901.213859802073 345.907327296174 2263.5445091476 171 175 174
-909.474784197519 346.591691431988 2255.45750214771 164 168 167
-918.093604323162 346.380249773205 2252.36686670893 158 162 161
-926.845535133215 345.810876555984 2251.27617690882 152 156 155
-935.42076727165 345.775475582323 2247.18283029808 164 168 167
-943.843587573414 346.272442423139 2240.08404051724 190 194 193
-951.765113025657 348.544962292497 2222.96530145741 180 182 181
-960.076076156903 349.745390310539 2211.84738931994 182 184 183
-968.152966052286 352.006579240561 2194.70929153573 185 186 188
-976.451187607683 353.729638661268 2180.56829157708 159 160 162
-984.606427246253 356.333197630113 2161.40390012369 155 156 158
-992.778456734782 359.283648082103 2140.22112567352 148 149 151
-1001.1319307293 361.872908667239 2121.03227366748 131 132 134
-1009.96027431646 362.512823559191 2112.87457316252 141 143 142
-1018.92070475714 362.620413792595 2107.72509242048 155 157 154
-1027.98891683871 362.197464133873 2105.58661961936 166 168 165
-1037.14049455925 361.245415585871 2106.4626784745 179 181 176
-1046.28041009648 360.293569982262 2107.33995189798 191 193 188
-595.837187083095 346.732452029923 2359.09378876355 180 185 178
-606.383909050861 344.012225413775 2369.87799008679 176 181 175
-615.088558257005 343.297624024471 2369.80127030273 162 167 163
-624.741676895454 341.491621411159 2375.65566443373 159 163 162
-633.57642156113 340.595709706905 2376.57111434664 148 150 149
-643.168234147751 338.792358474916 2382.43315212815 130 131 133
-651.968608570784 337.897441908537 2383.35288862349 156 158 157
-660.758501349601 337.00253363505 2384.27369287547 168 170 169
-669.974114048467 335.564659591249 2388.16634151135 106 110 109
-678.877599944154 334.489552018945 2390.08137192928 102 107 103
-687.345190255895 333.956747080805 2389.0260698411 156 161 157
-694.577508596199 335.047909029414 2379.05074104315 190 195 191
-702.262442004656 335.594269884141 2372.04366483813 58 63 59
-709.980007292337 336.137954678952 2365.03252341482 87 92 88
-718.376043013563 335.779090116579 2362.97800575252 124 129 125
-726.1452805511 336.318228926472 2355.96042790959 104 109 105
-734.194598926027 336.495448332968 2350.92446520097 123 128 124
-742.144586424165 336.85010956766 2344.89274401361 128 133 129
-750.95008239473 335.947279507006 2345.81162194125 117 122 118
-759.629179864299 335.223737585833 2345.73835467618 115 117 116
-768.528696917127 334.141892851217 2347.65365785557 119 121 120
-777.522246276808 332.881694679459 2350.56586368208 137 139 138
-785.741326310222 332.872506248318 2346.5168937187 145 147 146
-794.291045345439 332.326406743173 2345.45137746213 144 146 145
-802.125748682341 333.027472223013 2337.41751634816 140 142 141
-810.892940321672 332.122603203683 2338.34117979941 142 144 143
-819.068866629295 332.285426405838 2333.28945508119 141 145 146
-827.642247981811 331.735131976623 2332.22099695449 148 152 153
-835.484923820868 332.604892333415 2323.17800956924 178 182 183
-843.54779526426 333.116426371587 2316.12386064699 181 185 186
-851.814629276794 333.270770732536 2311.06081351336 163 167 166
-860.269185471619 333.06907696261 2307.99065157131 163 167 166
-868.251217275317 333.927272045989 2298.93030384227 168 172 171
-876.120497236049 335.135470045531 2287.86725042256 189 193 192
-883.743119216037 337.045748209253 2272.80238116473 182 186 185
-892.092479401865 337.363321284104 2266.72091829736 167 171 170
-900.189662306788 338.383201682071 2256.63784723219 167 171 170
-908.535938505108 338.871306213488 2249.54839277278 160 164 163
-917.299856241832 338.30194574874 2248.4562070415 155 159 158
-926.309505464538 337.029312480697 2251.36619617893 149 153 152
-935.179256785353 336.10841649635 2252.27734326344 159 163 162
-943.363466844142 337.291238869924 2241.17529552389 185 189 188
-951.066382495261 340.221109313328 2220.05111790399 185 187 186
-959.130508469361 342.268639185575 2203.92286274341 185 187 186
-967.419297060082 343.786071513871 2190.79150884155 187 188 190
-975.908276910585 344.774900534129 2180.65962560656 160 161 163
-984.061095965611 347.329701232589 2161.49566463085 154 155 157
-992.150535309113 350.574428440039 2138.30704777877 138 139 141
-1000.43252247637 353.462810095557 2117.11071471633 137 138 140
-1009.236557966 354.256990494985 2107.94771409857 130 132 131
-1018.27413389911 354.005615865081 2104.80516584148 141 143 140
-1027.3217076726 353.753004589554 2101.66113290093 157 159 156
-1036.4320646027 353.152496186624 2100.52579563343 167 169 166
-1045.56527586263 352.378223506622 2100.39575098092 182 184 181
-595.956658179401 337.411250405103 2363.13465546 180 185 179
-605.343794686908 335.980482908424 2367.00563995502 175 180 174
-614.866233560814 334.371358107516 2371.86813657916 162 167 161
-624.197568494372 332.942891325326 2375.74607872186 158 163 159
-633.346022950453 331.694384521271 2378.63892251933 167 169 168
-643.241537677167 329.552570445801 2386.47932559546 133 135 134
-651.428197235947 329.378158227911 2383.44276399354 126 128 127
-659.774250511663 329.023970888991 2381.39447152765 169 171 170
-668.271617875259 328.490523147783 2380.33545513224 172 177 173
-677.912121389893 326.531529744764 2387.1995135501 93 98 94
-686.248293908565 326.176060756625 2385.15245751945 76 81 77
-693.215583143967 327.597545742262 2373.19371842787 139 144 140
-700.242624520694 329.014629455522 2361.22777448164 58 63 59
-707.857494538139 329.717516252298 2353.22134246992 75 80 76
-716.674397326573 328.822022007831 2354.13877757552 121 126 122
-724.467605518544 329.343272372672 2347.11849571396 105 110 106
-732.912966009661 328.977261648596 2345.05760116241 123 128 124
-741.000165636757 329.140481696618 2340.01694796428 126 131 127
-750.057204393565 327.889076653319 2342.92096726424 116 121 117
-758.745207068745 327.167595195898 2342.846583256 116 118 117
-767.65400329009 326.093343769216 2344.76094872205 120 122 121
-776.656941000396 324.843474162933 2347.67171546925 137 139 138
-785.099651105244 324.473869785562 2345.611161134 144 146 145
-793.337711622405 324.454576085913 2341.56008939906 143 145 144
-801.387261628173 324.78491573369 2335.51576718064 139 141 140
-809.862082897614 324.41129736238 2333.45145640134 140 142 141
-818.342113259252 324.036747416191 2331.38625774265 141 143 142
-826.638989964248 324.011315396232 2327.3276219915 145 147 146
-834.860378817866 324.158939601679 2322.27026384232 174 176 175
-843.014359541133 324.479344196699 2316.21317572009 175 177 176
-851.453293280383 324.273867891476 2313.14497332931 165 167 166
-859.819369728336 324.241459396462 2309.07772023164 161 163 162
-867.959307917342 324.729868571989 2302.01401473366 168 170 169
-875.663534912105 326.25945750822 2288.95557864908 183 185 184
-883.206448803659 328.305672154435 2272.89237113864 185 187 186
-891.483031553894 328.783345732622 2265.81164147906 177 179 178
-899.442371360491 330.125688081689 2253.7295490292 174 176 175
-907.796374137067 330.597055949434 2246.6391744139 164 166 165
-916.504556962241 330.200210000762 2244.54580266105 160 162 161
-925.526296655187 328.937795383747 2247.45425606882 152 154 153
-934.289712183409 328.367272468718 2246.36213607147 158 160 159
-942.489100745411 329.521954287051 2235.2582682516 180 182 181
-950.312791882067 332.051738738757 2216.13568664246 179 181 180
-958.334946928117 334.230235469416 2199.00463721083 174 176 175
-966.684084284768 335.542248531777 2186.87373993353 183 185 184
-975.228490816815 336.334158799239 2177.74338572182 170 172 171
-983.387109121324 338.839680080663 2158.57907107839 161 163 162
-991.401366045802 342.367516848723 2133.38323625492 128 130 129
-999.694138309664 345.200804514553 2112.18570236424 127 129 128
-1008.61515847098 345.459026246176 2106.0330560112 127 129 128
-1017.65839546728 345.201973195059 2102.88957597206 141 143 142
-1026.62360960043 345.456122847107 2096.73118492754 131 133 132
-1035.72141523016 345.025437638566 2094.5892796666 166 168 167
-1044.82369947457 344.593869894644 2092.44681782515 192 193 195
-1054.10031361543 342.799251396163 2098.34816751192 195 195 195
-595.742726279911 328.46420149177 2365.20028882755 182 187 181
-605.6199215625 326.516827788492 2372.03501918075 173 178 172
-615.292390800881 324.748113244902 2377.88690027448 160 165 159
-624.290497178266 323.68686529487 2379.79008611686 156 161 157
-633.585899307858 322.273527909857 2383.67247261834 156 158 157
-643.008543702076 320.685153638394 2388.54736835778 160 162 161
-651.341170661252 320.329611911783 2386.50075498355 157 159 158
-659.531081852907 320.148898378719 2383.46356392262 116 118 117
-667.586438034829 320.142376211598 2379.43501870647 112 117 113
-676.80255902465 318.731046162295 2383.32753400798 169 174 170
-684.588650317795 319.073152978004 2377.31605889093 119 124 120
-691.713954261199 320.288257377349 2366.34607136083 80 85 81
-698.488797544683 322.024037001756 2352.39514650619 104 109 105
-706.524062944166 322.182144729041 2347.36098785575 96 101 97
-715.358182194441 321.29087147614 2348.27650360161 104 109 105
-723.674384634358 321.097334690351 2345.2235859091 101 106 102
-731.629213289162 321.424929469564 2339.19109158381 120 125 121
-739.97538551448 321.228231774288 2336.13468243215 120 125 121
-748.807150021095 320.334657418303 2337.05025782722 112 117 113
-757.860129823274 319.093666230279 2339.95499650495 119 121 120
-766.778174328514 318.027067297364 2341.86818768728 122 124 123
-775.348218679267 317.480867396809 2340.80013521588 137 139 138
-783.594577301643 317.453577282314 2336.74780871601 143 145 144
-791.751890683483 317.597755962956 2331.69821561182 142 144 143
-800.135677576101 317.39418283307 2328.63713047827 138 140 139
-808.629885231297 317.016641939071 2326.57041072245 142 144 143
-817.032252933755 316.810628435031 2323.50677297158 142 144 143
-825.350867677691 316.775569914699 2319.44544979273 146 148 147
-833.960437467933 316.222492296764 2318.37248289238 173 175 174
-842.125019790891 316.528664571397 2312.3141092335 174 176 175
-850.316327322927 316.832415126632 2306.25216653529 162 164 163
-858.86852608174 316.447417368389 2304.17822946997 160 162 161
-867.425760511326 316.061439361013 2302.10342629542 166 168 167
-875.362981925262 317.04463080701 2292.04065436644 183 185 184
-882.8205041489 319.221890963324 2274.98007102945 187 189 188
-890.945848874783 320.025564821039 2265.90174200594 180 182 181
-898.833920188656 321.508743225297 2252.8204854577 175 177 176
-907.324929856277 321.622647990187 2247.72956902386 166 168 167
-915.836986879655 321.734552469714 2242.63579100339 161 163 162
-924.803507673638 320.652920880534 2244.54297221944 153 155 154
-933.457200051073 320.421940727304 2241.44827665247 159 161 160
-941.612548457629 321.718588160811 2229.34160355531 179 181 180
-949.611475059705 323.689529707232 2213.22192685228 183 185 184
-957.690799219514 325.654630297599 2197.09199212256 174 176 175
-966.092506659925 326.767159367995 2185.96298711053 181 183 182
-974.456126375474 328.214008164415 2172.82224033717 170 172 171
-982.539863152371 331.007937616936 2151.65089648791 161 163 162
-990.690570698686 333.962981197868 2129.46308369605 124 126 125
-999.029119004085 336.572908255084 2109.26811253642 126 128 127
-1008.06267337292 336.311696771417 2106.12609205177 131 133 132
-1017.10614075058 336.049313768576 2102.98259729864 146 148 147
-1026.15958388812 335.785817475037 2099.83786056147 171 173 172
-1035.11573768381 336.192609328391 2092.67275138624 188 190 189
-1044.10328371191 336.596741868366 2085.50349138047 198 199 201
-1053.2293777223 336.160668692198 2083.35782981714 216 216 216
-597.037311323938 317.958257270092 2376.15191845281 182 187 181
-605.732899138274 317.252773416944 2376.07630546618 172 177 171
-615.234232804654 315.677482011467 2380.9413467964 160 165 159
-624.225325160526 314.624683668622 2382.84538569546 161 166 162
-633.670776124228 313.051815086497 2387.71715420744 158 160 159
-642.622170847337 312.000351266853 2389.62614362196 149 151 150
-650.195960463205 312.508227090268 2382.63327912289 161 163 162
-658.991371306514 311.629092276309 2383.5533532142 154 156 155
-666.900912406241 311.787266311498 2378.53488403848 121 126 122
-676.121155873283 310.389168348296 2382.42660976424 160 165 161
-683.207232001836 311.580135686848 2371.46158119761 165 170 166
-690.761018312003 312.249886107168 2363.4628593349 119 124 120
-698.217813341905 313.088807091812 2354.46810880772 49 54 50
-706.777119643355 312.548307930776 2353.4013813687 95 100 96
-715.206927969566 312.17899047491 2351.34267661228 94 99 95
-723.007402597006 312.667047660869 2344.32133508685 101 106 102
-730.59189177613 313.495561848131 2335.31043622195 110 115 111
-738.462872674591 313.977873213928 2328.28031106213 109 114 110
-747.317264112031 313.08835433816 2329.19329233879 108 113 109
-756.509324239853 311.685783489123 2333.08878722659 125 127 126
-765.674311306445 310.284457068042 2336.98741712648 128 130 129
-774.147759595572 309.907999776038 2334.92328516319 139 141 140
-782.410460660179 309.871546336033 2330.86894335443 143 145 144
-790.373284140406 310.344363748526 2323.82738178537 141 143 142
-798.778963250242 310.133958735373 2320.76334235531 139 141 140
-807.195337502495 309.92227766223 2317.69821186391 141 143 142
-816.205670243442 308.690510551841 2320.60800808273 141 143 142
-825.005127242318 307.798817706835 2321.52785057762 146 148 147
-833.701719540724 307.076667092843 2321.45215612864 169 171 170
-841.590634173497 307.877548472855 2312.40357980562 169 171 170
-849.436104428008 308.844186668321 2302.35206120257 157 159 158
-857.832131922139 308.79350623909 2298.28111850989 158 160 159
-866.649056672095 307.897535321898 2299.19879239887 166 168 167
-874.98497859725 308.013195344055 2294.12698510727 183 185 184
-882.737399729749 309.473780736869 2281.0627163976 188 190 189
-890.700043156347 310.593198771033 2269.98848583693 176 178 177
-898.43552886394 312.38078164385 2254.90961469808 166 168 167
-906.85357186907 312.651994527768 2248.81970270882 163 165 164
-915.298100345912 312.920980131509 2242.726251086 158 160 159
-924.203659530735 312.015002972076 2243.63289027258 152 154 153
-932.741574110782 312.113198797892 2238.5361617519 157 159 158
-941.073802816764 312.878072138219 2229.43211701055 174 176 175
-949.016921430713 314.975484542004 2212.31114439107 186 188 187
-957.148336600964 316.732949719788 2197.18318317861 180 182 181
-965.160492066296 319.151469628581 2178.03737534665 187 189 188
-973.452569545688 320.897263858671 2162.88915489412 178 180 179
-981.560642345164 323.635295771937 2141.7149212573 164 166 165
-989.856853082816 326.03345028628 2122.53371863822 130 132 131
-998.362797777555 327.926999111201 2106.35073261692 126 128 127
-1007.36964443439 327.825760168102 2102.20369644791 171 173 172
-1016.4565465584 327.391768188575 2100.06316058829 176 178 177
-1025.51833288732 327.122365388559 2096.91739822473 138 140 139
-1034.53607847597 327.182109895823 2091.76089089109 111 113 112
-1043.50170507745 327.735102722197 2083.58628718371 87 89 88
-1052.61198321178 327.4607021096 2080.43472675982 148 148 146
-1061.86409904788 326.032504263206 2084.32255426931 208 209 204
-595.317001924352 310.597740693561 2369.33145606037 181 186 180
-604.857279245872 309.036810011953 2374.19159963421 169 174 168
-615.177120855155 306.621475798144 2383.99562426341 162 167 161
-624.161191856841 305.577246974004 2385.90051681844 156 161 157
-633.443252722748 304.191813657145 2389.78449474638 162 164 163
-641.927778155195 303.660796519847 2388.72707454714 159 161 160
-650.412690714201 303.12909777625 2387.66960783178 150 152 151
-659.046732739344 302.426459743647 2387.60166790142 157 159 158
-666.945356575241 302.574340387827 2382.58458824296 150 155 151
-675.152680382022 302.38027702572 2379.54549961564 109 114 110
-681.823749185176 304.05285243739 2365.60769164869 155 160 156
-690.082948191366 303.85434710181 2362.56190073221 169 174 170
-697.676936926577 304.501887795669 2354.55822033306 56 61 57
-706.236840853234 303.961231118093 2353.49141872876 88 93 89
-713.887991604853 304.603995541781 2345.48061742603 89 94 90
-721.577138473114 305.243622728458 2337.46508269439 104 109 105
-729.179815004371 306.049119954643 2328.45197476981 108 113 109
-737.434528563435 306.008098978244 2324.39864178297 111 116 112
-746.657778257213 304.617874500985 2328.2902118836 114 119 115
-756.086643443975 302.892210864242 2334.17237994976 126 128 127
-765.364023045617 301.336382448769 2339.06531816817 129 131 130
-773.832483148714 300.957612652498 2337.00157452217 139 141 140
-781.657041929993 301.584313325296 2328.96917522584 142 144 143
-789.624874752171 302.040447733281 2321.92703245461 141 143 142
-797.933474816643 301.991636661066 2317.86723553415 139 141 140
-806.658502515972 301.272213435444 2317.78798533276 141 143 142
-815.572736507662 300.218398914483 2319.70161837735 142 144 143
-824.470538024005 299.165093736784 2321.61730075639 149 151 150
-832.891949084201 298.945803178725 2318.5513214717 169 171 170
-840.698963674127 299.891062066031 2308.50465820988 168 170 169
-848.381209284096 301.165295837705 2296.45732483911 162 164 163
-857.129068810976 300.440715317708 2296.37523894217 161 163 162
-865.789989442653 299.881977468762 2295.29587866641 162 164 163
-874.450537199251 299.322606429984 2294.21656659074 179 181 180
-882.504598693557 300.08800313072 2285.14747436338 188 190 189
-890.382314722259 301.34649959427 2273.0757888836 181 183 182
-898.178323601871 302.931225152526 2258.99782639514 164 166 165
-906.314715736118 303.850304969114 2248.91012770471 164 166 165
-914.759039792942 304.105806380137 2242.81673710243 159 161 160
-923.603273745108 303.370131818053 2242.72289373148 154 156 155
-932.322447264389 302.963505421978 2240.62793589271 158 160 159
-940.819085270775 303.2137655279 2234.52827089033 173 175 174
-948.746618180653 305.268693074533 2217.40935515694 188 190 189
-956.502775703249 308.137788478868 2195.27100621695 181 183 182
-964.469198194866 310.67114852541 2175.12267579539 185 187 186
-972.537560218881 313.197238050171 2154.96164306951 180 182 181
-980.664505122675 315.879660784943 2133.78520075044 170 172 171
-988.898716948986 318.554473612608 2112.59539219401 134 136 135
-997.429751819236 320.405633792044 2096.40938669613 93 95 94
-1006.60463936348 319.642504423832 2096.27435201295 109 111 110
-1015.74068941991 319.042031442676 2095.1358083019 98 100 99
-1024.81619060228 318.766379930479 2091.98835086147 90 92 91
-1033.90157528832 318.489561282642 2088.83966309183 100 102 101
-1042.97241303383 318.373854078475 2084.68467931491 113 115 114
-1052.1019582417 317.93230799219 2082.538841744 167 167 165
-1061.27389302621 317.166019785066 2082.40394359772 185 186 181
-580.931150307974 307.786325435811 2339.89366659321 183 190 182
-594.097944776637 302.691297891632 2365.47341985961 181 186 180
-604.476510083222 300.302680959312 2375.27004575955 169 174 168
-615.608424867357 297.075001902906 2390.01330322964 163 168 162
-624.577354280194 296.039800180832 2391.92006159289 157 162 158
-633.687611273884 294.836846197161 2394.81755224611 157 159 158
-642.004791706132 294.474522114088 2392.77264409948 158 160 159
-650.32784161634 294.111169671356 2390.72724645358 160 162 161
-658.507656080105 293.914436866172 2387.69135759078 162 164 163
-665.96743903616 294.553745302399 2379.70444695881 162 167 163
-674.039546110925 294.520893519945 2375.67388066837 170 175 171
-681.142306457129 295.65609244998 2364.70691687413 120 125 121
-688.851934474407 296.11965793494 2357.69697696659 86 91 87
-696.188000839319 297.080707549258 2347.70928394346 75 80 76
-703.971097681266 297.538398204578 2340.69019103209 109 114 110
-711.916827942732 297.826917068016 2334.65893503754 83 88 84
-719.762476896288 298.279430854859 2327.63228989429 110 115 111
-728.01450357194 298.231056052131 2323.57931158065 106 111 107
-736.160918571537 298.34690403684 2318.53115313802 117 122 118
-745.640265909634 296.637556058073 2324.40721863218 125 130 126
-755.431232462123 294.433475594913 2333.26876004562 125 127 126
-764.940508969609 292.563049009594 2340.14896158061 128 130 129
-773.295622708595 292.346847249749 2337.09124767542 137 139 138
-780.794468914867 293.449706296338 2326.07493987341 139 141 140
-788.770037502128 293.888986514901 2319.03211637808 139 141 140
-797.292757092501 293.502161469072 2316.96162268206 138 140 139
-806.221807117354 292.456182244025 2318.87338613934 140 142 141
-815.134461583134 291.410769732652 2320.78719417303 143 145 144
-824.030665057948 290.365688577515 2322.70305432053 152 154 153
-832.265355717356 290.469166792212 2317.64415244153 170 172 171
-840.074161272617 291.389825485926 2307.59733046156 167 169 168
-848.018114760771 292.143065874894 2298.54201107563 155 157 156
-856.677301638054 291.585035697976 2297.46286529854 158 160 159
-865.092119799193 291.516376259389 2293.3896249888 163 165 164
-873.365524364427 291.772434283738 2287.31756266279 181 183 182
-881.437769544531 292.514873979156 2278.2462616754 190 192 191
-889.406401986876 293.579623005893 2267.17142768986 179 181 180
-897.640203118685 294.152481772775 2259.08809915834 166 168 167
-905.911314165564 294.722304235929 2250.99988229725 168 170 169
-914.675553034801 294.153341368542 2249.90765544348 161 163 162
-923.31441575893 293.907897623741 2246.81484861892 155 157 156
-932.023199127435 293.499307867332 2244.72143284872 157 159 158
-940.451770475223 293.898498934071 2237.62194259161 170 172 171
-948.369137327351 295.910656083167 2220.50440815645 184 186 185
-956.01109407901 299.046118699055 2196.36399486382 183 185 184
-963.825590119768 302.011838184507 2173.21018379864 183 185 184
-971.758210753349 304.969196344744 2150.04165350187 180 182 181
-979.852520347885 307.757445384419 2127.86131808846 171 173 172
-988.059435300051 310.537684705837 2105.66695128543 110 112 111
-996.721785713723 311.865527692442 2092.48923808458 64 66 65
-1005.80202243019 311.585513390471 2089.34120116675 93 95 94
-1014.95753005026 310.983920295221 2088.20023221657 89 91 90
-1024.11214462294 310.381786870293 2087.05937613637 133 135 134
-1033.26584405826 309.779233967329 2085.91863536458 158 160 159
-1042.44315941048 309.016547155737 2085.78329653986 155 157 156
-1051.61419166609 308.253840054226 2085.64850159314 181 181 179
-1060.87470472413 306.694666692159 2090.54355346527 183 184 179
-578.499394426812 300.947873823775 2329.12986528337 183 190 182
-593.045534736859 294.595480390622 2362.60277289471 175 180 174
-604.26140976357 291.406470344458 2377.33569105818 168 173 167
-615.228633140075 288.38811055828 2391.091502978 159 164 158
-623.716121448064 287.857800501689 2390.03371116734 160 165 161
-632.990227469659 286.499928107155 2393.91860923211 160 162 161
-641.465072012578 285.969288809313 2392.86239615563 158 160 159
-650.092172984538 285.272948240363 2392.79554611226 160 162 161
-657.819447057684 285.565828466038 2386.79154067301 157 159 158
-665.281292300383 286.185715254675 2378.80442382608 140 145 141
-672.637583930599 286.967312799692 2369.8221262195 167 172 168
-679.755452659785 288.074315919355 2358.85335124105 172 177 173
-686.92766125314 289.177200333678 2347.87780581526 125 130 126
-694.018610447614 290.440190605238 2335.90429235079 37 42 38
-701.56796376552 291.20722207328 2326.89818041494 111 116 112
-709.811705185948 291.152327870177 2322.84625322079 87 92 88
-718.199295046644 290.932265529219 2319.78449665431 107 112 108
-726.722620524083 290.547554387715 2317.71416204901 103 108 104
-735.251440980173 290.161776518227 2315.64314451206 124 129 125
-744.621283634488 288.634096821312 2320.52422949074 128 133 129
-754.542053909579 286.293516272702 2330.37785900204 121 123 122
-763.947450730132 284.60685324231 2336.26285307485 127 129 128
-772.09115746416 284.709498491904 2331.21530764543 135 137 136
-779.496579953402 285.946540008789 2319.20237783929 137 139 138
-788.019877927096 285.557470899398 2317.13205814286 140 142 141
-796.754734543665 284.84363262333 2317.05156664293 139 141 140
-805.885781994062 283.48221527998 2320.95456717588 148 150 149
-814.598655241897 282.768463582441 2320.87681884241 152 154 153
-823.11587966145 282.377392505617 2318.80726236173 151 153 152
-830.992022777521 283.114465588647 2309.76020761664 171 173 172
-839.180037260607 283.364857627444 2303.69905665797 171 173 172
-847.394773286435 283.612887902601 2297.63433695962 156 158 157
-856.057265847893 283.054766579013 2296.55477889272 162 164 163
-864.311908865 283.299002887635 2290.48532929781 155 157 156
-872.671975921753 283.38039946887 2285.41083933682 175 177 176
-880.67279668217 284.261174316961 2275.34016002712 187 189 188
-888.86864601335 284.818116118343 2267.26160957272 185 187 186
-897.172542519617 285.212110805747 2260.17769168324 164 166 165
-905.57636601229 285.443735403989 2254.08941819068 162 164 163
-914.071970463892 285.513511365661 2248.99804456659 158 160 159
-922.651213540283 285.422014622482 2244.90434514072 156 158 157
-931.186212134041 285.487967062972 2239.8080654297 162 164 163
-939.742239715385 285.55210205872 2234.70916621152 167 169 168
-947.883494829895 286.884893209708 2221.59646959251 190 192 191
-955.623058110035 289.640976375341 2199.46048912958 186 188 187
-963.573587803882 292.072089213924 2179.31441129961 182 184 183
-971.255154628964 295.762452358998 2151.13660493169 180 182 181
-979.081914671874 299.442789474279 2122.94070571175 175 177 176
-987.381369075211 301.849344640762 2102.75114881261 77 79 78
-996.126945512709 302.828764560493 2091.57958152088 74 76 75
-1005.13904574786 302.858350668939 2086.42385811505 112 114 113
-1014.27036443253 302.41388215508 2084.27756665208 136 138 137
-1023.46651901273 301.653936841228 2084.13986958345 147 149 148
