ply
format ascii 1.0
comment KinectMotionCapture
element vertex 766
property float x
property float y
property float z
property uchar red
property uchar green
property uchar blue
end_header
-943.704670783772 687.697762564716 2555.21063327499 19 15 3
-868.246589932614 666.673476260153 2577.40111140664 12 14 3
-970.281303984047 703.472608688587 2383.28836932736 90 78 62
-955.017793358905 698.666387234479 2393.72289037736 71 56 37
-950.385223901944 696.638180262392 2402.51866497318 81 66 47
-945.74230783998 694.610967744475 2411.27665249879 85 68 50
-937.208026713963 691.576376191876 2420.5369684024 82 63 46
-930.599444107198 689.047464123818 2429.47364426672 71 52 35
-923.977614233497 686.519910869169 2438.36199350894 78 57 40
-923.177115969366 685.504727469861 2446.43885687005 87 64 48
-922.371976776197 684.489878634795 2454.49870059758 89 66 50
-921.562239584224 683.475388282074 2462.54169918373 94 68 53
-919.773381780711 682.209622335037 2470.6870929701 99 76 60
-919.929149450344 681.447382896035 2478.57683048824 102 81 64
-926.913638673017 682.444992382624 2485.6561775098 97 81 65
-935.858594790163 683.944122938554 2492.53741822668 70 57 41
-946.76832223274 685.94430561808 2499.23623807958 21 13 2
-970.407054138292 691.207352037748 2504.5994769535 20 16 5
-961.773162625613 688.182020897474 2513.4967345766 20 17 8
-966.837998368743 688.671807600605 2520.92081251839 19 19 11
-942.496626852914 681.635147489813 2531.31157459411 22 19 10
-940.680452856194 680.370807805117 2539.35644917631 24 20 9
-959.475445645787 684.371319239167 2545.42219553066 26 20 8
-965.5220864461 685.111031271951 2552.75299260633 28 22 8
-792.671860723788 638.76227092019 2590.91320749781 19 22 13
-942.665750758966 687.168005876431 2395.15490256637 132 117 98
-940.927961956326 685.908955501685 2403.49414540451 94 77 59
-937.244174772867 684.151332013334 2412.08707448771 91 72 55
-928.698256776662 681.147460534843 2421.32358001966 93 72 55
-925.964329211334 679.64129078593 2429.70558604061 93 70 52
-927.11151328446 679.132717453564 2437.54008946847 101 78 60
-925.338489462701 677.876702389674 2445.75042792286 100 74 57
-919.665023527028 675.624835560924 2454.43760018539 102 75 58
-914.954176979144 673.623213826349 2462.95953181171 110 83 66
-914.132859745457 672.618178941818 2470.96550566022 111 84 67
-918.185562497691 672.857475361465 2478.36990611208 105 82 64
-929.07556406483 674.837172340267 2484.98348307915 103 86 68
-937.046990574483 676.069245878801 2491.97791373411 74 61 44
-953.82760926798 679.536872094462 2498.02088881477 22 14 1
-959.864878690346 680.268771949063 2505.31195960053 25 19 7
-963.94911025441 680.503122160236 2512.83029757414 27 20 10
-955.295331606585 677.509436395228 2521.67369739551 26 22 11
-960.355987091163 677.992110285177 2529.07776419872 30 23 13
-961.494828767367 677.481671239325 2536.88011602804 31 21 9
-968.52479126879 678.459262200111 2544.11565777188 31 21 9
-970.647218080283 678.196347485972 2551.8298219518 34 26 13
-959.982213153694 674.711553027052 2560.68851323881 31 29 17
-872.519832173711 651.906071497426 2576.1498862403 20 20 12
-925.268588625574 675.261549875689 2389.28762795314 131 117 104
-926.426595690993 674.755876853594 2397.1650751567 99 80 65
-931.461600785593 675.237820289984 2404.47344591912 94 73 56
-932.619326176363 674.731753734064 2412.34866984076 89 63 46
-930.862097825897 673.485436240852 2420.6237763227 94 67 48
-929.098831721157 672.239614861699 2428.87677902683 113 82 62
-925.384405688024 670.501131836056 2437.36803635238 112 81 61
-922.634219192666 669.009955485321 2445.69914219949 118 86 65
-918.902861641526 667.273148979395 2454.12766556144 119 86 67
-918.086384711851 666.276045949617 2462.15661826792 120 85 66
-917.265290528142 665.279274745948 2470.16863751277 121 88 69
-921.320012466567 665.51339147278 2477.57819364283 118 89 73
-930.26157097756 666.97709981383 2484.42445598187 102 81 62
-939.21313822935 668.439484431883 2491.30611406193 84 67 47
-950.130633155009 670.392028612442 2498.00462562529 31 20 0
-953.229149814334 670.376876804163 2505.60199522325 37 26 8
-951.429889006597 669.132900599349 2513.72345061891 65 49 33
-957.468355174381 669.854213463898 2521.01135159206 52 33 18
-963.512011645323 670.574630074925 2528.31888631852 56 34 21
-968.579296880384 671.048796504161 2535.74219692055 37 19 5
-967.754976613623 670.050376589282 2543.74119744137 47 29 15
-970.859169718269 670.033261390797 2551.35933200897 37 23 10
-966.092362151457 668.054777432606 2559.6880993208 43 34 27
-875.642216601071 644.758113566993 2575.43720044289 18 15 10
-898.385158352321 649.648526600458 2581.1356052158 28 25 20
-988.218158567358 671.186261399071 2581.46812865516 20 19 14
-940.78942777832 671.75400313378 2378.45688869016 106 102 90
-929.368833451199 668.072895766235 2388.28260331534 123 109 96
-927.620669717093 666.837047163638 2396.59890347319 109 87 73
-926.836887395579 665.846019146542 2404.75215127427 110 89 72
-927.018977073269 665.099329078008 2412.75036333035 104 78 61
-929.140948625971 664.840886146052 2420.46566047278 90 63 44
-930.290515255496 664.33833379621 2428.31281119874 119 88 68
-924.627749761046 662.128554204357 2437.06628378038 120 89 69
-918.953395088197 659.920093212736 2445.7766314867 124 93 72
-916.190062132269 658.443839119514 2454.06834823454 122 91 71
-917.319751556861 657.942748054985 2461.84262137346 119 86 67
-918.447672619571 657.441659327958 2469.61033040707 119 88 68
-925.432775132226 658.401100946885 2476.66785726062 118 86 71
-933.402173317365 659.602879531435 2483.63563049622 105 82 64
-939.423872147774 660.316881862024 2490.85759116608 92 74 54
-944.472408454876 660.786862394965 2498.2086479175 37 22 3
-947.566058621708 660.769984511185 2505.78778845144 47 32 13
-950.66104363832 660.752843849628 2513.37079009434 90 71 56
-955.718678101761 661.221107821797 2520.75454277045 82 59 45
-963.724762887335 662.417105471218 2527.85580540579 77 51 38
-969.774935716181 663.12652203482 2535.17966021538 52 26 13
-973.864233366615 663.349765706819 2542.71072450987 60 34 21
-977.956282895176 663.572553831436 2550.25078935721 87 69 57
-976.144228801591 662.340173490248 2558.33113778867 59 48 42
-891.573408621587 640.749491628683 2573.60630907204 26 21 17
-982.360288632895 662.299827741798 2573.59203666562 24 21 16
-941.022582172708 663.543508136875 2378.03518892755 119 113 101
-932.502380296306 660.625485597779 2387.42230292069 115 99 86
-925.905830892799 658.19251090097 2396.46329652157 90 68 54
-925.118455949592 657.210108521173 2404.60958042078 83 60 44
-926.268668488461 656.710839224149 2412.46213105172 101 75 58
-928.389212905755 656.452965712299 2420.17248902214 81 52 34
-926.619120806147 655.22979837412 2428.4144507207 125 94 74
-917.056508778312 652.07766185798 2437.67888418108 126 95 75
-918.190469859757 651.579463393655 2445.47177240352 125 94 73
-921.272514442109 651.563342785201 2453.0073727584 122 91 71
-923.380079291938 651.305872863655 2460.66979494454 116 85 65
-924.51096736777 650.807379935834 2468.45108779059 116 85 65
-930.524843808058 651.512654418521 2475.63849515282 116 85 67
-938.499534381372 652.698368401235 2482.61577563983 111 84 67
-942.569148261466 652.920603052133 2490.07219188734 103 80 62
-943.704051207442 652.420887516847 2497.86669024649 43 24 7
-945.816912016773 652.161563113635 2505.54760446964 53 34 17
-950.870806363427 652.622930621347 2512.91404578104 108 85 71
-957.891498513594 653.564139374358 2520.09126968375 110 84 71
-964.91879578538 654.504273801425 2527.2932678578 86 58 46
-969.987751755748 654.963357713423 2534.71325926076 56 26 15
-974.077331577913 655.181839043506 2542.2414354877 68 40 28
-979.153495804441 655.639656036709 2549.68738986681 95 75 64
-979.3093292414 654.897966691007 2557.59127484174 51 40 34
-974.53427809503 652.958114275218 2565.91382529185 10 7 2
-958.691081655073 659.641482536372 2374.92923823832 117 109 98
-948.240053985225 656.273901454962 2384.65638753156 104 86 74
-935.82967554126 652.43043403156 2394.60197149046 73 50 36
-927.280938105342 649.544847614286 2403.9026879907 71 48 32
-925.517006384148 648.33233333582 2412.17424775112 78 51 34
-924.719231997164 647.358961050188 2420.28762168255 84 55 37
-919.051730527196 645.192952902744 2429.05114551385 120 92 71
-915.32016578201 643.50522847094 2437.50988745705 120 92 71
-917.426169646696 643.248805581051 2445.16717505227 113 85 63
-923.432462023033 643.945469068212 2452.32098773971 112 84 63
-926.51656931703 643.926561038406 2459.86341572923 117 89 68
-928.625253202079 643.66917831883 2467.53004772858 118 90 69
-933.665644894242 644.125818075969 2474.84244245359 122 89 72
-938.710030090046 644.581736015685 2482.16920855718 113 82 64
-940.822097615917 644.323355413996 2489.8477733412 108 81 62
-945.87232359943 644.778179031072 2497.19553424677 61 38 20
-949.946159394474 644.994560426206 2504.66485922026 75 49 32
-955.984726086838 645.6858086975 2511.9341522112 107 78 64
-958.101952250582 645.42602274404 2519.63098274103 82 50 37
-964.148249734951 646.115878759204 2526.92902867236 94 60 50
-967.250689720877 646.092785313373 2534.53687990134 83 51 40
-973.305661101769 646.781219342711 2541.86623254301 86 56 45
-977.397108168552 646.994502365044 2549.39805954387 65 42 34
-962.806268090163 652.337314998267 2373.90675973635 110 102 91
-945.563542894067 647.350387310048 2384.6713973123 96 78 66
-936.055816535942 644.256680867159 2394.17742921892 89 66 52
-931.386863818557 642.345745077824 2402.91215878527 95 72 56
-931.567265368443 641.616161361888 2410.91490320917 83 56 39
-925.908574665697 639.470875948442 2419.7232939192 88 59 41
-919.264477345437 637.09084836229 2428.62210848067 119 91 70
-918.45194983795 636.127096344878 2436.68678070093 120 92 71
-918.609819000937 635.399461435556 2444.60616814048 112 86 63
-925.593235164914 636.321434399483 2451.63377816464 110 83 62
-931.607354339793 637.006838051962 2458.80954135089 117 90 69
-934.6960949197 636.985018432754 2466.36640457528 117 90 69
-937.78572705359 636.962785290241 2473.9272459104 123 92 74
-939.898112130933 636.704974509287 2481.60734945577 113 84 66
-944.947692055649 637.1525942805 2488.9481635405 114 87 68
-950.001282529348 637.599533587707 2496.3034383982 84 59 39
-952.11699379595 637.3407460108 2503.99527473455 96 69 50
-954.23236856447 637.081824052391 2511.68577687803 123 94 78
-960.27556761559 637.762117038468 2518.96628133804 99 67 52
-966.324171831042 638.441582707906 2526.26633178942 99 65 53
-969.427704372075 638.416225545998 2533.87681026956 119 89 78
-965.643157596859 636.748536010262 2542.15148930398 109 81 69
-958.894579678777 634.378238146552 2550.66853072078 26 6 0
-950.645404824638 640.316726755809 2383.51245902594 88 70 58
-942.106806336922 637.488874999999 2392.88727009647 61 38 24
-935.495229258293 635.129694769797 2401.91998787049 57 34 18
-930.815253490211 633.238692396976 2410.62637592573 55 29 12
-929.043961146111 632.048569139656 2418.88567267701 71 44 25
-925.319364562456 630.392633493635 2427.39035581342 124 97 76
-925.483691969554 629.670006716981 2435.33781234287 121 94 73
-922.719290173564 628.248515945738 2443.65920636915 112 86 63
-925.803025677343 628.225376202086 2451.19758229188 110 85 63
-931.818032030944 628.900495920766 2458.37014666142 114 89 67
-935.883792148101 629.109269018961 2465.80375572282 116 91 69
-938.973821108308 629.084809300085 2473.36466465252 117 90 69
-939.128377384925 628.362186158774 2481.27584518475 116 91 69
-946.136969336911 629.267419502475 2488.38543043307 114 92 69
-954.132657824908 630.404044165771 2495.4096796354 112 90 66
-958.212402732159 630.610109596167 2502.89443102427 117 92 70
-960.331353682787 630.3511783992 2510.59820499826 107 78 60
-965.39735755724 630.788638064075 2517.9935834301 87 58 42
-971.450438712476 631.457462392311 2525.30353749569 90 61 47
-976.525115535571 631.893557947382 2532.73025565846 43 17 4
-965.849904448286 628.618567218072 2541.68351256267 34 12 0
-961.554266211177 634.646551972165 2381.46908084433 84 66 54
-943.305071620777 629.538973263906 2392.31704246825 87 64 50
-926.969293914648 624.896426095343 2402.77010176488 89 66 50
-929.088689278658 624.6404184691 2410.47737154816 73 47 30
-928.287275190877 623.692335566166 2418.59319837621 77 50 31
-927.481260894406 622.744625842759 2426.69218113702 124 97 76
-925.695739603626 621.566827712765 2434.90550101574 121 94 73
-923.904179610691 620.389583572852 2443.09675013725 113 87 64
-926.012014011714 620.13393100101 2450.7613204936 110 85 63
-932.02790438627 620.798839359097 2457.93072014117 113 88 66
-935.115759065156 620.772594841287 2465.48242956187 115 90 68
-942.119074836182 621.666090834705 2472.56501503589 117 92 70
-942.274247522706 620.94911527563 2480.48204976505 113 91 68
-949.286059577534 621.841130479967 2487.5961744054 113 93 68
-954.343471740011 622.272709618225 2494.95594083795 112 92 67
-964.312075053972 623.851894797418 2501.79107585865 116 94 70
-968.398748922799 624.052104299218 2509.29785599707 110 83 62
-979.368187262926 625.858261319629 2516.09587306575 89 62 43
-980.514426887774 625.368759036638 2523.93891040445 85 58 41
-981.658892783083 624.879346361538 2531.77541880674 41 19 5
-970.98126094926 621.639382090349 2540.7418018255 29 11 0
-969.558155521469 628.237094736835 2379.86325663989 110 94 81
-946.446695499147 622.04470466205 2391.45714655327 77 58 43
-925.242460846555 616.312884809639 2402.62940059468 82 61 44
-924.440127407149 615.373443219198 2410.74726972266 104 81 63
-926.554908983514 615.118156941327 2418.43786483829 109 84 64
-926.720064839595 614.406987629443 2426.39563087988 113 86 65
-925.906753467249 613.468252469431 2434.47318709766 111 84 63
-928.017056373216 613.212892066613 2442.14710698929 108 82 59
-930.127038564437 612.957395456872 2449.819750136 108 81 60
-934.191826573425 613.156749529031 2457.24380327035 113 86 65
-939.237329679722 613.583005107286 2464.55599269431 114 89 67
-946.244585905267 614.463185207472 2471.64573036826 112 90 67
-949.340353017933 614.433519876039 2479.22372835965 104 87 61
-955.378159353442 615.084903487086 2486.46595885758 107 90 62
-962.402449595569 615.962521412614 2493.61732287357 115 95 68
-971.397543538521 617.293132480414 2500.57739210572 118 97 70
-977.454493175856 617.941695525829 2507.88891717386 123 97 74
-988.433298649968 619.723460449953 2514.70631268248 123 97 74
-994.504665108247 620.369951753245 2522.07005659164 122 95 76
-996.64266874982 620.109163615768 2529.84339709785 64 47 31
-957.392532735214 610.333922799 2541.60129301321 22 9 0
-956.196304500335 616.826183795445 2381.49852172678 115 101 88
-942.785181871052 612.960450824556 2391.60987272681 99 82 66
-925.459052394823 608.195576292987 2402.20503929592 100 81 64
-927.575558449452 607.940682676141 2409.90228496696 99 76 58
-928.717303587062 607.460285817272 2417.73531286606 104 79 59
-928.882594985433 606.754870164221 2425.69628568609 108 81 60
-927.092878572992 605.599400222916 2433.90905577225 107 80 59
-928.226763824781 605.119500729798 2441.71228644398 105 77 55
-930.336005455711 604.86449413432 2449.38248940483 105 77 56
-935.378720389287 605.283764729689 2456.67991693743 108 80 59
-943.361346016715 606.376582441054 2463.62800888258 108 81 60
-950.372765449619 607.243514672181 2470.7248397185 107 85 61
-949.550594148018 606.313111656234 2478.77476123503 102 82 57
-954.608570316519 606.729851808814 2486.12725315267 106 86 59
-963.596521731412 608.043446434096 2493.05098930955 116 95 66
-974.558737690058 609.804240084468 2499.79355103431 121 97 69
-982.584720791773 610.890801309855 2506.89867076594 127 99 75
-992.586175338315 612.424371514338 2513.82790609 129 101 79
-998.661526819324 613.060401038941 2521.19891156563 122 95 76
-1016.56340906761 616.382789310495 2527.41690244465 77 60 44
-1027.58697087381 618.135325542198 2534.38294499857 33 20 4
-947.681576312017 606.609714280781 2382.40085170239 105 92 76
-932.311568959145 602.342559716595 2392.77938086642 90 74 58
-925.674607962755 600.0828862344 2401.78067648036 99 82 64
-925.842536980418 599.383187674198 2409.75505173699 107 86 67
-929.905873164236 599.573835378474 2417.16914680663 107 85 64
-931.045710260287 599.096641300552 2424.99618356711 108 81 60
-931.207474738361 598.397042015939 2432.94866279637 108 80 59
-933.31991879936 598.142242707379 2440.63088662252 105 77 55
-936.409782685284 598.109548622718 2448.18505489378 106 75 55
-940.478800252824 598.298614984263 2455.61924545065 105 74 54
-950.424886410532 599.819460838154 2462.33394628754 103 75 54
-957.442644941279 600.672907989217 2469.44579917772 103 81 57
-959.565006001831 600.416051909397 2477.16354434183 100 79 52
-961.68702393464 600.159105539624 2484.87995853553 104 83 56
-966.754485689561 600.567065706195 2492.26212535289 115 91 63
-972.808486041595 601.195997120059 2499.55030591832 121 95 68
-979.85142237206 602.045687415545 2506.7523381397 131 101 77
-988.869200472617 603.337188331598 2513.7728661232 133 102 81
-999.866385723398 605.070051204253 2520.627627945 126 98 77
-1015.80358952241 607.907478993272 2527.03854393875 106 87 72
-1051.48520075249 615.16561364988 2531.61559599441 57 44 28
-943.047877080442 597.327235502542 2382.71521480729 93 81 67
-931.557794130594 593.989809343383 2392.50084314123 80 67 51
-927.837017132147 592.415070301223 2401.07097093389 91 75 60
-929.953505182542 592.160915288195 2408.76861607453 87 68 51
-934.019808076844 592.346324175593 2416.19041844402 94 71 53
-935.161385081835 591.871947162659 2424.02569369274 98 71 52
-936.301212980173 591.397599143461 2431.85449315639 98 71 52
-938.416522973159 591.142872740316 2439.54740365495 98 70 49
-941.50942781793 591.107538043906 2447.11212428889 99 71 50
-944.603471906538 591.071898289071 2454.68088211398 102 71 51
-951.616585485646 591.913383364498 2461.76700795828 100 72 51
-959.616429419945 592.973066468611 2468.75903766825 101 77 53
-961.739485255903 592.716592165705 2476.47960343122 101 77 51
-959.935843412047 591.583651342213 2484.65396580292 103 79 53
-963.037838103245 591.546348234394 2492.25026348066 110 83 56
-970.072778894682 592.384334159506 2499.41614932849 120 88 63
-983.01719876074 594.534313830821 2505.97131657102 130 95 73
-990.070399191689 595.369891800896 2513.20254760231 137 104 85
-994.174833292692 595.548529338621 2520.76071957057 136 107 89
-997.295702764503 595.508126310358 2528.42606750438 116 97 83
-988.57815060564 592.84574846842 2537.24093023446 71 57 46
-934.696028268462 586.516952445249 2391.64095099045 59 49 37
-935.844547362236 586.045296295175 2399.50371866457 75 63 51
-933.091942464413 584.704548947401 2407.92081845474 77 61 46
-939.111619389404 585.319210297783 2415.07255349173 83 64 49
-939.279481002925 584.630480706689 2423.05360372285 91 68 52
-944.328865993773 585.026999763256 2430.36143174026 91 65 50
-946.449202025892 584.772110879944 2438.07290035558 97 70 51
-950.525871816387 584.950717443681 2445.52889834773 100 73 54
-952.646994810924 584.695390945863 2453.24301251337 98 70 49
-958.68713926734 585.306573120888 2460.46854291384 97 70 49
-962.771718934574 585.483838756963 2467.95213311399 96 74 50
-966.858864027665 585.660648831137 2475.44496061961 102 81 54
-966.038383373064 584.754947599736 2483.5167545907 106 80 55
-969.144105598226 584.714924474326 2491.12610361726 113 81 56
-971.267545916028 584.458420145774 2498.84807792934 120 86 61
-981.264099306451 585.930985353256 2505.71967183737 129 96 77
-988.316896616747 586.753821994259 2512.94229097503 123 94 76
-993.405478921847 587.1438003034 2520.39152145228 137 111 96
-989.621032788751 585.59023838769 2528.7395573783 106 94 82
-981.879501154977 583.17448344577 2537.43757742716 131 124 114
-951.653530895606 581.354571764065 2396.7893762871 87 79 68
-949.88506848789 580.240986536293 2405.10657312006 74 60 49
-950.062271014231 579.556917241232 2413.12617561916 80 64 51
-950.236516584965 578.873124861923 2421.13404532925 85 63 49
-953.339464745523 578.832469425422 2428.73269558951 86 65 48
-956.443557831697 578.791522714968 2436.33541283906 94 71 53
-956.612545033031 578.107890802784 2444.32386056473 95 70 50
-960.696165250221 578.280653396976 2451.80197455251 94 69 47
-963.802402875716 578.239061432129 2459.41131765389 98 73 51
-965.928621992022 577.983261075163 2467.144053551 92 72 47
-965.109407977832 577.085948335357 2475.22584636413 96 74 50
-967.232788623174 576.830201871359 2482.94807760006 101 77 53
-974.271348603676 577.642467538094 2490.11116236289 110 82 60
-976.397638122248 577.386095816402 2497.84379892003 117 86 65
-981.477301056839 577.77000042869 2505.2560789085 114 87 68
-984.590490310481 577.726579119809 2512.89007709065 118 95 79
-989.676398507731 578.109378817647 2520.3257759527 123 105 91
-987.859448776942 576.999292917571 2528.46515815066 172 163 156
-985.049002406269 575.676708991564 2536.67804229988 182 179 172
-972.544864249747 576.962170589629 2401.44232923279 65 52 43
-967.855535187776 575.223005821754 2410.20985265597 79 65 54
-962.178617572704 573.273150987731 2419.07488407234 85 66 52
-964.312172765971 573.017657504722 2426.83505112952 86 64 50
-965.467000063549 572.550514079728 2434.72408902637 91 68 50
-961.723858403326 571.026112852564 2443.24389089688 94 69 49
-960.911591448875 570.136748259465 2451.35649482497 94 69 47
-964.998069365208 570.304277339946 2458.8409857005 95 73 50
-967.124249331794 570.048943642002 2466.57387086644 89 67 44
-968.267833961238 569.58235682914 2474.42244737827 102 80 57
-971.375610186403 569.537958546576 2482.03573123658 106 82 58
-975.467686568248 569.704197569149 2489.54112266476 109 84 62
-974.641134443712 568.815719722592 2497.60124840149 115 90 68
-972.82502168733 567.716931443692 2505.75087084796 123 102 83
-972.974299536074 567.040142561806 2513.67046194147 108 91 75
-977.065687772176 567.205955715915 2521.17302954833 165 155 146
-978.198429470797 566.73985023289 2528.98072324713 170 163 157
-981.304900219483 566.694642652623 2536.58957820143 173 170 165
-978.481236043596 565.387249184272 2544.76297769025 208 208 206
-1012.79067096823 577.33017349855 2395.23549574586 147 140 132
-985.662329376025 570.797045835001 2407.2865783615 140 130 120
-973.152204598422 567.404428008583 2417.14646656662 93 77 64
-972.358377182211 566.521667958045 2425.33170264857 86 68 54
-971.559917990637 565.639284737878 2433.49997976736 83 62 45
-965.858831553575 563.713504760926 2442.28954766657 87 66 47
-964.067207409229 562.623740804325 2450.53578901456 90 68 47
-968.155662843526 562.786109452729 2458.02529302254 90 68 47
-974.210566339411 563.36514891792 2465.28439859706 95 73 52
-975.358034253724 562.901203485907 2473.14906061409 97 76 57
-975.520797921624 562.229050347553 2481.12164867677 101 80 61
-973.71213546706 561.140585506036 2489.30637933409 105 90 69
-969.928399354041 559.636454410674 2497.68733043523 104 91 72
-967.120782934283 558.341307244125 2505.92897279364 108 99 84
-965.291863411713 557.254975746789 2514.03891078707 142 134 123
-967.404051456432 557.000899244531 2521.720640417 150 147 142
-969.515884061966 556.7467627594 2529.40101250086 145 144 142
-977.556944502474 557.738980683788 2536.50254801503 151 149 150
-978.683215727167 557.276504726095 2544.28943862711 179 179 181
-981.787392453386 557.229331150231 2551.88760607641 187 189 186
-975.978652113194 555.314579471194 2560.28536784535 202 204 201
-991.757045984798 563.801962726429 2406.01620637655 150 141 132
-990.978873615533 562.925811543606 2414.2637390726 99 85 74
-987.260517183683 561.431362230486 2422.89354468631 92 76 63
-973.739925109693 557.876039694531 2432.79536301451 84 65 50
-970.976147947511 556.590307222444 2441.20571588925 85 66 49
-967.224171543453 555.09939249162 2449.71385770822 91 70 51
-972.296473458223 555.462630460421 2457.08575983602 93 72 53
-975.408536815431 555.413649377163 2464.71206763491 94 73 56
-977.538626618564 555.158614450228 2472.45965788601 103 84 67
-974.750141283119 553.875219704245 2480.77975007398 104 87 69
-968.016768745524 551.770318398373 2489.52080358128 106 95 77
-963.24030563948 550.077912778881 2497.99433665505 114 107 89
-960.425087648491 548.797429194322 2506.21608466486 129 125 113
-960.5616254349 548.133631023063 2514.09750508103 137 135 123
-960.694919431633 547.470106921091 2521.9670549749 139 138 134
-961.81308354423 547.012041712177 2529.72570116208 150 150 150
-969.850038972451 547.989426307023 2536.80263058246 152 152 154
-975.916400502674 548.555796801197 2544.09720809019 171 170 175
-975.057467354588 547.687267455609 2552.04970387218 189 191 190
-969.239925788519 545.79526098395 2560.42821952514 199 201 200
-957.461252027278 542.676360227279 2569.27940321533 192 194 191
-946.654256460759 539.764422496586 2577.97258283445 206 208 205
-937.814030914773 537.263760680849 2586.43501137698 215 217 216
-1010.77591039308 558.762603066042 2411.10216319191 87 78 69
-1000.21565232976 555.858045166782 2420.71609004041 88 78 68
-980.818894867952 551.124244478042 2431.43660891975 86 72 59
-975.116296361566 549.241733110254 2440.24788033659 88 74 61
-974.307482734218 548.377054179726 2448.38889102642 91 75 60
-974.476065537542 547.716070140301 2456.39013598276 85 69 54
-973.658678720604 546.85219500119 2464.49982357176 93 77 64
-969.88665407983 545.379556915753 2472.94506913425 116 102 91
-970.041737192465 544.719751564363 2480.89786556935 123 113 101
-966.254629998002 543.248713435614 2489.28812269499 127 123 111
-962.458766733955 541.778666243911 2497.64556685367 129 129 117
-959.639811778787 540.512255031726 2505.86325382964 135 138 129
-954.839623822579 538.841381829696 2514.26229562583 136 141 134
-953.979478063639 537.98184542867 2522.2159668958 140 142 139
-955.091436751627 537.527660618245 2529.9540234381 147 148 150
-964.114006701757 538.69250329231 2536.91237723654 158 159 163
-966.217817255939 538.440146651818 2544.56408871673 169 168 173
-957.425565970355 535.963584975542 2553.21985185184 171 172 174
-945.643689829279 532.882588305355 2562.08307638924 187 189 188
-932.849462112176 529.601961059892 2570.9579220302 194 196 195
-927.974473460231 527.939349008805 2579.08445916189 203 205 204
-923.088833690117 526.277846142889 2587.17308008334 208 210 209
-917.198963394484 524.415823923495 2595.30198382667 215 217 216
-907.317822402665 521.748411481035 2603.69074010076 210 212 211
-1025.69480754891 553.491897316549 2408.61325515219 83 76 68
-1015.13932815016 550.621518785955 2418.2665033097 95 86 77
-990.843280121088 544.942138308708 2429.68245791471 93 83 71
-978.278069249429 541.675864962456 2439.41666051724 81 71 59
-974.52477349349 540.217654184944 2447.9405514053 95 83 69
-969.780285894798 538.559878441495 2456.55466676167 107 95 81
-966.991219943566 537.304119858721 2464.8900512637 123 110 101
-963.21098803447 535.848778874695 2473.3157453318 128 119 110
-962.375086923654 534.995247834268 2481.36322369873 130 123 113
-960.549435935442 533.941999499007 2489.50618409622 126 126 114
-956.745824805573 532.489131373067 2497.84663693294 126 128 117
-953.919996522518 531.237285076293 2506.0470710922 131 136 129
-949.11190271897 529.586345810608 2514.42934527058 138 145 138
-948.245449494919 528.735958351525 2522.36537432181 147 151 150
-949.351908588644 528.285601189981 2530.08542852563 151 152 154
-950.45633742343 527.835283960182 2537.79889900924 161 160 165
-945.618022322948 526.18760887287 2546.07102826667 161 162 166
-931.85103940251 522.745497087602 2555.12952101463 168 169 171
-922.027396661272 520.103827107592 2563.74708044443 169 171 170
-910.201108430853 517.065442949992 2572.4732439308 177 179 178
-902.326783605813 514.826467174471 2580.7898379984 189 191 190
-898.412786673044 513.385831378886 2588.728172837 191 193 192
-895.484486825154 512.145309312101 2596.55529968589 194 196 195
-892.54840621636 510.90557890093 2604.35496692695 194 196 195
-892.592812923818 510.263447784507 2611.90707312581 184 186 185
-892.63374993099 509.621595286405 2619.44740193508 194 196 195
-1014.95738888939 543.64426381162 2401.49603479149 132 133 127
-1019.08541616733 543.783317720461 2409.11681257055 142 139 132
-1009.49861193057 541.147197554926 2418.61813983323 131 128 121
-989.108555775841 536.33387585077 2429.4968503251 86 79 69
-974.57251340288 532.712577079174 2439.48316715905 90 83 73
-969.831252890516 531.073462134278 2448.12104550576 119 113 101
-964.096967734124 529.237637008646 2456.84414585079 131 125 113
-963.267698650081 528.391931692476 2464.9211883859 125 118 110
-958.497351031088 526.755964192777 2473.45305913874 125 121 112
-958.640629137175 526.109070207597 2481.37017745895 127 124 115
-956.809719446343 525.067485111437 2489.50097688289 135 136 128
-953.00002501179 523.631661219105 2497.82960443843 138 141 134
-948.194451516343 521.999493377603 2506.23308732136 134 139 133
-943.378421403726 520.368484350514 2514.59847844893 136 141 137
-938.551983128891 518.738621312982 2522.92594962795 137 141 140
-932.725791564985 516.912804717468 2531.31506737951 141 145 146
-924.908105933288 514.694349113245 2539.85490703293 155 156 158
-919.056986062168 512.871408296443 2548.15235745925 156 157 159
-906.254583668925 509.672014645333 2557.04906779124 166 170 169
-904.34277160392 508.639302519314 2564.88509448515 162 166 165
-891.504433869416 505.444043307529 2573.65099420671 169 173 172
-883.611635027527 503.234173830082 2581.91737406343 169 173 172
-872.721527393992 500.436571678741 2590.37416036651 163 167 166
-872.756478213464 499.801527446496 2597.89563299426 162 166 165
-874.779309350536 499.559381313635 2605.25313015025 178 182 181
-882.779566812778 500.494501126394 2612.16805246724 188 192 191
-892.782527298338 501.820898421488 2618.97115189586 195 199 198
-901.798661047016 502.949847138268 2625.88294777421 204 208 207
-897.844060920516 501.53005301231 2633.68368925162 215 217 214
-1024.00670138467 537.113359128792 2399.79773700828 164 165 159
-1014.42831170008 534.50848498517 2409.35003295643 129 128 123
-1001.89189204016 531.319112093548 2419.2396826065 125 124 119
-988.352461212821 527.93678358403 2429.18077570774 121 121 113
-977.734578494571 525.143115282441 2438.65076339343 125 125 117
-972.009353223565 523.327847051342 2447.42140888675 128 129 121
-967.255529203606 521.709060308478 2456.02547555471 128 131 124
-964.458961539627 520.481586627821 2464.34993625156 129 134 128
-958.701048351495 518.669896735238 2473.00147709087 129 134 128
-956.872406556496 517.639169376666 2481.14755177464 127 132 126
-952.079763741253 516.024612272608 2489.6101622365 126 128 125
-947.276665413785 514.411206634371 2498.03468040594 129 131 128
-943.450484089168 512.993594098266 2506.31359306697 137 139 136
-941.591658088625 511.966090524265 2514.34963504031 136 138 135
-933.793617563491 509.772368655076 2522.97802870953 139 141 138
-920.043440538411 506.413944644095 2532.15175453267 139 141 138
-910.230946900425 503.835459816148 2540.85152921741 124 128 127
-904.36501293322 502.035901942545 2549.10874057467 118 122 121
-890.55335302766 498.684581513015 2558.05867734235 157 161 160
-886.642663464842 497.276461165621 2566.02982034914 154 158 157
-877.757357376904 494.89954969889 2574.4020741444 142 146 145
-873.825122298428 493.493877873211 2582.29476874278 135 139 138
-861.927285218037 490.538879369089 2590.8070016862 148 152 151
-863.943217607193 490.298159320432 2598.13978549821 154 158 157
-868.946885053808 490.63829299172 2605.24227445383 147 151 150
-878.938069064592 491.945538087605 2611.99048746629 161 165 164
-890.935376535402 493.638328988222 2618.63688734282 177 181 180
-898.954007980671 494.555943371607 2625.6080476234 199 203 202
-900.987466665027 494.312842500192 2633.00440000757 195 199 198
-903.020550969094 494.069756044531 2640.39937149246 189 189 187
-906.053511191061 494.019742390595 2647.73226196542 189 189 187
-1044.57886328074 533.499898733303 2388.1721697789 189 191 186
-1025.22895797026 528.995080865468 2399.21028025656 202 203 197
-1007.80665562891 524.879720080739 2409.85844480414 134 135 129
-997.219446976095 522.117423956137 2419.46212603301 131 132 126
-990.538442954224 520.128179764442 2428.47063342241 128 129 123
-980.89795845476 517.562482558462 2437.81711776068 128 129 124
-975.17113342181 515.76904722067 2446.59467877481 124 126 121
-967.465373857928 513.591961660661 2455.57619686128 124 129 123
-961.713144550351 511.801262355488 2464.26209319309 121 132 126
-952.009610096249 509.242727133582 2473.37807808655 125 134 129
-951.159128112446 508.416133579438 2481.38842744849 127 133 129
-948.331155772957 507.205722776995 2489.60799037088 128 133 129
-944.508833116648 505.804120084708 2497.91040826581 133 135 132
-936.726119850734 503.635638551966 2506.61164447154 127 127 125
-931.894028143698 502.044403629872 2514.94344235722 133 133 131
-920.127046814815 499.111840823687 2523.95568178411 138 140 137
-907.349671040991 495.98994179496 2532.99330807409 131 133 130
-897.522208942875 493.445407351102 2541.65894229529 125 130 126
-894.6169130979 492.243636124744 2549.59687277287 132 137 133
-881.783091537669 489.128243670777 2558.42903483167 153 157 156
-877.862750688349 487.737637978306 2566.37540233949 146 150 149
-868.965753116799 485.391655084382 2574.7237746293 137 141 140
-868.006686840288 484.577071065342 2582.33855398613 135 139 138
-860.078007392704 482.425225743468 2590.50834960054 139 143 142
-863.087368711219 482.376309519936 2597.75431483035 142 146 145
-868.090743805028 482.709104567102 2604.8510851142 137 141 140
-879.080956886853 484.18648597297 2611.51866301568 159 163 162
-890.0835060174 485.662274658537 2618.23196571054 170 174 173
-892.111518020754 485.420431932535 2625.60888996282 182 186 185
-891.141249053075 484.606811403916 2633.18268422042 186 190 189
-895.166487688481 484.746250599285 2640.4220711655 204 204 202
-907.199991955708 486.40872308657 2647.18372119376 195 195 193
-909.232975081654 486.166103243025 2654.57861161858 154 154 152
-1064.88387699018 530.412145690568 2368.0921389801 199 204 198
-1056.33380531124 528.056359304586 2377.72331872439 187 192 185
-1049.72559166083 526.083211073034 2387.01131562058 161 163 158
-1025.47141460271 520.686101518156 2398.76186904009 162 164 159
-1010.98116124112 517.195698516072 2409.00083223521 152 154 149
-999.409141887324 514.278503801211 2418.74662987244 145 147 142
-993.707072843672 512.503918253378 2427.62800579337 135 137 134
-985.045516838343 510.160707871462 2436.85320591471 130 135 131
-975.384909724605 507.629513744707 2446.14583334556 129 135 131
-966.690276109712 505.290049524774 2455.25058791619 132 141 136
-956.010372186856 502.573025596297 2464.5386922698 121 133 129
-949.252925680913 500.61668197958 2473.28322637633 120 131 127
-946.426106577772 499.419900643242 2481.51567597064 123 132 129
-943.591963268847 498.223973524947 2489.72054251043 132 136 135
-937.787534038648 496.460742734184 2498.22997294246 134 136 135
-925.054025540452 493.373961205339 2507.45264118009 136 136 136
-917.243105307026 491.235624985441 2516.06818261626 132 132 132
-906.448480683081 488.531659675921 2524.93859601976 132 132 130
-900.586511725329 486.774939226086 2533.23850300931 133 135 130
-891.739649626271 484.452813737448 2541.78808079895 132 137 131
-887.835491496663 483.076756530431 2549.80371672542 136 141 135
-874.989558562761 480.002818675319 2558.61801291359 145 150 146
-873.047559570368 479.006921807455 2566.36520468928 141 146 142
-868.117532658333 477.445888666909 2574.35152715486 124 129 125
-870.139813561007 477.205596929655 2581.70815216668 127 132 128
-865.193964802503 475.646335898292 2589.63685003429 133 138 134
-864.222111844387 474.841599629352 2597.21037230231 137 142 138
-865.239331926212 474.413889309874 2604.61339757582 143 148 144
-872.239881550832 475.11531432658 2611.56537835324 146 151 147
-879.247458441876 475.815904858683 2618.54199412118 158 163 159
-883.264619185635 475.951613749903 2625.74996334155 174 178 177
-885.285017457054 475.711207591585 2633.09952627304 180 185 181
-896.308889965682 477.16122129777 2639.8747964963 194 196 193
-909.347440928782 478.985162447875 2646.573610399 175 175 173
-918.39425267406 480.056652529073 2653.56210226898 177 179 176
-910.406796623694 477.938264206284 2661.53479487489 128 130 127
-1071.46854498968 524.568666500106 2349.88446294152 185 190 186
-1066.84623710868 522.992110718008 2359.00348567479 199 204 200
-1059.28006927662 520.85310888038 2368.52732457089 168 173 169
-1053.65608790464 519.091255676371 2377.7075922698 173 178 172
-1044.10352606999 516.580001404262 2387.41395962596 148 153 149
-1019.83333446001 511.256547641496 2399.15155656436 157 162 158
-1006.31174158201 508.000397481301 2409.23854087961 138 143 139
-990.804052689033 504.372075955658 2419.50921120729 136 141 137
-985.091498446075 502.620293263694 2428.3660541677 132 137 133
-970.52104574126 499.184368004228 2438.34257633735 133 138 134
-959.860270373545 496.500051548675 2447.72235105324 131 136 132
-951.149132986632 494.192115707797 2456.78480669852 128 134 130
-944.391708471913 492.260017075798 2465.54565849076 127 133 129
-939.592535062621 490.703281245188 2474.02052746196 128 134 130
-936.75596217277 489.521397963712 2482.22523998732 131 135 134
-932.924498520763 488.153562778242 2490.51596721537 132 137 133
-927.108133286352 486.41334596098 2498.99561142123 132 137 133
-914.359866915004 483.368397236127 2508.18989761077 140 142 139
-905.546948795579 481.071987338205 2516.8817382217 129 131 128
-895.727639543828 478.590970053146 2525.61774377245 141 143 140
-890.84470539491 477.043654400902 2533.78757294154 123 128 124
-879.01089249032 474.193787339615 2542.60388959062 133 138 134
-873.109692458616 472.463223232843 2550.77465303737 131 136 132
-868.18970898124 470.920127533312 2558.8095895686 140 145 141
-868.227420845499 470.308130563031 2566.35679327166 133 138 134
-868.262144501604 469.696515214206 2573.89221425682 131 135 134
-868.293366890751 469.085182134545 2581.41574295647 122 126 125
-865.334180846493 467.917017545698 2589.17387813538 135 139 138
-859.377592040707 466.192686128144 2597.14292891356 140 144 143
-859.392884834053 465.583173639671 2604.60753454958 134 138 137
-861.40068909727 465.344938900452 2611.91170931732 154 158 157
-867.402768226214 465.848276194138 2618.92782300516 150 154 153
-871.411333910136 465.980292848155 2626.10154936766 171 175 176
-876.422692916593 466.297224681992 2633.21794715193 177 181 180
-887.442956918308 467.724513067964 2639.96547211877 197 201 200
-905.486515993759 470.445652618084 2646.32988432223 192 194 193
-918.54123741949 472.239201415796 2653.0695478431 178 182 181
-918.572890751058 471.627428488584 2660.59346982828 156 160 159
-1097.5380397245 522.38279059653 2328.39736706614 183 188 184
-1075.37605457201 517.484156164834 2340.43696027903 172 177 173
-1067.82946855611 515.369844836495 2350.04909091558 179 184 180
-1061.24583749919 513.442485589141 2359.45726693088 173 178 174
-1058.56151955452 512.257218321254 2368.22606477718 156 161 157
-1046.08025794694 509.221883488469 2378.41868605373 156 161 157
-1032.59770344347 506.004088147524 2388.67389840477 154 159 155
-1011.24833471715 501.309547775671 2399.96311106018 143 148 144
-997.713020259979 498.097724496273 2410.02713551333 136 141 137
-982.190800969112 494.519109020511 2420.27523911926 135 140 136
-972.537396810497 492.05145534637 2429.63565484864 133 138 134
-960.899976168672 489.216675423703 2439.19066270702 133 138 134
-953.177950172741 487.122192474261 2448.16393768344 132 137 133
-948.395312673925 485.582607093408 2456.71102914543 131 136 132
-938.675017161172 483.122545322524 2465.82788351752 132 137 133
-932.881858515493 481.401480160984 2474.40485156928 132 137 133
-929.050405188508 480.050027775203 2482.70596037419 132 137 133
-925.209977772995 478.699569962791 2490.97437806882 132 137 133
-916.419170550971 476.430215327458 2499.76539338462 131 136 132
-905.634039803191 473.7948760427 2508.71438256898 135 140 136
-895.819520618106 471.345538411007 2517.48817357312 132 137 133
-889.949409689464 469.633170983004 2525.7849241741 129 134 130
-885.058532444752 468.105779133476 2533.93784103133 118 123 119
-876.189452454252 465.845289477765 2542.44477080537 135 140 136
-868.296983323207 463.770150867535 2550.79743683015 129 134 130
-862.376528920351 462.06351926421 2558.91089327786 126 131 127
-863.402567525205 461.641367186743 2566.35016918202 120 125 121
-865.421496819412 461.402582303656 2573.69530167734 133 137 136
-865.448971840184 460.79750259018 2581.20886518072 127 131 130
-861.488449026482 459.460573370506 2589.03993344516 129 133 132
-855.525219101966 457.758751774747 2596.99760955169 134 138 137
-855.535795537528 457.155539817471 2604.44961112371 136 140 139
-858.538222860031 457.101064020947 2611.66632176201 141 145 144
-859.543711881031 456.681028656724 2619.03063747086 149 153 154
-863.54680023811 456.809042953998 2626.1805716913 153 157 158
-868.552809594577 457.119264390193 2633.27287067988 158 162 163
-879.569951481714 458.523684636396 2639.99529512343 173 177 176
-893.605727839125 460.473750525206 2646.57899061488 195 199 198
-908.660926516659 462.604064547171 2653.1650802305 205 209 208
-917.71403109996 463.63896120336 2660.15476202434 163 167 168
-914.727810364385 462.487317894488 2667.82295336433 162 166 167
-1084.85501982563 512.096499564783 2321.57313502385 175 179 178
-1082.20757380202 510.920932817332 2330.4840264646 170 175 171
-1067.83498739222 507.553314724284 2341.23738395334 161 166 162
-1053.4373464652 504.188478862257 2351.9004045077 148 153 149
-1048.79416549219 502.652188587949 2360.96735107506 140 145 141
-1042.18346438318 500.752106480521 2370.29224265069 157 162 158
-1031.6419080098 498.123884649295 2380.15006933551 150 155 151
-1016.18083905014 494.586222452792 2390.65199691514 149 154 150
-996.770408440897 490.322669116636 2401.6186396386 137 142 138
-983.217265946503 487.155719774675 2411.64387411614 135 140 136
-970.62266438281 484.173460398632 2421.44919541454 135 140 136
-964.886980896101 482.467561982828 2430.249132956 133 138 134
-953.237123784617 479.671602562213 2439.78340489525 133 138 134
-949.442259659175 478.332504544973 2448.22723311322 133 138 134
-942.682813506031 476.449177939095 2457.01137106228 133 138 134
-930.98105657598 473.659199245611 2466.35579604279 132 137 133
-924.1914257406 471.779305882618 2475.03003175256 133 138 134
-923.3121141908 470.989731640974 2482.95671464232 133 138 134
-918.476240475376 469.475120697726 2491.32191801853 133 138 134
-907.697665593597 466.873899655399 2500.31678832061 132 137 133
-901.847030447163 465.18089169223 2508.6990002589 135 140 136
-895.984771397889 463.489278553343 2517.0380065207 135 140 136
-889.119613356623 461.617939769003 2525.43722543107 124 129 125
-881.249636962283 459.56716222636 2533.88878288153 116 121 117
-870.387994068964 456.975447323322 2542.58123961634 135 140 136
-862.486375400755 454.928307705315 2550.91761230081 128 133 129
-857.551263331923 453.424971990976 2558.92148171028 118 123 119
-858.572515907465 453.00654337264 2566.34533882281 117 122 118
-861.582162714649 452.949333536409 2573.58712786321 132 136 135
-861.605172225258 452.350590245803 2581.08811228825 127 131 130
-857.638785544883 451.030795329683 2588.90729784479 129 133 132
-852.665674099288 449.53165233444 2596.77365910187 132 136 135
-854.668693942355 449.295119044415 2604.06114446126 134 138 137
-854.673968875078 448.698390658592 2611.49662695739 136 140 139
-854.675723442676 448.101968413131 2618.92016133129 151 155 156
-855.674620347335 447.685858170228 2626.2624799203 150 154 155
-861.676185087435 448.16920279563 2633.26406145905 154 158 159
-867.683093434656 448.651871639781 2640.28505611082 175 179 178
-879.709511767604 450.212014531393 2646.95579190423 181 185 184
-898.771586664843 453.027738316764 2653.26421985813 195 199 198
-917.857408962737 455.84054960198 2659.65990747868 177 181 182
-920.895165425669 455.779576066889 2667.0036859591 154 158 159
-900.814016904693 451.593421308443 2675.52894994354 155 159 158
-1108.91576294666 509.34704964917 2300.06476775185 183 187 186
-1065.35643512669 500.609569224064 2315.96212662266 157 161 160
-1067.57410752114 500.350123806068 2324.03210931644 170 174 173
-1066.86327715421 499.550284751108 2332.57692012852 170 175 171
-1056.37893468283 496.950416177793 2342.66507158055 155 160 156
-1049.78583930629 495.072538186771 2352.07027732946 126 131 127
-1037.30955864314 492.116864805767 2362.33168594677 139 144 140
-1031.66475243123 490.422291676552 2371.47618319118 137 142 138
-1018.16996827627 487.291347338084 2381.74175144192 126 131 127
-1003.67139417056 483.98345923083 2392.06505169477 142 147 143
-991.110241618719 481.03747895412 2402.01746734245 137 142 138
-980.491058955551 478.45291649057 2411.61464706675 135 140 136
-973.783536341655 476.588055873418 2420.60229637636 135 140 136
-965.095666924269 474.366057151161 2429.80632665242 134 139 135
-955.407854794473 471.966749052836 2439.08121312471 133 138 134
-949.641314665193 470.285872440628 2447.78331247944 134 139 135
-940.906573526704 468.069265700114 2456.81579243414 135 140 136
-930.183096870359 465.496595669064 2466.03325726215 133 138 134
-924.375195642471 463.820405193727 2474.58474954579 134 139 135
-923.494153214191 463.039508271576 2482.50955540576 136 141 137
-915.689478697713 461.008212913497 2491.21586596133 136 141 137
-905.891720354309 458.621357168547 2500.09133447791 136 141 137
-899.045883981035 456.772106999552 2508.57623654997 135 140 136
-892.186715108608 454.924369917486 2517.01259294965 129 134 130
-886.305697077129 453.256538201188 2525.29696513243 117 122 118
-876.444665392488 450.876935347025 2533.94209122979 116 121 117
-867.55888830664 448.677572823503 2542.42469141006 133 138 134
-859.650300411527 446.658165592347 2550.75269749821 127 132 128
-854.709399672267 445.174504510669 2558.74749624201 112 117 113
-855.727317732939 444.759635086969 2566.16122004354 120 125 121
-858.734429294897 444.700617211888 2573.39245471424 128 132 131
-861.742597630834 444.641430180421 2580.62750618311 125 129 128
-859.766889966212 443.693702609979 2588.27995583823 132 136 135
-853.793948633433 442.036249638419 2596.23051643836 127 131 130
-852.801739441245 441.267776459855 2603.75042559335 128 132 131
-851.804636181229 440.499771907632 2611.25338892234 130 134 133
-847.803148956666 439.200268985566 2618.95599336309 147 151 152
-845.794010214836 438.256317626208 2626.48670408284 150 154 155
-852.790454971242 438.907581535665 2633.39177519196 150 154 155
-862.800076482365 440.089319580319 2640.12827542525 176 180 179
-870.814953077318 440.915660551914 2647.02879845105 181 185 184
-887.86959121842 443.33332513967 2653.42626322864 197 201 202
-908.962074213327 446.455805312219 2659.67422765546 194 198 199
-918.022452540094 447.454085273036 2666.66779756863 167 171 172
-914.019418472824 446.154555458273 2674.36464190693 164 168 167
-1059.51118927402 491.708389174042 2308.12266625166 166 170 169
-1057.82511889732 490.739352313822 2316.83702881946 142 146 145
-1054.18125441724 489.415894271885 2325.8522924097 172 176 175
-1050.528442286 488.093409693706 2334.83494971892 159 164 160
-1044.91228431314 486.417225365125 2344.09742198603 128 133 129
-1040.26220031497 484.919624604989 2353.16316550774 126 131 127
-1026.79323365202 481.828473970626 2363.54971270779 147 152 148
-1017.21857313426 479.448406925785 2373.25778575485 131 136 132
-1004.68581269251 476.539279773159 2383.33888287582 129 134 130
-994.093189035504 473.986590602813 2393.05386509082 139 144 140
-987.407607442184 472.143414652344 2402.13759669535 137 142 138
-978.744005557452 469.948207325436 2411.44864224832 135 140 136
-970.064459003117 467.754869268272 2420.70073950468 136 141 137
-962.352421049645 465.739959689071 2429.76133658539 135 140 136
-949.703345918584 462.844180125952 2439.41807800879 133 138 134
-939.987722536669 460.480170633316 2448.61292146705 133 138 134
-930.254480927402 458.118173503882 2457.74362240102 135 140 136
-927.410284401982 456.99204639895 2465.9552313927 134 139 135
-924.558313902383 455.866717385514 2474.1394100376 135 140 136
-921.699016987113 454.742257287304 2482.29600670214 136 141 137
-909.932703758317 452.034537976128 2491.45361008826 136 141 137
