ply
format ascii 1.0
comment KinectMotionCapture
element vertex 800
property float x
property float y
property float z
property uchar red
property uchar green
property uchar blue
end_header
-14.8639208414529 71.9966320162377 2939.62216681312 15 18 9
-24.3741882261614 71.8236892059978 2938.90257266037 17 20 11
-17.8558573259959 70.3750567322073 2923.85845377661 13 16 7
-22.0499770798066 69.7747697281427 2918.3449330297 12 15 6
-6.54889361781019 67.5824513419437 2894.98721880521 16 19 10
-11.5753253085051 67.0372517616652 2890.1056530307 15 18 7
277.669714201257 77.0339578934303 3031.90416953824 20 23 12
286.169620488069 75.5818490725841 3017.06148270358 20 23 12
291.221150650315 74.3504118593454 3004.66055316325 19 22 13
259.198754459963 75.6201196489842 3019.74205189173 16 19 10
219.75956619292 77.4152206905181 3040.56612855291 16 19 10
209.787409969257 77.2184514511482 3039.51158063805 14 17 10
233.226109587315 74.7231888668177 3013.26063393167 14 17 10
213.218828466913 75.2147040384041 3019.75680805073 14 17 10
199.098142394196 75.3071288214704 3021.87213923905 14 17 10
200.756078333097 74.3000692990473 3011.95269833439 13 16 9
211.459875782198 72.6489707466844 2995.00124694981 11 14 7
221.251989143624 71.0487849177336 2978.62419082594 10 13 6
199.739460727813 71.6683449538183 2986.49990088787 9 12 5
193.878419319157 71.1778076761721 2982.2486222219 9 12 5
179.844613358994 71.2768077027023 2984.42696796283 8 11 4
130.807362491727 73.9228429649019 3014.35387397255 13 16 9
95.8199420879162 75.5795038624696 3033.46369546575 16 19 12
82.0667475163992 75.7017592993304 3035.8455801841 14 17 10
61.8890249573316 76.3051219143228 3043.45350634839 13 16 9
69.2026859605304 74.8789305049484 3028.98634737494 12 15 8
67.6008034621351 74.1074594027656 3021.64542881272 10 13 6
65.1743641508617 73.3943430621464 3014.94239810453 10 13 6
64.3292232530159 72.5587201132518 3006.91469610726 11 14 7
47.5066071000549 72.9331980513009 3012.01321016703 12 15 8
39.4931514391557 72.6439089068858 3009.9080242009 13 16 9
35.4576527267962 72.0507066980049 3004.50952711797 15 18 11
14.0119870524007 72.8023943377168 3013.66941328963 16 19 12
6.0619332728078 72.5183460044419 3011.61021524606 18 21 14
8.34939739214313 71.4353203982195 3000.91171134181 18 21 14
12.945381715741 70.1633643908393 2988.18034166553 14 17 10
8.87955589595624 69.5675306941705 2982.75955200919 12 15 8
21.9635705961032 67.6049112623503 2962.59155199775 11 14 5
12.3857674959162 67.4393422262434 2961.82303711319 13 16 7
5.93117893692341 67.0257396455356 2958.37720424665 13 16 7
-7.48035736912223 67.1762258424716 2961.00690732735 12 15 6
-9.28094498752685 66.3879404837631 2953.52185801553 13 16 7
-31.0983910822247 67.2360265717158 2963.64775753267 17 20 11
-33.6545603048135 66.5119973907383 2956.8506275675 17 20 11
-16.7123513141498 63.216054583733 2923.41610730178 17 20 11
-31.5512006801919 63.502104422064 2927.4821750769 16 19 10
-34.2099186007023 62.7696527428456 2920.61036823348 15 18 9
-19.503329250165 60.5610848826027 2897.91195707167 15 18 7
-16.2209194314737 59.307061208546 2885.46377114075 25 28 17
310.288019813081 67.4755935977342 3008.56682922901 24 26 13
322.090607904943 65.7326451747036 2991.1761182868 22 24 13
292.463208176876 66.8970748418109 3004.28815792049 20 23 12
237.7151411889 69.8618417460521 3036.25226351108 16 19 10
235.254040616893 69.1362688306064 3029.52404302026 16 19 10
199.292586179297 70.8107772174054 3047.92785685651 14 17 10
222.764708391528 68.2221989889735 3021.70066623979 13 16 9
206.946843045093 68.4598849108654 3025.05677946472 11 16 9
193.672536062302 68.5199891275235 3026.55046857872 11 16 9
201.973451092253 67.0030685862756 3011.56320045114 12 15 8
219.287083417368 64.8091981711244 2989.5194337179 11 14 7
219.998763169989 63.8277525225703 2980.14949235523 10 13 6
213.279283340499 63.3951149968927 2976.51124326087 8 11 4
183.504297286888 63.7643453925713 2982.10145784722 10 13 6
114.071085580584 68.1003941469815 3028.129433894 14 17 10
110.830946085038 67.4382375575154 3022.07212378441 15 18 11
76.7668025840402 69.1399968024865 3040.61614573397 13 16 9
71.9652434800313 68.6071893875986 3035.89765766533 12 15 8
67.965244942024 68.0112368117443 3030.52458700823 11 14 7
41.4371219794196 69.1726828407404 3043.41297566292 11 14 7
52.7182715403089 67.3836340277962 3025.64432377101 11 14 7
59.1076171924962 65.9657250789305 3011.74189297821 11 14 7
2.41513422109607 69.5464131736313 3049.71067289503 13 16 9
-7.06472153823046 69.4023706824304 3049.01327116436 14 17 10
25.5202603954485 65.8833288654364 3013.3311144456 16 19 12
38.9081149628367 63.8799985670446 2993.38287375261 16 19 12
4.06707544211438 65.7767290889627 3013.83535697808 17 20 13
-10.1579964008753 66.0160705317305 3017.11079748488 17 20 13
15.6741973470265 62.9725281710363 2986.41669098475 14 17 10
1.27939866363969 62.2856415616645 2980.91855599667 12 15 6
8.87454070005322 60.7081998832847 2965.41935141264 13 16 7
-0.671983409013199 60.5585175369875 2964.67359180549 13 16 7
-12.5181866764339 60.6067368200385 2965.96744695127 12 15 6
-38.2143318214521 61.8377779159483 2979.45930659394 14 17 8
-48.4141052652634 61.7636186348312 2979.47541177142 17 20 11
-58.5886044061263 61.6916367001275 2979.51014433619 17 20 11
-27.4409312518631 58.0521689430126 2942.78544182842 17 20 11
-62.0850684160763 60.0958529239402 2964.61615027465 17 20 11
-22.8079233423908 55.7055525584615 2920.19429150833 16 19 10
-21.6994858406094 54.6264310580698 2909.87643692862 16 19 10
-24.4112024259873 53.8781852115145 2902.96613022142 16 19 10
33.1599562084923 47.7663153215819 2840.91929514073 18 21 12
319.198368582478 60.3736566385994 3011.28475413278 26 26 14
281.041146558109 61.3002154422782 3021.91724857324 17 19 6
241.391468089609 63.2959754701802 3042.5894582956 18 20 9
293.649510093283 58.5046719506926 2995.22444785681 16 18 7
216.338040234173 63.3255496541325 3044.18990202793 15 18 9
246.561185867236 60.1433947125681 3012.97278379224 13 16 9
239.854962033601 59.7150273645027 3009.34416588146 10 15 8
231.487037646076 59.4130933863699 3006.98195392209 9 14 7
220.639913132044 59.3020202634735 3006.52888799474 9 14 8
216.446377799328 58.6850121054966 3001.0154117342 11 14 7
225.463844978307 57.0481840461574 2985.31194356701 9 12 5
228.633534361932 55.8516225216265 2974.01737187345 9 12 5
204.632345057708 56.764444196185 2983.79559386232 8 11 4
211.875432715147 55.2443835594304 2969.27679929827 8 11 4
163.456920998283 58.0985015383075 2998.41796539642 11 14 7
132.387103605907 59.6150317556611 3014.19155350587 15 18 11
93.3213884737287 61.7905905163677 3036.52303805835 14 17 10
81.2358473780352 60.9094218492677 3028.99283921306 11 14 7
36.8835989649514 63.5722376769172 3056.14031638155 10 13 6
51.4605566675446 61.4698066944094 3035.81854333428 12 15 8
61.1140026706214 59.7523224774718 3019.34066462061 12 15 8
25.0837000064625 61.7831850462421 3040.16644717071 13 16 9
10.7598932490034 62.0440367269435 3043.37071606152 14 17 10
16.3742334197523 60.6525056790232 3030.14163749426 14 17 10
41.7617150983411 57.5948225557097 3000.36040920493 17 20 13
0.514144060390187 60.1188521404394 3026.05242591545 17 20 13
-29.4905399347147 61.724104602147 3042.5986013513 16 19 12
-9.78852354994797 59.120364472386 3017.34370812881 15 18 11
32.5273756111493 54.5566870888214 2972.65346112649 14 17 10
18.2374159839402 54.8202658285932 2975.88228033744 13 16 9
-6.14842945323901 55.9658732882219 2987.85320372788 13 16 7
-0.0849838775023315 54.4789206505286 2973.71417129471 13 16 7
-1.84717509487164 53.6655122982574 2966.25712357754 13 16 7
-26.8426158880903 54.8930469853138 2979.02158989173 13 16 7
-41.6999546721275 55.2421073590419 2983.07457345395 15 18 9
-34.965211807175 53.6785994374727 2968.18675435513 18 21 12
-23.699174438387 51.697241431664 2949.17113659948 17 20 11
-62.2492656089932 54.1818792949117 2974.34834124768 16 19 10
-69.3403824804249 53.8526418590987 2971.67624490153 17 20 11
-7.97794965279808 47.295954196507 2907.43509130972 17 20 11
12.0481546872244 44.45367023444 2879.94356035542 18 21 12
6.21587815947944 43.9641936768698 2875.71313933825 12 13 7
269.590731729339 54.868413504363 3030.87571087197 18 20 7
283.976572512951 52.8192100097438 3011.65099380544 19 21 10
299.940626720113 50.6307606952711 2991.09928428742 19 21 10
307.395377986183 49.0856427434984 2976.73350779314 14 17 8
249.465941448271 52.6423728024279 3011.3351045841 12 15 8
256.115441479646 51.1650298910515 2997.62125868503 10 15 8
249.371356016768 50.7356863623042 2993.96518912666 9 14 7
234.32342300963 50.9668560690409 2996.64407862339 9 14 8
229.266403431122 50.4072596375926 2991.74026611334 10 13 6
231.642457024504 49.2494721242088 2981.10560392561 9 12 5
215.840972000039 49.5527693800064 2984.47392392985 9 12 5
241.193898417241 46.52173951749 2955.90252295029 8 11 4
189.313598390965 49.7703081369181 2987.47689826583 8 11 4
155.666690744613 51.5622271490692 3005.08880343847 11 14 7
133.584613444937 52.4239952416732 3013.78789882046 15 18 11
99.3902185646984 54.3055717618566 3032.23870405248 14 17 10
105.092123489654 52.8831029196299 3019.07324081526 11 14 7
81.6114562976988 53.8988027649233 3029.22961596705 11 14 7
65.48726979522 54.3098872212916 3033.59929089869 10 13 6
49.4191201112102 54.7256859387653 3038.0099064716 12 15 8
59.0819126324966 52.9565635681139 3021.53854169101 12 15 8
39.8556247670792 53.6502269792316 3028.60160393149 13 16 9
55.0151358382296 51.3919406806363 3007.46631018629 14 17 10
38.22952144739 51.8830937184309 3012.59223859546 15 18 11
3.25237371241061 53.9700047682648 3032.94672289657 18 21 14
-10.9877207248532 54.267495052131 3036.21186221655 17 20 13
7.17643370741472 51.7181624699352 3012.31278336546 15 18 11
26.7823238508798 49.0182590039742 2986.98771909296 14 17 10
28.1965312620573 47.9141910636692 2976.89110281037 13 16 9
46.0051912266968 45.334969140381 2952.73416703767 13 16 9
31.68451565569 45.6255775684331 2955.94056203913 13 16 7
15.8546134234903 46.0611250651286 2960.52398830577 13 16 7
7.84112708975204 45.7950439080738 2958.41889765728 12 15 6
-9.44610752838182 46.3798539760804 2964.41699635612 13 16 7
-11.235491801747 45.5500431685225 2956.93985825363 15 18 9
-12.2783738390924 44.6471258526672 2948.7684686251 18 21 12
-7.97795408197666 43.2423829462675 2935.82245977213 17 20 11
-26.6869111045018 43.9795690081076 2943.26076663181 17 20 11
-27.0137230047567 43.001154524322 2934.37305249012 16 19 10
-19.7655353626445 41.3008565573389 2918.62141649294 17 20 11
6.36821214728034 37.7913924274946 2885.67347950636 18 21 12
3.5788135784629 37.0137475534207 2878.70671055968 32 33 27
318.21976009319 43.7223965718381 2995.66938058092 19 21 8
281.840310721911 45.6566088793008 3013.77149642085 20 22 11
279.293368946907 44.8900577663317 3006.98084024739 14 17 8
257.415711884609 45.6864233196042 3014.59275631604 13 16 7
290.896365097193 41.9878208863485 2980.7937234642 13 16 9
267.369363613967 42.9223896168117 2989.68106232513 9 14 7
241.434653156943 44.070164397558 3000.52919138617 9 14 7
241.363734898731 43.0950498945026 2991.82699672169 9 14 8
236.289222518052 42.5308400568804 2986.91047993822 10 13 6
230.38343932531 42.0351995363225 2982.6267411492 9 12 5
244.262358920258 39.8759451790581 2963.03369418843 9 12 5
225.148034768386 40.4874408140007 2968.94246848909 9 12 5
219.223258850603 39.9898135922877 2964.64495140533 9 12 5
144.601880790979 45.360292178414 3014.32825773893 10 13 6
94.816411440716 48.6601840288868 3044.95111274427 14 17 10
94.0725936379798 47.7660952829282 3036.99656588021 13 16 9
82.7558745774843 47.7850035888047 3037.43877585524 11 14 7
87.6502585076531 46.3944335590928 3024.92312161853 11 14 7
88.4526167874107 45.3528681792058 3015.61861053707 10 13 6
65.0790844832563 46.4371701918519 3025.8529975389 13 16 9
58.6535328588709 46.0353192191922 3022.42797921312 13 16 9
41.8278902309406 46.561047358392 3027.52506542868 14 17 10
42.6208766383014 45.5184240332469 3018.21375511821 14 17 10
59.2965182486518 43.0387332433837 2995.70604756389 15 18 11
1.23918639471388 47.3059440274223 3035.15897002961 18 21 14
2.04300719601536 46.2641685371073 3025.85551809698 17 20 13
33.5951069452944 42.4013663245319 2990.65789845498 14 17 10
47.6233646469044 40.1148034827466 2969.93742840299 13 16 9
50.551713332192 38.8357206889288 2958.46748570024 12 15 8
44.0380377838308 38.4261780653505 2954.97854550159 13 16 9
23.4777474254741 39.3308482244369 2963.54599739211 14 17 8
20.9023034831004 38.5593743261309 2956.73465445438 13 16 5
11.3230681671252 38.4466222848336 2955.96536885452 12 15 4
2.53881514057053 38.2621221761758 2954.53698283472 13 16 5
12.2938505381009 36.3094668277994 2936.89622614675 15 18 7
4.2597629180734 36.0494684968244 2934.77623199688 17 20 9
-2.2272556886882 35.6423691659246 2931.30662835984 17 20 9
-12.5369295721676 35.6070374543122 2931.24355550952 17 20 9
-50.2891185904262 38.2548673696452 2955.76496642674 16 19 8
-39.1663339830339 36.1401808466843 2936.64453187495 18 21 10
-7.6588868862415 31.9966554743337 2898.94275291866 20 23 14
9.26049690772324 29.2605112382951 2874.1403670293 16 17 11
314.430445400824 37.6095790373834 3007.71308032499 10 13 2
326.238144325664 35.6360003795168 2990.32490614707 15 18 7
284.768334755723 38.0883782510622 3012.15034458529 16 19 10
243.481991281279 40.555917641491 3034.10885830758 13 16 7
235.132961819412 40.2795164408125 3031.76047301161 13 16 7
274.542982412358 35.961095410906 2993.61078025093 13 16 9
251.056493121136 36.9560611680508 3002.52779318726 12 15 8
240.16083187924 36.8890900563156 3002.03976533544 11 14 7
221.811435249723 37.467481303107 3007.26755313495 10 13 6
223.420781691085 36.3312027090381 2997.3122341465 11 14 7
228.297076447068 34.904067763055 2984.78328147287 10 13 6
232.291457467376 33.543993770922 2972.85068149444 9 12 5
231.298950860566 32.6126418553242 2964.71566606372 9 12 5
181.891156577207 35.9504239997483 2994.37746107766 9 12 5
80.5069229700295 42.9751475640582 3056.78119505248 11 14 7
88.7527316916232 41.2651814446138 3041.75300137204 12 15 8
83.1299220390078 40.7920616658646 3037.6745102132 12 15 8
86.4076260429982 39.5123197345683 3026.45781929793 12 15 8
95.2855935394825 37.7138453342693 3010.65240606325 12 15 8
110.522608416232 35.3191246697325 2989.57260541378 14 17 8
61.4349637005009 38.8244894292404 3020.7023691498 13 16 7
62.2101639152781 37.7581407810718 3011.37804507532 13 16 7
59.7568380437794 36.9856312678026 3004.65492841068 16 19 10
84.3508189388782 33.6810979122516 2975.53226075336 17 20 13
23.8343029806201 38.3457870384296 3016.90988585105 17 20 13
11.9113897239518 38.4733496777903 3018.14823970127 15 18 11
44.2335037957258 34.4048474341831 2982.27274133416 12 14 9
28.9496486481937 33.8247449189217 2977.3656878535 13 15 10
21.714267059942 33.4982290499988 2974.58931919766 11 13 8
26.1974095586686 32.0365559149355 2961.77518711972 13 15 10
-24.6514871330277 35.9592360079319 2996.57073648964 11 14 7
-14.1150121954559 32.8853250777247 2969.60990063278 14 17 8
-3.53680909166298 30.8053281741166 2951.33019414306 16 19 8
16.1851445738725 27.7977723767179 2924.85267184571 19 22 11
-4.91810819400329 28.8498999250035 2934.26230222813 18 21 10
-22.8730378246556 29.6013715692375 2941.01196088899 16 19 8
-30.8378613154332 29.3551394359612 2938.9422475131 16 19 10
-39.5515597934426 29.1873881248625 2937.56538730423 17 20 11
-14.1045902199772 25.5305346802673 2905.35358593119 21 24 15
7.37835898741102 22.247244897192 2876.44584587202 24 27 20
274.938893693169 33.6067523434135 3037.11538084498 17 20 9
291.931385974734 31.1467901841772 3016.07279613978 13 16 5
276.720143334654 31.4544801357382 3018.63368658851 15 18 9
280.084565790689 30.15372858089 3007.4797533119 13 16 7
263.240897133979 30.6119702151109 3011.32839361285 13 16 7
246.454094945922 31.0746991798553 3015.21828035973 12 15 8
256.46324507383 29.1793368769174 2998.99706369266 11 14 7
233.885680035229 30.1634382422491 3007.33758908061 10 13 6
215.551227849742 30.7837360521956 3012.57671716856 10 13 6
222.982631856104 29.1033486445923 2998.19333058099 11 14 7
227.036118775014 27.7151635607731 2986.3031408646 10 13 6
221.140593600065 27.2194280249217 2982.02683785032 9 12 5
200.440055308499 28.0724047598225 2989.25702807741 9 12 5
184.739408512572 28.4810742240305 2992.69898159653 9 12 5
128.185762634041 32.6592916199264 3028.30106635319 12 15 8
135.544282285847 30.9719841219163 3013.86480928995 12 15 8
88.3125767597099 34.3488036209552 3042.63422195753 12 15 8
82.6918579962657 33.875479828702 3038.55724549551 12 15 8
93.257528875478 31.8811502948583 3021.50392468006 13 16 9
101.313586883142 30.1079620330326 3006.33756194797 13 16 9
71.4609397113826 31.919808780174 3021.75996193328 14 17 6
85.0891014645372 29.6063394153921 3001.98435413214 14 17 8
49.7758494319402 31.9675194321481 3022.09657848148 14 17 8
80.8903710735977 27.9541066529347 2987.81602288788 16 19 10
76.7697038096395 27.3182631041084 2982.35556931751 18 21 14
57.5534500320689 28.1509268327863 2989.42660954642 16 19 12
36.0355850932685 29.2223095758785 2998.53577624923 15 18 11
54.6799116702572 25.3115954122935 2965.0970067795 12 14 9
58.3793371982195 23.8920986793339 2952.94999180509 12 14 9
32.2695060869753 25.4420105563838 2966.14357680572 12 14 9
9.39627310947744 26.6876145163985 2976.74145849252 14 16 13
11.5359315502794 25.4252024732913 2965.93460399288 12 14 9
-29.8512185644131 28.5726177191277 2992.76392552939 14 16 11
-36.969668667131 28.2610560996341 2990.07239874908 15 18 9
-17.8295495793992 25.2578587251993 2964.40815085479 17 20 9
-7.29965439691593 23.1158922888062 2946.09311103407 18 21 10
7.7433096445918 20.4887661809197 2923.6364249843 17 20 9
-30.9172856046405 23.4334259947328 2948.73585296949 16 19 8
-37.3316858714345 23.0371682958942 2945.31894683185 16 19 10
-16.3432702458803 19.75722893906 2917.28776242511 17 20 11
-1.58081387461206 17.1067213996063 2894.62761194729 20 23 14
-23.2596396695195 18.3092758544401 2904.85609020723 20 23 16
250.556358737993 29.5147417834036 3063.88379196511 21 24 13
243.072994477476 29.1809366648508 3060.92761845644 13 16 5
240.678759281031 28.3937526074599 3054.24726355375 12 15 4
250.089603089261 26.5434395291076 3038.82788115647 16 19 10
269.529515998671 23.7742136991228 3015.85251304885 13 16 7
269.514882814167 22.7460957488083 3007.19085216257 13 16 7
256.900436915378 22.8606670148583 3007.92783343862 12 15 8
240.977562674011 23.2842225478983 3011.20876494084 11 14 7
220.10575673578 24.1723743656615 3018.31497776456 11 14 7
213.445596135441 23.7592841454909 3014.71982945631 10 13 6
215.910566969884 22.4981738621595 3004.14910192401 11 14 7
209.234109346141 22.0834152968295 3000.54242558222 10 13 6
219.882926672581 20.0418131435524 2983.54913995566 9 12 5
205.765044906336 20.3224639571759 2985.66745744754 9 12 5
142.464244860255 25.2772382338236 3026.26320155808 9 12 5
133.473764102609 25.1077702808516 3024.68539279573 13 16 9
136.740956883421 23.7664621710636 3013.46077022562 13 16 9
117.171253316776 24.6160471841267 3020.27567286908 13 16 9
86.3119432712667 26.5718748356741 3036.2037928978 14 17 10
90.3956258598182 25.1520923215646 3024.33562709655 14 17 10
78.2803260889815 25.3067116558163 3025.43465290442 14 17 10
94.3781108648758 22.6944504734605 3003.74270420977 14 17 8
95.1015227299985 21.5791732097841 2994.38058982232 15 18 9
2.10416600060626 29.7628816590356 3061.6349836884 17 20 11
30.1627674198914 25.953615981763 3030.08060134817 18 21 12
46.0912705944385 23.3268046884032 3008.26586310888 18 21 14
40.458616411688 22.8515580930356 3004.18022466731 14 17 10
18.9859827359307 23.9810914323237 3013.32247502221 12 15 8
29.191053459066 21.9007328960618 2996.00731170418 9 11 6
10.9548516801241 22.7150117330889 3002.55368278994 10 12 7
49.3356272029599 17.7175758488146 2961.18435571026 12 14 9
31.8635699388423 18.4492488582761 2967.04892194144 15 17 12
19.1422771049838 18.699405539075 2968.94446546711 14 16 13
22.8146108060496 17.2443471452149 2956.77763092239 12 14 9
10.9011250799647 17.4156247452388 2958.02333489264 15 18 11
-20.3384373997528 19.6329433708753 2976.14749405558 16 19 10
-35.2172982824424 20.1422601470636 2980.18539304243 17 20 9
-11.5434179170604 16.5512920108168 2950.39427402657 18 21 10
-8.76838725506635 15.1677430415791 2938.81236419797 17 20 9
-22.121030261409 15.5118803243203 2941.48574116939 17 20 9
-26.2694893596569 14.8679005611766 2936.00509949372 17 20 11
-15.2027868633811 12.5664222535237 2916.84306368551 18 21 12
13.9833174687602 8.26427438381922 2881.16309472961 19 22 13
-21.3655612495276 11.0176830096172 2903.72184698483 28 30 25
241.579372981708 23.1781726800883 3070.93037379254 30 33 24
233.27072566003 22.929657334979 3068.61140361914 15 18 9
222.434480424082 22.9170869489619 3068.16672324843 14 17 8
231.895957345823 21.0214974542237 3052.78381654172 14 17 8
254.758154226475 17.8594300688542 3027.34660982925 14 17 10
262.346394924254 16.1050001626882 3013.0765424665 14 17 10
241.369290165694 17.0335920166065 3020.10692124195 13 16 9
233.009208006511 16.7794461525694 3017.75063633749 12 15 8
220.493527144666 16.9234665177252 3018.55936366206 11 14 7
215.496039554809 16.3534432324493 3013.69865434698 11 14 7
208.83532515654 15.9424887977248 3010.10311539696 11 14 7
216.240178983935 14.1714699392284 2995.70002295189 10 13 6
212.024829212826 13.5171424208435 2990.17083838651 9 12 5
192.990559190108 14.3087388599874 2996.13855787992 9 12 5
159.255494929998 16.5562469878965 3013.68886409058 9 12 5
121.576731814652 19.2198447518814 3034.55817851446 14 17 10
100.392268686067 20.2789757933947 3042.67393661816 14 17 10
103.710969466003 18.9113905737514 3031.48622572009 14 17 10
93.1798235200327 18.9217741902385 3031.26283460237 14 17 10
80.2454098448084 19.1787125917106 3033.00391663266 15 18 11
81.8839493474237 17.9686853406176 3023.06938676583 15 18 11
77.0402498418772 17.410045216591 3018.32021937303 15 18 9
69.7824935054507 17.097075481617 3015.52740492155 16 19 10
0.0645523567106565 23.1985283600062 3063.82857885146 18 21 12
11.3635627320718 21.0056738153931 3046.07053481247 18 21 12
23.3660307852324 18.7224202743337 3027.58724221573 17 20 13
26.5343909619347 17.3414609128785 3016.29047846328 13 16 9
26.4850741556382 16.2882188874215 3007.60354742098 11 14 7
8.23641340201942 17.1448624183835 3014.14110131564 9 12 5
27.8677206234828 14.0070496281652 2988.83224432835 11 13 8
16.7224014649627 14.114747045906 2989.39915548453 14 16 11
8.74017666949012 13.8901364536413 2987.31693704887 15 17 12
7.80063835859535 12.9115166482203 2979.22008004508 13 15 10
9.17060460173502 11.6783980904307 2969.09103320582 12 14 9
5.06315572463922 11.0317260007555 2963.63981260047 15 18 11
-21.5161566745721 12.8333116973737 2977.72937200294 16 19 10
-33.3030773084067 13.0367983334474 2979.06698885472 17 20 9
-19.6400331573956 10.4440950005579 2958.08021704392 17 20 9
-6.85575727512866 7.92713131736147 2937.69212210374 17 20 9
-5.66429273887192 6.67906382170805 2927.43330537141 17 20 9
-25.1302164305318 7.7328861545306 2935.55980586952 17 20 11
-34.6196878025133 7.68105593981602 2934.85590064939 18 21 12
16.6466943816896 0.771165328665835 2879.35047505386 19 22 15
53.9566557522782 -4.61972259912058 2835.96786240154 20 22 17
258.139717305697 14.4804548036215 3059.42380233557 72 75 66
239.59866268102 15.2070578992874 3064.51369836346 15 18 11
218.582272298447 16.1821142899602 3071.51583350371 18 21 14
260.159653583222 11.1501970152687 3032.46332502775 13 16 9
266.944664720063 9.43670172315239 3018.84651786262 14 17 10
250.972449136574 9.92147043149327 3022.09199082974 14 17 10
257.685081209637 8.20144408767237 3008.42238697854 13 16 9
245.102735705846 8.36154177492718 3009.18286911628 12 15 8
240.059726364896 7.78478378556491 3004.28912599975 12 15 8
226.695287999708 8.0310816365311 3005.71842005862 11 14 7
223.323730235435 7.28987661086061 2999.56514716849 11 14 7
222.420603332167 6.29915109410029 2991.49462425333 10 13 6
217.365117417459 5.72063556543098 2986.59182769994 9 12 5
188.44046988065 7.55149204156691 3000.2163885007 9 12 5
167.024298874847 8.64296299484321 3008.16434042734 9 12 5
111.312251393867 13.2470660603534 3043.14363838867 15 18 11
98.3170316145698 13.5233539917654 3044.84044430861 15 18 11
78.8471283326055 14.4735774690031 3051.72849853896 16 19 12
91.1181434183961 12.1528926251828 3033.4393973433 16 19 12
98.4334517947634 10.3292142869673 3018.97112475913 16 19 12
63.6834720306991 12.8880344971965 3038.2576416541 16 19 12
68.5551609973394 11.3155879352534 3025.72461411349 15 18 11
64.5339456778178 10.6705845258935 3020.33591450654 17 20 13
30.8655003935749 13.167980863778 3039.17111107379 17 20 13
28.5040734318676 12.3578946447632 3032.51471803368 16 19 12
25.3278516905793 11.631468498638 3026.50312325323 14 17 10
30.0821035350811 10.0488211662309 3013.88491136764 12 15 8
18.1414515089546 10.2607239501004 3015.11083320478 11 14 7
29.9366265641949 7.89929059430136 2996.47687349382 12 15 8
22.7261224774686 7.59498806755582 2993.71835710769 14 17 10
10.0236702441956 7.8951830250551 2995.62781204053 14 17 10
-2.64017587907706 8.19862499564236 2997.56526981317 14 17 10
-12.1399860812932 8.15880214064338 2996.853930574 12 14 9
-9.93236856756852 6.81874250797271 2986.0962422333 13 16 9
-20.9768216322805 6.95375909697199 2986.73641175047 16 19 12
-35.0902878543655 7.44003713421604 2990.0943028132 17 20 11
-31.3885304847106 5.92101687888197 2977.94847413434 17 20 9
-26.9699778691732 4.30994941689292 2965.08676275994 17 20 9
-3.40658449797315 0.500777889218013 2935.21444412088 17 20 9
-1.45674831555098 -0.860851960022252 2924.2697753344 17 20 11
9.61309913804698 -3.28347492353051 2905.10940575131 18 21 12
10.6854534151224 -4.5664931842673 2894.76406641765 18 21 12
-3.46933772592428 -4.08336418135166 2898.0916897372 19 22 15
3.62296080049074 -6.07862981745588 2882.22584680084 16 18 13
250.175151788842 7.02866150632139 3057.31777838264 14 17 8
244.378081194484 6.54182791863014 3053.11289228508 17 20 13
247.87518016022 5.13093303067547 3042.05458114411 8 11 4
260.594431679156 2.78989332810461 3024.09031300331 14 17 10
254.72481044788 2.29622642867219 3019.83279878866 13 16 9
259.753841545217 0.703368516612846 3007.41372852894 12 15 8
268.07036803672 -1.23337666757889 2992.43565098842 12 15 8
252.126291367336 -0.714484939883464 2995.70169529471 11 14 7
234.570804373051 -0.0212142989726161 3000.27055038925 11 14 7
229.520475790689 -0.602030369796919 2995.37148084344 11 14 7
230.257754445502 -1.78164397678257 2986.01879843449 10 13 6
228.483620262812 -2.70750180158646 2978.55252342813 9 12 5
211.049092986348 -2.00476066553448 2983.20911277345 9 12 5
169.049112933732 1.28325907663643 3007.12481974062 9 12 5
128.878900849043 4.41495692791535 3029.89551054329 15 18 11
106.038185378244 5.74808185017969 3039.28237154639 16 19 12
99.5750599711549 5.35749562582499 3035.83017224183 16 19 12
92.3035369306144 5.05390603223058 3033.02772000203 16 19 12
85.0404896010621 4.75087321974252 3030.23112032919 16 19 12
80.2085372919805 4.1870908804883 3025.49044268348 16 19 12
68.1219315441845 4.40852819911186 3026.61060784727 16 19 12
60.8895640207114 4.10787166381385 3023.83655513393 17 20 13
44.0515534933645 4.85992308203925 3028.92582196729 17 20 13
41.6556140983655 4.03557015851713 3022.24433786408 15 18 11
44.022162857106 2.68132178086206 3011.60179030587 13 16 9
23.3009879744897 3.8819684473797 3020.05411275067 12 15 8
63.6770143137824 -1.71849000586968 2977.65776340499 11 14 7
45.3228116605344 -0.784006989045516 2984.11920199657 13 16 9
36.4942544005644 -0.909171061352798 2982.65899944119 15 18 11
23.7531590627134 -0.588029868761802 2984.54054725965 14 17 10
11.0508142714405 -0.263629962109102 2986.45020268233 13 16 9
-0.831285785865443 -0.0253266827675291 2987.71870381494 14 16 11
-22.0300694688149 1.29023897316669 2997.06041616424 14 17 10
-19.0536212076542 -0.167972396427213 2985.62443454898 17 20 13
-24.6496204200124 -0.64141453480146 2981.56537721764 17 20 11
-28.7011129854362 -1.29508409552093 2976.15468509322 18 21 10
-14.2712526100457 -4.11603098412266 2954.48760200033 17 20 9
-3.79787892543271 -6.49438229513755 2936.13039120358 17 20 9
-2.61024239887897 -7.79285509130739 2925.86854415254 17 20 11
2.3561600979809 -9.54881828947221 2912.16821029414 18 21 12
2.69023233315746 -10.7639339443562 2902.52305512187 18 21 12
-9.16368130194334 -10.5227693258506 2903.81229816373 19 21 16
-28.5559798128983 -9.36480393040712 2911.99240415471 23 25 22
292.184648956487 -4.40891478305883 3027.1925083187 4 7 0
289.669470823775 -5.2511823789978 3020.42420029148 13 16 9
263.513459990102 -4.76874530993485 3022.46268856159 14 17 10
266.015327350698 -7.24139464204751 3003.26672606595 13 16 9
267.628101504436 -8.526475885624 2993.31343266161 12 15 8
258.35756700606 -8.67609371842607 2991.53270751073 11 14 7
229.137184154702 -6.71711721932911 3004.94353242385 10 13 6
221.612983520599 -7.03576970066799 3001.95783250758 9 12 5
234.786746251541 -9.55830210675551 2983.08709331858 9 12 5
218.145191097003 -8.90851815867896 2987.08322021016 9 12 5
213.908336573203 -9.58240181716416 2981.5380528579 9 12 5
200.630942583259 -9.28107811745682 2983.03072595876 9 12 5
129.255868986325 -2.66371973777871 3030.13292789807 14 17 10
103.962026772172 -1.00652885897673 3041.44851079516 14 17 10
86.9175057293585 -0.233478876280613 3046.38818011057 16 19 12
75.6194789317846 -0.0816945749899933 3046.84461354902 17 20 13
72.4522649803347 -0.824029642211815 3040.83946812584 16 19 12
105.625881474082 -5.61049164955832 3005.57731095162 16 19 12
77.3561902010522 -3.57284521690743 3019.67800543437 17 20 13
65.2786543747035 -3.32922510384173 3020.80485793801 17 20 13
56.4405009156523 -3.44434258636744 3019.3380442581 17 20 13
58.0078170467218 -4.73565590726519 3009.35147131929 14 17 10
62.6115095057722 -7.51058599840268 2987.97223121643 11 14 7
55.1816974679538 -8.93089165758712 2976.40323568196 14 17 10
40.8090130591607 -8.40718373309135 2979.57340353891 14 17 10
31.1996669910353 -8.42965267993812 2978.7827473139 14 17 10
52.1783764960815 -12.0337519742138 2951.9782159055 13 16 9
2.66532404445741 -7.36443481456211 2985.27585587891 14 17 10
-14.6480542082084 -6.45680642005753 2991.25634316059 17 20 11
-6.24945674841992 -8.59413364336087 2975.1017079997 17 20 11
-8.78060095883537 -9.441418299725 2968.32209488663 17 20 11
4.12597068977272 -12.146476023893 2948.02140754697 17 20 9
3.82592757944789 -13.2795643879955 2939.15231521867 18 21 10
-6.49503424023523 -13.203880510563 2939.08162181835 18 21 10
-12.9594108703013 -13.5928355272923 2935.62852373794 17 20 11
-14.8363806909173 -14.5427666809272 2928.08757904687 17 20 13
-19.0214774037751 -15.2133535367345 2922.57994873529 19 22 15
-27.0145006843929 -15.4150608882773 2920.49001825672 22 24 21
322.264647607702 -15.9935114951008 2997.06409638609 14 16 11
314.577656155304 -16.3191488498135 2993.96005607472 3 5 0
291.724405750831 -15.0314188179557 3002.10226919659 13 16 9
281.571226990507 -15.0833863004889 3000.91752210816 13 16 9
284.019875109266 -16.4834686560313 2990.33425796998 13 16 9
254.638330658544 -14.4614045513449 3003.62857295152 11 14 7
237.058959367249 -13.6940941854622 3008.18078331227 11 14 7
242.839748678851 -15.4565924474461 2995.07048825734 10 13 6
239.429461499327 -16.2266144698306 2988.88928810083 9 12 5
202.896879781838 -13.3621753302036 3008.12014344647 9 12 5
223.488006967317 -16.768865614869 2983.50571851715 9 12 5
215.944732203428 -17.0845526553942 2980.50620637767 9 12 5
189.523072043662 -15.296302462557 2992.23961597061 9 12 5
127.175592407576 -9.46699679513802 3032.29583543592 13 16 9
103.518420088403 -7.92790149685421 3042.32690935533 14 17 10
70.9966258111674 -5.36882882914896 3059.52328237566 15 18 11
58.9289503213184 -5.10245406677781 3060.65739810444 16 19 12
73.6326565621752 -7.88169039239556 3040.42437410204 16 19 12
89.0344603743012 -10.7629826249689 3019.46156788768 16 19 12
85.7875360845641 -11.5208263065487 3013.39856018498 17 19 14
67.2575937038191 -10.5141607388805 3019.73296691648 16 18 13
68.8335563457056 -11.8296867669089 3009.75253937575 15 17 12
63.9751052490984 -12.4022473669619 3004.99260772982 12 15 8
59.9088514698281 -13.068792666495 2999.5711496683 11 14 7
53.4484899152607 -13.4551521523541 2996.12097534869 11 14 7
73.1500584205866 -16.9386458856835 2970.86159580041 13 16 9
40.5383649761695 -14.2270320676353 2989.2286082761 16 19 10
40.3952203177536 -15.3664383124907 2980.47322298266 14 17 8
10.3485680525837 -12.9205952298483 2996.99293800409 14 17 8
-16.4274389566847 -10.8417109869016 3010.94160833489 15 18 9
-2.43610780072534 -13.6819837791495 2990.19156479185 16 19 12
15.342296326089 -17.0065561686945 2966.00892056956 18 21 12
0.340156739064401 -16.3454596043886 2969.95851546432 18 21 12
14.8452206631919 -19.3032213727903 2948.3452560345 17 20 9
16.0952691716152 -20.6465839318918 2938.12842538555 18 21 10
-14.2958729505982 -18.0687841537769 2955.63441185073 18 21 10
5.40860912755203 -21.7130710753641 2929.14099885816 18 21 10
-3.38781320282688 -21.8142435741565 2927.70421312108 17 20 11
-16.7526763790267 -21.3361947267514 2930.36940971906 18 21 14
-30.0744592123272 -20.8544766596802 2933.06585476231 19 22 15
-3.84524110225892 -25.3949229355157 2900.18160984637 22 24 21
292.970397170411 -19.088898871943 3027.68775695417 13 15 10
321.815773341354 -23.3558617591456 2997.93644272462 12 14 9
299.758878793385 -22.1097323173078 3005.42070385756 14 16 11
301.394436937467 -23.4420577061302 2995.48339327613 13 16 9
265.122533920502 -21.7607621070851 3005.01634533202 12 15 8
249.172920555258 -21.1447273913838 3008.27886801771 11 14 7
254.971232406014 -22.9441019178179 2995.18108863982 11 14 7
249.888475693238 -23.5366559606716 2990.25845179508 10 13 6
219.069264478075 -21.23343488908 3004.98236330863 9 12 5
219.839924189937 -22.476769022286 2995.65385126031 9 12 5
228.832268383998 -24.6613576258861 2979.92910191304 9 12 5
202.335029614024 -22.8113508109162 2991.608330245 9 12 5
148.843814726679 -17.8445680196376 3024.49369535104 9 12 5
155.401434901824 -19.7446633553557 3010.711102459 13 16 9
139.835798614053 -19.0978209332205 3014.25213436973 13 16 9
79.5117337991576 -13.2366289772215 3053.30496419565 14 17 10
91.7974678480959 -15.7981137443151 3035.02531339141 14 17 10
76.4338768774047 -15.1345150634243 3038.71289713811 15 18 11
61.9305568561304 -14.5619254707818 3041.78831756994 15 18 11
82.1318868596643 -18.0906159386212 3016.89070238976 17 19 14
82.0977691453058 -19.2399493430754 3008.21430277179 15 17 12
81.2303934228304 -20.2961450535942 3000.16965950814 13 15 10
81.9352446894621 -21.5467624371514 2990.79311014533 11 14 7
53.9044728012743 -19.3367868310219 3005.06787527019 11 14 7
64.1567819177911 -21.7437018286193 2987.78530199878 12 15 8
60.0498913518486 -22.4196031583092 2982.33433807323 15 18 11
80.4431529755636 -26.096273126442 2956.340072046 17 20 11
32.0963627994697 -21.3500394437364 2988.01318229416 14 17 8
17.7942391837211 -20.7609909805251 2991.23483213854 15 18 9
-9.00523196239589 -18.6105928038475 3005.16656057093 17 20 11
-8.32168935763655 -19.8632948895485 2995.77455354496 17 20 13
11.0378792000514 -23.4638413083496 2970.26665804107 18 21 12
5.37700924730489 -23.9439426798115 2966.16054079528 18 21 12
-8.81272382611487 -23.3453516090196 2969.46341880049 17 20 9
-17.5435402461821 -23.4304554106842 2968.07427357902 18 21 10
23.079523194006 -29.8146532091704 2923.38296364712 19 22 11
12.7042767979257 -29.7115534062348 2923.27305706594 18 21 10
0.821536933958367 -29.4085695346065 2924.541422009 17 20 11
-9.49841005868102 -29.3006314003845 2924.47162765263 18 21 14
-28.9383656016582 -28.000173922329 2932.61820227155 20 23 16
-18.663314398635 -30.5687551457725 2914.11596524645 22 24 21
308.661108612116 -28.129130764858 3016.78407179014 20 22 19
293.391886166654 -27.5880288486907 3019.30411371821 16 18 13
301.845240296893 -29.6992537581888 3004.42434167885 14 16 11
264.684130678501 -26.6846645780459 3023.20032427524 13 16 9
266.377300536335 -28.0371658442935 3013.30496993683 12 15 8
260.480513113856 -28.5345569754668 3009.02774350646 11 14 7
245.379074246149 -27.9806692598306 3011.66948009333 11 14 7
243.678649707179 -28.9554304757146 3004.25639107543 10 13 6
221.978855962812 -27.6291519231325 3011.99963369583 9 12 3
239.381317447804 -30.815195431899 2990.01553004099 10 13 6
238.444640859745 -31.8924295480922 2981.92024806022 10 13 6
186.27988850654 -26.987640517959 3013.29680689635 10 13 6
173.89474690098 -26.7043867112108 3014.20087015848 10 13 6
147.579326135728 -24.7711841979553 3026.01232364486 10 13 6
136.119697980919 -24.5762724787338 3026.35182725958 16 19 12
127.958501693867 -24.7680646561305 3024.14003480197 16 19 12
132.848122548913 -26.5180808773561 3011.61910704463 16 19 12
105.172575201283 -24.3677088627396 3024.91574900964 16 19 12
88.9616447297872 -23.5769344970908 3029.2247590682 18 21 14
66.3406049209358 -21.997493303203 3038.77211528722 18 21 14
84.1172100138206 -25.31999163357 3015.82321404157 14 16 11
80.0600105509908 -25.9971846292889 3010.40826571459 12 14 9
84.0105002957703 -27.6608776160356 2998.44231012378 10 12 7
64.7211082640893 -26.4654598180462 3005.46216829232 10 12 7
61.4527170162127 -27.2425773724008 2999.38350110757 12 15 8
50.218715302877 -27.0296861142381 2999.88665721473 14 17 10
55.6670414872733 -28.899731517486 2986.53510227333 15 18 11
57.8903112365166 -30.3771586676761 2975.78806477864 16 19 10
36.4112594465116 -28.8679654992388 2984.92758555744 15 18 9
16.5920092279963 -27.5511972238292 2992.79898951189 16 19 10
0.771834730397103 -26.7280204687701 2997.39143103956 17 20 11
-11.0821375376091 -26.4012775849199 2998.68106504797 17 20 11
2.8323137337205 -29.3856074868618 2977.8745599582 18 21 12
4.97183007348045 -30.870178060156 2967.06677164674 18 21 12
4.74039701124207 -32.056137696461 2958.2471484031 17 20 9
5.25062493735984 -33.3457023413961 2948.72931515173 17 20 9
0.327543796397656 -33.9301302593031 2943.92247169707 16 19 8
-9.98269421036624 -33.8054241183833 2943.85980052502 17 20 9
8.86517672202158 -37.5371394483375 2917.98000561896 17 20 11
-4.5353498588121 -37.0081804288561 2920.61960692389 18 20 15
-10.2703441157823 -37.494645158509 2916.45972315641 19 21 16
-5.36538395034425 -39.4105314554462 2902.71403839869 21 23 22
47.2221423096624 -47.7757438614957 2845.68889358813 15 19 20
300.555546677479 -34.544951588556 3023.2269292882 16 18 15
305.654869168865 -36.3098529639843 3010.85794332605 17 19 16
286.172726815724 -35.2500249523808 3016.50234925486 14 16 11
273.508630717884 -34.9667266645384 3017.20419267765 12 15 8
261.720333910032 -34.7786850823323 3017.30569705007 12 15 8
287.722470174948 -39.0043186570032 2989.19887124063 12 15 8
251.626328529337 -35.9687644640376 3007.51194141076 10 13 6
254.084872664137 -37.4512981383884 2996.93543347361 10 13 6
243.178663019258 -37.3587116446114 2996.44056705008 9 12 3
226.486086013663 -36.5721253754423 3000.40040004369 10 13 6
233.866773874114 -38.653619008424 2985.97821655751 10 13 6
198.226346420517 -35.5805793173914 3004.62183354228 10 13 6
163.567176291285 -32.5939153089721 3022.74101628647 10 13 6
141.384481531792 -31.0886426885142 3031.37043140186 10 13 6
94.7066363723801 -26.582165278406 3059.31203458007 16 19 12
75.2156092300638 -25.3568703320251 3066.18587448744 15 18 11
95.7348758311163 -29.0337783795773 3041.51798758065 15 18 11
108.797892960811 -31.8195222199895 3022.56563332407 15 18 11
105.546743540783 -32.6031889214226 3016.49943193557 17 20 13
103.898563405145 -33.589519997109 3009.12415739697 18 21 14
94.1654789791979 -33.5687813915719 3008.24401945044 12 14 9
100.535071932457 -35.5682880648088 2994.32461807453 11 13 8
82.7819746852012 -34.5349735117311 2999.98698029814 10 12 7
65.0936261208903 -33.4961941315066 3005.69660238126 11 13 8
56.2431764469777 -33.5702285851411 3004.22078852941 12 15 8
51.3858678559731 -34.1520465365764 2999.46163821986 15 18 11
44.144354658501 -34.4283021856447 2996.68078473054 15 18 11
43.0936381544882 -36.7197140033826 2979.85083737311 15 18 9
24.8272402231011 -35.5609191847276 2986.37706366491 16 19 8
13.6894427401391 -35.3212357777734 2986.95009597928 16 19 8
4.14565782315135 -35.2849124672444 2986.20755870327 16 19 10
3.20279758523689 -36.381436957916 2978.10769635321 18 21 12
3.01046902780699 -37.5835856893483 2969.31633879868 18 21 12
12.8690560101532 -40.1341473770461 2951.74762035095 16 19 8
27.2792535158235 -43.3144630146646 2930.06446295062 16 19 8
7.64257060796147 -41.9332277687105 2938.06854038266 16 19 8
-16.5300792760592 -39.9208115531384 2950.19869881366 16 19 8
-6.09237997617607 -42.5914622863402 2931.81385186287 16 19 10
4.25203265218066 -45.2699287690894 2913.36163430177 18 20 15
1.54253099994595 -46.1773663859623 2906.45242138619 19 21 16
29.2227524097979 -51.2793423339807 2872.1468277343 19 21 18
334.147885133325 -44.598480387824 3008.00369232088 9 11 6
290.746350505862 -40.7061802572545 3030.90644326539 21 24 17
300.96171385674 -43.1051458758916 3014.83216411437 12 15 8
271.340593058476 -40.7974382068125 3027.95425192973 21 24 17
274.743154841766 -42.3984791443607 3016.82644564046 13 16 9
296.609114721513 -46.2185376851595 2991.89904371658 12 15 8
257.065381862509 -42.6889054075663 3012.6558250376 10 13 6
260.38649268861 -44.2976201696874 3001.46893434177 11 14 7
241.952835011861 -43.2789322945238 3006.63786969915 11 14 7
246.899239479893 -45.0943279309501 2994.15806891208 8 11 4
226.873894660903 -43.867032863344 3000.64458066373 10 12 7
221.832288183397 -44.4656732874902 2995.75144919699 9 11 6
200.263340398755 -43.0256366976271 3003.5904155299 9 11 6
173.833631228243 -40.9659249997522 3015.31965970623 10 12 7
115.465246527761 -34.9060720105395 3052.08580567605 10 12 7
119.662285271787 -36.6141956115325 3040.2983536666 15 18 11
91.9294093211067 -34.32143832392 3053.55415811328 15 18 11
65.1293217156193 -32.1217509758046 3066.2506526913 13 16 9
92.0994852997916 -36.7156567358127 3036.37363191469 14 17 10
103.488991068514 -39.362671244788 3018.67888950786 15 18 11
101.039540126214 -40.2589294554026 3011.95824952757 16 19 12
109.861866976198 -42.6077561585237 2996.10941908087 13 16 9
102.520174075921 -42.8870090261789 2993.25622248257 11 14 7
82.3541807389923 -41.5015354713607 3000.87690743342 10 13 6
56.6677066201766 -39.3801899523174 3013.14495627059 12 15 8
53.4241811960467 -40.1722603411517 3007.08423911308 13 16 9
48.5758067452409 -40.7564612059847 3002.33155328251 16 19 12
9.61202237964631 -36.8367687277854 3025.98109511034 15 18 11
5.6390007595164 -37.5188222953379 3020.62714447823 15 18 11
24.5337354716137 -41.2503061272028 2996.01665440501 15 18 11
51.945427505157 -46.1519093984151 2963.98778074006 17 20 13
50.145949721077 -47.1658319179188 2956.50239307413 20 23 14
13.1201232080063 -43.4258779430261 2979.08581823798 18 21 12
11.3739326184006 -44.435304374056 2971.63908237011 19 22 13
-2.84152283307471 -43.7496892023905 2974.92375446876 19 22 13
2.38316030558838 -45.7161464562913 2961.40958756569 18 21 12
16.8279214659011 -48.965026039667 2939.75113880633 16 19 12
38.8708648038305 -53.2897796670181 2911.24407522356 16 19 10
19.9911169354832 -51.9674679491867 2918.56153593106 14 17 10
28.7945709535036 -54.4904223657156 2901.46340002233 14 17 10
16.1013102137093 -54.0195817427065 2903.38008794187 18 21 14
53.1785759128574 -61.886818768946 2851.17040067653 17 20 13
319.20027154377 -50.2008528410629 3019.3718972987 12 15 8
302.192025941054 -49.3679076952048 3023.1031302064 18 21 14
319.166404253628 -52.6438545923749 3002.04328117493 16 19 12
302.184430973209 -51.8093785335654 3005.79356720413 12 15 8
303.822057124027 -53.2408306116297 2995.85725366869 13 16 9
288.588718487542 -52.6082216288165 2998.40377203703 12 15 8
270.885178728962 -51.6610849353365 3002.86658640473 11 14 7
249.89369954842 -50.2940028339021 3009.88876589448 11 14 7
254.866421970583 -52.1427646071393 2997.42758007092 11 14 7
233.964354431785 -50.7686287553993 3004.51431721952 9 12 5
224.769558009548 -50.8485033097291 3002.78914395684 10 12 7
209.792957727665 -50.195573607487 3005.52188036595 9 11 6
208.084351664964 -51.2138442919066 2998.10234552583 9 11 6
188.223717199213 -49.9270135212647 3004.70885536474 9 11 6
160.218457410432 -47.5835543953445 3017.76745976903 10 12 7
148.724760445988 -47.3350940838303 3018.08253741076 13 16 9
132.356298724762 -46.4516635443402 3022.2778190263 13 16 9
50.819093511683 -37.1146704604048 3078.08370446004 15 18 11
72.142459062996 -41.0737674748707 3052.76226007066 15 18 11
90.0770339667707 -44.6214281047395 3029.92673402072 14 17 10
88.4740601111056 -45.6319375854732 3022.58410801084 14 17 10
102.17336858768 -48.6652617796329 3002.85642978123 11 14 7
90.8312530984703 -48.4047801669313 3003.28174743655 10 13 6
72.3001080134789 -47.1813523409467 3009.61608576862 10 13 6
46.6382296194547 -44.9898362423838 3021.90261447642 13 16 9
52.9970011577365 -47.0732037302208 3007.9749436543 14 17 10
44.9688007348477 -47.2311112613055 3005.85943989229 15 18 11
36.9527856338467 -47.3880212870457 3003.75306905974 15 18 11
-6.65541450891149 -42.699183077921 3031.45047937797 15 18 11
3.5996755375014 -45.3261183638917 3014.16880761585 16 19 12
24.7818430051301 -49.4730568920066 2987.5090176388 18 21 14
33.2601749856396 -51.9012501845915 2971.41041596258 19 22 15
15.055652284631 -50.6504557873028 2977.98196292537 17 20 11
7.06370994678007 -50.8054156507607 2975.89305283053 17 20 11
12.3110306040468 -52.8085439020857 2962.39511060197 17 20 11
-5.00364995445368 -51.6569973957219 2968.37588930768 16 19 12
21.8454485143855 -56.7215736167516 2935.93835407122 15 18 11
53.9096129543375 -62.56726629475 2898.63152958495 15 18 11
43.4476904157441 -62.4073220875565 2898.45907754642 13 16 9
39.147769535036 -63.1228975527159 2892.86827534593 13 16 9
25.6597355087056 -62.5203734617201 2895.44481325771 18 21 14
33.569964572878 -64.9965908440015 2878.93413840204 17 20 13
59.651971083782 -70.1261180277912 2845.94019284529 17 20 11
332.385487776596 -59.175949091345 3010.35765947732 16 19 12
311.089680199236 -57.7838440016868 3017.15935156389 13 16 9
322.956353965026 -60.5019519698801 2999.81015831902 17 20 13
328.808171224815 -62.4880124521757 2986.75051502984 8 11 4
287.339410865204 -58.547958456496 3008.58424943588 13 16 9
277.198397900322 -58.5185953008643 3007.40843907089 12 15 8
268.758122553887 -58.7002563837237 3004.99438756328 11 14 7
271.216264794022 -60.2652989528983 2994.4171703603 12 15 8
253.586376190726 -59.2744272448802 2998.93389202576 12 15 8
245.180652994423 -59.4539567585864 2996.54460442896 11 14 7
235.956673844353 -59.5256207840366 2994.79831757203 11 13 8
224.264201723259 -59.2744143033214 2994.96931277052 10 12 7
212.602016439253 -59.0208139948488 2995.16227566878 9 11 6
214.157670126715 -60.4862694239862 2985.1663663116 8 10 5
158.953626144049 -54.5189014176813 3019.28550094965 8 10 5
125.327379499873 -51.3363889959076 3036.91972183049 13 16 9
126.191140329497 -52.6835836020859 3027.65788021852 13 16 9
77.2763205551938 -47.4256972885909 3057.68676868083 15 18 11
89.5881392265769 -50.2871531535085 3039.42480224034 14 17 10
91.2592772460465 -51.7438206300798 3029.51265445271 11 14 7
94.5081061229267 -53.4217194803034 3018.27301459828 9 12 5
79.9609104674266 -52.704280666409 3021.31736233636 10 13 6
70.288196474658 -52.6384035646047 3020.48151131761 10 13 6
67.8579105136059 -53.5559118218773 3013.77436232853 11 14 7
35.0044848646411 -50.3088506067524 3031.96914459397 14 17 10
36.6107224343049 -51.7716420288686 3022.00991806624 16 19 12
69.2107811925866 -57.5282079921686 2986.32706288145 15 18 11
33.35424612699 -53.8260391979433 3007.28757324468 15 18 11
-6.29302762668482 -49.5578395121375 3031.67844091563 18 21 14
-24.4449845026178 -48.2590542240657 3038.28833705015 18 21 14
-2.39182926199222 -52.6029555997665 3011.02361593566 16 19 12
3.02653021151977 -54.6301651221439 2997.64954141876 15 18 11
6.03501771092674 -56.3292967468545 2986.23556542248 16 19 10
24.6024538691065 -60.2589497511504 2961.38651139968 14 17 8
44.5893595502129 -64.4232492598786 2935.09519933783 13 16 7
69.0866970000239 -69.2700467920547 2904.65932980622 13 16 9
87.9951087715307 -73.3483201452725 2878.82196133876 14 17 10
