ply
format ascii 1.0
comment KinectMotionCapture
element vertex 801
property float x
property float y
property float z
property uchar red
property uchar green
property uchar blue
end_header
96.3271539442299 264.660738356103 3128.58694266636 27 27 19
95.9696426656302 265.408606213543 3135.91664438085 27 28 22
81.2475933488477 265.687553205912 3134.90727487777 23 24 18
63.7811194193847 265.884990467036 3132.38447873465 22 23 17
61.6097104155675 266.576653147221 3138.68955832784 21 24 17
55.8313383968203 267.153104011206 3142.92545865883 23 26 19
56.3962745347419 267.927427648184 3150.7518177755 36 39 32
44.2642216822637 268.307429613288 3151.40701125248 34 39 33
53.0446884315579 269.328879889795 3163.79223704225 24 30 26
37.2460666380388 269.60112363966 3162.43600134183 25 31 27
41.5186812278043 270.478524219862 3172.23365917393 28 34 30
188.950209391181 230.318671787731 2882.98129161586 24 25 19
201.155185085625 231.817180436316 2900.39721412881 36 37 31
215.919347605132 233.428264565238 2919.50659132304 37 40 33
229.949864439939 234.986854603493 2937.93500097143 37 40 33
244.899870612484 236.574663275888 2956.86293493124 66 69 62
244.147762088487 237.386036531585 2964.57475363151 83 86 79
233.416525359125 237.714713118144 2965.26341117663 55 58 51
229.341093048015 238.364725774762 2970.63155128045 30 33 26
231.130360660631 239.290763333609 2980.05386436985 27 30 23
238.825457093555 240.487784303316 2993.49092965671 20 23 16
260.877101042832 242.341172599937 3016.663529996 19 22 15
264.508086899853 243.325325878478 3027.08255664254 21 24 17
246.210975215445 243.301841922729 3022.5834294931 21 24 17
224.464932520646 243.132613279326 3015.86203202588 20 23 16
223.86244129613 243.9249054683 3023.42843655134 20 23 16
235.190190937817 245.244462388118 3038.90808785437 22 25 18
233.802311257751 245.99071714492 3045.84395187903 22 25 18
221.321113149334 246.249179881513 3045.44656804166 21 24 17
205.379945321283 246.363329799259 3042.83833954237 23 26 19
207.417042705569 247.258140924037 3052.0195071002 24 27 20
208.625342091053 248.112335481595 3060.61243927393 25 28 21
202.100591858668 248.635420701784 3064.18014446368 25 28 21
196.43329618702 249.195509874227 3068.30816259085 23 26 19
180.368704156723 249.324880303043 3065.82024656405 22 25 18
184.221395714359 250.281084055263 3076.02324710025 22 25 18
191.593580469013 251.374155715043 3088.37908496005 18 21 14
186.81299361115 251.967573914221 3093.03857142928 20 23 16
189.02453692706 252.840607119482 3102.04973036523 22 25 18
191.267545186095 253.709708819925 3111.02988738022 23 26 19
182.131393978837 254.126575887401 3112.95572338505 28 31 24
160.660631443709 254.066320906936 3107.36210954981 29 32 25
140.880673523828 254.083096140491 3102.91227318238 29 32 25
144.008136581654 254.985877362004 3112.42608500674 31 34 27
125.034187937114 255.046090445745 3108.58669657831 31 34 27
114.873067004825 255.446806149414 3110.11548267674 33 34 28
119.808339462992 256.412132632374 3120.65902535733 28 25 18
110.526483516474 256.84719856201 3122.72685853828 25 22 15
101.22583784263 257.284602046622 3124.81266686463 25 25 17
102.647993869149 258.112345182664 3133.19714574097 28 28 20
101.40666832904 258.840397192298 3139.99016969626 26 25 20
80.4038649457013 258.865783869704 3135.33645486566 22 23 17
72.8456798734944 259.373963499086 3138.51566985043 24 25 19
61.6651967409192 259.758058500956 3139.64224489743 23 26 19
59.5058688864523 260.456822351177 3145.9342781809 23 26 19
61.8919406380498 261.308625735527 3154.77492771647 35 38 31
50.6801638702754 261.696776363899 3155.93197838601 33 38 32
42.1735764491991 262.179529725669 3158.6398195967 32 38 34
33.6519376189659 262.664217412237 3161.36232118682 17 23 19
37.0021806024479 263.540004607584 3170.65889895699 20 26 22
189.008871460701 223.22175670925 2883.97196026288 21 22 16
197.919033994462 224.601835241075 2899.00920975734 30 31 25
206.89599050629 225.973544928376 2913.98136875575 26 29 22
228.351837449389 227.988345486301 2937.72208550992 19 22 15
229.197521377031 228.907742681195 2946.6654632724 25 28 21
238.384639037777 230.253083525108 2961.43282644672 35 38 31
231.806439287449 230.778567030758 2965.05359117437 38 41 34
227.726835396534 231.43225133811 2970.42499320825 25 28 21
222.814862858435 232.043073095692 2975.21237536186 23 26 19
227.133750250376 233.115559639033 2986.35215931493 21 24 17
224.767989727629 233.848632727291 2992.84411239924 22 25 18
247.70354499885 235.825263328459 3016.53800773014 22 25 18
244.576057474814 236.506634704962 3022.37709915982 21 24 17
233.835617294969 236.817682590354 3023.07750138165 23 26 19
231.556613361949 237.539781776455 3029.48492582781 23 26 19
233.543511554641 238.462996057083 3038.71140610896 23 26 19
227.888564099662 239.019530971612 3042.8276875922 24 27 20
214.539478896499 239.215822272733 3041.88440806293 26 29 22
206.291701991804 239.655695251879 3044.34158430676 25 28 21
207.471933291658 240.532792126011 3052.95900355204 26 29 22
205.238593657333 241.249038777342 3059.32194767664 27 30 23
209.053832029697 242.237414087399 3069.55738483728 27 30 23
215.501228555985 243.337456469249 3081.41361149133 26 29 22
203.810122775642 243.620066818382 3081.6449946036 25 28 21
185.144215271722 243.599348346475 3077.51134057544 25 28 21
181.207873308121 244.234649587302 3082.74353624889 22 25 18
192.099188255684 245.51369698071 3097.24531378548 24 27 20
191.700523116559 246.294387202487 3104.61103076073 25 28 21
186.942678089628 246.885469151962 3109.24827955235 24 27 20
175.163435931448 247.179006214367 3109.56556842726 29 32 25
144.881024971064 246.700458410651 3098.61376853183 28 31 24
138.290841576088 247.226774503617 3102.24631013972 28 31 24
133.460633295083 247.826875795626 3106.95408365748 28 31 24
134.829425615937 248.680481658875 3115.38773098262 29 32 25
116.703139740473 248.73900043057 3112.12342278805 32 33 27
115.416982127166 249.483814192367 3118.95882611711 33 28 22
103.451644539051 249.800575665345 3119.4574779472 37 30 24
99.4947263872001 250.438520755069 3124.70937747804 37 32 26
90.1718323071061 250.865787051686 3126.81911491464 31 26 20
81.7272885033371 251.330192894135 3129.46805765151 23 20 13
84.9540544783105 252.245612980681 3138.88139219245 20 20 12
62.9916640472614 252.196063817815 3133.77472765228 25 26 20
57.2069156523352 252.768813076914 3138.01716907266 25 28 21
54.1331899254649 253.4435322334 3143.80385743822 23 26 19
52.8810026709632 254.184437713675 3150.60576749912 33 36 29
41.6501336467396 254.556596950474 3151.78414058224 32 37 30
-0.564555534671829 253.806329455341 3135.71750406489 32 39 32
6.33495568721631 254.85076873453 3147.13299225702 20 27 20
25.1714194246468 256.31322026277 3165.0539627691 12 19 12
180.636131056584 262.589726498067 3257.72491511577 202 207 201
184.323366331339 214.924949254054 2872.84673745873 4 5 0
200.570519653015 216.780446238663 2893.28117738589 22 23 17
209.507405314913 218.203593846427 2908.28552482845 21 22 16
217.685649510786 219.571989793393 2922.6343974154 20 23 16
227.581789831676 221.024755078835 2938.09906048108 26 29 22
234.230955911233 222.285051888168 2951.14815076935 27 30 23
235.947391603557 223.264505058783 2960.63489222816 36 39 32
231.863099678812 223.922047470353 2966.0107171648 36 39 32
228.618574670527 224.624097944158 2971.96263434293 24 27 20
220.360088743333 225.055428945108 2974.43170730505 24 27 20
226.351018087719 226.248264884231 2986.72749777132 18 21 14
223.14231186941 226.945727823687 2992.64486223907 18 21 14
228.371392961341 228.084140953065 3004.28797579001 23 26 19
233.648026298854 229.216627410541 3015.88508305965 22 25 18
226.26973925664 229.687290003817 3018.8912016428 24 27 20
230.763095830604 230.768040313651 3029.85651373792 26 29 22
232.748003642221 231.713635269873 3039.08200048481 25 28 21
228.796285280473 232.3541902422 3044.32835080771 25 28 21
214.594880815364 232.480974000849 3042.82480077185 25 28 21
210.629387568787 233.12319180525 3048.08458399316 27 30 23
206.668613928268 233.764792515005 3053.33977178221 26 29 22
206.154047894296 234.573966302596 3060.81637020078 25 28 21
209.108778732559 235.547815437119 3070.4915417081 26 29 22
184.444301595389 235.187240552532 3062.44574572227 26 29 22
219.455530993318 237.688791783226 3092.4919075926 25 28 21
190.407805362432 237.128102139766 3081.74309675874 26 29 22
191.702867654931 238.010204568734 3090.24574731199 21 24 17
188.666208380079 238.685838206291 3095.99549298286 25 28 21
190.007273560296 239.562214951338 3104.45330824215 27 30 23
179.115007684389 239.873444400417 3105.30444878953 25 28 21
172.585032738515 240.387340484736 3108.87870034728 27 30 23
163.409237922512 240.783200006527 3110.84700794772 27 30 23
154.214696165591 241.181362204974 3112.83325336102 26 29 22
137.933518423847 241.268564055426 3110.56664264487 28 31 24
127.801042111757 241.634385687126 3112.07214154059 28 31 24
120.308385108699 242.119055353743 3115.19009878824 28 29 23
111.915171434807 242.566654226581 3117.79021616812 29 24 18
106.181036667668 243.130746867053 3121.98401479434 82 75 67
102.229956534428 243.771169782813 3127.2297508648 38 34 25
93.8079980055768 244.222467816686 3129.85820341819 29 24 18
80.8860828082918 244.488209218356 3129.89738238154 22 19 12
83.212185464661 245.391373460196 3138.79032884486 27 24 17
64.8495727769687 245.439586179643 3135.76221989841 27 28 20
63.5827428777698 246.193482706149 3142.57675025099 29 30 24
63.2367097272537 246.981970449755 3149.88905041319 27 28 22
57.470557254339 247.550350048293 3154.11400948403 28 31 24
31.7123819684584 247.326215828354 3147.13410605705 30 33 26
13.1501520495227 247.399505018348 3144.30051368071 26 33 25
-10.0315944186695 247.302208507695 3138.99449758825 18 25 17
232.743134366036 210.732806739604 2908.98851975871 7 8 2
210.488907220734 210.315281429159 2901.39188362641 19 20 14
231.801798047742 212.521840782016 2925.246216051 25 26 20
228.475095824437 213.240310046438 2931.27730972836 34 37 30
214.400800041863 213.322735214856 2929.654095072 33 36 29
228.48287585845 215.062626394352 2948.0045096598 31 34 27
233.510845223549 216.259313904111 2959.83905504248 30 33 26
231.086808621132 217.017002408939 2966.38490114557 26 29 22
217.818347054321 217.150699161797 2965.37081260046 22 25 18
232.973789453195 218.908601303824 2984.06994345209 22 25 18
235.637161298122 219.943857618545 2994.02502495046 18 21 14
250.110137339896 221.634742344331 3011.99451296854 17 20 13
244.443175044255 222.188546164926 3016.12312902066 20 23 16
221.876180685671 221.809329723679 3008.83141332056 19 22 15
214.470837435822 222.275766718805 3011.86502365942 21 24 17
224.877841446344 223.713425753519 3026.82428638461 24 27 20
229.400979010237 224.820652295343 3037.75645018295 25 28 21
228.851806186887 225.64819958171 3045.26436021788 25 28 21
222.341386638638 226.154966193337 3048.82058455165 25 28 21
212.398081134966 226.481659541674 3050.14401718135 29 32 25
205.86589633173 226.991065109785 3053.72112685647 27 30 23
204.488847715774 227.769728834224 3060.64144544309 26 29 22
197.954704739806 228.279360852109 3064.22080398549 26 29 22
197.462802927054 229.099643990971 3071.6729166981 26 29 22
191.794419335853 229.653295288807 3075.80296666052 25 28 21
193.935335951842 230.601319719786 3084.87283744113 26 29 22
191.75808926828 231.327713860726 3091.17858064188 21 24 17
184.36171949394 231.792761618065 3094.20348551565 23 26 19
177.828512501186 232.302209300463 3097.78194185759 25 28 21
169.536749626045 232.726892496481 3100.28504186361 24 27 20
166.496297912997 233.408862553967 3106.03727911957 25 28 21
163.464559092475 234.089794886031 3111.78135556181 25 28 21
159.559538609606 234.727580825427 3116.98174346252 26 29 22
140.639778186217 234.653197584906 3113.1081007654 27 30 23
125.200862395062 234.752915365465 3111.4205087921 28 31 24
115.040127934327 235.106606306859 3112.95586135789 29 30 22
104.857072169572 235.463089089984 3114.51296667556 31 26 20
105.346018332595 236.313186682751 3122.40392344507 84 77 69
101.392953128904 236.957066278122 3127.65111982409 36 32 23
89.3890088827409 237.236629551488 3128.19394435598 25 20 14
82.7365441945811 237.761073001506 3131.88827114252 25 22 15
73.3802159227013 238.166620963504 3134.03408134419 25 22 15
65.8071423372082 238.65393937714 3137.23150196331 30 30 22
60.9311744242418 239.261033000998 3141.98368200846 30 31 25
64.1977931705955 240.221088135476 3151.35084511769 26 29 22
57.5270417030831 240.748037648683 3155.06329839339 27 30 23
44.4890155807931 241.004762806855 3155.21910981856 28 31 24
15.0285315749539 240.572789058121 3146.27839715939 25 30 23
11.9237899532498 241.263298775213 3152.09321308707 20 27 19
-29.5742809717869 240.35603849721 3136.75507683004 20 27 19
-3.42354964273506 242.263717553064 3158.68369297448 85 90 83
204.934147212643 201.975890455514 2889.7192282745 14 15 9
244.232679057231 205.430411920295 2926.70313707864 29 30 24
255.742023318097 207.08974682908 2943.36915251971 36 37 31
237.613471600469 206.874998713364 2938.7309115908 31 34 27
226.042726902819 207.080127699285 2938.85422608034 28 31 24
239.322101402303 208.828014052877 2956.58364394116 26 29 22
239.38725505088 209.74813715053 2964.88508320328 28 31 24
218.646244371489 209.394735315142 2958.61014196471 29 32 25
235.414214110858 211.326299318211 2978.51616081791 27 30 23
234.70487828498 212.188101761047 2986.17805218482 27 30 23
225.625850225923 212.546405700178 2988.05581966385 23 26 19
238.393064140323 214.203114436211 3004.89004940913 22 25 18
233.541792972306 214.807721186734 3009.61807278025 23 26 19
221.932826873565 215.01722065457 3009.77903357276 21 24 17
219.608136774827 215.770848684955 3016.22716510743 23 26 19
214.749851420695 216.376214376333 3020.96204149792 26 29 22
213.294935536212 217.176016521914 3027.95655918387 27 30 23
217.824305632837 218.312588719991 3038.8778588679 27 30 23
218.979090440525 219.25108838942 3047.51147154975 27 30 23
215.023399554237 219.898536612454 3052.76108567079 29 32 25
211.930512654493 220.593035954341 3058.56354001951 27 30 23
201.103631697366 220.859484036375 3059.35637104247 26 29 22
208.357370241358 222.120408632313 3071.80501914975 26 29 22
204.432079456895 222.763987583957 3077.02501739691 26 29 22
219.565428773762 224.434821605297 3094.34170847606 25 28 21
187.046826789424 223.538085932965 3081.4212215136 26 29 22
192.683764198355 224.691158567384 3092.65749888608 21 24 17
179.186214767387 224.826396063398 3091.87067025546 23 26 19
177.010253067408 225.561184358386 3098.17355895422 24 27 20
162.586383155297 225.657206759252 3096.89546691112 24 27 20
157.775250873392 226.256458521268 3101.58442323993 20 23 16
157.36297975107 227.080820313458 3108.9571965186 22 25 18
149.918337641831 227.5443244737 3112.03026467749 23 26 19
138.928916296707 227.83096851017 3112.98151575527 25 28 21
127.913137507374 228.120867277058 3113.95812127506 26 29 22
120.420661216013 228.590381286998 3117.07813907275 29 30 22
112.027549841183 229.017453482903 3119.68118870204 25 25 17
104.511139179523 229.489960982913 3122.82419340474 51 48 39
100.556341153473 230.137296646726 3128.07293753857 19 19 9
94.8156587298961 230.697841954771 3132.27342453662 18 15 6
77.411427546727 230.701459592216 3129.71746688205 28 28 20
69.8415300358195 231.180739443859 3132.91258386611 26 26 18
64.0624088461252 231.746205984469 3137.15085161312 34 34 26
60.9881395856875 232.43861059891 3142.93546581259 31 32 24
67.8733727493488 233.591089566215 3154.34916410888 25 26 18
68.4628888055991 234.445571125816 3162.13926769734 25 26 18
40.0034065105652 233.971249357396 3153.62771387836 24 27 20
28.7428955209594 234.292098035403 3154.84310554947 20 26 16
-14.4771615199004 233.182893285421 3138.41095563041 23 31 20
-22.201099959458 233.681732494692 3141.75614666926 10 18 7
-11.6116957299837 234.991523174621 3155.13627284994 107 112 105
221.386263567863 196.01631419046 2902.60306970244 28 29 23
237.683277532401 199.022882378932 2931.32000104322 21 22 16
245.926161631155 200.51430559356 2945.58650187462 21 24 17
247.612952353292 201.563828542394 2955.09232494444 22 25 18
246.843939492829 202.447301075217 2962.81061150104 28 31 24
236.951234276815 202.73681898366 2964.08929181086 27 30 23
238.700823508851 203.77835147146 2973.53393601867 26 29 22
242.987907258316 204.975705683443 2984.68718391396 30 33 26
237.273474477998 205.531128515451 2988.86236172794 31 34 27
228.200304975709 205.875691264173 2990.73634251543 28 31 24
228.358887223462 206.800643298138 2998.94429208276 27 30 23
238.655960117123 208.35026291082 3013.99617030755 26 29 22
236.351599226397 209.109981796804 3020.42321441234 23 26 19
228.132512403445 209.505320940805 3022.85848306226 27 30 23
221.596121548273 210.005600603258 3026.441118214 29 32 25
217.604689556673 210.660759286161 3031.72474633637 29 32 25
219.585973704238 211.673055168262 3040.94397306752 28 31 24
217.326639220266 212.427016678097 3047.32715622247 30 33 26
212.510484192519 213.027528180816 3052.02091402303 28 31 24
211.128509452797 213.829449579694 3058.94268684924 27 30 23
214.924461535847 214.930188867731 3069.1806682334 25 28 21
217.89790093626 215.976061294229 3078.82661685085 26 29 22
224.363385731127 217.216129882919 3090.64418577459 26 29 22
216.156463621203 217.609690520848 3093.06729970507 25 28 21
203.595227444052 217.75918697139 3092.76583786461 23 26 19
185.780090557977 217.619257266417 3089.22188472214 22 25 18
189.704613438335 218.703906100201 3099.33457156606 24 27 20
175.318849479713 218.766030895387 3098.02364979915 23 26 19
167.897108011271 219.219100056191 3101.07551957156 23 26 19
156.953984985107 219.481597633284 3101.98436457035 21 24 17
150.382392147595 219.986071818538 3105.6013358623 22 25 18
142.040902341861 220.396414279431 3108.15593499988 24 27 20
144.285878647937 221.375664890547 3117.11785775417 23 26 19
135.052828705014 221.739800792046 3119.14770927925 23 26 19
138.223332557268 222.76111021509 3128.60160038405 26 29 20
120.087492277305 222.661226971313 3125.3701916031 26 27 19
108.132784130014 222.892545849909 3125.87125446145 28 28 18
96.1476793415512 223.127636034984 3126.40160639438 15 17 6
90.3975751123789 223.687225824564 3130.61192845187 19 19 9
81.9534914135409 224.110501875833 3133.26649326292 26 28 17
65.4045952113687 224.127705613004 3131.27607662616 28 30 19
59.6156328888302 224.692192378386 3135.52392373191 32 33 25
61.9480608952321 225.660803314795 3144.40091603627 30 31 23
61.5976940291043 226.491688812411 3151.71091543062 24 25 17
49.4818882498929 226.743331349454 3152.36894679108 25 26 18
28.2504963347443 226.557500930931 3147.97310370427 25 26 18
-30.3768199356558 224.580855786541 3122.87964966157 22 25 16
-39.0520240299335 225.033237047296 3125.75908086263 22 30 17
-40.4277982934089 225.834864974736 3132.67507774122 6 14 3
159.156859639564 184.60432549581 2858.39159615563 30 31 25
199.987318517416 188.480824452188 2896.62606715815 32 33 27
234.448271711536 191.870541046229 2929.92154745805 20 21 15
247.635355858971 193.749818676313 2947.72285358749 20 23 16
265.872985387474 195.95999176208 2968.9624567212 22 25 18
244.414111830675 195.434450315649 2962.00889677347 29 32 25
237.840624110277 195.934821801149 2965.62835608937 26 29 22
242.091380451858 197.166916510563 2976.81220516537 22 25 18
243.880624788051 198.225586969927 2986.21527612581 25 28 21
233.146039617719 198.444133873231 2986.9235358414 27 30 23
234.130890283147 199.442872671466 2995.71699232167 26 29 22
249.439159303117 201.377475037893 3014.23791002136 26 29 22
251.355891326202 202.420073648629 3023.51675923632 26 29 22
238.098255107436 202.472738809783 3022.50389739444 23 26 19
229.882921718802 202.857268782611 3024.93669857739 25 28 21
222.501850974898 203.29789124677 3027.95002133544 27 30 23
227.868885773874 204.550577471002 3039.43959314443 26 29 22
224.758030305226 205.259255443755 3045.25813279424 23 26 19
224.218975801473 206.127512959617 3052.74997823409 22 25 18
212.56722051774 206.300030211184 3052.95889527525 25 28 21
219.768346768058 207.644114217279 3065.4474972434 24 27 20
224.443636019327 208.822785632219 3076.21767480392 24 27 20
231.74909556885 210.153851152317 3088.60493423217 25 28 21
220.962603846871 210.378468246309 3089.36350290733 26 29 22
211.882221905539 210.710605911686 3091.24648217531 26 29 22
193.235479948636 210.474365350252 3087.12565054635 25 28 21
194.535701268832 211.433383521937 3095.61180999566 26 29 22
183.65796622536 211.669387053043 3096.45963956945 28 31 24
185.860689145775 212.676013049099 3105.45981233238 24 27 20
181.089342890501 213.271347444677 3110.10983953365 23 26 19
170.175131522059 213.511859238594 3110.99288647609 21 24 17
159.234811900729 213.755678839134 3111.90170824921 23 26 19
142.979172033282 213.701622583064 3109.63061593282 25 28 21
137.275304144773 214.253172216245 3113.79621295214 22 25 18
136.880464098184 215.103376221362 3121.14785744714 21 24 17
128.519725340519 215.50587566729 3123.72239243074 25 28 19
126.368857788665 216.254853727666 3129.99860287031 28 31 22
117.101274567506 216.610399440185 3132.06401607736 16 19 8
97.0982046288555 216.383293034462 3127.87177884254 19 22 11
90.454972228923 216.891940967784 3131.55927240086 21 24 13
86.4954412714623 217.54629181949 3136.81134172184 29 31 20
57.3727762534513 216.855351881951 3127.57344490349 29 31 20
63.2767536635095 218.041062955411 3138.53972366024 30 31 23
61.1031381551985 218.793048808112 3144.83807860647 26 27 19
60.75073052543 219.63815244608 3152.14800307434 23 23 15
36.8479769902388 219.257145640161 3146.18298059788 25 25 17
9.23078961765489 218.698890425216 3138.26433011395 24 24 16
-38.5109528989358 217.127798333128 3119.30532518996 20 21 13
-58.1511430073189 217.015957390652 3116.15261605193 16 24 11
-44.9394250660435 218.571535070097 3131.14348453583 5 13 0
12.3263080247344 222.31894826448 3170.08082728677 158 164 154
110.863989093358 173.811506694263 2824.33857351196 25 26 21
160.615238216935 178.518454355764 2869.17884399192 25 26 21
236.977744419808 185.117197160444 2932.65861289642 26 27 22
213.853258389843 184.420300270963 2924.55053838104 26 29 22
241.938531144626 187.432447525224 2952.89668012287 25 28 21
241.984817268501 188.405057934459 2961.2090975142 25 28 21
247.873631564129 189.788793985164 2973.5780747803 26 29 22
250.481037318562 190.930357620927 2983.57301925824 22 25 18
249.784175986372 191.83267815982 2991.2168725536 21 24 17
239.063279218171 192.031108519776 2991.91451269984 24 27 20
240.061451641769 193.047598127045 3000.69211691549 25 28 21
252.860027698088 194.87198930734 3017.4704201982 26 29 22
249.727327260122 195.589436005878 3023.30935621163 26 29 22
233.087054987222 195.386163192019 3020.02535438413 24 27 20
223.166897247178 195.647394585361 3021.33547619072 27 30 23
225.954041954698 196.766271490037 3031.15562816215 29 32 25
226.224907753573 197.710406194245 3039.24890547108 27 30 23
225.667567472617 198.595027321182 3046.75682826543 24 27 20
226.839252739104 199.589606022082 3055.36537008549 20 23 16
229.751652444411 200.692751512893 3065.06346708862 24 27 20
228.408118808962 201.512492942451 3071.94443353727 23 26 19
220.199127768401 201.885831810159 3074.37292855726 23 26 19
223.183678815145 202.979910962357 3084.00071821263 25 28 21
214.970311631788 203.353740839275 3086.43314839417 26 29 22
206.742528480263 203.729397153441 3088.87996174058 26 29 22
194.160215649761 203.833975845973 3088.60573031149 25 28 21
190.242957595741 204.486183547439 3093.81647661312 27 30 23
189.817508314657 205.354153900573 3101.19555282998 30 33 26
191.159643909973 206.327347824627 3109.63799561448 25 28 21
189.026937999029 207.082601543636 3115.89524373655 23 26 19
176.375320092783 207.195867348751 3115.68888716274 20 23 16
158.412231540725 206.994561233493 3112.30092361835 23 26 19
144.799420952223 207.064868736156 3111.63814764569 24 27 20
130.265422930232 207.08726479664 3110.48029638466 22 25 18
117.460237466031 207.219689508437 3110.42326514601 21 24 17
128.576966830633 208.764898605573 3124.66186425068 26 29 22
129.982749461469 209.730194118245 3133.04227196978 22 25 16
117.158555772564 209.865068420815 3133.00409197281 19 22 13
98.941854347748 209.695520475915 3129.86327591644 19 22 11
93.1976571334867 210.250024012557 3134.06848396677 20 23 14
70.4091622670102 209.836627535513 3128.41868265747 33 34 26
62.8241234562172 210.295105819293 3131.6319096388 31 32 24
48.0219740783685 210.351113265949 3130.73503104794 29 30 22
53.939639346797 211.567981259236 3141.68311257984 25 26 18
44.5259579020747 211.928993945725 3143.89279546625 21 22 14
21.4955841569533 211.545957464771 3138.47869626491 24 24 16
-1.61165727694756 211.172528590932 3133.13916997271 23 23 15
-21.1534601375942 211.005821150698 3129.89720792964 12 18 8
-48.0552695194856 210.454478568112 3122.68406415941 14 22 9
-47.6219953544321 211.378642056522 3130.61935713885 6 14 3
187.786221607075 173.406122966166 2889.71464207595 22 23 18
189.278739362054 174.546360805814 2899.40031129478 23 24 19
211.43722617136 177.247563355002 2923.75875567806 25 28 21
228.76074518807 179.558439224303 2944.47395307588 26 29 22
241.214368704627 181.483376864028 2961.57993860711 26 29 22
242.94510946881 182.593649248089 2971.03347773747 25 28 21
242.208199622698 183.514977703878 2978.71395259538 18 21 14
243.162037688525 184.556517778424 2987.53221687755 20 23 16
236.610600547571 185.044202675167 2991.13165471436 19 22 15
239.280723920735 186.202657854379 3001.06216094901 22 25 18
242.827410336344 187.417266830989 3011.53083693552 25 28 21
253.156067304416 189.110238382203 3026.53016435361 25 28 21
227.231732520597 188.206741721719 3016.98185060095 23 26 19
222.378275072335 188.813584801087 3021.71171445225 28 29 21
216.676956919432 189.360580281984 3025.87511480615 29 30 22
225.431994958425 190.918643993574 3039.62318976752 22 23 15
223.167619967709 191.699091398683 3046.00746361642 22 23 15
226.042208268144 192.831777896101 3055.73874175566 22 23 15
228.09597630282 193.901259515797 3064.87720104637 26 27 19
225.890232400443 194.674322911715 3071.20434471116 25 26 18
214.23473805308 194.805141449627 3071.42313774945 24 25 17
211.170334088894 195.519718677641 3077.19434061931 25 26 18
211.570934137476 196.464261911505 3085.15906736194 27 28 20
211.129622624293 197.348282978242 3092.5518605633 26 27 19
195.95334290217 197.256042328555 3090.63150062115 23 26 19
198.998806837604 198.36727569032 3100.19626749291 24 27 20
191.618173725785 198.792511089115 3103.21142987737 25 28 21
185.100455515284 199.275635592564 3106.77805834193 26 29 22
182.954108010021 200.041218499959 3113.04732611928 25 28 21
169.411478987765 200.076304693414 3112.32006450799 24 25 19
160.228698521957 200.395301840749 3114.30666918732 23 24 18
157.197202835127 201.105730457511 3120.04580681422 23 24 18
134.740018871736 200.597465548573 3114.08103039329 25 26 20
117.518268478065 200.429403429238 3111.36924081026 26 27 21
117.987873060165 201.365335998455 3119.26671768351 27 28 22
123.816127702697 202.626024709733 3130.29677076369 25 28 21
111.869606194635 202.793229630247 3130.79918018327 18 21 14
98.99984140409 202.910053268491 3130.8085830022 20 23 16
86.0959779904973 203.031160837769 3130.85121309475 25 28 21
81.2300213739729 203.639483811556 3135.59327007716 28 31 24
65.57912317027 203.606738996395 3134.135757687 25 28 21
60.6911423986123 204.217867949299 3138.89927025854 22 25 18
49.4851289049039 204.458393307534 3140.07241686219 21 22 16
32.8252305206211 204.38605611642 3138.20546114327 20 21 15
19.7416899499143 204.529777990787 3138.42317092454 20 21 15
-16.995208419758 203.320197731297 3125.48668712879 20 21 15
-24.7350259118151 203.790655059599 3128.85184113112 7 14 6
-39.7840216200009 203.84865988354 3128.20012722584 20 30 19
-22.8779338299403 205.714209450047 3145.14459324041 1 11 2
151.148152856028 162.295075883315 2855.47155102879 25 26 21
196.883996709556 167.024627504545 2897.21095301454 22 23 18
190.986756022242 167.594376162713 2901.56554443171 26 27 22
199.117499888044 169.274664753953 2915.91548795198 22 25 18
237.956830863646 174.361584027823 2960.19934459656 26 29 22
233.8615349488 175.042921821254 2965.582579711 25 28 21
228.937833305515 175.659261583526 2970.38079348077 21 24 17
231.530181869058 176.852279345003 2980.38308507454 18 21 14
243.365056790043 178.743151970913 2996.69162258441 19 22 15
227.594456094947 178.525140356795 2993.96311173 23 26 19
223.54631281479 179.200412188194 2999.30042012768 24 27 20
243.100657200433 181.64248245223 3020.61514095967 23 26 19
234.047778712582 181.932423389196 3022.4767077078 23 26 19
219.049891080837 181.786185800885 3020.38718250673 30 31 23
216.735309709527 182.581575652232 3026.81910354672 31 32 24
225.489991298772 184.183372829295 3040.56106868086 24 25 17
224.930481853743 185.096288663063 3048.06696354188 24 25 17
219.264685617673 185.636605767586 3052.19607716837 24 25 17
213.596037944751 186.177306158638 3056.32830350621 25 26 18
222.5147073227 187.758525893618 3069.91046767893 24 25 17
212.571835499976 187.991116662448 3071.24737797719 24 25 17
206.917388792156 188.530000997343 3075.36577095907 26 27 19
199.531637482854 188.948337302018 3078.38703547238 26 27 19
208.588912009416 190.512168423359 3091.83413271308 25 26 18
209.897445087663 191.528374167574 3100.30358616552 22 25 16
206.884517727037 192.242395689944 3106.02375414013 22 25 16
190.803799136484 192.06295403453 3103.59783215923 24 27 18
181.663061541031 192.363687220555 3105.54504921031 25 28 19
168.125648243617 192.371701540308 3104.81660951826 24 27 18
160.693383773434 192.795835228046 3107.88320543724 25 26 18
152.370805743451 193.162806539154 3110.42543513893 23 24 16
153.729126072708 194.172772664808 3118.84637132804 22 23 15
144.514876788825 194.48272156949 3120.86522449323 25 26 18
124.658880232893 194.101339045072 3116.5497431582 28 29 21
122.482139374554 194.879362966219 3122.84735320806 27 28 20
115.871945778774 195.369271180813 3126.50514630968 24 27 20
114.601079354793 196.20254000972 3133.31195379942 19 22 15
96.3792816807874 195.953849705778 3130.18789559994 22 25 18
94.208960374226 196.731123309248 3136.4792418366 26 29 22
77.7012902367753 196.6051612197 3134.46904695481 26 29 22
69.2330911555716 196.990468264827 3137.15317049956 23 26 19
56.2464510399776 197.09827251445 3137.2799653057 22 25 18
42.3230688341292 197.154745328115 3136.92763630115 21 22 16
21.1253989316447 196.772847196934 3132.52762332156 20 21 15
11.6429518765573 197.116558779992 3134.80781072914 19 20 14
-6.03377327397592 196.968463536469 3132.54486670991 17 18 12
-22.8536883822263 196.881754320309 3130.8389341424 10 20 11
-36.986339617203 196.964564593624 3130.69051971231 0 12 2
-23.7316380766788 198.677812853689 3145.61540120378 2 12 3
215.951815561553 160.481510662391 2903.33254444329 25 26 20
195.988649888711 160.926002449014 2906.0863041937 27 28 22
221.462475115126 164.076809156881 2932.75443017565 28 31 24
254.525664619657 167.819352283671 2964.55126855517 25 28 21
239.675064925155 167.623070118173 2962.32321866375 20 23 16
223.947593560164 167.36517620093 2959.55777433396 21 24 17
219.000566747794 167.984950335309 2964.37864274274 19 22 15
244.949819897242 171.075982259215 2990.58315861397 17 20 13
230.032876653955 170.887855657007 2988.41944561655 20 23 16
230.170372939477 171.898991568712 2996.63559591659 21 24 17
220.242098240144 172.114270192351 2997.96056978304 19 22 15
244.844594936779 175.031147098071 3022.69435612083 19 22 15
234.106388466574 175.176461603973 3023.41703555707 21 24 17
220.802079845104 175.129003040828 3022.46531834375 28 29 21
214.248394931905 175.60704242882 3026.06841385361 33 34 26
226.398779909739 177.512748817689 3042.06145278925 31 32 24
223.283796853997 178.245601008901 3047.88051825513 30 31 23
218.468595757204 178.848616366244 3052.57295871953 25 26 18
214.510520640738 179.515627833579 3057.82171113543 22 23 15
219.139678439756 180.820921567519 3068.61932102853 22 23 15
221.231478235678 181.929820557064 3077.71418834806 24 25 17
211.285730803429 182.147102876528 3079.05621675122 25 26 18
198.725749081148 182.177696394328 3078.77108302006 25 26 18
196.522954810862 182.967546166462 3085.09247879552 24 25 17
209.087154107108 184.821366491478 3100.68260057524 20 23 14
201.723283161529 185.229381676645 3103.68366302089 20 23 14
192.604942589041 185.514366132397 3105.61096715253 22 25 16
180.847282740163 185.615809405393 3105.93555369543 22 25 16
176.939888273453 186.276409658234 3111.13492705162 21 24 15
165.139371436045 186.383222565639 3111.50127758806 18 19 11
153.308457923808 186.493810469317 3111.89691668715 22 23 15
146.736106404035 186.974094217416 3115.51855453984 27 28 20
135.739784780396 187.151519011401 3116.49246241054 25 26 18
134.455419709376 187.997787479371 3123.31109075734 24 25 17
127.863768323739 188.48046572241 3126.95120191483 26 27 19
121.265101540345 188.96403573891 3130.59814766228 21 24 17
111.986384181457 189.269184657892 3132.68206585675 20 23 16
114.297485607661 190.350639897721 3141.56321958976 23 26 19
100.53199765525 190.360855937571 3141.06093598841 29 32 25
84.0381203144114 190.198676711119 3139.0423975327 25 28 21
66.5960035058841 189.983902909802 3136.55633902343 22 25 18
52.7031771814714 190.010116691491 3136.17813984863 20 23 16
36.9670633325474 189.924448738845 3134.81273202851 20 21 15
7.61744423498545 188.973187461637 3125.83867934647 19 20 14
-6.42597734477945 189.018330884848 3125.60722569369 17 18 12
-15.0570934612158 189.413911949553 3128.45160976718 15 16 10
-18.2410401825006 190.155550245386 3134.33785858999 6 16 7
-28.715061471972 190.439234544241 3136.19465655914 12 24 14
189.17214043917 150.022801689259 2876.20743283991 14 15 9
156.191643576123 148.235701161825 2861.04339122137 25 26 20
284.245835720049 162.489719590484 2978.33707464362 30 33 26
254.585475509852 160.982923534478 2965.50229664057 24 27 20
243.051813563348 161.035585047775 2965.6116598779 16 19 12
226.501272961102 160.672100158637 2962.26223244971 17 20 13
223.226075914447 161.43111138738 2968.23618864065 18 21 14
256.699007311876 165.246978798958 2999.61564780816 20 23 16
257.711221017521 166.339402469358 3008.36842364379 21 24 17
237.77968879107 165.702934994429 3002.74840463079 19 22 15
208.530660106127 164.318610212527 2990.90431430145 17 20 13
228.048786398733 166.922829474786 3012.2310346841 17 20 13
229.097313248382 168.010574082201 3020.94810475241 19 22 15
220.014715985147 168.278294850351 3022.84280465706 24 25 17
215.156312579453 168.887290950178 3027.57726170172 30 31 23
216.251991054089 169.969080289399 3036.24838969542 28 29 21
217.375645917164 171.047331703677 3044.8922596256 27 28 20
221.090286725466 172.323297918613 3055.18508584431 22 23 15
223.131884609587 173.460616853436 3064.32560394888 22 23 15
227.780026694258 174.793738840093 3075.10024916208 21 22 14
223.00993155248 175.391587537886 3079.74866237639 23 24 16
213.930229353923 175.658797896321 3081.64022503536 24 25 17
199.648144277029 175.533171914834 3080.25409808904 25 26 18
194.84960552931 176.134565840038 3084.93023224146 25 26 18
196.994774965483 177.258853733902 3093.96982824593 21 24 15
195.692662117584 178.118655806971 3100.80408013661 20 23 14
180.458878994484 177.938105391358 3098.95387406652 20 23 14
168.67416092013 178.02185829609 3099.30760661403 20 23 14
166.491012930497 178.817894093068 3105.60891689259 19 22 13
163.442642989095 179.548238154323 3111.36220525173 16 17 9
156.884794549815 180.021801127338 3114.97009681672 22 23 15
138.862319104887 179.668354764559 3111.66392943898 27 28 20
138.448560260852 180.590915964127 3119.02332837578 23 24 16
131.858438446696 181.068578697557 3122.6629997783 21 22 14
134.13264640253 182.176713487782 3131.57684604687 26 27 19
123.102177955541 182.34014597175 3132.58706811724 18 21 14
117.391520969589 182.881745441086 3136.76087744056 21 24 17
110.784565082572 183.36151393038 3140.4166162545 25 28 21
105.960303187304 183.966180151469 3145.11781022878 28 31 24
81.4070068520696 183.212251607185 3138.43665687991 24 27 20
56.7697365516957 182.468911019795 3131.83766386637 20 23 16
35.6505814748265 181.981196661178 3127.37498625449 17 20 13
-3.58881095513031 180.281617302455 3112.74520975399 15 18 11
1.34674718696592 181.578776954746 3123.2394239487 14 17 10
-11.803490341598 181.659705867999 3123.53264556732 13 16 9
-22.2628275885919 181.92586067324 3125.37745291672 11 14 7
-27.2829661142651 182.555231312598 3130.26950397836 9 16 8
-32.3027647383016 183.184584900816 3135.1612200328 4 14 5
171.005435616935 142.342244784008 2872.71018394452 26 27 21
264.449246793318 152.915908591302 2956.89972722833 32 33 27
268.625108772664 154.338783141925 2968.13008817795 17 20 11
263.74512131449 154.951222622647 2972.8854695756 15 18 9
249.745275146046 154.7612632494 2971.22824582615 14 17 8
230.717300791039 154.140408845012 2966.12592004447 20 23 14
252.442562212968 157.077517087234 2989.46278756554 24 27 18
239.224343946869 156.96641731052 2988.43498750026 25 28 19
233.50041865949 157.507684519975 2992.62202155089 23 26 17
216.868419994407 157.116977578241 2989.35716874877 15 18 9
214.476412425717 157.94800449019 2995.86070800534 14 17 8
218.838691574477 159.347300797977 3006.90943880397 15 18 9
223.244298625522 160.741096375415 3017.91561951868 15 18 9
219.227575735679 161.421976840716 3023.22056020867 26 27 19
217.761413482301 162.313767220462 3030.21298772634 27 28 20
212.909638007064 162.922447427124 3034.94090982695 21 22 14
212.320538445181 163.881077665446 3042.4690937004 21 22 14
222.857943232011 165.744244870231 3057.23631444733 20 21 13
226.615785223438 167.042288589356 3067.48297820709 23 24 16
223.547508371202 167.781052153588 3073.2544521821 21 22 14
217.047651611055 168.242555382211 3076.80687741939 20 21 13
211.402620969784 168.77371279937 3080.91672430105 22 23 15
201.434838282083 168.962427396084 3082.28485633557 26 27 19
200.969800652091 169.905478329751 3089.6924853331 26 27 19
197.053418683716 170.573661315379 3094.89966268671 22 25 16
190.532516268804 171.037780827671 3098.47259988471 20 23 14
178.774180638472 171.097196476149 3098.80373131114 20 23 14
159.123208346444 170.554232203662 3094.30853956304 19 22 13
163.047674627673 171.831318195677 3104.39284048278 18 21 12
167.011468973634 173.103479430202 3114.43881592988 20 21 13
156.943686612372 173.304726863664 3115.90439677071 22 23 15
149.497683571824 173.707919002712 3118.9877304449 23 24 16
134.974581283135 173.583369563616 3117.84077804029 21 22 14
131.032306435161 174.254809387034 3123.07318604691 20 21 13
126.207359755423 174.860055800009 3127.77497427019 25 26 18
124.93958210604 175.72688456039 3134.57409225986 21 22 16
116.55954956822 176.070304436751 3137.17651818695 23 24 18
115.30848085753 176.935059939881 3143.95935038002 26 27 21
102.440177631428 176.956833225103 3143.98135024452 27 28 22
81.466826074029 176.402844272376 3139.3836829385 22 25 18
46.9441421801005 174.894432599745 3127.12677506602 18 21 14
-23.730441855645 170.84336312779 3094.4646153573 17 20 13
-24.285956326358 171.797856960365 3101.9603979397 13 16 9
-13.063729324561 173.575146747684 3116.05993490643 12 15 8
-14.4611817086977 174.458321364531 3122.98506807222 12 15 8
-30.3759696174581 174.331574569976 3121.80349551169 11 14 7
-35.4133747860255 174.963634235707 3126.71229516805 10 18 7
-24.0311572811547 176.720924213346 3140.65591516327 0 4 0
128.804286759008 130.044124704787 2834.24772164335 135 136 130
162.055439361062 134.317245450843 2867.19673790774 33 34 28
198.77527301287 138.87376814247 2902.32739104226 30 31 25
225.814361326729 142.488903986826 2930.20637863138 19 20 14
251.355080126331 145.932643551432 2956.764445116 15 18 9
262.150915371593 147.992408000277 2972.6628929283 14 17 8
247.318579628718 147.698069055925 2970.43119941201 16 19 10
249.892632064797 148.992671039913 2980.4366452271 19 22 13
247.50464807257 149.831877561368 2986.93498007005 19 22 13
246.799196277827 150.819304271194 2994.57478516682 21 24 15
229.376281074642 150.310903754136 2990.69580992024 18 21 12
214.412845033038 150.03294466347 2988.59188000339 12 15 6
214.536982586504 151.095845912754 2996.81330698556 13 16 7
225.640408049255 153.116848469484 3012.4120421556 16 19 10
225.838203549269 154.170513580698 3020.56202864715 17 20 11
221.827233509102 154.853897351139 3025.86088668496 24 25 17
217.821320155451 155.536674834607 3031.15515080925 24 25 17
207.016358815567 155.635138301159 3031.95070553907 20 21 13
203.004365744462 156.318656430754 3037.2508974455 21 22 14
215.228555219537 158.378590202525 3053.1478526845 20 21 13
219.824873072825 159.778594661055 3063.96373708345 26 27 19
219.315872260293 160.741204005372 3071.41213144659 24 25 17
211.946085833411 161.127298788272 3074.4223078785 22 23 15
209.737780159455 161.943763706722 3080.74558069426 24 25 17
204.949988407157 162.544880826249 3085.41108383312 24 25 17
207.090034625742 163.714033831852 3094.44913622446 23 24 16
204.055034247546 164.454559923561 3100.18764351004 22 25 14
195.810083897194 164.770789339432 3102.66028740827 23 26 15
169.244998201561 163.612710249228 3093.78553811302 22 25 14
149.573181108295 163.0270636231 3089.31735399392 18 21 10
145.596225531941 163.706078247773 3094.58308092418 18 21 10
151.276165572924 165.14975322607 3105.73370514783 22 24 13
155.244385692968 166.448854422346 3115.77130402125 20 22 11
141.625242310548 166.361415213211 3115.13813150168 18 20 9
134.151076943221 166.760594909034 3118.25002382004 19 21 10
123.125322647599 166.88676186035 3119.26107249787 21 23 12
112.073207783682 167.016244609049 3120.29780753629 24 25 17
116.108604502525 168.306932410929 3130.26994255007 23 22 17
117.510263456196 169.389089587726 3138.63717303864 23 24 18
117.153646339699 170.332527382652 3145.9367438436 24 25 19
99.8153968452864 169.993149405133 3143.36595999881 21 22 16
51.0373375142552 167.310407839997 3122.76617782034 17 18 12
8.36178169589052 165.119625023536 3105.95284906203 14 15 9
-25.4687775594533 163.615733519933 3094.42523027266 14 17 10
-45.884384100086 163.123516282475 3090.68149340518 12 15 8
-27.4729503779199 165.485094248135 3108.89197235273 14 17 10
-27.9948346286254 166.44940883668 3116.35290812607 8 13 6
-24.8636846605743 167.674017404451 3125.81583069484 12 17 10
-28.0692188596881 168.436051346316 3131.72016389268 0 4 0
140.314164203768 123.824177093832 2843.57563055002 102 103 95
203.766434192627 132.278595441206 2906.84798944315 22 23 15
219.290263086823 134.891265824371 2926.47188200414 16 17 9
231.61094648919 137.176284713919 2943.65665918251 17 20 11
209.273339825836 136.150418681519 2936.23273263725 19 22 13
220.8482419456 138.34661155471 2952.75430078262 23 26 17
236.65672582328 140.923389421601 2972.10049379328 24 27 18
242.567370972268 142.55364563255 2984.41135712725 21 24 15
241.015286945164 143.478956073103 2991.48415198603 16 19 10
242.826750050147 144.711638139973 3000.83910269902 13 16 7
237.959870871319 145.323329916733 3005.58157789183 13 16 7
197.78347153609 142.705951023099 2986.34960051534 15 18 9
223.17290072108 146.086505526284 3011.6503292305 16 19 10
232.655232640148 147.997951042551 3026.04087025889 16 19 10
225.273610019336 148.378024968716 3029.06369008634 21 22 14
213.639124531885 148.379898521905 3029.2806790286 23 24 16
207.076774279835 148.839513474756 3032.89510247151 20 21 13
208.178763149501 149.978795992138 3041.55180452503 21 22 14
201.620112007667 150.437931713939 3045.16262552695 22 23 15
210.466377958624 152.246741968463 3058.7830495936 24 25 17
213.368348409408 153.52484147042 3068.4656448742 24 25 17
212.865600129259 154.500636491261 3075.90554370103 23 24 16
212.383214542857 155.473914087473 3083.3259319882 23 24 16
208.465115304246 156.148785391007 3088.53382608608 22 23 15
208.015088228001 157.117941437493 3095.92235321558 21 22 14
203.246339297389 157.717190468983 3100.56922265359 22 25 14
194.129872015183 157.950165841377 3102.50269134209 22 25 14
172.791483343775 157.163573746432 3096.88498061164 21 24 13
152.254251659835 156.458861554623 3091.87685449514 18 21 10
150.034175213659 157.285412443504 3098.2103251597 19 22 11
153.968555820458 158.616260964029 3108.27683492936 22 24 13
147.389624416776 159.077907265681 3111.90742346849 20 22 11
139.04128136682 159.396871700079 3114.48233361131 17 19 8
121.84580373349 159.00232995803 3111.77792837821 19 21 10
106.367356831218 158.75704957381 3110.18024411872 21 23 12
101.488446341107 159.370143836426 3114.93445929469 23 25 14
110.83458475759 161.116125187158 3128.06778869814 23 22 17
123.806830942322 163.136540249897 3143.22775341408 25 26 20
116.320659447075 163.529705769659 3146.35245688755 24 25 19
65.8729464722363 160.560228024706 3124.61888846412 22 23 17
25.0934653779669 158.383648365318 3108.75478673266 16 17 11
-14.9410207991121 156.295971742831 3093.55466352307 13 14 8
-38.9145102683899 155.475544180397 3087.72482907074 14 17 10
-37.6982329718887 156.600446605723 3096.26982855625 12 15 8
-37.3587534508819 157.653026825958 3104.27928106689 13 16 9
-36.0892875815191 158.771266370388 3112.77244828417 8 13 6
-25.7095070549083 160.569955684399 3126.28847489599 11 16 9
17.5039619967921 164.81365312705 3157.85124399747 7 13 3
191.878296360812 121.722769879576 2881.95397814283 19 20 12
206.430792116548 124.340330956632 2901.12444886712 32 33 25
253.108819814439 130.144853365732 2943.18627747211 25 26 18
220.99927180226 128.067967990061 2928.6171101614 19 20 12
211.868316750586 128.289971697876 2930.56658702638 20 23 14
191.138787401668 127.376239877055 2924.36306118407 22 25 16
198.525332811976 129.227166610512 2938.0098752113 24 27 18
228.408049669 133.25225818077 2967.25523429641 22 25 16
241.795669867276 135.645620659287 2984.7817614888 16 19 10
234.397109179141 136.02029663039 2987.82219888289 13 16 7
237.866568997636 137.437220534501 2998.33765996403 13 16 7
250.60222527442 139.727244903216 3015.10996097803 14 17 8
240.721074112709 139.858170901939 3016.40060775614 16 19 10
175.203681011393 134.755517604787 2980.18961416007 17 20 11
225.114697494862 140.523916137379 3021.88053267922 16 19 10
226.180839972831 141.687107487745 3030.56895917254 21 22 14
217.942156471364 141.982080999397 3033.03852161055 23 24 16
213.090366574217 142.592342283055 3037.76622434984 22 23 15
219.319437502328 144.218080407265 3049.76155394919 24 25 17
218.765668124726 145.214330972179 3057.24909415954 24 25 17
212.238864241125 145.664586912864 3060.82960279101 24 25 17
217.718883427081 147.199215333075 3072.16530850008 28 29 21
219.805971623305 148.419311561315 3081.24875744644 27 28 20
219.33872460403 149.404660136505 3088.65199098525 23 24 16
212.844276325266 149.850831610763 3092.20097370518 19 20 12
205.477346234992 150.221475677318 3095.21093520373 19 20 12
195.49621692755 150.364902314451 3096.59901416959 20 23 12
186.362226285565 150.587089825348 3098.55114041262 20 23 12
161.520400153688 149.449163173636 3090.79634685193 20 23 12
159.303306101721 150.283971489091 3097.1256355109 21 24 13
151.845605196413 150.665977715512 3100.22371660637 22 25 14
147.009334397119 151.27424571478 3104.93630325864 20 22 11
150.0880343132 152.554915491555 3114.44302368216 18 20 9
139.101645447685 152.639470679257 3115.42113210645 16 18 7
127.205705858424 152.653072351708 3115.89567758391 17 19 8
102.002569875651 151.560593195008 3108.49295292638 19 21 10
97.1140455611499 152.175441209039 3113.25645556839 20 22 11
104.672310582647 153.819333329346 3125.34643979092 22 21 16
109.612209655378 155.236538831284 3135.8186006532 27 26 21
100.309468714425 155.479968671509 3137.93515883069 25 24 19
54.3022646948148 152.741744473273 3118.8431424713 19 20 14
4.5316361292671 149.735593330056 3097.85988669226 11 12 6
-24.762518433135 148.416415636095 3088.8851347926 11 12 6
-37.0494480888146 148.479280038878 3089.74099601787 11 14 7
-37.634510209712 149.479488450736 3097.25902541686 8 13 6
-38.1995498582359 150.477231542156 3104.75787442007 9 14 7
-45.0892796316458 150.973181089079 3108.69202033011 8 13 6
-33.8207369613368 152.891749920168 3122.72502201436 11 16 9
-27.0336698808644 154.447313437034 3134.17628712004 47 50 41
245.004307555776 121.270247975301 2929.87394030119 27 28 20
203.071986442296 118.083843313469 2908.21865517268 26 27 19
