ply
format ascii 1.0
comment KinectMotionCapture
element vertex 792
property float x
property float y
property float z
property uchar red
property uchar green
property uchar blue
end_header
-62.0521330409511 295.982608847259 2926.31101632613 16 17 11
-57.948982566022 295.863912608988 2913.22822236345 15 16 8
-44.9196477660885 296.050371286676 2891.79613812351 16 18 7
-64.8472448034918 295.099527991013 2900.81284436328 8 11 4
-79.4820948262207 294.333603563029 2905.02117268186 13 16 9
-85.9024273201918 293.850008138717 2901.59981824036 20 25 21
-100.457955112557 293.090464888158 2905.86568125848 4 10 6
-106.109537206177 292.634283468202 2901.76641813925 111 116 112
-112.497802407005 292.153242911392 2898.3683229038 127 129 126
-117.415852965393 291.721629842922 2893.56560578613 123 122 120
-123.801757591225 291.240754381094 2890.16922261811 131 130 128
-127.268625230095 290.857032799958 2883.94866829 182 178 175
-132.203067173877 290.42405263959 2879.13406178265 180 176 175
-134.245208066246 290.086083034716 2871.47648076263 180 176 175
-134.865781485714 289.793621515261 2862.37928711347 182 181 179
-126.157279410436 289.804207015313 2843.98982028801 186 186 184
231.12941371551 309.879006791766 3048.75051746615 36 42 38
208.52393972601 308.800674170111 3057.06036442525 19 24 18
180.973363362083 307.547294796496 3069.19532322235 26 31 24
137.64214466679 305.729778745054 3093.35516297127 18 23 16
132.88699055476 305.308039879098 3088.67087745575 24 29 22
136.448792940843 305.184139745995 3077.66569561017 39 42 35
93.4839636606881 303.396269850381 3102.09128902889 40 42 37
70.5822544086767 302.331489668453 3111.4214939992 42 44 39
58.8123886652321 301.417782163156 3104.11997013797 45 48 41
99.3286621909988 302.596081926953 3064.32999245298 46 49 42
80.6293674271599 301.683809931879 3070.53191223075 32 35 28
59.5492831449729 300.691423451776 3078.71265097004 21 24 17
46.6981535210285 299.989782226781 3080.50925199168 24 27 20
48.5101101401693 299.799407859468 3070.7056006364 26 29 22
48.6613915102225 299.549692515129 3062.16815751417 27 30 23
44.7408809865859 299.15807429817 3056.85403888588 22 25 18
40.8111696479025 298.765709689176 3051.53295213276 22 25 18
30.4422186916984 298.152401178612 3051.42398050095 29 32 25
24.9079221062782 297.705231106841 3047.40978579387 30 33 26
24.9681578618928 297.448183926727 3038.80630462553 29 32 25
14.6343965237854 296.837720476784 3038.72256263264 29 32 25
-1.23862132953634 296.04161778442 3043.26849491438 31 34 27
-7.54251749989043 295.569699127914 3039.93160679387 32 35 28
-15.4239451707257 295.04514790394 3037.92093908654 32 35 28
-5.16061682847546 295.126095384009 3020.65895540094 31 34 27
-3.63363925317772 294.912737220651 3010.64860023757 31 34 27
-12.3387868421361 294.359047370495 3009.27568941886 31 34 27
-21.0272758211003 293.806702386045 3007.91486159405 31 34 27
-14.1072087983813 293.767184399793 2993.16910724167 30 33 26
-14.2549168203236 293.49335026496 2984.41479816201 26 29 22
-23.7368369555304 292.914317671248 2983.7139910876 24 27 20
-35.5165903199048 292.261862972172 2985.05217365733 24 27 20
-37.241776574122 291.9353997416 2977.62441810071 24 27 20
-42.0641056780071 291.508343950851 2972.89111459171 22 25 18
-33.8628459639139 291.497507793492 2956.60419618404 21 24 17
-33.3838472634544 291.236882824238 2947.06923045985 20 23 16
-29.8927405455021 291.069955864621 2934.77754524717 20 21 15
-28.734849772708 290.826755430907 2924.49948002698 20 21 15
-40.497553569673 290.175664290397 2925.8503235757 16 17 11
-58.2695130352 289.338346810041 2932.7245736839 15 16 10
-63.9203222068969 288.881745387373 2928.62586874488 16 17 11
-42.5345406813074 289.26267312796 2899.66624974365 17 17 9
-46.0201584772122 288.868765144217 2893.43234590744 16 17 9
-48.0265198308585 288.51952630542 2885.8003506807 10 13 6
-73.1340249043191 287.463649413019 2899.70734438298 12 15 8
-91.4479225210494 286.61993031281 2907.4240306406 20 25 19
-100.807547706833 286.050708823671 2906.81192748011 8 13 7
-104.98111587833 285.638584424165 2901.31396361748 114 115 110
-109.900329842798 285.20362675979 2896.51068065789 128 127 123
-115.558357490815 284.746379882726 2892.40673962198 127 122 119
-121.948650876067 284.267371449156 2889.00688992844 134 129 125
-126.877612968561 283.831599806772 2884.19653621986 164 154 152
-131.811875160051 283.395380970908 2879.38204361425 176 166 164
-133.128642639696 283.064373135442 2871.01529989489 197 189 186
-132.305432191929 282.794000119125 2860.49448013016 202 198 195
241.648742254049 303.007681445604 3041.52007561834 25 31 27
221.537206411032 302.064599585118 3047.93311227025 20 25 19
174.656072986273 300.243426667372 3074.45996554393 27 32 25
158.109343096572 299.427811672141 3078.51741075911 14 19 12
127.432806233925 298.153115328852 3093.32662709855 39 42 35
116.030012146082 297.512236463444 3093.70309749723 39 42 35
119.599527723491 297.358376175378 3082.70364983158 37 39 34
80.8962802301791 295.836700025914 3104.04413105801 38 40 35
70.4425833909221 295.232387203147 3103.87377089194 35 37 32
48.4850915034452 294.260727130416 3112.65389422291 38 41 34
86.5742190078333 295.209593633389 3074.80866882908 35 38 31
72.8226350646466 294.499436415434 3077.18750479207 32 35 28
55.0296005880857 293.663509022711 3082.81144758688 28 31 24
54.4122158308569 293.372134710752 3074.95160760315 20 23 16
53.7680137575847 293.078592564603 3067.0723161942 20 23 16
54.7176299579011 292.833528369113 3057.87858995753 22 25 18
48.3576153422178 292.359237517551 3054.50071388572 20 23 16
41.19511090295 291.860271552151 3051.77630193671 19 22 15
26.0021895043332 291.114009657168 3055.58046647671 24 27 20
23.6878570025003 290.765834496167 3048.96025840916 25 28 21
22.1545018688327 290.440619884931 3041.6715716502 26 29 22
6.24757792970998 289.676835373518 3046.19308838471 26 29 22
4.70844062283726 289.351145717379 3038.89991312179 24 27 20
-13.5043737540155 288.521526445772 3045.45491156643 23 26 19
-17.4152122903877 288.12468751422 3040.14777792416 23 26 19
-16.6042616179665 287.868414045544 3030.85317883284 23 26 19
-9.53884372625113 287.796240372118 3016.21262701985 22 25 18
-12.7381402150601 287.416724639718 3010.18606203212 24 27 20
-22.2070172178455 286.851896992021 3009.49478215361 26 29 22
-17.619370324327 286.699982986079 2996.76304172989 25 28 21
-20.0876691597409 286.339371331272 2990.03145166505 23 26 19
-18.6976208978196 286.089713143925 2979.92164965342 27 30 23
-32.0381857093015 285.412839056997 2982.59861074219 26 29 22
-31.4584266399094 285.137870185959 2973.13661570508 26 29 22
-38.6023037284429 284.640411286804 2970.42542027672 28 31 24
-41.9055468211642 284.252482188218 2964.32345956212 30 33 26
-46.7518579895469 283.820191228382 2959.57303890262 36 37 31
-41.695078146492 283.665988809056 2945.94633474535 32 33 27
-44.3006882808072 283.294258075185 2939.11514846924 27 28 22
-49.9560412070332 282.836744328911 2935.01314504449 18 19 13
-51.8343652424755 282.483603836456 2927.47394703952 16 17 11
-43.9416575087537 282.397874239966 2910.96297336642 15 16 10
-31.6217646921906 282.428873758539 2890.2508486904 13 12 7
-16.4126905291391 282.532670582147 2866.69337544654 15 14 9
-33.4400619041197 281.758683624339 2872.87267750426 17 18 12
-55.6148792019204 280.849926741021 2883.96594335981 11 12 6
-79.9212265729057 279.889435960634 2897.21915989843 19 20 14
-90.7948752939534 279.291388298243 2897.97943601451 15 16 10
-99.4247897611973 278.754145652946 2896.66114659961 125 122 115
-106.566637758107 278.256816683357 2893.95171723821 112 105 99
-115.167832799967 277.721889429839 2892.6542588756 115 102 94
-123.021106623307 277.20722978345 2890.66405059594 113 98 91
-126.487031283084 276.806082456777 2884.44409158866 98 79 72
-129.240277507486 276.422352346245 2877.50581998093 97 80 72
-126.938541292327 276.165901587898 2865.58651788185 101 87 78
-124.686510829339 275.905434467667 2853.63145715561 100 91 84
278.304947965389 297.154444491021 3023.59873572314 32 38 34
235.303802794022 295.565794787156 3046.76368096063 30 36 32
200.0655920983 294.218451467658 3064.44144671631 25 30 24
180.921369883117 293.356664968389 3070.32108480837 22 27 20
140.926268876481 291.882339232497 3091.96035032185 15 20 13
137.83424474764 291.502725465712 3086.0115488606 26 31 24
119.744517337037 290.683302639024 3091.42079069169 37 40 33
68.5096046972125 288.90132801733 3122.20220929742 33 35 30
40.7006686857381 287.811319584054 3135.38603628459 32 34 29
72.4739869046522 288.447468323234 3102.84164396418 30 32 27
81.8099166134867 288.428685086571 3087.37693732021 29 32 25
53.2765715386385 287.323053373599 3101.27058221189 25 28 21
61.735138279857 287.27626752714 3086.40504569632 30 33 26
61.9474308164998 286.992088412326 3077.911656305 31 34 27
63.7584138931464 286.751288760765 3068.10704379399 22 25 18
54.9633844775745 286.211123847339 3066.66904422746 20 23 16
50.2380528078201 285.785332905335 3062.00635711222 22 25 18
38.2324458279184 285.157331569964 3063.18093743721 22 25 18
29.4856627108673 284.621085911558 3061.77822697092 22 25 18
21.5600521124535 284.108282551918 3059.73529514471 28 31 24
15.2501845971638 283.640260468391 3056.39409800573 28 31 24
4.14635478018299 283.042251556907 3056.98751112935 28 31 24
1.04677138463449 282.662032989879 3051.03322673091 28 31 24
-9.2239849547977 282.088451087622 3050.99563969548 27 30 23
-16.2968787267219 281.601666534291 3048.33595565585 26 29 22
-16.2441889095657 281.304563245211 3039.7268013836 26 29 22
1.12767757160803 281.463091619366 3016.50212856729 24 27 20
-3.64984402273416 281.033075861985 3011.8015864624 23 26 19
-8.4326134794428 280.602634969226 3007.0972379167 21 24 17
-15.5667002797677 280.110894265022 3004.39316864098 22 25 18
-17.2339315667858 279.760592818732 2997.00730513164 20 23 16
-22.0347074664491 279.328693494998 2992.28989594392 19 22 15
-26.8406875899105 278.896362271064 2987.56841743862 21 24 17
-39.3853386984611 278.267761840843 2989.58756124267 20 23 16
-27.2155117959652 278.263260360927 2970.00180186964 19 22 15
-26.681548097262 277.962088649497 2960.50647606845 23 26 19
-40.751424128062 277.296049056844 2963.88983539811 25 28 21
-50.1868004632857 276.74706984301 2963.22262666688 31 32 26
-51.9780065095392 276.386725583708 2955.74684033999 28 29 23
-49.231244717816 276.135622946453 2944.15046834499 23 24 18
-38.9542340597504 276.063907449905 2925.66229888783 17 18 12
-44.6413323503658 275.603266660986 2921.53726673186 16 17 11
-36.7657013564584 275.466216113411 2905.0136538149 14 15 9
-20.7052717333369 275.518519170924 2880.83775438057 17 14 9
-15.2614574159136 275.313647701563 2866.25603201854 20 17 12
-35.2812350380463 274.510111155179 2875.20666072294 27 26 21
-46.2814072951279 273.920495286301 2875.8752599363 16 17 11
-46.8561020826324 273.572571398249 2866.81104375872 21 22 16
-79.2979093232891 272.494786470652 2887.75238405278 22 21 16
-95.342936645741 271.797921093513 2893.40916228525 119 115 106
-108.383617949519 271.172188408745 2896.30377436987 32 23 16
-116.978958936423 270.648204425614 2895.01090964346 105 88 80
-124.094364869584 270.157969787039 2892.32039015554 121 103 93
-126.096857364584 269.780505468442 2884.6913510564 148 126 115
-126.668013236695 269.432864304641 2875.62970174616 139 119 108
-124.371199887373 269.14529906696 2863.70667335561 136 118 108
-117.064937893936 268.96212339725 2846.77007906644 120 107 98
236.425947864379 288.681415376659 3054.95308586019 17 23 19
212.085199556089 287.716718896611 3064.4759387579 36 43 36
192.047298630285 286.871597025799 3070.9428511194 15 20 14
172.922543855929 286.054654264006 3076.83682871714 14 19 12
162.237382116074 285.463398560367 3076.49844636479 22 25 18
135.716987401466 284.459533378732 3088.14643303402 27 30 23
45.6344352603915 281.512055426155 3140.16575858072 19 22 15
23.680483833711 280.649134464505 3148.94899925231 22 24 19
62.1148193554824 281.334849524526 3111.35268960344 25 28 21
74.7772941156892 281.352575249398 3093.35921039047 20 23 16
70.9094881069943 280.947196655949 3088.08322869081 13 16 9
71.9494926462301 280.664576493615 3078.9545421846 15 18 11
71.3192971567804 280.338254153372 3071.08523840903 23 26 19
71.4773105906605 280.029982145353 3062.55237890249 28 31 24
56.1586727496235 279.33816975632 3066.26568470794 27 30 23
40.0812911247206 278.630692639718 3070.66391823634 27 30 23
-0.195936883932379 277.336840715045 3094.56994573602 26 29 22
4.06353222749845 277.131809672236 3082.83506981534 28 31 24
26.7652511032792 277.367338501987 3056.06399651483 30 33 26
19.640376503137 276.881275345575 3053.36663411752 27 30 23
5.32530203457071 276.22496826907 3056.57258764098 28 31 24
-2.56130124312115 275.72299624167 3054.55798791685 28 31 24
-10.4358155157667 275.222014383624 3052.5524512629 24 27 20
-15.9182650363754 274.777404347892 3048.57585456666 23 26 19
2.32875245902164 274.881019271259 3024.75028262055 24 27 20
20.4434667702502 274.973903092262 3000.8287469176 26 29 22
17.1867882306791 274.57217735938 2994.76047195865 24 27 20
6.0718189937381 273.991886789267 2995.3458996259 20 23 16
-1.10225521160201 273.501837072556 2992.61314566912 21 24 17
-4.36812944353915 273.099364519045 2986.53820077373 22 25 18
-10.7594397253341 272.626914603972 2983.13764713038 23 26 19
-44.2956017103808 271.55862810818 3003.28571442697 24 27 20
-42.8687699794805 271.261497630265 2993.20263155752 24 27 20
-28.3705738942679 271.244581283106 2971.59928944653 23 26 19
-32.445311454528 270.822384693473 2966.17291898551 20 23 16
-40.3643120129484 270.317795682914 2964.13511500267 19 22 15
-50.5651728326519 269.765773844794 2964.14830592712 21 22 16
-53.1158269396557 269.375441984083 2957.35686422965 19 20 14
-41.2393971387737 269.283531426333 2937.55797229204 17 18 12
-33.2554765024027 269.105306811258 2921.11235781613 17 18 12
-29.1312254841869 268.843442600716 2908.04413491358 16 17 11
-23.5579012784808 268.607358049557 2893.55643341006 14 15 9
-26.3178961475714 268.200048025882 2886.61285565184 15 14 9
-29.8458744441592 267.776338852827 2880.34779835874 19 18 13
-40.1121656272607 267.219027160788 2880.31353062225 35 34 29
-46.6286987187001 266.736457629191 2876.82244351097 21 20 15
-33.0887399487034 266.641857363105 2854.52406123602 22 21 16
-27.809685213477 266.381914476451 2839.82262218913 28 25 20
-61.7280178794617 265.374413836236 2862.16432143095 111 102 95
-110.202081260212 264.103917699118 2898.65513368801 53 40 32
-119.525208923058 263.577241595408 2898.06970386156 116 96 87
-127.36395346808 263.079200891831 2896.09011234405 125 101 91
-129.354445627121 262.688456127144 2888.46941079945 149 121 110
-129.913510011428 262.322062946864 2879.41643188411 152 126 113
-124.703805537838 262.056532810914 2864.66498552905 153 131 117
-117.392429448877 261.823818986086 2847.73155315932 158 142 129
-97.9098094705269 261.798341242265 2818.62526984232 155 143 131
214.832287395126 280.960391029978 3071.37358021937 26 31 25
191.388920064712 280.079533670287 3080.31205729444 31 33 28
173.086002277645 279.323912402755 3085.5670760394 21 24 17
182.546058724934 279.215712822501 3070.19189860572 19 22 15
163.464555436133 278.445537770563 3076.11746701604 21 22 16
136.103278517429 277.489972789838 3088.39116150944 26 27 21
81.3744878410363 275.919055413238 3121.58159788081 24 25 17
114.343058153002 276.015525239855 3080.02005374288 20 25 18
76.5370237099838 274.844827567759 3100.77768500292 19 24 17
96.5817524494277 274.963025323161 3077.02005506139 19 22 15
95.944886071369 274.619220527452 3069.14582686422 16 19 12
92.8221042874728 274.219646956094 3063.1749218991 14 17 10
83.9637199021235 273.695179988189 3061.6910744761 24 27 20
70.2307003804963 273.067049222834 3064.08378366462 28 31 24
47.5971395129751 272.251818555284 3073.60963913891 28 31 24
34.7853610485602 271.649791730789 3075.43527122246 27 30 23
19.5862636808597 270.999991858497 3079.23544726983 27 30 23
22.9885407820971 270.740653436725 3068.1139361192 27 30 23
31.9720198966769 270.593661968557 3052.39337559484 26 29 22
32.8549164633536 270.275824029147 3043.15061978148 24 27 20
15.3035021963022 269.581082927743 3048.95072783602 25 28 21
7.38990337157563 269.084602997125 3046.9168807593 26 29 22
-2.10224518502855 268.557321855653 3046.20862653822 25 28 21
-4.43320203119946 268.173293306509 3039.57648000122 24 27 20
8.24956351041628 268.083195860475 3020.3621272339 24 27 20
12.9410400630916 267.831139636158 3007.70514790586 24 27 20
4.19931373217475 267.31609713375 3006.3059161329 22 25 18
-2.17203600434934 266.847458053573 3002.92014609445 21 24 17
-7.75738909393109 266.393940380908 2998.86890728605 23 26 19
-10.2227228540586 265.998983705841 2992.13899822624 25 28 21
-22.8207838430166 265.414279715274 2994.11964641228 27 30 23
-26.8464118436103 264.990033579965 2988.72916061478 21 24 15
-42.4859720860447 264.353133237715 2993.44513769218 20 23 14
-37.2407506874073 264.097343294508 2979.95422980223 21 24 15
-27.4427871818168 263.919088037592 2962.3535803022 21 24 15
-36.9095108094311 263.393884425269 2961.66406215485 20 23 14
-24.9397737039083 263.245900502373 2941.93252665101 18 21 12
-29.0874063529341 262.811749069564 2936.45325243085 19 22 13
-56.0582838593504 261.985167989057 2951.48097685406 16 19 10
-34.3792994084988 261.992568868398 2922.73201492343 15 18 9
-27.2245469890069 261.745787105659 2906.92030256252 15 18 9
-27.6838238959902 261.367674059505 2897.93930787861 15 18 9
-33.4367236749897 260.900587903948 2893.76654217239 14 17 8
-42.1886063229553 260.384771258352 2892.36023842429 15 18 9
-44.1984091028249 259.978161875754 2884.72545784113 14 14 6
-42.5061298524498 259.628707619631 2873.59920740699 17 16 11
-25.2590080189301 259.519756549344 2847.8126764389 26 22 19
-38.5161633480708 258.930288110223 2850.5505455683 24 21 16
-79.0532177131633 257.927348421599 2879.21013391888 45 38 32
-109.813115880711 257.085302377558 2898.90155232225 48 38 29
-118.402992907407 256.582683740294 2897.6127567569 104 81 73
-125.512352675978 256.102888937514 2894.92667314254 118 89 81
-129.695588925328 255.665944788642 2889.42186944405 143 109 99
-132.433525956412 255.248963952284 2882.49423289877 158 129 115
-132.289416284971 254.871255588147 2872.71590592008 162 136 119
-127.12011731814 254.56074154765 2857.93464642151 157 138 123
-115.530627834065 254.333331251322 2836.69202236256 150 137 121
202.536807968568 273.570888432282 3080.94962284314 15 20 14
185.02979000586 272.86901903347 3085.54684199073 22 25 18
197.041844423492 272.76403691759 3068.31627428056 12 15 8
196.369703556317 272.400525805488 3060.41637503706 13 14 8
183.111775519043 271.786482122859 3061.91852290619 23 24 18
160.706826172513 270.995413649749 3070.37518950793 26 27 21
103.407038803972 269.530934142467 3105.40779900279 22 23 15
67.1460589491004 268.489054050535 3124.8157580579 18 21 12
107.271185142014 268.918152667441 3085.97376557853 18 24 14
105.838317013906 268.544216424802 3078.75738273272 18 24 14
97.7897729800299 268.044525381908 3076.6256947291 17 20 13
100.439368233512 267.744915403541 3066.19367556685 15 18 11
96.4865710364347 267.320620108543 3060.85569164708 13 16 9
85.9836230664639 266.775895082757 3060.64993010923 22 25 18
66.5369208982307 266.070671913193 3067.54612368141 28 31 24
39.8450052108972 265.240021725975 3080.30568513436 30 33 26
35.1641246224057 264.808015920118 3075.67519007705 28 31 24
56.3608557401527 264.831440091297 3050.28211793921 27 30 23
49.1798327592665 264.350698711487 3047.5443738153 27 30 23
25.1131899966546 263.578915465853 3058.50194544553 25 28 21
13.9829218928202 263.034647454391 3059.07646509903 24 27 20
31.6853732267908 262.980013299415 3036.09036058731 23 26 19
9.36570114222324 262.247212324548 3045.84417826172 24 27 20
7.02960259379992 261.851260954773 3039.20824400359 23 26 19
-0.879460652496888 261.362811534386 3037.17772554059 22 25 18
-1.65418705097742 260.990762076886 3029.20341660776 21 24 17
-9.5582430593808 260.502716431617 3027.17653004357 24 27 20
-15.0892097277218 260.053059503293 3023.16473666803 23 26 19
-24.5448641379142 259.541899994359 3022.48331396877 22 25 18
-22.2409474354415 259.214079805473 3011.80026768045 23 26 19
-27.0052120523339 258.775246150616 3007.10929117704 24 27 20
-22.436816472347 258.477002107403 2994.36285387481 24 27 20
-20.2543168392608 258.139330002272 2983.59203433685 26 29 20
-14.2478439574005 257.85498570107 2969.41808710737 21 24 15
-21.4247776280776 257.374539104696 2966.68301442782 20 23 14
-30.9021938161576 256.86161664906 2965.98580722168 22 25 16
-31.1524350049579 256.480708455749 2957.15662730998 23 26 17
-34.4942265931785 256.054511266338 2951.0265281329 23 26 17
-30.9851101269181 255.721682200887 2938.74705824424 20 23 14
-30.5721613205532 255.343196714131 2929.16361455549 17 20 11
-39.2961211153859 254.840034664486 2927.77732230054 20 23 14
-26.8299181444505 254.617288428753 2907.17027018259 21 24 15
-30.3043502449967 254.180338410618 2900.94396260224 14 17 8
-30.7857368676705 253.780682455426 2891.94712547153 13 16 5
-33.5476830768005 253.350149504793 2885.00201551656 14 17 6
-46.7920722336654 252.788589716367 2887.74928047951 12 13 5
-40.6181641152186 252.46641955232 2872.4611879246 17 14 9
-13.668758078591 251.978990021093 2827.76859668901 20 19 15
-66.8417812671311 250.952931657052 2868.26507955538 91 86 80
-91.7508754027567 250.267277464358 2882.31778083177 159 150 143
-110.672987684086 249.656279836281 2890.83006918543 88 68 61
-120.732626570548 249.147645998223 2890.94556019486 108 81 72
-128.577593229612 248.664555278713 2888.96153385871 137 103 93
-132.044882527911 248.228307128837 2882.74040780325 147 115 100
-131.89945887737 247.82823126868 2872.96292006028 152 123 105
-128.174354200135 247.461633917812 2859.60481696294 153 132 115
-119.460666867482 247.14004192837 2841.21742649674 151 135 119
190.236316623262 266.263066038262 3090.52274042341 24 29 23
193.015747985655 265.94631471325 3080.18475540305 14 17 10
189.017053863773 265.512459430556 3074.81345139977 18 21 14
213.55619283413 265.554250505185 3048.13805071217 19 20 14
171.780621092125 264.490297059228 3070.95906134442 24 25 19
144.391800472915 263.673741645183 3083.21349293238 24 25 19
121.281618152492 262.93379072962 3092.39451112766 20 21 13
85.7999319250871 262.00175436309 3111.13291651519 17 20 11
90.2521152986462 261.712351249507 3099.53731591468 17 23 13
91.3452826748453 261.366850905347 3090.44714426004 18 24 14
98.173370269973 261.10781616502 3076.86863679123 16 19 12
92.6032855308097 260.654551493059 3072.82846761739 14 17 10
95.232083777173 260.325339560538 3062.38122232112 13 16 9
87.1858130493584 259.833485490114 3060.25122198139 20 23 16
70.1811256195866 259.21004699748 3065.21269404354 28 31 24
51.6102866664965 258.567782235126 3071.50910181977 30 33 26
45.2765776980053 258.106620897334 3068.15036177657 28 31 24
65.6429723222725 258.025898916711 3043.39016457978 26 29 22
62.4716150536138 257.604810481829 3037.38364275505 25 28 21
29.5158507910727 256.769544794854 3055.48326530791 24 27 20
16.7687162921961 256.220959709884 3057.3560298746 22 25 18
40.8709599232013 256.172625485668 3029.12812682307 21 24 17
19.3218824728993 255.505209667494 3038.20615402969 23 26 19
1.83906800792721 254.897107517384 3044.0561359111 22 25 18
-7.64239634851593 254.396998887312 3043.35605900587 22 25 18
-7.60508571472673 254.019731750296 3034.73534998969 22 25 18
-17.859714816328 253.511001084655 3034.70948794042 25 28 21
-19.4312601687388 253.111436938208 3027.39273968182 24 27 20
-19.4556703459852 252.729137988267 3018.72726244541 23 26 19
-29.686704048596 252.222336639441 3018.71880945381 24 27 20
-31.3067353149903 251.818813697918 3011.36659819233 24 27 20
-30.6148438794804 251.440497473358 3001.98536682573 23 26 19
-21.4215266466702 251.156536051459 2985.1808975454 24 27 18
-25.4692158933056 250.718403563204 2979.7740542657 20 23 14
-5.60318087098555 250.542568064219 2953.4153228403 19 22 13
-14.3555899665677 250.047472456857 2952.00844793822 21 24 15
-41.5075864967474 249.358626121582 2966.90557296947 21 24 15
-41.7576996002413 248.957982973689 2958.0763859481 24 27 18
-48.9059232383053 248.484813478824 2955.36216264384 20 23 14
-33.2241112129068 248.24007920699 2932.14562178641 16 19 10
-40.4225985741125 247.762834056005 2929.39494059257 22 25 16
-52.1517591229499 247.242806810661 2930.77076422217 23 26 17
-46.5009932406464 246.887871256352 2916.33830536192 13 16 7
-28.8861141803851 246.637533523289 2890.81765330449 13 16 5
-21.9051012235907 246.282249026071 2874.87944391155 13 16 5
-14.2522287564448 245.927323520969 2858.192950528 11 12 4
-7.42513529355016 245.559538089284 2842.14309828943 14 13 8
-62.3560447916718 244.674177646041 2883.83633225297 19 18 14
1.55562379644447 244.769585783705 2814.06605951475 20 19 15
-22.8594460130938 244.140639297059 2827.2418456976 5 4 0
-73.6818389138201 243.318092262264 2865.73827156195 209 202 194
-104.409001128046 242.664352101236 2885.45437476293 51 32 25
-115.951633182581 242.15964111352 2886.96549445863 99 75 65
-123.080199688922 241.68825076497 2884.26553004039 140 108 97
-125.834675983403 241.246953989308 2877.3260751421 151 119 104
-126.431152851511 240.818339262451 2868.24565995444 154 122 107
-122.719453999105 240.414445537275 2854.8776497751 149 126 112
-116.902666828467 240.018932535111 2839.33030112786 145 127 113
205.859820328354 259.427094854821 3079.58149995187 30 35 29
209.445587797915 259.091079761802 3068.59291097968 22 27 21
212.983019841172 258.751100418351 3057.56926254572 12 15 8
162.72697628381 257.684668262738 3086.59383534469 21 22 16
145.36830260837 257.070389441396 3091.29874161846 22 23 17
140.601112149768 256.625019522217 3086.6056110025 20 21 15
138.329003476581 256.211515790302 3080.01597546436 19 20 12
131.052961647247 255.73307168776 3077.20906730855 17 20 11
73.2264035120234 254.620992466425 3113.09663103892 14 20 10
105.779317156333 254.64528997333 3079.87924830346 16 22 12
94.4340932575662 254.120915447228 3080.29833715528 16 19 12
92.1642970490542 253.707480406699 3073.71008384305 14 17 10
89.0561508149985 253.282872321297 3067.74936721858 11 14 7
88.3878689830024 252.885648887742 3059.8523891895 15 18 11
73.8260075820829 252.327634980415 3062.87964499627 22 25 18
56.0577163206419 251.736886194845 3068.52276655375 25 28 21
55.3920366165359 251.339832488795 3060.62767572242 23 26 19
60.3634469909649 251.00212075256 3048.17319253379 20 23 16
49.1383935357854 250.487403802399 3048.67914994524 20 23 16
43.5765766520797 250.034176007894 3044.64497450306 20 23 16
39.6192974803178 249.597398963449 3039.30367828167 19 22 15
32.4508263383496 249.127515349132 3036.57508825038 19 22 15
2.94109665197739 248.437041048932 3052.23310721263 21 24 17
-9.72210522677575 247.919382608603 3054.16687297641 21 24 17
-8.85170929687074 247.533126018713 3044.91470863073 22 25 18
-7.22585824814237 247.151299236685 3034.97547010857 24 27 20
-13.5342647006289 246.694329127247 3031.63509362861 24 27 20
-8.81801488718836 246.335752372541 3018.9955334185 24 27 20
-13.5801823247694 245.890501856971 3014.30604470247 24 27 20
-14.4332392241451 245.47808265258 3006.27474783716 25 28 21
-23.1200718833986 244.99871542867 3004.9154903606 23 26 19
-32.5686140761601 244.514422077933 3004.23906506491 22 25 18
-36.5625246012868 244.07463556788 2998.8714932272 19 22 13
-20.4401094291431 243.78839943106 2975.97385030163 19 22 13
-18.3354494484553 243.388443358152 2965.14628765788 21 24 15
-33.9782742154231 242.856543421389 2969.86043005953 22 25 16
-44.1926627784821 242.367014108241 2969.86413097108 21 24 15
-40.6062824666031 241.973525601957 2957.64036404097 22 25 16
-41.6524436798185 241.545420877123 2949.46929676428 19 22 13
-48.812928406047 241.076196297102 2946.74620511732 15 18 9
-45.3439690848716 240.673179601512 2934.43756342002 21 24 15
-61.5977665509109 240.148688124196 2939.94387282781 22 25 16
-71.0022128057821 239.6680641199 2939.29943220452 13 16 7
-29.994780019762 239.466929837415 2892.44800499153 14 17 6
-29.0059835251055 239.033275070142 2882.04639503172 12 15 4
-20.5807463959853 238.634200514578 2864.68454502187 11 12 4
-33.114495063973 238.127212193458 2866.71220822706 13 12 7
-73.1121610203826 237.496494675275 2894.52965949569 17 16 12
-21.7164473528291 236.827834137084 2826.7983523902 0 1 0
-64.4463254156757 236.203082450487 2857.57563600651 208 204 195
-106.222640624802 235.598918636893 2887.80924533795 57 40 32
-115.562963263309 235.123693886426 2887.21161111793 98 76 65
-121.231696366041 234.661968981308 2883.09988678733 141 111 100
-123.261866526148 234.21104599524 2875.45011699843 154 120 108
-123.138224389768 233.764252102578 2865.65660273496 156 123 108
-119.433359394694 233.323592538762 2852.28345232039 148 125 111
-115.786750486443 232.878213582222 2838.86804692057 142 123 109
230.621630388052 252.998000254376 3070.32672717122 18 25 18
224.027483966452 252.520428600899 3066.77910733877 32 37 31
178.600364148612 251.632764803033 3091.89436677859 18 21 14
171.513432977954 250.755510944501 3080.57697804362 20 21 15
142.402434073421 250.059652092857 3094.05365044972 20 21 15
135.137577476238 249.58715415968 3091.25517530294 17 18 10
138.714884834434 249.219711776385 3080.26029423005 19 20 12
123.957936977201 248.675534090744 3083.14619778448 18 21 12
118.367541457151 248.219632645086 3079.09129153634 14 20 10
103.681897949628 247.681216471026 3082.02891431877 16 22 12
119.554461955666 247.41740693547 3061.42063028138 16 19 12
102.415754721512 246.858697628645 3066.28557087033 14 17 10
91.079609222529 246.353647192261 3066.7110442512 11 14 7
87.9538932572999 245.918840889835 3060.73753929766 13 16 9
79.1035588665596 245.436675901932 3059.25974175542 19 22 15
60.50603275225 244.878776896238 3065.53723076813 24 27 20
61.4533517193219 244.476433037677 3056.34104256555 22 25 18
50.2256793289853 243.98014772889 3056.84519481491 19 22 15
48.7133773577493 243.556966281512 3049.57097924434 19 22 15
52.0077082133645 243.166185172947 3038.37084425046 19 22 15
53.6477997670426 242.760342058085 3028.44151284977 19 22 15
32.0323036751407 242.195972122412 3037.47161923634 20 23 14
-2.26978784004039 241.555892673269 3057.06661682391 20 23 14
-7.75353111619648 241.108452017341 3053.08906791901 20 23 14
-3.71048463556845 240.718741002364 3041.19636717411 20 23 14
-0.51277607440614 240.320027858709 3029.92614843964 21 24 15
-5.25988560575508 239.872722493604 3025.24756511297 22 25 16
-2.92571723884105 239.463499871708 3014.58633105946 22 25 16
-4.5620823913668 239.030126031493 3007.22212781465 24 27 18
-7.00445242520997 238.59097008324 3000.50893624908 25 28 19
-9.46521281220702 238.150301907357 2993.78240546432 24 27 18
-31.4096091213985 237.61902554515 3003.80928931897 20 23 14
-42.3929460604939 237.142590142646 3004.490666095 19 22 13
-34.7652880140072 236.745538590529 2989.0210119693 18 21 12
-26.4411971182275 236.3453544064 2972.82116438207 20 23 14
-42.8315488247573 235.847513796048 2978.22861769861 23 26 17
-35.3648852919095 235.437345213095 2962.64218877383 23 26 17
-37.1589241546517 234.991145768087 2955.16361952735 22 25 16
-32.1068651155951 234.563871468507 2941.53210999561 19 22 13
-64.4086418189369 234.027072505199 2961.34266498593 17 20 11
-62.4093669245573 233.59059655557 2950.43852146371 18 21 12
-53.6451215744589 233.166422091228 2933.32229861206 20 23 14
-76.6525018185811 232.668432970334 2945.04913906894 17 20 11
-80.7534022956635 232.213979405136 2939.60363916323 15 18 7
-20.3590416784916 231.864944145957 2874.6918578726 12 15 4
-37.3824233566367 231.375550895655 2880.87578814695 12 13 5
-41.6645407062963 230.906364466952 2875.29884563809 12 11 6
-37.7785193779692 230.444060080793 2862.05690968027 14 15 10
34.8558909912819 229.534972465033 2773.90235119658 0 2 0
-105.833680364002 228.549897966213 2888.05550625245 42 29 20
-112.97728286583 228.087230435001 2885.34498058001 54 36 24
-117.192031073518 227.62369209153 2879.81690400856 120 92 80
-121.416553648307 227.159376851272 2874.28173785467 144 110 98
-121.296098881642 226.68984613565 2864.48579783238 154 118 106
-118.317152857001 226.213714545221 2851.82127022065 156 130 117
-111.785083472278 225.72771019176 2835.55694992954 144 124 113
240.353544091198 245.912982546692 3063.7591312632 31 38 31
226.115468820609 245.378292072024 3065.78618805437 27 32 26
211.076488190296 244.840917345134 3068.46796896806 21 26 20
204.508171306548 244.367626289514 3064.9390952009 16 19 12
171.901713604229 243.713507389969 3080.82278181963 18 19 13
150.327290811157 243.144371484743 3088.64760234729 19 20 14
143.042656785237 242.675219737558 3085.83451259242 16 17 11
126.59780789479 242.148344249841 3089.96727604074 19 20 12
126.835711247383 241.728612258747 3081.49176587442 19 22 13
111.289028659303 241.212265794807 3085.04064594553 13 19 9
129.699331336552 240.895771756221 3062.56635160691 15 21 11
126.538515923322 240.449433015944 3056.56734390039 16 19 12
98.6869477960957 239.869531801888 3069.72255527363 14 17 10
100.486864670011 239.451689543556 3059.90902388039 10 13 6
94.8830243014775 238.994049201239 3055.84436236681 12 15 8
75.4062271662019 238.470409312888 3062.71995368726 25 28 21
63.3278898564797 237.98607199047 3063.84253793057 23 26 19
50.4722360191368 237.501006182163 3065.63695625055 21 24 17
49.7968729109122 237.069204497038 3057.73437523053 18 21 14
49.0946946013775 236.63519687566 3049.81234412532 19 22 15
54.0009174216944 236.219854460351 3037.31021187286 19 22 15
56.4408585217198 235.791371193533 3026.72555717191 19 22 15
33.2143828965243 235.275205416817 3037.05844201378 20 23 14
0.501809316070911 234.737466430826 3055.33586571343 20 23 14
-0.210668216099386 234.302553511773 3047.40636389642 18 21 12
3.02017301685131 233.875872172856 3036.1600220784 18 21 12
1.45069628939964 233.433716682959 3028.84426319961 19 22 13
-4.88009378415244 232.97930864146 3025.48796780944 20 23 14
-3.33190985466558 232.540711010344 3015.49184470248 20 23 14
-4.96546109178819 232.093326587112 3008.12990483566 23 26 17
-3.48920327754665 231.648842394703 2998.08161113619 24 27 18
-7.51990685765902 231.193963021926 2992.68699630237 23 26 17
-20.1267960616565 230.729109667037 2994.66185179402 19 22 13
-32.6951221432958 230.267406493046 2996.66467847234 19 22 13
-24.3167159314761 229.821733479172 2980.50368032994 17 20 11
-26.0566654806751 229.365669862259 2973.06456609421 17 20 11
-34.749368054066 228.906670233365 2971.70115655751 22 25 16
-29.6053194501553 228.447936220802 2958.13617287483 24 27 18
-37.5388516492909 227.988201661393 2956.08806179215 22 25 16
-50.8038614015101 227.532407557441 2958.82091416951 20 23 14
-58.6973914414939 227.075944334536 2956.80152359863 18 21 12
-68.0969800333062 226.622037630103 2956.16103420437 18 21 12
-47.9603192959059 226.132500069487 2928.76185954329 19 22 13
-70.9865618913859 225.695527194304 2940.47533533844 19 22 13
-66.8260403700802 225.219326578864 2927.43232004149 16 19 8
-65.7244936165153 224.744385793955 2917.11223602875 12 13 5
-32.4991468416631 224.194057527679 2876.96859509799 12 13 5
-53.2020017820711 223.758615885226 2886.66094757923 12 11 6
-38.8682480376206 223.234618634553 2863.70079261211 13 14 9
-96.8196029140203 221.954203853184 2889.61615388107 179 179 169
-96.6273492372831 221.46792600139 2879.87188311639 32 22 12
-105.995514893023 221.016856156316 2879.25418724833 51 35 22
-113.151265408191 220.558182750736 2876.53458097578 123 95 84
-118.114837175445 220.090290861905 2871.69897527997 136 102 92
-119.453759810436 219.604621435232 2863.31509294721 146 110 98
-115.029918483923 219.087512729312 2849.22771995983 147 120 109
-107.782504782627 218.549980624037 2832.24667040259 134 114 103
248.390081829758 238.760455467014 3058.43284140151 81 88 81
245.985915584576 238.302077246329 3051.74695273604 30 35 29
219.915298395763 237.744865086557 3062.48821848885 16 21 15
214.1672747612 237.275316518419 3058.31897513119 12 15 8
190.774360315916 236.740184877791 3067.29577774834 22 23 17
159.09265552292 236.183084676811 3082.61529227587 15 16 10
144.263251413733 235.692239613574 3085.44894088721 16 17 11
149.489246975759 235.267254786511 3073.17856987878 18 19 11
137.197306734663 234.78705754015 3074.14632976893 17 20 11
133.232492163466 234.33191035166 3068.7997724043 14 20 10
133.394118714281 233.886216418153 3060.26883605419 14 20 10
126.1005542036 233.421124441311 3057.44929296386 15 18 11
117.992354827701 232.95499538665 3055.27452952779 14 17 10
101.691454738226 232.474750159004 3059.51188072541 11 14 7
95.2671297180547 232.015073192147 3056.08745869114 11 14 7
74.155718360732 231.53493060961 3064.24837685846 23 26 19
55.5686240480879 231.064426814462 3070.53387078081 27 30 23
50.8512871210574 230.613095966254 3065.87684986052 25 28 21
44.509821995856 230.16010543705 3062.51252860056 21 24 17
43.8238429027025 229.710450357319 3054.60216139555 21 24 17
47.1368721471719 229.259864468463 3043.41527833979 19 22 15
40.7647905935518 228.804318987344 3040.02874963615 18 21 14
12.7738491364733 228.351778406606 3054.31890252115 18 21 12
-2.31666481316628 227.90472013929 3058.19852545473 18 21 12
8.13072756387223 227.447198970202 3041.06724626621 17 20 11
8.1643576486341 226.990728890747 3032.44346796298 16 19 10
2.62218089685096 226.53740813717 3028.42352960071 15 18 9
-16.3488538411838 226.100945860081 3035.66590597119 16 19 10
-12.403451192462 225.636406955172 3023.70233658772 16 19 10
-4.58407389639826 225.160711877698 3008.37126549257 20 23 14
-7.02271963348822 224.698801103929 3001.6603640145 22 25 16
-7.91782886344117 224.231950239617 2993.59830681023 23 26 17
-21.3028458222526 223.793183663237 2996.24454412725 19 22 13
-20.6637624556429 223.320610453088 2986.82425915728 19 22 13
-27.806088492919 222.867620276125 2984.11470783894 19 22 13
-30.3064549378869 222.400675830793 2977.35903820601 19 22 13
-32.055438668571 221.929627710515 2969.91329899986 20 23 14
-30.7554869671784 221.445540581067 2959.73699663994 21 24 15
-18.7756308278428 220.91656769232 2940.01086685544 22 25 16
-41.2574491375146 220.521023908299 2950.88418065128 18 21 12
-65.1662014727712 220.139974601881 2963.19322619548 17 20 11
-37.3483283462093 219.52883374734 2929.01046065278 16 19 10
-46.8154255169395 219.082591376103 2928.32077719329 15 18 9
-44.9403038986318 218.580036597807 2917.3262976094 19 22 13
-67.9446326794246 218.207439302361 2929.05598527148 18 21 10
-48.8287331936106 217.60624595996 2902.15131006566 10 13 2
-52.0634229927455 216.620423631171 2886.21513466186 14 13 8
-59.2968973828691 216.160209982615 2883.43947136903 11 13 8
-97.1680772927259 214.900308056739 2890.56284462348 176 176 166
-94.7676711248422 214.375363846134 2878.71400498361 26 13 4
-104.873599425016 213.942755868967 2878.79661937217 48 32 19
-109.840147051479 213.471315432174 2873.9585439614 80 58 47
-112.627204733251 212.981395133027 2866.99522383241 132 100 89
-108.897632867291 212.434104175328 2853.63944384677 126 94 83
-105.226365027366 211.882086207307 2840.24137408516 115 91 81
-100.891726729497 211.318783157787 2826.08910193517 118 98 89
244.689512976989 231.077367830851 3053.24093597711 28 33 27
203.414439313316 230.57180295324 3075.19256006649 16 19 12
176.646318378607 230.090950643718 3086.66331939831 14 17 10
203.77054957668 229.644340486585 3058.15432349905 22 23 17
182.947934474569 229.171308729577 3065.28930114651 15 16 10
179.759523179281 228.705460984528 3059.2701897792 16 17 11
161.548922181541 228.240986708499 3064.59360565178 17 18 10
126.771421805259 227.788187152979 3082.60958671357 17 20 11
132.788642093499 227.323430184177 3069.67755331181 15 21 11
125.508141728387 226.864414185709 3066.86780595246 14 20 10
108.335385048401 226.416322428923 3071.70832919415 15 18 11
101.920755863202 225.959708665784 3068.2909513933 14 17 10
103.71662088244 225.491229292067 3058.47452071418 11 14 7
93.1954009560663 225.040359203726 3058.25569436193 11 14 7
68.8224166292422 224.618290985422 3068.99296383017 21 24 17
55.1330815564328 224.18161491682 3071.41831056369 27 30 23
49.6062369514458 223.729140435347 3067.40949108838 26 29 22
52.1760707682444 223.255483755479 3056.91876957762 22 25 18
44.2033178030941 222.807933505102 3054.84228824058 22 25 18
37.8535044273827 222.356446480171 3051.47221724823 18 21 14
31.5076842771429 221.905242720752 3048.10474798801 17 20 13
9.1458706569667 221.510857651134 3057.8297305072 17 20 11
8.44258582651358 221.042762424388 3049.90672460091 18 21 12
6.11896659403754 220.578810443853 3043.27949242873 17 20 11
7.74913145850409 220.096512550471 3033.34257770066 16 19 10
2.20905488008505 219.642820506033 3029.32415991822 15 18 9
-9.65209746256135 219.218857050143 3030.60478646168 17 20 11
-6.51025154310414 218.72350464845 3019.29358220918 17 20 11
-0.274764385359116 218.207794320305 3005.28418592414 20 23 14
2.76010753886036 217.70367874829 2993.89538955237 21 24 15
-16.9103106972732 217.324383589867 3001.86609409142 20 23 14
14.1360044721179 216.651022484924 2966.31797556148 18 21 12
-21.8352360526908 216.373685174741 2988.41021313563 18 21 12
-19.6773573023847 215.866181323701 2977.62068516302 20 23 14
-23.7440319913786 215.39630470332 2972.1999181407 20 23 14
-24.7394004625536 214.90427112912 2964.06505331743 21 24 15
-15.008884443227 214.33271742932 2946.41351756106 21 24 15
-13.7919346815527 213.81661964731 2936.17688318342 21 24 15
-14.9067925442239 213.314856714378 2927.95564314613 16 19 10
-51.8391997402015 213.095709411444 2951.8214784903 16 19 10
-39.9973235619455 212.491856764103 2931.99494480663 15 18 9
-26.7432370139837 211.866836207376 2910.72167760297 14 17 8
-44.5513077646678 211.50335744682 2917.57244443346 19 22 13
-42.7196556732152 210.969291174645 2906.54629324993 18 24 12
-52.1907050659345 210.535968508804 2905.85410465825 10 16 4
-51.1643634428816 210.004429341844 2895.47921615949 15 18 9
-56.1477086188651 209.528139727407 2890.62923376157 15 16 10
-82.70974640573 209.268949403114 2905.95591429157 10 12 7
-67.6139763775274 208.589685153065 2882.31233810361 3 5 0
-98.0533371437506 207.329561673094 2882.47194481288 36 23 14
-105.950330300991 206.888533412866 2880.45041641255 44 26 14
-109.450971251342 206.397062992688 2874.20483332108 87 63 53
-107.866313549793 205.843129311932 2862.99953000085 131 101 90
-105.600608983226 205.27660178826 2851.05283166783 121 91 80
-102.660168706687 204.696951321376 2838.35986607403 112 90 79
-98.3300220028846 204.09432770115 2824.2041387052 112 94 84
223.705780575533 224.385920209008 3077.51960394746 17 24 17
212.050338662893 223.929854734683 3077.71386066244 25 30 24
190.286739824958 223.499846158299 3085.40224814532 19 22 15
178.718443790705 223.05079566414 3085.65971429958 21 24 17
210.047024424572 222.485508793728 3054.02187333358 21 22 16
211.841033215171 221.992092829461 3044.20397072596 14 15 9
158.410056070525 221.672565149207 3075.87119062331 14 15 9
170.276557505092 221.149993979119 3058.5332877556 15 16 8
156.266052523613 220.714150677066 3060.72581578635 15 18 9
111.604388320881 220.401039511168 3086.39888055955 14 20 10
112.654382928584 219.917603171145 3077.27671337066 15 21 11
96.3397836601252 219.506424736145 3081.504483578 15 18 11
100.657006553607 219.005830784016 3069.80997752205 14 17 10
100.817057888197 218.520552184481 3061.27769875995 11 14 7
92.7593818325683 218.073862774742 3059.13965922259 10 13 6
69.2018346132239 217.709828746718 3069.23301930073 17 20 13
57.9538664454144 217.286444599017 3069.72282796661 18 21 14
56.4806729811775 216.809625366985 3062.47698577845 17 20 13
54.1751585988246 216.335773820381 3055.86282805525 17 20 13
42.9668644078407 215.915566367375 3056.38141332421 19 22 15
34.2049349466835 215.482212071855 3054.96794963786 19 22 15
25.4599539486762 215.050208386935 3053.56677909525 19 22 15
25.5440481479972 214.558477693269 3044.97940470365 17 20 11
14.4116304812001 214.144432020875 3045.55302569491 17 20 11
14.4635671826299 213.650028999458 3036.94232611095 18 21 12
9.71665407438227 213.189599641461 3032.26381869997 19 22 13
4.9645420745561 212.728734179313 3027.58154029258 20 23 14
-5.3238083683953 212.312602301063 3027.53170195443 22 25 16
-3.76725235596931 211.799061324364 3017.54156282326 22 25 16
1.6782203443042 211.2481642814 3004.1943265998 21 24 15
0.00875820088275248 210.755071698659 2996.80612262979 20 23 14
-19.6555936791052 210.425063743797 3004.78147444928 17 20 11
-24.4370234160323 209.961770942144 3000.07793069364 16 19 10
-8.24437991132609 209.294721829457 2977.22956336931 18 21 12
-9.22152499086071 208.787167437791 2969.10783045556 21 24 15
-11.771261409224 208.29316525176 2962.31652889953 23 26 17
-13.5689823742422 207.78957483201 2954.83499972193 24 27 18
-24.6085318597455 207.383134665743 2955.4759813631 23 26 17
-22.5956574249537 206.835819190824 2944.58113501391 22 25 16
-20.6277011156768 206.284834974891 2933.65370797404 16 19 10
-24.7977945639533 205.800520018396 2928.15789735303 15 18 9
-34.2940231626692 205.378211579683 2927.4475116068 15 18 9
-39.2257632327047 204.90274196474 2922.63494300495 14 17 8
-29.0616280217855 204.240218497114 2904.06195516842 21 24 15
-40.07095119465 203.836391294755 2904.72486174387 24 30 18
-42.0427149714007 203.318734228582 2897.11738844447 14 20 8
-53.0189185611096 202.917672229564 2897.80431811884 13 16 7
-52.0252688659457 202.358235421958 2887.40558923682 14 15 9
-54.7925790439661 201.846682014713 2880.45647491878 12 13 8
-61.2878261804939 201.385684341798 2876.98063323917 2 3 0
-69.1062897126977 200.389211551166 2865.13233721625 171 167 158
-97.6647108829582 200.256496930982 2882.71784181569 38 21 13
-109.227500932207 199.878842965805 2884.2149921197 56 34 23
-111.254819106726 199.35692892669 2876.56693021234 136 106 96
-110.390618974789 198.787191960222 2866.07430840701 118 91 80
-105.208588686035 198.144127929569 2851.30088816116 116 92 80
-101.542106330116 197.519309045973 2837.89898054907 115 97 85
-95.0458257566733 196.841622411637 2821.60774527636 106 92 83
247.881143758341 217.134950272295 3060.42443714349 22 29 22
229.385465749171 216.728551019988 3065.54148876808 24 29 23
203.350117682551 216.369678659346 3076.30903201342 21 24 17
201.019299734338 215.882941207233 3069.67646592567 21 24 17
199.511566622582 215.389639654476 3062.40520724668 19 20 14
199.658529410425 214.88400348438 3053.86333720261 13 14 8
207.301258935136 214.327094174205 3039.63883563125 13 14 8
199.025534726707 213.870529532253 3037.34267831456 14 15 7
145.838778319591 213.726369708505 3069.18812178626 13 16 7
129.409293170093 213.340931451485 3073.33273914573 14 20 10
94.0027500237659 213.100960998588 3092.12912280666 14 20 10
117.353661269002 212.426172287697 3065.82375749439 14 17 10
114.209460940802 211.946236890693 3059.8366242439 14 17 10
106.1256978973 211.505133628189 3057.67970198725 11 14 7
89.8666022411629 211.133454012507 3061.94790801698 9 12 5
78.5633926968963 210.724227299607 3062.39774274036 16 19 12
72.1768339616129 210.274215248575 3059.00074724668 19 22 15
62.5449301108878 209.854006964859 3058.19201825252 18 21 14
57.7946287765219 209.390144168532 3053.51103725308 16 19 12
50.6157522944459 208.949058849524 3050.77475556071 17 20 13
47.4732025309565 208.469010723432 3044.7888182688 18 21 14
41.9063666627002 208.012105361323 3040.75098583001 18 21 14
29.9284617456026 207.621374334784 3041.94714426943 17 20 11
26.7749870739511 207.140366489524 3035.95328241728 17 20 11
22.0138555071578 206.675489009603 3031.26415073463 18 21 12
15.6579309082123 206.227804728142 3027.88966884778 20 23 14
9.30570901105821 205.780410048442 3024.51757811835 21 24 15
2.95709844100767 205.333300458535 3021.14810676104 23 26 17
3.70500765560156 204.802233636353 3011.80671016608 23 26 17
4.41719086173187 204.26821744282 3002.43910560899 22 25 16
-8.23046113218417 203.896484631081 3004.38488295822 20 23 14
-27.8735771367691 203.617018074345 3012.37617959615 18 21 12
-15.4846946771972 202.930680256409 2992.94576463585 18 21 12
-11.7464988402662 202.3488483654 2980.83109802338 23 26 17
-2.63700488696417 201.689546062083 2963.9639622833 24 27 18
-6.74937013320998 201.203869030845 2958.51028764576 24 27 18
-10.8711759937139 200.717409378213 2953.04947086433 22 25 16
-18.844869698847 200.28506613213 2950.97238459127 20 23 14
-16.0797229349199 199.697485270664 2939.38763592643 19 22 13
