ply
format ascii 1.0
comment KinectMotionCapture
element vertex 765
property float x
property float y
property float z
property uchar red
property uchar green
property uchar blue
end_header
2.79331091917401 992.51742715033 2927.44165532724 113 81 66
0.873910674498823 993.536201998668 2919.87992380029 94 55 38
-6.40139501752635 992.510351346949 2917.07077656403 126 77 60
-8.34972549158408 993.527559193665 2909.48806495922 181 134 118
-11.0778655482937 994.251649102651 2902.57360467504 190 147 130
-8.5358194752434 997.014474962919 2890.84380155172 168 132 116
-11.3149885579076 997.735207621309 2883.89233223248 152 119 104
-11.1079710793125 999.618877615204 2874.17106279292 85 56 38
-10.1875326695975 1001.79099389307 2863.73309734257 81 54 33
-10.0536878580089 1003.66945301068 2853.958757081 136 114 91
-4.74423123554479 1007.57928522409 2839.30047774391 155 134 113
15.7996595505705 968.446379181915 3033.08823494197 15 16 10
92.6913840494778 998.336245518622 2960.52685234614 14 15 7
59.2211376126142 987.687239529291 2979.43913836809 16 17 9
26.693233059873 977.34193906429 2997.80075535455 14 15 9
14.7582159683366 974.576049639806 2999.01597344846 13 14 6
8.34705568597816 973.849551630192 2995.5997433124 14 15 7
4.28588888633108 973.995914805834 2990.18638492968 18 19 11
5.67403311591796 976.175929075888 2980.08750941437 18 19 11
13.2425285513991 980.676202886631 2964.59977296781 18 18 10
17.6351512779962 984.01024091914 2951.74431239778 17 19 8
-1.22305575785919 978.639286266484 2959.04348580074 21 19 6
-3.04642980201963 979.651371946324 2951.55103735685 29 23 7
2.0266414142549 983.269403171251 2937.95525027079 32 20 4
0.139188808153889 984.277204288554 2930.41662268472 134 103 85
1.28700819709815 986.440915988543 2920.14344798791 100 58 42
-5.98833212431615 985.420917425346 2917.33430529005 98 47 30
-5.65584809128472 987.292108703435 2907.70392602624 140 93 77
-7.63187590357273 988.294157734406 2900.10076477044 170 127 110
-3.58592505060407 991.604124672951 2886.99416691306 169 132 116
-7.13078804623479 992.024877249043 2880.72114690653 155 119 105
-6.93328490465017 993.886437575133 2870.99257385418 110 81 63
-7.52026436958997 995.45725997032 2861.92917107996 96 69 48
-5.15123797936479 998.178000071945 2850.0740236005 140 115 93
-4.3200125468148 1000.31935004054 2839.57122992168 161 139 118
-5.01344644161961 1001.88250434074 2830.43061721898 143 126 108
24.0794197668195 959.685270171414 3052.63231942947 20 23 14
64.1141619242824 975.746936662063 3011.33361993667 14 15 7
8.20735060190003 957.086243408847 3048.52396191139 16 17 9
95.7191887296291 990.472083314161 2967.62267451423 18 19 11
66.140949341805 981.356960527114 2983.18835682635 16 19 12
64.3741274797893 982.356540833251 2975.736840924 13 16 9
51.5441107366663 979.315683945806 2977.53689853503 16 19 12
38.7536946543632 976.278453360234 2979.36568187813 12 15 8
32.2769197431656 975.54998548758 2975.90187631959 14 17 10
22.6761096155612 973.670305240619 2975.10829531567 13 16 7
19.336246345965 974.095537086258 2968.98390667384 16 18 7
18.3161107539691 975.382923244529 2960.84010074789 18 16 1
17.2695584030969 976.668766788876 2952.67713693602 25 19 3
6.14385586274047 974.217612683736 2953.24530750992 32 19 0
-0.324721914263471 973.492198622977 2949.78745969706 56 38 16
1.66861093678605 975.924120637193 2938.893537662 106 81 59
1.31786300689729 977.492632391594 2930.00137246511 159 121 102
3.22962606308597 979.919021731408 2919.04829072089 132 87 68
-2.52579839823408 979.477382615579 2914.87382371285 120 69 52
-3.72078751719784 980.75388959798 2906.60320762847 113 66 48
-5.70040778977332 981.742335087192 2898.99766769394 127 82 63
-4.67931801629073 983.873316600487 2888.63245820949 166 129 111
-5.95862122511415 985.144068589985 2880.30069189184 163 130 113
-8.76725879731444 985.841563380578 2873.32774253126 126 99 78
-5.60074272579247 988.821713983386 2860.81669520016 119 94 72
-4.72829486471182 990.94191882257 2850.34397191228 145 123 100
-1.66128706308188 993.914725071551 2837.76075171212 148 130 108
-9.78542244782066 992.609054487433 2835.57018347979 142 127 108
101.462817777024 980.372047467274 2990.26192245913 19 22 13
60.5182181774868 967.311176368997 3014.85988688446 25 26 18
69.2174257629148 972.028014897126 2998.95759364275 15 16 8
51.5898071367924 967.290783033925 3004.68198351845 17 18 10
80.0333127498227 979.155532228686 2972.25098178871 16 17 11
45.7991927300849 968.414243638076 2991.8440887482 14 15 9
46.430691724475 970.261076382616 2982.43005395338 15 18 11
58.8260305616872 976.390074306837 2963.03884037816 11 14 7
52.2945634540268 975.660640897607 2959.53538238858 13 16 9
40.2916493404244 972.934775844303 2960.70158321353 14 16 5
32.2241460500443 971.637815414655 2958.55211291364 21 21 9
21.8361027127001 969.487237970783 2958.42151423708 26 20 4
16.9039091616536 969.332665035661 2953.60994782509 26 18 0
11.9669886485783 969.177958497536 2948.79524853775 49 28 7
5.4831248229501 968.454353030938 2945.3263287029 87 62 40
7.46295668201125 970.85853557266 2934.42247900473 131 100 79
4.79752968949398 971.554966328516 2927.55334066008 164 123 103
5.17286902953007 973.385956635502 2917.95382449705 158 113 94
-3.63659479454026 971.809280143224 2916.50011098426 130 81 64
-4.06576088861188 973.353814726301 2907.55097733754 130 83 63
-4.52609694447803 974.896182657746 2898.57923694579 140 95 74
-2.74980537379688 977.28614643114 2887.52776452794 169 132 113
-5.53961270900549 977.974521923449 2880.56812493995 164 131 114
-6.84452118000012 979.227367490127 2872.21770612175 134 107 86
-6.67768771964572 981.043856248143 2862.46696614359 131 106 84
-5.7990480414003 983.140415833856 2851.99831719122 152 132 108
-6.45023900490482 984.669174447579 2842.88815307 149 131 111
-15.3020703314115 983.090798285748 2841.40371784137 138 123 104
80.1195542039128 967.137191469806 2999.42519749847 21 22 16
74.4098861167339 966.693702955759 2995.28389089497 15 16 8
81.4290751739391 970.788274996993 2980.63093220177 18 18 10
36.0166957192183 956.171440665805 3009.39303513165 20 17 8
39.8758394918048 959.134396175561 2997.38400130591 19 16 7
50.7827989873042 964.641477595157 2979.38104738802 19 16 7
44.0757283399216 965.456568291289 2967.11226860558 21 17 8
39.9199446608272 965.580559107583 2961.6299126303 29 21 10
27.1732246654035 962.597770122905 2963.49064795674 30 18 6
21.4678643886348 962.158573681346 2959.35248591713 54 36 22
18.0897223101422 962.565947794214 2953.20025769689 87 66 49
15.4718809098138 963.254583469765 2946.36557567993 115 89 72
10.5221552243941 963.096977153225 2941.5412844849 148 115 96
8.64447646805111 964.065481961365 2934.00954312755 156 119 101
6.74481904170277 965.032554356635 2926.46156723079 160 119 101
6.35248801061028 966.560835482117 2917.53905378035 163 120 103
-0.171858646610623 965.838262367754 2914.04108678302 161 116 97
-1.36902633786473 967.08257017656 2905.76872830993 160 115 96
-2.59284161248718 968.325137440637 2897.47704361876 161 119 97
-1.57515092983362 970.407570586991 2887.10912415378 165 128 109
-6.62812196757034 970.243821125027 2882.21025156028 158 125 108
-7.92757193313309 971.481097549049 2873.86371086838 148 121 100
-8.50431957552544 972.996529905874 2864.80744479921 152 125 104
-6.87042584404618 975.349387513325 2853.65255719876 144 123 102
-8.26101666106438 976.580176669175 2845.23991369931 149 131 111
-22.3067810825091 973.056457514086 2848.62627733879 144 128 112
87.7271157966368 962.614520301738 2993.80125441252 20 21 15
79.604543909233 961.32676967689 2991.61161588388 17 17 9
63.5380305923494 957.231684448393 2996.00056917776 18 18 8
77.6818188235193 963.808793485073 2975.40904039471 20 17 8
81.429005621759 966.730776034014 2963.31863903287 21 17 6
71.7084393869261 964.882677183107 2962.4384042371 20 16 5
58.0751650764939 961.635701606685 2964.89015589262 26 18 7
46.8399664723758 959.232553211308 2965.37919359153 28 18 6
37.2006059633678 957.392097960122 2964.55757079874 35 19 6
32.2649619602258 957.231819171093 2959.74376865613 49 31 17
23.4341032127636 955.673782092398 2958.27463991909 103 77 62
19.2762309212022 955.793670974364 2952.79104356398 123 94 80
16.6572294613117 956.471747146117 2945.95517263209 134 101 86
14.0202128741329 957.148613225287 2939.10653049764 149 110 93
11.3654589269978 957.82440084338 2932.2450247098 158 116 100
8.69287462989998 958.499042723351 2925.37058751737 170 127 110
7.53253459006986 959.729844689643 2917.12485778498 166 123 106
1.00618224470317 959.010205412185 2913.62515720495 159 116 97
1.32900776694367 960.794881868383 2903.98733806591 161 118 99
-1.41711922630861 961.464880333729 2897.05956468375 162 121 99
0.356028804285202 963.800820011645 2886.00553980391 160 125 105
-4.70086882267773 963.634531572623 2881.10351340464 153 122 104
-5.2519129218056 965.132987926061 2872.06579439572 148 121 100
-8.08288030466087 965.79712901854 2865.0764887358 152 125 104
-7.19463382305019 967.846074372158 2854.61456278474 149 127 106
-10.8176319655335 968.229908296588 2848.28471394252 152 131 112
-23.3703679652253 965.290615053 2850.2862927218 147 131 115
73.6285648884438 952.030601046801 2997.11359069585 21 21 13
63.1489407918475 949.919802154094 2996.91680465869 22 20 8
48.7274468195116 946.421445438518 3000.03092239402 27 19 6
73.136132717738 956.541436644893 2970.84192830256 27 18 3
69.7535372076441 956.930586579392 2964.68637938565 29 17 1
57.6998364637968 954.266613800061 2965.81578291804 45 28 10
46.466061984876 951.883117002276 2966.30595253491 67 46 27
37.6110210422227 950.333815039003 2964.81933785359 95 68 49
31.1147278430171 949.617278427957 2961.34173798274 102 74 53
24.6228463243119 948.901327829116 2957.86704472449 128 91 72
22.015629823839 949.569316466578 2951.03996034286 149 106 89
18.6168084619203 949.959780653992 2944.87265561663 162 116 100
14.4329300301314 950.0732508355 2939.36987986646 173 126 108
8.70097417727411 949.633990889207 2935.2124378045 171 126 107
6.03807036881188 950.298902085244 2928.34496891704 164 121 102
5.65268169510258 951.790107015526 2919.42730033138 170 129 107
2.18463092811794 952.176635675887 2913.20978979778 159 121 98
1.74596029185725 953.664121611137 2904.25347714293 161 120 98
-0.999348290644964 954.323731209222 2897.32624442252 158 120 97
0.0192414572057764 956.357725211947 2886.95873135528 151 119 98
-2.77293582971083 957.013956128986 2879.99750539713 150 119 101
-1.07127581104871 959.317817201993 2868.89149484735 143 116 97
-3.91226203030515 959.970681130955 2861.89457472103 140 113 94
-3.78122144215909 961.720165153446 2852.11754833377 146 124 103
-5.17638820464339 962.918381690292 2843.70142264705 143 122 103
-18.4889484695687 959.728454312161 2846.38595571891 141 125 109
48.4316829146425 937.655039125081 3009.65328971589 26 22 11
42.7824729650181 937.218419940326 3005.55584530105 31 22 7
56.132530426658 943.385429651849 2985.62158906236 33 20 4
60.6932947520189 946.520162071679 2972.88700840337 36 20 4
54.9627741712735 946.078568902011 2968.73059498256 54 33 12
46.0921044318789 944.5389936939 2967.23269992088 99 75 51
39.5872886650555 943.824395387699 2963.74893167678 124 94 70
35.4288571675725 943.933355235007 2958.26458010662 131 96 74
28.9261090855235 943.219750489368 2954.78202132691 148 107 85
23.9800045477438 943.054501957126 2949.96061094678 159 114 93
17.4813158249663 942.341823503012 2946.48099957508 163 116 96
14.0739149862545 942.724015550972 2940.30772798003 171 125 102
9.1142176330159 942.558730879384 2935.47616921782 173 128 105
7.98711569214339 943.759665123093 2927.2543832068 175 135 110
5.30278045918786 944.412504454707 2920.37131707598 171 134 108
3.36359899723071 945.33719337792 2912.7947691587 160 124 98
2.16320829202132 946.533265803051 2904.51982993228 159 121 98
0.177477436414719 947.454830529834 2896.90922706444 157 119 96
1.19519721862504 949.464508425049 2886.54125465168 148 116 95
-0.0896869543640655 950.654572350405 2878.20503387305 147 116 98
0.102941706146886 952.386989867425 2868.47227307156 140 113 94
-1.23998303171735 953.572899912453 2860.09425088561 135 108 89
-2.60954665249846 954.756820783948 2851.69661305235 133 110 92
-2.51469962502582 956.482153311613 2841.89293237143 149 128 111
-10.632248723013 955.219016192254 2839.70735411931 127 111 96
63.9634435858558 935.857986753886 2997.43602924919 29 22 12
54.3031045236475 934.055681130664 2996.59939189087 35 19 4
58.1248036038677 936.886507176489 2984.56283882377 44 25 8
58.7356766842158 938.6248470504 2975.1333023259 82 61 40
53.7994804704698 938.456219135842 2970.31905758408 123 97 72
45.7180567736843 937.200071156296 2968.15970280761 136 107 77
39.2156647071351 936.48876551686 2964.67741375656 151 118 87
35.0600206670095 936.592813211194 2959.1950579927 157 122 92
29.3381536375201 936.153892621586 2955.04493125301 167 126 98
25.1687530135762 936.257553163372 2949.55289556398 171 130 102
19.4420931686121 935.818722252781 2945.39929486432 177 133 106
15.2592191275858 935.921938121113 2939.89719527832 183 142 114
8.75769874495136 935.212446026814 2936.41584179253 188 147 119
6.86637154883796 936.127021268113 2928.873638749 180 143 114
3.42187870412713 936.499506784247 2922.67313472471 177 142 112
4.54339255862113 938.492370908473 2912.38002520794 162 129 98
1.81965111463045 939.131980936571 2905.46832566474 158 123 95
0.595869841459429 940.310326353812 2897.17634032563 156 122 97
0.858527650998475 942.026262415831 2887.49455614397 143 112 91
1.0859252273665 943.739570622614 2877.78690327916 137 109 88
2.02970076634124 945.71959965866 2867.36517692912 134 107 88
2.93382162506628 947.696883815509 2856.91439567471 132 105 86
3.79801333725638 949.671231985262 2846.4346540585 136 109 90
3.13073459710234 951.104710288362 2837.3123449511 140 118 104
106.576631251434 943.139230411019 2962.90246635311 70 61 52
68.2106725553799 931.626486532689 2985.67188532823 87 70 54
63.2859720978658 931.455503992755 2980.8659621788 108 87 68
57.5671792192596 931.015219360643 2976.71805704755 109 87 66
50.2732951507454 930.036554862619 2973.89568095686 135 108 81
42.9878726933626 929.058884926917 2971.07973838334 149 118 89
35.7111929154872 928.082281708647 2968.27013896791 158 125 94
33.129066814201 928.719851698232 2961.46079459864 163 128 98
28.9714285217841 928.818968689051 2955.97726266077 173 136 109
24.0285171400401 928.649248718282 2951.15784994186 181 144 117
19.8550508034869 928.747740642974 2945.66284075092 186 149 122
16.4448961196775 929.114106104627 2939.487198193 196 159 132
11.4812885962348 928.943556287361 2934.65307267297 193 156 127
8.04866838775187 929.30863948531 2928.46113788185 177 142 110
4.6025060821937 929.672864597631 2922.25938178919 176 141 109
8.01367515159068 932.444075753341 2909.92463031791 170 135 105
6.04316234768243 933.339879465938 2902.32522333292 159 125 97
5.568394333483 934.76846115617 2893.34244455683 157 123 98
4.30576117631576 935.927946514123 2885.02219912796 141 110 89
4.525680934651 937.61914116078 2875.30901342374 135 107 86
2.45260688641524 938.507711657465 2867.63522096631 134 107 88
4.85873350650579 940.993845780063 2855.80548543268 133 106 87
4.97186962107188 942.677296276295 2846.01514523758 138 111 94
4.30360529738039 944.091935178166 2836.89202623436 139 117 103
-20.1923999018849 936.991867435338 2849.97636312104 122 106 93
76.5638458617177 927.234875523891 2979.35378482494 120 106 93
63.6966903122813 924.39001662736 2981.12791249115 138 117 98
53.238679016204 922.349016818033 2980.94714758044 143 118 96
44.3824952284309 920.843832694802 2979.45992789186 161 131 105
40.2568306529303 920.9392564543 2973.99926119977 172 141 112
32.2055582647742 919.702757285785 2971.86186327549 176 145 116
26.5106527300123 919.266020877934 2967.73129256203 178 147 118
23.9312687621691 919.893487689258 2960.92417932624 182 151 123
22.8876948829337 921.05160127088 2952.76272769459 186 155 127
21.8174767213757 922.207914831381 2944.58195193659 189 158 130
18.4036172604283 922.566093981164 2938.40358224137 187 153 126
12.6658245255804 922.127436571009 2934.24191195106 186 152 124
9.99953844347301 922.749595912558 2927.37177463467 185 150 120
6.5496680597299 923.105694189402 2921.16728931297 183 148 118
7.66774458100761 925.049827617181 2910.87144116941 166 131 101
4.93901238111993 925.667824283999 2903.95601424482 160 126 98
5.22905757953573 927.342545276305 2894.29387500338 155 124 96
5.48369150610828 929.014745665187 2884.60575813088 136 108 86
7.21227302372762 931.212591630533 2873.51872656281 131 104 83
7.39124182175344 932.879270096691 2863.77602493126 134 107 88
9.03553235683674 935.070944734378 2852.6278577721 134 107 88
9.13911589200556 936.732103233299 2842.83018531795 138 111 94
6.22300186446578 937.336652452976 2835.7788531936 139 117 103
-7.868250078789 933.990401907372 2839.13343534829 118 102 89
77.9337253316275 918.998581319064 2987.7159299627 159 149 140
72.209161591958 918.557709695217 2983.56383843788 165 151 138
60.1464052011647 916.002872183631 2984.68723013019 197 174 156
47.3286151990568 913.186985361724 2986.49729068444 204 177 156
40.8532520815301 912.486233502722 2983.03464895234 199 169 145
35.167668342762 912.049714569969 2978.91083690928 208 178 154
27.1315296575851 910.822865278113 2976.78445860779 205 177 155
19.8896927295933 909.86067501941 2974.00019052231 204 178 155
19.6681619586809 911.268966724753 2965.20088605546 201 179 156
19.4157467980856 912.675174656805 2956.3791822807 200 179 158
19.1324908896 914.079291992663 2947.53481632332 200 179 158
14.1829401777152 913.904683221976 2942.71086032659 202 180 157
10.7694617072722 914.255126540264 2936.532727636 203 177 154
9.6469227483702 915.392146091253 2928.31392568747 189 157 134
6.19971390278762 915.740464669512 2922.1116248429 183 147 123
5.79422036478006 917.13635222097 2913.17860453372 175 139 115
5.35746507765911 918.530076043377 2904.22320543275 156 125 97
8.68610637568334 921.23032754246 2891.82856287114 150 120 92
8.93335877527646 922.880422171866 2882.13498300218 126 98 76
8.38996307827822 924.266343345198 2873.10223847032 120 93 72
9.32094539725314 926.172677150099 2862.67057028418 129 100 82
10.2118619378953 928.076014513767 2852.21013685974 131 102 84
11.8111742099298 930.237220437514 2841.02920966777 130 103 86
8.88937774440191 930.830784046491 2833.97340810154 132 109 95
-7.44209510516081 926.732176923696 2839.4055998428 110 92 82
77.6771580348701 910.268258851811 2997.36660003706 171 164 158
75.1576177084092 910.876198188884 2990.60276982353 186 176 167
60.7014597827305 907.557132455212 2993.69266706349 216 197 182
50.2555403661455 905.550090808963 2993.52083981907 217 194 176
41.4162029677549 904.068137667509 2992.04595010717 225 198 177
38.1104469854141 904.416564180331 2985.94619200863 230 199 178
30.0766024502397 903.197955796885 2983.82122405024 218 187 167
21.2718366732969 901.719709857927 2982.37170929925 208 181 164
11.7032102347037 899.982427017872 2981.60188573225 203 177 160
8.39020014114311 900.331629616157 2975.49657842767 194 175 158
6.6178554408669 901.200770327319 2968.04069267677 193 176 158
5.59829085460173 902.328865988304 2959.89649384728 190 173 155
4.55203714153463 903.455098251448 2951.73293806172 190 172 152
2.70857022560467 904.319552658638 2944.22547056181 194 172 151
4.68430770069306 906.481202082804 2933.31742427926 201 168 149
4.31771618224897 907.861063367017 2924.41252369807 194 157 138
7.73923275125421 910.535680981391 2912.08507856177 171 133 112
8.06109352427864 912.16947553422 2902.44550133183 158 126 101
12.1448601126186 915.096012870203 2889.3640802845 151 121 93
11.6272161044111 916.464961940472 2880.34991773436 124 96 74
12.5885498661127 918.349090713425 2869.94043396095 119 92 71
15.0159876315943 920.747514785125 2858.12570306272 130 101 83
15.1422962443686 922.367031129686 2848.3445880536 133 104 86
16.7301461417515 924.500364012602 2837.15521035918 128 99 83
13.0493521240309 924.824133309896 2830.7831598144 124 101 87
80.5876556924274 902.616362512271 3004.37845900946 248 246 247
73.2919356182151 901.658579100258 3001.55485772588 251 247 246
62.0200466485503 899.405880493505 3002.01805985363 248 244 241
51.5734766770706 897.414916975157 3001.84584244697 241 236 232
41.9456746111537 895.685217577465 3001.0334540935 243 235 232
33.1302292910207 894.216312310428 2999.57595034907 255 246 241
28.2730524662145 894.041659134064 2994.81895792951 255 250 245
18.6955018537582 892.317035951005 2994.04272916208 255 253 247
9.13947349424582 890.594226412649 2993.28240599861 255 253 247
2.73178019132381 889.905468639161 2989.86888031167 255 253 247
-1.33350970863821 889.990966954527 2984.451930236 255 253 247
-0.744730182927977 891.622079528679 2975.00612899848 255 253 247
-5.61640815358277 891.448163399866 2970.23862812212 255 255 246
-7.4013423999697 892.303548426378 2962.77325178829 252 248 239
-12.291200943457 892.128697162747 2957.99256669004 255 252 242
-12.5751499944449 893.495727539288 2949.14780488313 241 231 221
-8.29268208868506 896.401679195434 2936.21032239076 191 181 169
0.516662092544973 900.843587870292 2919.15144031468 152 136 123
10.003928708632 905.535709074818 2901.3502294258 145 124 105
17.1240088097306 909.452223663992 2885.53447027814 151 126 106
17.3520786700827 911.057569515406 2875.82675791573 123 96 77
16.0338714314907 912.148328151652 2867.46587753483 124 97 78
16.9479500767586 914.004671463277 2857.02199678019 121 94 77
18.57308397943 916.113662099067 2845.8595237586 125 99 82
23.148532319897 919.241499034625 2831.90022182233 128 105 89
20.1971604424527 919.811229034125 2824.82315416393 119 103 90
4.57487334065299 916.041649611627 2829.53578527246 84 71 63
85.944125552897 894.394946293507 3018.10071721772 175 173 174
81.0680258541332 894.213562441396 3013.3299731108 255 254 255
74.5847440749206 893.518681158342 3009.86162070747 252 250 251
64.9086533982182 891.798023894167 3009.01397823268 254 252 253
54.4570931723847 889.822906427296 3008.83822354751 254 252 253
47.2115356491241 888.875470200311 3006.05133305519 253 251 252
37.5965884206528 887.160662394561 3005.24804439955 253 251 252
28.0032498330387 885.447854463346 3004.4607249156 255 254 255
20.0084694027622 884.248731127977 3002.36446853315 255 254 255
12.0267232059272 883.050902686139 3000.27766750358 254 254 252
4.84197944249543 882.109936032732 2997.53460049623 254 254 252
-3.11606402033737 880.914625214841 2995.46499483664 254 254 252
-8.7224313024028 880.485957550092 2991.39864826184 254 255 250
-12.7745298075927 880.56739690582 2985.99153482736 255 254 250
-18.3858376427586 880.138866695508 2981.92160743641 250 249 244
-22.4515507005632 880.219790200416 2976.50432743228 255 255 250
-28.0678920788351 879.791330167498 2972.43075147397 246 246 238
-32.1473114765725 879.871740744165 2967.00353285343 255 254 247
-30.1047838290129 881.984553532971 2956.14365682509 255 255 246
-18.1719435582108 887.39578109178 2936.41353252047 147 140 130
-1.00636983437541 894.576084228543 2911.83984372615 151 135 120
16.0270496516901 901.746458067817 2887.1703032107 139 118 101
17.7759699353484 903.837516675462 2876.09747474917 125 102 86
17.9695950835339 905.418753937405 2866.36496504208 108 85 69
18.8809236822607 907.250488629615 2855.91867159549 119 96 80
17.499165904681 908.320386340071 2847.51161640794 117 95 81
19.0858660348328 910.399498182455 2836.32113058246 112 93 79
116.350180037368 894.110212055515 3011.73336896507 255 254 255
102.537872593857 891.121104852143 3014.05664183581 255 254 255
92.7996944509277 889.408213345613 3013.16432464386 245 245 245
82.2798162659058 887.443144139532 3012.9388012315 255 255 255
71.7861106436 885.480623767999 3012.73255825578 255 253 254
61.3187274199949 883.520474779577 3012.54540896014 253 251 252
50.0803369648688 881.309024686888 3013.03310380783 252 252 252
42.8479017450849 880.368267431457 3010.25575978365 252 252 252
33.2456179746421 878.668405815974 3009.46172684439 254 252 253
22.8742738026964 876.717112450469 3009.34424316235 255 253 254
10.9523202258264 874.262102383575 3010.57021146504 254 254 254
2.2101608886036 872.821727618982 3009.16627328326 254 254 254
-4.94614369189517 871.888561287553 3006.44386195672 254 254 254
-10.5301615466185 871.461524944222 3002.39372522172 254 254 254
-17.67392204939 870.529863131883 2999.68070946253 254 254 252
-22.4765860556537 870.355921985223 2994.96323815506 255 254 252
-30.3852874536323 869.173450509512 2992.92946664509 255 254 250
-34.415361299911 869.25182450083 2987.53800935219 253 252 248
-40.7672998405486 868.574513767444 2984.1649594638 255 254 249
-45.577857782249 868.400769537391 2979.4417666715 254 253 248
-48.0935006903023 868.98118399094 2972.68062236078 255 255 250
-48.3339682304915 870.31415799502 2963.86720872675 255 254 248
-39.4594983585028 874.657926033032 2946.85504055208 255 253 246
-20.0293161892562 882.508442117838 2920.22100514506 193 183 174
-6.04887766979156 888.592675019568 2898.27323304893 76 63 54
2.52785422617308 892.914175019325 2881.04511546938 72 59 50
7.25362904387516 895.977310144252 2867.19475515418 84 70 61
9.66409235819965 898.285101836205 2855.36726004318 74 61 53
-11.1933018124382 892.83635857809 2864.92248485439 85 76 71
-19.2675361440784 891.643155201983 2862.76836615195 241 233 230
144.519454920763 892.959707544123 3007.44555051187 173 169 170
122.490172715081 887.467815815297 3016.15073564461 255 254 255
108.6546496631 884.504011324644 3018.45730718855 250 250 250
99.7135361759458 883.055574111781 3016.90880758268 255 255 255
89.1775539247748 881.105401229038 3016.67197991893 244 246 245
78.6678841691648 879.157778158588 3016.45423966005 251 253 252
70.5900492194162 877.966802690874 3014.29781655452 246 246 246
60.9261034877036 876.274790689122 3013.45912330344 250 250 250
48.0941602686897 873.580590582841 3015.25954025592 250 252 251
35.3016317304831 870.889882224346 3017.08854743805 253 255 254
27.3067336471478 869.706820444054 3014.99228712133 255 255 255
16.9524737074074 867.773509514132 3014.88698477138 255 255 255
5.83545422124176 865.592095591408 3015.4631106408 255 255 255
-6.03731237675742 863.163175429973 3016.72486778469 254 254 255
-10.0325443090097 863.237680697593 3011.35864854297 254 254 255
-15.6010144597842 862.81196363549 3007.31978935279 254 254 254
-23.5093364229857 861.637468825648 3005.28633330658 254 254 254
-35.2934441672244 859.216279072832 3006.6126947787 254 254 254
-43.9405100666952 857.795606085686 3005.2774971757 253 252 250
-48.704002611367 857.622567999291 3000.58842667088 255 255 253
-51.9299176374421 857.947460766378 2994.54613330534 255 254 250
-59.0137642590769 857.027154364069 2991.87631343758 255 255 251
-61.4891760064491 857.599835128309 2985.14429438116 254 253 249
-65.5116216018514 857.674177433812 2979.75864102585 247 243 240
-64.9689921104075 859.238332025658 2970.2787510112 255 254 251
-65.2222474901705 860.551630001778 2961.45596753639 255 253 250
-60.2011675125043 863.598958500896 2947.8196001701 255 253 250
-48.4402650169145 868.872706972589 2927.96413814421 110 103 97
-36.7809759901889 874.138701570601 2908.03497507131 61 52 47
-62.0390845516612 867.267448767703 2921.80333706563 101 94 88
173.689192044954 891.964971506311 3002.64844637974 232 227 224
158.061717672077 888.515249170427 3006.12390063477 255 252 251
139.226481699607 884.07127912852 3012.20938498241 254 253 251
119.64863283407 879.383744927605 3018.99033632443 251 251 251
109.063771414838 877.445504141975 3018.71813554704 249 251 250
99.3137301045066 875.759014253942 3017.81735222127 252 255 255
89.5857632807351 874.074660750016 3016.93228750608 245 249 248
78.2714346279918 871.894757163819 3017.36509292299 246 250 249
68.5915815227438 870.214968948017 3016.51522447026 241 245 244
58.1337800091704 868.288694258583 3016.33519274072 244 248 247
42.1193997825187 864.626603395062 3020.76383714908 247 251 250
26.1617394895817 860.969117837108 3025.23391685166 252 255 255
18.1930070368419 859.796480155013 3023.15667735908 252 255 255
9.44614139845168 858.377291644824 3021.7494347917 252 255 255
-1.64974383866934 856.216697494454 3022.34069230851 251 255 254
-13.5016679686029 853.811332041734 3023.61767791154 253 254 255
-18.2589277544716 853.634915530324 3018.9331085542 253 254 255
-23.020596394292 853.458549700904 3014.24504890424 253 254 255
-31.6875035868072 852.046914105226 3012.89580817768 254 254 255
-41.8927529149822 850.143189992883 3012.89897114017 254 254 255
-48.9691669382131 849.228384706782 3010.23456718585 255 255 255
-55.2637657759523 848.560976584538 3006.90313423047 255 255 255
-60.7830939187299 848.140375705618 3002.8999250451 252 250 251
-65.5337954491755 847.966043825232 2998.22012046615 254 252 253
-71.056128420862 847.545557984551 2994.21473359887 253 251 252
-74.2847536732549 847.862643728551 2988.17043598832 242 242 242
-79.0520021296852 847.687568800775 2983.47863242591 245 246 250
-83.8241614297981 847.512096039894 2978.783266873 255 254 255
-88.6009155638754 847.336539406918 2974.08427552505 249 248 246
-91.1149664949085 847.896112749227 2967.32417970812 253 249 246
-93.6471748914491 848.454334621962 2960.55091431148 255 254 251
-96.9487485884486 848.766526373264 2954.4537100276 255 254 253
-104.760020941449 847.609691649868 2952.49069676679 242 240 241
176.636514171217 884.228175207265 3009.68657016035 219 216 211
160.170175406065 880.562101143213 3013.78785448021 255 255 251
147.848605807118 878.136731802056 3014.72428273639 251 250 248
133.116342895427 874.973753261288 3017.61481619202 254 254 252
117.619224250744 871.568107473479 3021.18499135275 250 252 251
105.418448308755 869.1535497689 3022.20933474881 250 254 253
94.870387680186 867.235306886681 3021.96361846625 249 253 252
85.1550954202693 865.565791343464 3021.0881114471 244 248 247
74.6573665054799 863.652233687905 3020.87919990661 246 250 249
64.9882016889949 861.98716154944 3020.03685968531 252 255 255
52.1409724253892 859.340952006791 3021.82643853951 248 252 251
37.7377101927685 856.20683671131 3024.95561780665 247 251 250
21.7914220880133 852.585819997465 3029.43412617303 247 251 250
13.8356152461361 851.422533824312 3027.36630409884 248 252 251
3.51926429381155 849.525163401877 3027.28895930565 251 255 254
-3.61506454257965 848.610038026911 3024.58286452302 252 255 255
-13.8877784146554 846.716670286776 3024.53687897792 253 254 255
-20.9962696086552 845.803936768069 3021.84952656888 253 254 255
-29.6609415092959 844.40334527195 3020.50166771662 254 254 255
-37.5281402157954 843.248611453699 3018.49812289013 254 254 255
-45.3825836588722 842.09497069785 3016.50383016287 254 254 255
-52.4484159856933 841.186529436543 3013.84742381816 253 253 255
-59.5055998257001 840.279017416003 3011.19699717588 253 253 255
-65.0116431042653 839.859552503056 3007.20342422599 255 254 255
-69.7489112234109 839.68368015093 3002.53335001077 255 253 254
-76.7920485712361 838.77761513036 2999.89340777681 255 254 255
-83.06189288495 838.115558054284 2996.57994700828 255 255 255
-90.0902771672598 837.211096044881 2993.95041322889 252 255 255
-94.0688490472144 837.27829846771 2988.5965287013 250 251 255
-99.573012719377 836.859822237256 2984.60432332607 251 252 254
-104.32163464976 836.683747025582 2979.92601746327 254 254 255
-107.567372242926 836.991978502238 2973.86926990309 249 247 248
-107.820188212403 838.267733215735 2965.04661480215 255 255 255
-108.103982764256 839.541266679276 2956.20119693764 246 246 246
-112.902988022474 839.361528062862 2951.48634856939 252 253 255
-118.451857151414 838.939908142361 2947.46171933107 249 250 254
182.037465498468 877.246495831806 3014.80150808624 245 246 240
163.89884495021 873.123734717245 3020.15857417874 252 254 249
149.105738926345 869.985221162923 3023.00512508388 252 255 253
138.449204143106 868.073136976613 3022.68109924367 251 255 254
123.74199827113 864.942299218363 3025.58995988154 248 254 254
111.522643514306 862.547923427501 3026.60093732361 247 253 253
102.582933599805 861.132578505662 3025.05362281649 249 253 254
95.2786292371477 860.206600306015 3022.22395969869 243 247 248
86.3694084774984 858.794452629903 3020.69905810229 244 248 249
75.8690722746578 856.897282177182 3020.48804501043 251 255 255
62.9879432062528 854.272821336512 3022.25315933414 250 254 255
48.5460962296713 851.165571641687 3025.35450377651 248 252 253
33.3543244258796 847.819373509942 3029.14633249272 248 252 253
19.8065313786584 844.963176881769 3031.66203071262 250 254 255
9.47652727829196 843.080890975996 3031.5748648671 251 255 255
-0.827350306525698 841.201020328429 3031.50665092403 250 254 255
-7.94850659555468 840.292448149325 3028.8098439183 249 253 254
-15.8481446109819 839.142733593621 3026.78280856802 252 253 255
-25.3043456124509 837.510397905724 3026.09531065471 251 252 255
-34.7388025439521 835.880052346876 3025.42329108512 251 252 255
-43.3715342586625 834.493111326212 3024.09894997465 251 252 255
-49.6522173571794 833.83202824596 3020.77763687319 252 251 255
-55.153041112626 833.412627709704 3016.78784799307 251 251 253
-59.8804636276189 833.234506026741 3012.12489967312 252 252 254
-64.6124295300039 833.056244895614 3007.45836257134 254 254 255
-69.3494079665293 832.877767283142 3002.78848515708 255 253 255
-78.6941744537497 831.25564355158 3002.18152574982 255 254 255
-86.4875415277404 830.11603172268 3000.23157964523 254 254 255
-94.2681084938282 828.977576332901 2998.29091846962 254 255 255
-98.2330951143482 829.040502369884 2992.94686052579 249 250 254
-104.482401904073 828.383096253051 2989.64831140471 251 252 254
-108.45906405197 828.445424546622 2984.2954921172 254 254 254
-112.445299354821 828.50692792244 2978.93602334402 248 246 247
-113.433305087787 829.525620292824 2970.81414805155 255 255 253
-115.947515716855 830.063672924342 2964.05382745946 255 255 253
-118.479835665905 830.600377986611 2957.28037220914 250 250 250
-123.265800481813 830.419116449025 2952.5746749449 249 249 251
-126.570764547081 830.714842968769 2946.47492951107 248 248 250
-121.740312648773 833.633812656799 2932.69972161915 240 241 243
226.282296380488 881.663017716284 2990.08209315665 248 249 244
170.910695448498 866.669524873824 3023.97359129375 254 255 251
155.267462673476 863.316386300909 3027.43811116257 252 255 253
142.137076369548 860.693658824542 3029.02254237666 250 255 254
132.317665748351 859.041388015057 3028.07135060638 249 255 253
119.257721581323 856.425143806969 3029.70687966786 245 250 253
108.677692345399 854.536642873426 3029.43843378543 240 245 248
101.368956975397 853.615563168506 3026.60558334768 238 242 243
94.0688243520587 852.695549203273 3023.77926909979 237 241 242
86.7774825537539 851.776605855798 3020.95933293145 238 242 243
75.4718022875727 849.655234898469 3021.39870422765 239 243 244
62.5918603972142 847.055474325943 3023.16450979676 240 244 245
46.5501741493752 843.497704951046 3027.57418237356 244 248 249
33.7575047956542 840.905383248547 3029.40358582333 245 249 250
18.6167198545122 837.596413694916 3033.23256457448 248 252 253
6.70313077824769 835.251233196212 3034.46515279059 248 252 253
-3.59274437091628 833.388380640542 3034.40282618389 244 248 249
-10.7053443766867 832.486068148994 3031.71254799407 242 246 247
-17.8092477501162 831.584688798537 3029.02828442815 243 244 248
-28.0443032655471 829.727420493447 3029.01007555723 241 242 246
-37.4707972926775 828.111411710713 3028.34419556258 239 240 242
-45.3143092277763 826.975075719723 3026.35762049377 239 240 242
-51.5886848691225 826.317202443906 3023.04119053794 240 241 243
-57.0826818629735 825.898534182919 3019.05635423211 244 244 246
-62.5771154676078 825.479890295406 3015.07120154127 244 244 246
-67.3000740460661 825.299670386285 3010.41118411922 245 245 247
-72.7974227906494 824.881268290447 3006.42391940594 246 246 248
-80.5973084443092 823.749313286577 3004.46928662716 249 249 251
-89.149757835449 822.38064556105 3003.2032364442 250 250 252
-97.6848892439934 821.013549658316 3001.94945392098 250 250 250
-103.159914969606 820.597254695044 2997.97838231358 253 251 252
-108.635428752573 820.181039681313 2994.00695730796 255 254 255
-110.329433173785 820.949993247889 2986.60706015255 253 251 252
-115.062743207879 820.769901014839 2981.93983386313 255 255 253
-115.289088172404 822.009623877042 2973.13618565017 255 254 253
-120.045421671209 821.827845718032 2968.45226062029 255 254 253
-124.059016420946 821.882044090862 2963.07262692188 255 251 250
-129.572780859121 821.463148554182 2959.0734596226 252 248 247
-131.371011811802 822.224375535124 2951.59796729355 247 243 242
-131.709905881753 823.455578102756 2942.71268667518 236 234 235
189.500799649836 863.565756200932 3018.90750601548 251 253 250
169.674141322604 859.042674047764 3025.50892305091 252 255 253
156.500858602552 856.440846959895 3027.06236360209 250 255 251
141.727143210244 853.364245516325 3029.92328478691 245 251 249
130.273527251955 851.24803659307 3030.25544048951 246 250 251
118.850797614225 849.134748012941 3030.61000113715 240 244 247
108.272216420286 847.262853679941 3030.34268908697 236 240 243
101.77714515491 846.586075594074 3026.86588192978 234 238 239
94.4770873974208 845.671683612438 3024.03965043019 237 241 242
85.5717824150473 844.282127242646 3022.51740741671 237 241 242
73.4647973897635 841.942200208953 3023.61011986895 236 240 241
57.3797517698429 838.416286579954 3027.98852166722 238 242 243
45.353812898743 836.083392780747 3029.13972735394 238 242 243
30.9680849881926 833.041150097104 3032.28208297824 241 245 246
16.6302663800444 830.002798959632 3035.45948326676 243 247 248
2.34077477447503 826.968471977581 3038.67164273692 242 246 247
-5.56765038979146 825.834176394926 3036.63831549506 236 240 241
-12.673717427095 824.93788957768 3033.95280371473 235 239 240
-19.7711392786308 824.042591477593 3031.27326954509 235 236 240
-30.7853978487713 821.965799006803 3031.92412444682 233 234 238
-38.6379175240341 820.836749318016 3029.93135085851 232 233 235
-48.0390277710538 819.236537982054 3029.28395212496 233 234 236
-54.3043705708377 818.582253811892 3025.97379397125 234 235 237
-61.342133680677 817.692635507006 3023.33783094294 240 240 242
-66.0490457852294 817.510847838098 3018.68943801127 240 240 242
-72.3047332388642 816.857834167552 3015.38658013639 241 241 243
-77.0168615654889 816.675922645559 3010.73440522668 243 243 245
-83.2690475998892 816.023431604281 3007.43408825254 247 247 249
-90.2823006076061 815.136505458417 3004.81561227963 248 248 250
-98.0505320406726 814.015419189746 3002.88398137319 249 247 248
-105.045196371504 813.130009292393 3000.27928288597 245 243 244
-109.755236004389 812.948804672223 2995.62862569552 255 254 255
-112.200628927367 813.47032709379 2988.91810879845 252 250 251
-116.927236020705 813.287969914381 2984.25573014143 252 250 251
-120.154339241955 813.573275762565 2978.2123749123 255 254 255
-126.394914874235 812.922372116932 2974.92018812989 253 252 250
-129.640660317303 813.206346968691 2968.86331201456 246 242 241
-132.900178681939 813.489265804017 2962.79644626553 242 238 237
-134.686816447845 814.237760987077 2955.32958807293 228 224 223
-134.272563286492 815.683927411706 2945.75633216061 220 218 219
-136.849633495711 816.195548815801 2938.95001496098 221 221 223
208.990211594949 860.62264525478 3013.25883076969 249 250 252
184.954114267107 854.954885167664 3022.97870972033 248 249 251
169.261992343644 851.663434123018 3026.40780678456 245 247 246
157.735038480471 849.559804594289 3026.68686199192 243 245 244
143.778015816125 846.7496163584 3028.90613397055 242 242 244
129.864975055491 843.943409353919 3031.15730953552 239 238 243
120.075363484892 842.321582807563 3030.22816841618 230 229 235
108.680435118679 840.230202155673 3030.60299376683 229 228 234
102.185490975187 839.556361815041 3027.12629364327 228 229 233
92.4573915117972 837.940713311676 3026.24177525618 232 233 235
85.1728805675211 837.033664306066 3023.42655668988 232 233 235
70.65211519041 834.010005884733 3026.4714093828 230 231 233
54.5740671178701 830.520087217521 3030.85506617408 232 233 235
40.9547363655292 827.73988452042 3033.31929010909 233 234 236
27.3790637024027 824.96339784688 3035.81518154707 236 237 239
13.8470075850576 822.19050434379 3038.34270975002 236 237 239
1.15265252148777 819.65579430565 3040.2436751413 232 233 235
-6.75160621665594 818.530080896474 3038.21341170105 226 227 229
-13.8532664934308 817.639696892412 3035.53082989736 226 227 229
-22.5213044663708 816.282326204357 3034.18074982937 219 223 224
-31.1723043224057 814.926525383609 3032.84332348464 220 221 223
-39.8058450603136 813.572367563023 3031.51826747234 221 222 224
-46.8604137804438 812.686575169826 3028.86984660046 223 224 226
-54.6852885179816 811.568308394873 3026.89716803507 227 228 230
-61.7209994943466 810.684412510497 3024.2627216273 229 230 232
-67.9740442572312 810.034231296866 3020.96149936527 231 232 234
-74.9951803433129 809.151755116407 3018.3376257976 237 237 239
-80.4682089950219 808.735203731687 3014.36800061287 239 239 241
-85.1740796921241 808.551300265611 3009.72064637978 242 242 244
-91.4155959370677 807.902530941024 3006.42778853793 243 243 245
-99.1798983705969 806.789947867814 3004.49904891746 255 253 254
-106.170155940899 805.910440783646 3001.89728040689 252 250 251
-110.116915588379 805.958652834801 2996.56636105555 255 255 255
-114.072737700631 806.006239854495 2991.22857448717 250 250 252
-118.792548863205 805.821685005769 2986.57111121377 237 237 239
-122.76480180411 805.868179920362 2981.22140805532 233 232 237
-127.496655950352 805.682768943282 2976.55521022959 227 228 230
-129.989661560991 806.189919294682 2969.81010508176 224 224 226
-133.246512988061 806.464869279013 2963.74513228888 230 230 232
-135.77366037894 806.969373253085 2956.9752636315 230 230 232
-137.577463446832 807.702905650824 2949.49559167869 227 227 229
-139.404089592549 808.434718970737 2941.99966055925 228 229 231
-136.831551825237 810.545342271409 2930.28865798129 210 211 213
431.716423924609 912.318504831171 2872.37360509017 245 246 250
207.748852544668 852.921073511782 3014.79000638141 250 250 252
182.887157505443 847.079379165717 3025.14554754984 249 249 251
168.024742008915 844.055226710433 3027.94272827764 245 245 247
158.969494918098 842.672999841408 3026.31182615519 240 240 242
142.54766543075 839.18874732596 3030.44629716239 235 233 238
128.637827751401 836.410222217957 3032.69993492361 233 230 237
117.220194068739 834.335821484005 3033.05838671244 224 221 230
108.274925124885 832.963997666774 3031.50726278928 224 221 228
100.158929276119 831.827105571797 3029.3234499766 225 224 229
91.2465522596966 830.458663293292 3027.79618724175 228 227 232
79.9295708987682 828.393741242217 3028.22794653505 228 227 232
65.4229290231676 825.401327506497 3031.2829014391 228 227 232
48.5556516700711 821.715686889336 3036.32847434085 229 228 233
38.1554028165523 819.893070108987 3036.19068881056 232 231 236
26.1842761050319 817.608647897785 3037.38187451966 234 233 238
11.0625637144155 814.399561753257 3041.22518529887 232 231 236
-1.62419301132943 811.890021973265 3043.13178637971 228 227 232
-7.93595164826799 811.236398644974 3039.78798374237 222 221 226
-15.0334817291573 810.351856022214 3037.10872007059 221 222 224
-23.6976047162076 809.005855097489 3035.76153564951 214 218 217
-32.3443986148366 807.661317766 3034.42692086784 214 218 217
-38.6244274190664 807.011101321432 3031.10613711992 218 220 219
-46.4625129644292 805.899949226395 3029.12391779526 219 221 220
-55.066623685867 804.559358017174 3027.82055942455 221 223 222
-62.8769358646475 803.450575362198 3025.85848560771 223 224 226
-68.3511615524213 803.033807516576 3021.88799156958 225 226 228
-75.3701985621902 802.156987457329 3019.26537383947 234 234 236
-82.3810496298005 801.280900652882 3016.64898846462 236 236 238
-87.0798400267156 801.094812196207 3012.0064613478 239 239 241
-92.5492742691843 800.678850717797 3008.03944481504 239 239 241
-98.0191965690085 800.262969188928 3004.07207488404 241 241 243
-105.01220545264 799.388686263256 3001.46863282613 249 249 251
-110.47867117771 798.973263986936 2997.50377096615 242 243 245
-115.945762794622 798.557791006398 2993.53845512698 230 231 235
-121.413339167843 798.142338499007 2989.57278798132 234 235 239
-126.881496588426 797.726898664115 2985.60669968621 232 233 238
-131.600010313374 797.539879938254 2980.95016447301 228 232 235
-133.330970384586 798.265393122153 2973.52325734414 228 229 233
-133.592923299523 799.445235743567 2964.69349286279 230 231 235
-136.117251904702 799.939034952536 2957.92561338158 231 232 236
-137.176721673649 800.886876924271 2949.75157341308 230 231 233
-141.22018683112 800.922464887034 2944.35019175323 229 230 232
-137.90250306547 803.23110415243 2931.94562224939 216 217 219
-136.107807494215 805.081220145655 2920.90475684889 216 217 219
470.98618373046 912.626332351604 2862.55386544032 234 238 241
432.685450379665 903.290820657133 2881.67619140582 229 233 236
400.403331591764 895.594669303507 2896.52429231346 241 242 246
202.359765554506 844.07140959941 3019.48465675651 249 250 254
177.510286653957 838.293674878029 3029.84937763267 238 239 243
161.837113831298 835.069477118588 3033.29255195562 234 233 238
153.622018296127 833.930949432046 3031.03689138078 232 231 236
140.496372310949 831.407541732322 3032.62526202735 222 221 226
127.410278841065 828.887756434146 3034.24232348452 216 215 220
114.363932566938 826.371479462799 3035.88792182549 215 213 218
107.055139107183 825.472450878143 3033.05543544753 215 214 219
97.3197490987019 823.883504324485 3032.16547276234 220 221 225
91.654445899815 823.447552952964 3028.05636539027 222 223 227
81.9517148959155 821.861919683245 3027.19038917393 218 219 223
68.2444514829643 819.128960331807 3029.59110814355 216 217 221
52.1716676596951 815.710623011389 3033.9789436751 220 221 225
37.7575663464498 812.756115695194 3037.10117521121 225 226 230
23.3914158790407 809.805622778282 3040.25848214952 230 231 235
7.48038451890709 806.400687930369 3044.76364337974 222 223 227
-2.81353480187807 804.603582169315 3044.70277313823 217 218 222
-9.12101139479704 803.95306430822 3041.36238485281 216 217 221
-15.4242240448412 803.303180234749 3038.02479632382 210 211 215
-23.2988412688671 802.196715874672 3036.01611814997 207 208 210
-31.1606168415564 801.091530806829 3034.0167556431 211 212 216
-37.4428677515515 800.443882562411 3030.69437405173 216 217 221
-43.7210427970425 799.796863227549 3027.37495032707 209 210 212
-53.8901275377071 798.01095620673 3027.40492653764 218 219 223
-60.149479780774 797.36559157479 3024.09945072258 215 216 220
-69.5029651490437 795.810809722131 3023.48651191227 217 218 222
-75.7454393213455 795.167100762852 3020.19298528019 228 229 233
-85.0648812987873 793.61508716289 3019.60503374918 231 232 236
-88.2187965956083 793.880930927711 3013.61463542909 226 227 231
-93.6837566051774 793.465391655879 3009.6508645018 240 241 245
-97.6218730609633 793.50330068158 3004.3258641207 251 251 253
-103.092280117097 793.087439625859 3000.35814288321 250 250 252
-110.081641462793 792.218888878621 2997.757374038 213 213 215
-116.30561591898 791.577335784629 2994.47726916482 253 253 255
-124.035442479482 790.484034934613 2992.57361950872 247 247 249
-128.742191381319 790.295041843684 2987.92560286632 229 228 233
-131.202636168218 790.78278451713 2981.20400345078 229 230 232
-132.184636859451 791.720293567496 2973.0860701317 231 232 234
-133.939642539177 792.430296942892 2965.64165326782 230 230 232
-137.948850298511 792.463054576702 2960.26538566782 229 229 231
-140.484177884039 792.945029627419 2953.48947289934 231 231 233
-141.558682636526 793.875343536264 2945.30444496731 224 224 226
-137.499512718986 796.376304617885 2932.20303764076 227 228 230
-132.763160614477 799.097247634167 2918.358611756 219 220 222
478.737327103481 905.376970351201 2866.90107861211 224 228 229
452.952757637349 899.585496945752 2876.58786279231 233 237 240
414.694821059481 890.357227274162 2895.74175625382 221 225 228
383.293083730087 882.97887998025 2909.994343103 242 243 247
190.33263452736 833.427602510142 3029.23874716803 245 246 250
168.822208828815 828.630376102186 3037.08854444334 246 247 251
154.821971232998 825.89823728264 3039.27688433157 232 231 236
147.449356362892 824.998041287608 3036.39812653807 229 228 233
