ply
format ascii 1.0
comment KinectMotionCapture
element vertex 763
property float x
property float y
property float z
property uchar red
property uchar green
property uchar blue
end_header
219.791075267985 848.832356702243 2938.06630608574 255 252 249
216.661691694398 849.011582188718 2943.9814972639 255 254 251
225.499961654879 846.329133288776 2958.27332976691 255 254 251
229.263446306839 844.866619404894 2968.92273733148 253 248 245
230.491093736304 844.014050440038 2977.74871551475 255 254 251
226.585415176318 844.388763581238 2982.98863894045 255 253 251
222.683773053443 844.763262709537 2988.22458575544 248 240 238
215.330421849673 845.959466904086 2991.09870795059 255 253 251
207.965588321729 847.157413472176 2993.98397474133 255 248 246
200.589484219952 848.356885774924 2996.88054571758 255 253 251
194.071385591189 849.35195187661 3000.37188719845 252 244 242
188.417496653574 850.14162665466 3004.45265958829 252 246 246
181.012519392949 851.345459541684 3007.37691970366 250 244 244
177.973585695053 851.516479738678 3013.20316771437 255 253 254
172.310163760264 852.308358772545 3017.29308072328 247 243 244
165.763438701042 853.308389973655 3020.81211483325 252 246 248
153.920973980406 855.555693316298 3020.9037566863 255 254 255
142.930814444659 857.599355000689 3021.59605435724 255 252 253
135.45443203435 858.814253550338 3024.5895853417 255 253 253
127.079310321679 860.239237204819 3027.02761793475 255 254 251
117.799369112007 861.875380351319 3028.9156932236 255 255 250
109.391203492901 863.30541424765 3031.38579248067 255 251 247
95.6097520665962 865.992214403125 3030.50376288151 255 254 248
84.4741203445047 868.056514952295 3031.33746616877 255 250 244
82.2793712716758 868.029267871883 3037.77197734418 249 246 239
658.79205895511 772.347372077504 2747.24321650572 215 212 205
665.850358171682 769.941491145929 2763.26204748728 193 192 187
670.065382623883 768.271531268105 2776.32754841797 192 193 187
670.685416362164 767.526520297509 2785.74099895419 184 185 180
666.22089535217 768.083152382357 2790.09206433581 191 191 189
661.024181235083 768.826115280879 2793.72542152398 133 133 133
657.292269092317 769.1950668247 2798.79398173221 144 144 144
654.30025386494 769.375798941999 2804.57220359054 144 146 145
651.316316599941 769.555263790571 2810.34292905657 158 158 160
647.600246304458 769.920874972726 2815.39591393826 146 147 149
643.146345850982 770.473632508133 2819.73700560698 144 148 149
637.948856857657 771.21396748819 2823.3718585059 150 154 155
632.001741646997 772.142948940119 2826.30597229428 151 155 156
626.794938845226 772.883573541323 2829.9500311368 155 159 160
623.083670577362 773.246515442669 2834.99864205262 152 153 155
618.624974980958 773.797695635454 2839.3447284997 154 155 157
613.412962891647 774.537915511248 2842.99402005999 154 155 157
608.952776104665 775.088458128728 2847.3416815147 156 157 159
605.250195875968 775.448712606375 2852.38206227925 159 160 162
602.311214673346 775.617910460497 2858.10966316806 164 165 167
597.857564501181 776.166508626114 2862.45112105677 165 166 168
593.404173201496 776.714661374956 2866.79238771369 169 170 172
587.420573450911 777.644114465005 2869.76266148165 172 173 175
580.66242096591 778.765166466082 2872.05685001178 178 179 181
576.969296480772 779.122092981345 2877.08867079657 180 181 183
572.50923282128 779.669612666498 2881.43665677195 182 183 185
568.049448215829 780.216802328324 2885.78441441984 185 186 190
561.265256268772 781.339721765508 2888.10418451449 186 187 191
556.023481657963 782.079094111578 2891.78315596312 193 194 198
549.999205517345 783.011139447373 2894.7934388549 197 198 202
545.528984706925 783.55828847565 2899.15156581422 203 204 208
541.059064209123 784.105104800617 2903.50944373208 205 206 210
535.804917785814 784.844798464877 2907.20065308273 205 206 211
529.760585934087 785.778015858721 2910.23067836245 208 209 214
524.497366944924 786.518322544625 2913.93080630077 211 212 217
520.020983980548 787.064774189659 2918.29515544301 217 218 223
513.16786676404 788.193434310911 2920.68252087852 220 221 226
506.303464474137 789.323163282018 2923.08093458321 225 226 231
499.42777657233 790.454020139693 2925.4903883662 220 221 226
493.33890182121 791.391201746621 2928.56405949452 216 217 222
488.042790709921 792.13388594236 2932.29649840143 233 234 239
482.743130493272 792.876899621569 2936.03241292492 241 242 247
319.793829560431 822.264554693676 2954.6327466028 252 252 250
319.304758849439 821.833709595202 2962.26730203858 255 255 255
317.994419439258 821.600660579445 2969.27090809889 255 255 255
311.643840858791 822.567354951602 2972.60009302463 255 255 253
301.907529920754 824.336881555769 2973.50472686562 255 255 253
293.841305101406 825.707886797924 2975.64399826303 255 255 253
283.214507778717 827.683627591841 2975.98551056288 251 250 248
271.710552122204 829.86402030058 2975.75089727364 255 255 253
261.880405824831 831.645376342774 2976.74696262781 248 248 248
258.007107565597 832.017953403836 2981.95504764791 246 246 244
251.569303427749 832.995820849938 2985.36919746611 255 255 255
246.840316382042 833.570520154722 2989.98021120351 252 252 252
242.111454733767 834.145439526473 2994.5910678936 255 253 255
238.244992823315 834.517849345155 2999.79272687864 255 254 255
231.790515498925 835.498526337264 3003.22301816788 244 242 245
223.596858152293 836.886539975527 3005.48631811517 253 251 254
215.387851035977 838.27660663381 3007.7645571752 252 250 253
206.293693734782 839.872463682288 3009.47410056423 255 254 255
198.923659701242 841.06322300282 3012.36559380596 252 250 253
189.79505782314 842.663763112568 3014.10898685663 240 238 241
185.900223266553 843.041531856823 3019.33769040985 232 232 234
180.254474491668 843.828057560265 3023.41084492962 246 246 248
174.604728324195 844.615454049428 3027.48750237557 253 251 255
165.426073523944 846.223424533025 3029.27950051184 253 253 255
157.111263803174 847.629011137313 3031.66050928091 255 255 255
150.551273416794 848.626056106396 3035.19315742063 254 252 255
141.322396164286 850.241419366979 3037.0339345452 251 249 250
129.40660913566 852.477458037882 3037.19971360556 254 254 252
117.460119578207 854.71764905661 3037.39570485771 255 255 251
103.696561561462 857.374949865661 3036.50026682886 255 255 251
93.4737214177952 859.211059432384 3037.87819043047 251 250 246
85.9177587669344 860.430034484358 3040.95014326494 255 255 250
86.4387990965869 859.78691683794 3049.02992661279 255 251 248
79.7773724484516 860.80034655799 3052.6608808009 172 169 164
660.832326939838 765.022146110084 2759.05306282054 215 218 211
662.854060296708 763.935976722067 2769.9591844571 211 214 207
663.454191130862 763.212050009121 2779.38928262726 194 195 190
659.700124264465 763.587345675379 2784.47856730305 202 202 200
656.682380310972 763.777499996288 2790.28128341116 127 127 127
652.938307738786 764.15065119056 2795.36096055707 144 144 144
650.670465981678 764.153611506623 2801.86358920847 151 151 151
646.938343492794 764.524371670619 2806.93175313824 163 163 163
643.210285161692 764.894206701164 2811.99601803357 145 145 145
638.744439541915 765.448234239278 2816.34878372316 138 142 141
633.535006202526 766.187421396752 2819.99566718197 143 147 148
629.06760561644 766.740819399506 2824.35007002114 143 147 148
624.600410217882 767.293837722153 2828.70432522262 146 150 149
620.133421083868 767.846358291265 2833.05844916811 141 143 142
615.666658934469 768.398437463574 2837.41241295278 146 147 149
611.200112601886 768.950135615785 2841.76621874276 147 149 148
608.244802492197 769.127465777226 2847.50883252621 149 151 150
603.782633413333 769.677668605831 2851.85851264672 151 152 154
600.079990204188 770.04017183857 2856.89862358675 156 157 159
595.620229268121 770.58942242542 2861.24605312678 158 159 161
591.160747924603 771.138283952228 2865.59326253018 161 162 164
586.70153662136 771.686639685557 2869.94027853565 163 164 166
579.174177047844 772.988238180597 2871.55470706497 169 170 172
574.707754381259 773.536854363767 2875.90884556646 171 172 174
570.241611307223 774.085081486896 2880.26276393133 171 172 174
565.00288542993 774.821946613911 2883.93907850839 177 178 182
560.535399436848 775.369576438579 2888.29441869218 179 180 184
554.514507743007 776.296064823177 2891.30216209324 186 187 191
549.265055438907 777.033279716677 2894.98907647535 191 192 196
544.011845510151 777.770686512248 2898.67935602926 199 200 204
539.537812554695 778.317903340194 2903.0412584842 200 201 205
534.279610871459 779.055218761905 2906.73684627111 201 202 207
528.231247454146 779.983460297787 2909.77161038469 202 203 208
522.963951407972 780.721450457839 2913.4761292824 204 205 210
517.693194521792 781.459405161152 2917.18409008589 208 209 214
511.626407457238 782.389143726937 2920.23692789317 210 211 216
503.169629414328 783.894552285131 2921.32725034588 211 212 217
497.082184397906 784.826305425727 2924.40030405147 204 205 210
490.987554762517 785.758597450833 2927.48075038499 201 202 207
486.485483641116 786.306813275566 2931.8703475019 228 229 234
480.379699473254 787.240111762853 2934.9613838544 239 240 245
471.854675514401 788.752721589208 2936.11807332423 234 235 240
460.087398472919 791.039920129111 2934.71224688995 243 242 247
426.201275558092 797.53799135037 2931.97582010573 249 249 251
359.49539471196 809.638003874893 2936.91278602314 249 249 249
362.282019684641 808.441726977332 2947.07563281985 255 255 255
361.787429207844 808.024727781348 2954.71362304634 255 255 255
358.81922141227 808.193967082571 2960.46990240614 249 249 249
350.028426476829 809.737061115392 2961.88633867413 255 255 255
340.383567063045 811.479078249846 2962.70422568724 250 250 250
333.226357541371 812.633159864992 2965.3898019914 254 254 254
329.412882790406 813.000318100034 2970.53928228355 254 254 254
325.603618314723 813.366827625326 2975.68467758912 254 255 255
320.113278918053 814.128100499949 2979.60724065602 253 255 254
312.085674802852 815.483268786964 2981.71050181835 251 253 252
303.196182514424 817.03840544549 2983.22282828005 254 255 255
295.136180866224 818.397598987489 2985.35766574064 252 255 255
288.761819589597 819.36173543879 2988.71118313682 251 255 255
280.675075486829 820.724490236496 2990.87171205609 245 251 251
274.281835516718 821.691124584734 2994.24360708591 251 255 255
266.168685271727 823.05725422716 2996.43019673618 246 252 252
257.181974279158 824.625000661044 2998.03719908895 248 252 255
249.03633931283 825.995402425236 3000.25541513 249 252 255
243.461426834349 826.76804470655 3004.26028012401 252 255 255
237.882646130265 827.541364583554 3008.26854833289 246 249 255
230.56847591771 828.716177089012 3011.10692490686 246 249 255
223.242952009459 829.892597814695 3013.95633817426 248 248 255
215.036297387734 831.271517639583 3016.23388866949 253 253 255
207.685811601901 832.451556957175 3019.10755462403 246 247 252
198.57689362554 834.035816892948 3020.83380747189 245 246 251
193.826122718663 834.614913526705 3025.46580298215 241 242 247
188.197878409004 835.396238141931 3029.52200618576 254 255 255
182.566015536254 836.178241771927 3033.58204015991 254 255 255
175.167601070459 837.365620575366 3036.50221522937 246 247 251
169.524210125334 838.14972615915 3040.57338608195 251 252 255
162.991610504359 839.137598110864 3044.08019055468 253 254 255
154.67719425804 840.532638660332 3046.46236730009 254 255 255
140.123962230285 843.352721898997 3044.91011874798 254 255 255
123.746143232499 846.585437623692 3042.27456865079 251 252 254
107.317938175931 849.824859124656 3039.68806154402 250 250 252
96.2085521233051 851.847226408819 3040.50190021177 251 251 251
89.5556079541207 852.852569487264 3044.12562637499 255 255 253
81.0975461435652 854.26819553325 3046.64740276176 254 252 253
73.5244340512535 855.48166659737 3049.73719873212 246 245 243
65.9394973435026 856.69715906159 3052.83843795835 249 248 244
644.021733458371 762.436972014686 2752.03917064499 220 223 216
648.06821100068 760.310793117873 2773.84126386886 223 224 219
647.215531958083 759.96612130441 2781.82415137915 122 122 120
647.116475010699 759.43673497507 2790.50289105082 168 168 166
645.568709873165 759.26787813297 2797.73277679295 190 190 188
642.560593775394 759.460841627796 2803.52517926134 195 195 193
636.600931519603 760.381720908676 2806.47328779035 183 183 181
633.600933108105 760.572835476591 2812.25790254685 161 163 160
630.609073274103 760.762439258975 2818.03499671103 155 157 154
626.87928646573 761.133789505727 2823.10075406155 137 139 136
621.658333554179 761.870654883415 2826.75941978385 128 130 127
616.433705601328 762.607688714321 2830.42170997917 124 126 123
612.708458717048 762.977169317323 2835.48323545049 128 130 127
608.987307339907 763.345779803615 2840.54082262554 131 133 130
606.02586934998 763.529130707284 2846.28863162157 133 135 132
601.557589507213 764.079985957122 2850.6442833934 136 138 135
597.08953449503 764.630635957013 2854.99974224098 145 147 144
593.382970950709 764.995756288046 2860.04335932582 145 147 144
588.154222885185 765.730537989776 2863.71007371764 149 151 150
583.68699817539 766.279786002675 2868.06491527574 151 153 152
578.452996151141 767.014404485813 2871.73687104989 155 156 158
574.753333848494 767.377180585015 2876.77398157616 157 158 160
569.51602194831 768.111508704689 2880.44926702163 159 160 162
562.729244209685 769.21877357001 2882.77391858441 164 165 167
559.030495089704 769.58037310915 2887.81029620186 166 167 169
553.782446133425 770.315052335299 2891.49619180937 170 171 175
549.309514854424 770.862543061209 2895.85695980131 172 173 177
543.27549884758 771.784553216044 2898.87839771959 178 179 183
539.581831206901 772.144273808621 2903.91000706046 181 182 186
534.323464044842 772.878779587896 2907.60617443421 182 183 188
528.274895067314 773.801621905873 2910.64194067418 184 185 190
522.219098953664 774.725008468324 2913.68514097004 188 189 194
515.365405419633 775.837701722754 2916.07543859332 196 197 202
510.08508891758 776.573795188567 2919.79316732678 196 197 202
501.624142411313 778.066238424447 2920.88920755221 192 193 198
496.328993346027 778.803553113444 2924.62148474397 190 191 196
490.232076722311 779.730780324467 2927.70461282603 196 197 202
485.727945672961 780.279019960543 2932.09625196254 222 223 228
478.818188167762 781.397011904564 2934.54143879396 224 225 230
470.289438350783 782.896456597712 2935.70411173892 229 230 235
460.129899085668 784.778972232035 2935.59540851812 234 233 239
449.943576705941 786.664569459388 2935.51284586796 246 245 250
442.96937342661 787.789565409537 2938.02099311673 251 250 255
434.360512176618 789.298061020767 2939.2615423352 255 254 255
428.173435516597 790.234590428024 2942.43282580557 255 254 255
423.610136205314 790.788579067693 2946.88237020063 255 255 255
417.412389596697 791.725968802988 2950.06445977358 252 252 254
406.290489839857 793.816932154328 2949.46333910612 244 244 246
387.746059790214 797.642298363638 2943.22369721616 245 245 247
378.192180442431 799.357278244967 2943.955235773 255 255 255
370.265946427402 800.689347675517 2945.96124892823 251 251 253
368.114551852814 800.672025935438 2952.35124148502 251 251 253
361.829823762811 801.619437567316 2955.61822372287 255 255 255
359.692484097149 801.600298051728 2961.99419037176 255 255 255
355.901497649569 801.96702596278 2967.1217408899 255 255 255
349.609779554174 802.915154927335 2970.39522044298 252 252 254
339.963410599505 804.641086967294 2971.21698382245 253 254 255
331.133032268362 806.175195504222 2972.67405503988 248 249 251
327.327614774895 806.543637778165 2977.81534457584 249 250 252
323.526362885526 806.911672849175 2982.95255778976 251 255 255
316.351052133001 808.059839745206 2985.65698307665 247 251 252
309.164643567797 809.209215752473 2988.37258779146 252 255 255
301.966692969164 810.360177792012 2991.09908165922 251 255 255
297.308526859913 810.925005491234 2995.64122817878 251 255 255
289.241248406307 812.274456070494 2997.78439377835 250 255 254
281.158939841766 813.625552520841 2999.94257908324 249 253 254
271.348987751805 815.371929907753 3000.9237611209 250 254 255
264.090383740156 816.530833117878 3003.70931102286 250 254 255
254.240505591442 818.282230780985 3004.72973607444 252 255 255
247.815215548043 819.247670362568 3008.13329604482 250 254 255
238.790912707005 820.806638947088 3009.77926286313 251 252 255
232.344744048352 821.775005454004 3013.20312300881 248 249 254
225.023250703537 822.942544489763 3016.04984657702 243 243 251
218.560028896492 823.913473598783 3019.49026199967 246 246 254
212.089318926815 824.885628515907 3022.9382699466 250 249 255
204.737335935864 826.05754197546 3025.81462364622 245 244 249
199.124937328573 826.833376789452 3029.85624106535 242 241 246
194.386114280536 827.410908236932 3034.47660350901 251 251 253
187.888526765721 828.387467003648 3037.95031252655 255 254 255
179.62073414168 829.764600264107 3040.28883801531 251 251 253
173.103966005241 830.74416674121 3043.78114913538 253 253 255
165.694311982429 831.925296521958 3046.71340885392 254 254 255
161.82160915503 832.306807711919 3051.91991998305 254 254 255
149.062320420973 834.693898437089 3051.48407396077 254 254 255
134.486189326 837.487279154045 3049.95817329997 255 255 255
115.403389903715 841.291265613603 3045.67354723299 253 254 255
103.416819577039 843.493475244728 3045.91461507198 253 254 255
91.39950420438 845.699842583639 3046.18593653073 253 255 254
79.3508948876225 847.91058084114 3046.48734947673 254 254 255
67.2713683022339 850.125734393136 3046.81914899092 248 248 248
56.0632047685576 852.14304040683 3047.73182321112 246 246 244
55.6814587607275 851.734944190399 3055.25610351329 251 250 248
636.156253842208 755.932193816722 2780.64919336992 182 183 178
636.787027311391 755.240080252761 2790.04416098099 219 220 215
633.017347213037 755.620705438099 2795.14816212632 210 211 206
627.032171599496 756.539316982252 2798.12194096723 199 200 195
624.748549441219 756.558949906417 2804.63777558607 187 187 185
623.964243941885 756.216344916916 2812.55212383949 179 179 177
622.453864725249 756.051207527636 2819.744335076 154 154 152
617.968590522388 756.606328064346 2824.11623209109 146 146 144
612.733964460295 757.341850780941 2827.78867389872 125 127 124
608.998703427452 757.715070517199 2832.85959092533 125 127 124
605.267726239481 758.087442324701 2837.92671719615 128 130 127
603.051620597234 758.095733215556 2844.37718326406 131 133 130
599.332600719657 758.465785088428 2849.43244079223 134 136 133
594.858446111367 759.017027132847 2853.79386912499 139 144 140
590.384561004846 759.567822420501 2858.15509586897 139 144 140
585.147803045547 760.300783392942 2861.83003330672 145 147 146
580.672532502826 760.850986742098 2866.19272329757 146 148 147
577.731606362456 761.034654311618 2871.91977907871 150 152 151
574.029886643388 761.400389308959 2876.95883316805 152 154 153
568.019332053007 762.315667774568 2879.95796849369 153 154 156
560.455637387934 763.599025949392 2881.61117421742 157 158 160
555.976025530645 764.147948556609 2885.97836449092 157 158 160
550.719842118589 764.880776825573 2889.67227346193 158 159 161
547.017724551007 765.244733944419 2894.71198539039 159 160 162
541.758295038746 765.977263809974 2898.40916189079 165 166 170
538.060733268757 766.339938972228 2903.44453931751 168 169 173
532.798078376361 767.072226791107 2907.14495444246 174 175 179
527.532064870369 767.804630134553 2910.84902548787 178 179 183
520.685628895433 768.908506635593 2913.23341935998 182 183 187
513.827907308593 770.013511023202 2915.62885331041 188 189 193
509.335779277691 770.561122020479 2920.0086661847 188 189 193
502.461290597101 771.667591509582 2922.42053356572 185 186 191
496.371839231536 772.588557373905 2925.49751180238 192 193 198
490.274803697436 773.510197536956 2928.58158372745 204 205 210
484.170540488706 774.432440981195 2931.67308151758 219 220 225
478.058735628596 775.3553533642 2934.77163156816 218 219 224
469.52775134027 776.841647893438 2935.93812912268 229 230 235
462.58977699415 777.954338656722 2938.41245704845 237 238 243
454.832375714265 779.256409689956 2940.25491270991 246 247 252
447.060093671994 780.560048797692 2942.11225126966 249 250 255
436.837703664358 782.430674241069 2942.06771713032 252 253 255
429.029308146157 783.738335306827 2943.96032246188 245 246 250
423.652193330035 784.480806862278 2947.7728928313 235 236 240
420.72416684767 784.656053771984 2953.48872147318 211 212 216
412.887821147146 785.966707682896 2955.40863940776 228 229 231
400.108337371707 788.416863221023 2953.56661709059 252 253 255
391.406732563784 789.922249455918 2954.89972159754 249 250 252
383.511443291044 791.239626514765 2956.87717769236 254 255 255
375.601040246999 792.558790966979 2958.86937780954 252 251 255
364.359046066307 794.642132161646 2958.38863923171 254 253 255
358.072711504031 795.584085307538 2961.65802348212 252 251 255
355.943568429399 795.571624359771 2968.02520154753 251 250 255
351.321692865295 796.131641183838 2972.53202206454 245 244 249
343.353025984993 797.457502061295 2974.58108930369 246 247 251
333.691564335684 799.168943441465 2975.41998166523 248 249 253
330.732575712063 799.347104188904 2981.16578766515 244 245 249
326.096500495469 799.908793167138 2985.68646150333 244 245 249
319.771796894059 800.855288495939 2988.99327544415 242 243 247
311.74637260235 802.188258616026 2991.09731504691 242 246 249
305.402896600342 803.137238441857 2994.42240305145 242 246 247
299.051748702952 804.087198469912 2997.75462664607 242 246 245
291.840906301872 805.231471121457 3000.49491095286 244 246 245
283.764564190032 806.570965141566 3002.64888631613 246 248 247
274.816919852896 808.106294091739 3004.22222403448 247 249 248
268.424251800392 809.06172427038 3007.59486927104 248 249 251
258.584049111809 810.795580860976 3008.60794116855 246 247 249
253.03066272399 811.559494616225 3012.59272050866 249 249 251
244.017966360823 813.103391258783 3014.22905170732 248 248 250
237.58379426829 814.06457136267 3017.64239907472 246 245 250
229.406467991621 815.417444698419 3019.89467574948 246 245 250
222.9530779038 816.381355418016 3023.32636544449 245 244 249
216.492073475822 817.346638827962 3026.76541340881 244 242 247
209.150030932742 818.508925562753 3029.63331892246 250 248 253
202.672099533898 819.476624692558 3033.08915641872 252 250 255
197.941273480406 820.052735210023 3037.70178774142 238 236 237
191.451645853014 821.02262949911 3041.16857747996 243 241 242
183.192034881754 822.38740931755 3043.5008042999 255 253 254
174.033570327685 823.951805234485 3045.27885568317 255 254 252
167.511492121573 824.926602960298 3048.77748244227 255 253 254
164.529799312649 825.112284468342 3054.54472246869 255 254 255
157.110988237948 826.286712749148 3057.48740359588 255 254 255
147.00757151585 828.057348749382 3058.75641493901 252 252 254
129.737837683336 831.418043241347 3055.57038709201 253 254 255
112.414144977148 834.785762944106 3052.43724072314 252 253 255
95.9327949291637 837.961888218646 3049.91286253309 253 254 255
83.8947156933032 840.149290581947 3050.20760583006 254 255 255
72.7259333758901 842.141877410718 3051.08482740508 252 252 254
57.0171908526076 845.135966073406 3049.23705277122 250 250 250
50.3064282501811 846.138750290036 3052.91857169202 244 242 243
49.0263441202696 845.943034318438 3059.88695384613 239 235 234
620.522899452249 752.417406716644 2783.93963199556 231 234 227
615.984108185753 752.980866087892 2788.36343976986 226 227 221
614.412756416236 752.834796241227 2795.61337947825 223 222 218
615.088616987981 752.153850778047 2804.96226213154 214 213 209
615.045862311367 751.646864104021 2813.58144431477 204 205 200
612.036227025949 751.848379652038 2819.37442921121 203 204 199
607.535332615486 752.404938644673 2823.76162472019 120 121 116
606.040758024 752.247243843505 2830.93704171902 123 125 120
601.548109389781 752.801878792627 2835.31633342309 125 127 122
598.566603650799 752.998197037215 2841.08215342327 125 127 122
594.078330654774 753.551513772873 2845.45729488531 123 128 122
590.349532627013 753.92503915235 2850.52174887839 125 130 124
586.624916756222 754.297506585052 2855.58220629186 123 128 124
582.141320788026 754.849054330507 2859.9529648521 130 132 131
578.423245402326 755.220035536138 2865.00748497289 132 134 133
575.476158416836 755.409845941286 2870.73975065588 137 139 138
570.999259041294 755.959370098304 2875.10415848611 139 141 140
565.751772923755 756.689378801221 2878.79018548772 140 142 141
558.18209739105 757.96264069537 2880.4508225273 142 143 145
553.696406657725 758.512211703848 2884.82395338114 143 144 146
549.21105929268 759.061385612339 2889.19680195641 144 145 147
544.726012240253 759.610226817521 2893.56940149021 145 146 148
540.241297926817 760.158672262707 2897.94172910243 154 155 157
536.539442477952 760.524437408856 2902.98057567548 157 158 160
533.626426116635 760.706932222407 2908.68042780825 169 170 172
528.361970989009 761.436380610564 2912.38305026002 172 173 177
521.517498890547 762.531858797806 2914.76707308286 175 176 180
513.871121515647 763.811677868012 2916.50256919585 178 179 183
508.586583736336 764.542642485554 2920.22524776157 179 180 184
503.298519725765 765.273756796444 2923.95140580244 183 184 189
495.618496188481 766.5568609609 2925.72016535855 196 197 202
488.721383585193 767.657396199793 2928.15537570884 211 212 217
484.213024771538 768.205873968603 2932.55117788189 213 214 219
478.101078126944 769.123379093759 2935.65066791691 212 213 218
470.374084442922 770.41116624618 2937.46537737951 230 231 236
461.826007256454 771.8857579326 2938.65057810962 237 238 243
455.6824111402 772.806473343894 2941.78135990097 245 246 251
447.911783048937 774.099007749836 2943.638359491 246 247 252
440.126231139625 775.393174626957 2945.51027521643 245 246 250
431.512068817635 776.874963949146 2946.7603734976 224 225 229
426.140612295801 777.614009620678 2950.56783144129 210 211 215
422.400911461154 777.980169047973 2955.6445386093 211 212 216
415.387687483996 779.092688373284 2958.19327802755 235 236 238
406.720623092163 780.580275347469 2959.49471411369 245 246 248
398.857849542388 781.882997862842 2961.44204755005 253 254 255
390.980027074053 783.187381658211 2963.40407924855 249 250 252
381.432696081211 784.868867285481 2964.13406562825 241 240 245
369.375381711129 787.116808766212 2963.02171488302 248 247 252
360.607663044866 788.616246209539 2964.42168849944 251 250 255
356.818335576773 788.987613461548 2969.54656809187 248 247 252
351.363577703009 789.735673333522 2973.43575105655 240 239 244
345.905145084866 790.484150534498 2977.32818357368 236 237 241
337.088449888002 791.989408434754 2978.775931348 237 238 242
332.455969524969 792.55040834927 2983.29313728677 241 242 246
326.981272721405 793.300804933683 2987.20177453842 240 241 245
321.502836320715 794.051744960469 2991.11370710275 234 235 239
314.327997383037 795.183105230022 2993.82014788258 232 233 237
307.141868525393 796.316065679855 2996.53756321387 234 235 239
299.94461951948 797.450355994333 2999.26616230536 232 234 233
291.883432709139 798.776807377584 3001.40667808425 233 234 236
287.223973596239 799.341385298675 3005.95014549265 236 237 239
279.140291144847 800.670836483492 3008.11289424828 238 239 241
271.899441632723 801.81081327895 3010.88361098557 239 240 242
261.20724337623 803.719023957724 3011.30004830102 237 237 239
255.659836853894 804.479176445763 3015.27944545996 242 242 244
248.380974851877 805.624181194872 3018.08716603229 241 241 243
242.82238254843 806.38615661014 3022.07740140938 241 241 243
233.789019153629 807.91909583033 3023.73587477821 243 243 245
225.606349766641 809.26179248596 3025.99496134938 241 241 243
219.151351052516 810.220480866427 3029.42902029353 239 237 242
211.815337379121 811.373633993039 3032.29228899377 242 240 245
205.34345259576 812.334909843543 3035.74307146935 253 251 255
199.74105876577 813.103658520476 3039.77546348269 238 236 237
193.255861266573 814.06714336978 3043.23913919284 238 236 237
185.881616055422 815.226059690424 3046.13952057766 246 245 243
177.612663745824 816.581343775397 3048.48242694992 249 248 246
171.098378347978 817.549452155647 3051.97396617558 252 251 249
168.124801685569 817.73899186915 3057.73291434944 254 252 253
161.602856737873 818.708773483281 3061.23181231809 254 252 253
155.073170437066 819.679884830937 3064.73820103078 255 255 255
140.500131274675 822.413363176833 3063.21842142149 253 252 255
124.989702395996 825.348367271838 3061.18245108022 253 254 255
104.949339598677 829.270210266423 3056.41403329592 254 255 255
88.4376970732443 832.415126906143 3053.92434860638 254 255 255
72.7763206915446 835.370149764502 3052.03565044454 254 254 255
58.8733505771373 837.937761388263 3051.29190671198 252 252 254
49.4535794127726 839.525369299047 3053.32600869954 245 243 246
40.0144992398914 841.115811161038 3055.37920380324 254 252 253
34.1887891358161 841.919140004755 3059.62824124443 251 249 250
43.8332436467643 839.361073206472 3073.10147479292 225 224 222
601.750801700238 749.075536012136 2793.15548868855 226 225 221
604.655540822921 747.888588245759 2804.61657686447 219 220 215
602.365966656264 747.923477846467 2811.13606698549 224 225 220
598.589039723492 748.307670207623 2816.24673711749 122 123 118
597.07096113329 748.16342187216 2823.44384439474 125 127 122
594.061504266072 748.368937845839 2829.23572301611 126 128 123
592.570911838329 748.220470886026 2836.40582179656 123 125 120
587.309544408449 748.952170580102 2840.10538321877 120 125 119
584.322375387745 749.153625433324 2845.87606775291 121 126 120
581.343088351857 749.35374586207 2851.63878474497 119 124 118
579.135111347948 749.375282464911 2858.0792212444 126 128 127
576.174025665201 749.572387660059 2863.82464751592 129 131 130
572.453848926605 749.945887627927 2868.88054419725 133 135 134
567.968904256644 750.496308084488 2873.25280865109 134 136 135
561.171535704201 751.580907777794 2875.59132695108 135 137 136
555.908602421948 752.309679524639 2879.29287603717 135 136 138
550.642100929787 753.038547288081 2882.99795421724 137 138 140
546.148740158189 753.588613476143 2887.37862834514 140 141 143
540.876901046932 754.317459543275 2891.08867222459 143 144 146
537.162995034883 754.687620288976 2896.13917335933 152 153 155
534.235624559418 754.87736283664 2901.85187028571 156 157 159
530.532108747362 755.245624044273 2906.89233454916 160 162 161
525.259707501692 755.973243663197 2910.6031179049 161 163 162
518.407149951655 757.061498552285 2912.995899459 161 163 162
511.543306251206 758.150940364655 2915.39971290057 163 164 166
507.044972869821 758.699097769654 2919.7856070208 169 170 172
501.752810005154 759.427957271386 2923.51616854419 196 197 201
495.661163414204 760.338172708197 2926.5969155806 206 207 211
488.763891819141 761.430531323649 2929.03349231344 204 205 209
483.455241750194 762.160715742617 2932.77989221023 197 198 202
476.539353565173 763.254772617947 2935.23470449004 200 201 205
469.612198872794 764.35019084672 2937.70050337076 213 214 219
461.062351078786 765.811429878354 2938.88977369888 219 220 225
455.724372492638 766.544119208487 2942.66526486401 216 217 221
448.76350923608 767.642961373811 2945.16403079094 209 210 214
440.168071784245 769.109135180543 2946.39750512362 193 194 198
432.367379253107 770.394065665415 2948.28582084509 169 170 174
426.182390598302 771.313525730891 2951.45755373668 170 171 175
421.6249656549 771.866007218405 2955.90148755402 239 240 244
415.429284177397 772.786507402041 2959.08402268961 239 240 242
408.404827643822 773.89201022738 2961.64495323805 230 231 233
401.369126938483 774.998753652753 2964.21686605514 214 215 217
392.67176753362 776.476361089302 2965.54986050836 196 197 199
383.95563704676 777.956027036954 2966.90152851845 230 231 235
376.049472918726 779.252779671828 2968.89283178618 242 243 247
363.973291827106 781.478627539599 2967.80248140069 237 238 242
356.02718606374 782.780061639294 2969.8327553843 236 237 241
350.57030991152 783.525512119338 2973.72408965579 232 233 237
346.783743325767 783.898877033409 2978.84627023965 202 201 206
341.323700184065 784.644667793972 2982.74069908521 204 203 208
335.01974043898 785.577402921872 2986.02894782173 235 234 239
327.865617893734 786.698013862934 2988.71640566368 236 235 240
322.389331825188 787.445721326953 2992.62701852977 225 224 229
313.523595078256 788.943258088693 2994.12426862718 211 210 215
307.183902116012 789.880510994304 2997.44699540901 216 215 220
299.136333472192 791.194264351646 2999.5762027519 210 211 215
292.778122376846 792.133779755439 3002.9173217594 210 211 216
286.412215973511 793.074514188293 3006.26556430753 213 214 219
279.182838065317 794.204612263613 3009.02634964306 215 216 220
271.942149517089 795.336254162481 3011.79813843491 220 220 222
262.110111373816 797.036353783714 3012.80809208356 222 222 224
256.564773138775 797.793238121125 3016.78591843387 222 222 224
251.015819330103 798.550755165521 3020.76724158844 228 228 230
243.731503873597 799.688368679992 3023.58146994295 230 230 232
236.435836336916 800.827413304547 3026.40675956344 235 233 236
227.389373425424 802.348500065695 3028.07999273426 239 237 242
221.810225975172 803.110531124287 3032.09063145193 226 223 232
215.353915419391 804.063769806813 3035.52713637921 227 224 233
208.889737332974 805.018485105107 3038.97089779555 242 239 246
201.540743591778 806.165313783936 3041.84799064561 241 239 242
194.180225547762 807.313831159555 3044.73627771009 230 228 231
189.451909621891 807.88944832907 3049.34648935556 236 234 235
182.957406275955 808.848858102662 3052.82000820349 242 240 241
178.225384895575 809.425650029513 3057.43372579145 251 249 250
172.606167735211 810.195045333889 3061.48272804929 250 248 251
164.316389609069 811.542812205791 3063.84742580605 250 248 251
156.901984021409 812.700127902624 3066.78792360993 255 254 255
145.011933072313 814.824111609007 3066.94504587968 253 252 255
133.090716807596 816.952332080662 3067.1321517345 252 253 255
115.758445190172 820.245594224774 3064.01852914595 253 254 255
98.3720465429041 823.545974785174 3060.95760339936 255 254 255
79.1301779797031 827.241298527152 3056.846657801 254 253 255
61.6314441644485 830.556371439847 3053.89511101359 253 252 255
50.4090535972201 832.518107366923 3054.82978828096 255 254 255
38.2533317742948 834.678177736653 3055.24539206267 243 243 245
28.7911194102657 836.258162893193 3057.32276542865 255 255 255
19.3095539050421 837.841164471044 3059.41924876616 255 255 255
27.1392218069604 835.715428600966 3071.79653744508 248 246 249
587.394726705999 744.663917195938 2806.64640939629 123 124 118
586.598390665548 744.361040646863 2814.56683230874 129 132 125
584.314963690542 744.401759804954 2821.07935657154 129 132 125
581.288134474398 744.614288245113 2826.88778759472 123 126 119
578.269145264425 744.825428584045 2832.68830069463 120 125 118
576.776951095967 744.686998305212 2839.85884445221 121 126 119
576.061511082863 744.37197755523 2847.70073132123 119 124 118
573.07652265688 744.577639140651 2853.46862873939 123 125 124
570.099404509409 744.782085715016 2859.22855259076 125 127 126
566.363610613245 745.159900188891 2864.2996575003 128 130 129
563.400668308014 745.361793078352 2870.04588196428 128 130 129
556.59145863717 746.439747834727 2872.39714078866 128 130 129
551.31663577082 747.167187948894 2876.11069322225 129 130 132
546.812994323161 747.718786054833 2880.50134979667 131 132 134
543.863168403947 747.91759712568 2886.23534282887 137 138 140
538.585307614382 748.644312848546 2889.95168118785 141 142 144
534.865330381316 749.017774627662 2895.00772324351 150 151 153
531.931874542767 749.213532557592 2900.72557395452 153 154 156
528.222276341896 749.585155175346 2905.77158130502 154 156 153
522.943842250123 750.310704826708 2909.48866130643 155 157 156
516.085321039744 751.391632800713 2911.88844777826 155 157 156
510.005961392808 752.295699704534 2914.95790244812 162 164 163
504.711333891944 753.022393222108 2918.6912315232 172 174 173
499.413056136325 753.749147168418 2922.42783858187 198 199 201
493.315380212049 754.654579628808 2925.51527975723 202 203 205
486.412208732376 755.739603289232 2927.95879926586 188 189 193
481.897708882477 756.288560389106 2932.36062873376 183 184 188
474.977791567631 757.375046471043 2934.82056095901 186 187 191
469.654249211005 758.103688107565 2938.58197714018 189 190 194
459.492678676403 759.910920748961 2938.48641779349 194 198 201
453.343060790885 760.821368129401 2941.62469690121 184 188 191
446.37627908368 761.91258283611 2944.13046727218 177 181 184
441.021556559613 762.644198689037 2947.92274407465 161 165 168
434.036177366996 763.737345122498 2950.44669651518 162 166 169
428.670385883273 764.469897680967 2954.24948867155 183 187 190
421.66647190396 765.565085874665 2956.791544658 231 235 236
413.831976951346 766.842778770698 2958.71449639615 220 224 225
405.982390563019 768.122138306691 2960.6521878244 197 201 202
399.763976192585 769.039620487953 2963.85740527616 182 186 187
393.538440440407 769.957692550497 2967.06994502306 186 190 191
385.651316251485 771.241253603267 2969.04429105987 231 232 236
378.577960193912 772.344134635442 2971.6541670584 238 239 243
368.169481558041 774.179322687491 2971.79932146677 218 219 223
357.734406529768 776.017791630665 2971.97073941367 226 227 231
350.611862971347 777.12634280944 2974.62862128248 223 222 227
345.988401091576 777.685675081405 2979.13711821089 189 188 193
341.365236293377 778.245028870344 2983.64531695271 191 190 195
335.061306447948 779.172158190402 2986.93436453438 225 223 228
327.064750643203 780.468689273573 2989.01546081857 229 227 232
320.741967967851 781.398090392659 2992.32255592615 225 223 228
311.872421702421 782.882603543472 2993.82551381576 205 203 208
306.377455549916 783.629658518738 2997.75477271891 206 205 210
298.328095055169 784.932669565636 2999.88734710506 199 202 207
292.820202072262 785.681531079752 3003.82917553624 198 201 208
285.600339440398 786.802056029939 3006.58192696543 200 203 210
277.513116881321 788.109899160476 3008.75138476131 202 205 210
271.126683872089 789.047560290815 3012.12046476531 209 210 214
263.012930070278 790.358807074889 3014.31576541892 215 216 220
255.745743153243 791.485592847306 3017.11458521607 211 212 216
250.194821491677 792.24030462976 3021.09793925215 220 221 225
241.177352903267 793.743747545996 3022.7453262261 224 224 226
235.611544017222 794.50073584352 3026.74346487021 227 227 229
226.563464451719 796.00816873537 3028.42032143828 236 235 240
222.725524234689 796.392033030067 3033.59162715158 225 223 234
217.144786980947 797.151434004978 3037.60423329283 224 222 233
213.311009136967 797.535245317027 3042.77141353897 233 232 240
205.972165978461 798.672407742352 3045.6401932204 235 234 239
197.74207153846 800.00010321515 3047.94825289657 230 229 234
190.378098884708 801.140918401163 3050.84110881983 222 222 224
185.651994389364 801.716197815896 3055.44917440211 227 227 229
181.81127087411 802.102286954096 3060.62325298278 240 239 244
175.313201794175 803.057146932776 3064.100647273 244 243 248
165.251567323492 804.772627989124 3065.33632009943 247 246 252
156.057838205506 806.301239787102 3067.15501643513 248 247 253
145.058983815185 808.213317736486 3067.87539624376 248 247 252
135.822435373264 809.748107223271 3069.73536189941 247 246 251
120.289853252585 812.62092043965 3067.73058183964 247 246 251
102.015227032644 816.07309704795 3064.11233449583 249 248 253
78.2792319080805 820.680041980217 3057.2445013639 249 248 253
60.7789760494541 823.957402853146 3054.29970196908 248 247 252
49.5553996513758 825.899874491221 3055.2387418795 244 245 249
38.3046510222052 827.846184402559 3056.20419692197 244 245 249
28.8429478618766 829.412247691658 3058.28312228708 245 246 250
19.3619367700468 830.981026858536 3060.38115715003 254 255 255
11.6854888313291 832.16772109016 3063.57752474759 254 255 255
566.200257461329 741.318423514731 2822.51931806025 126 127 119
567.713311639195 740.508993768314 2832.47241648334 121 122 114
566.213097310596 740.381789202993 2839.64892738095 120 121 115
563.96561626962 740.42405059407 2846.12552885852 120 121 116
562.495074747461 740.292397674098 2853.27323168556 120 119 115
559.506494674008 740.50305264339 2859.0439576428 118 117 115
556.52598600012 740.712277302733 2864.80687998014 117 117 115
550.469914626038 741.611416447535 2867.85359952943 118 117 115
545.17934320534 742.338070382367 2871.58290670725 118 118 118
541.434622478372 742.718261608373 2876.66218696683 126 126 126
540.024208430745 742.576964755923 2883.75160769183 134 134 136
536.293936918059 742.954613765052 2888.81725324856 136 135 140
531.787170061925 743.505485470687 2893.21112076144 139 138 143
527.280768371155 744.05589835964 2897.60469347262 137 137 139
521.205746334333 744.954949845882 2900.67024426605 137 138 140
518.269057254664 745.155701907784 2906.39090534476 138 139 141
512.975281214045 745.880119276595 2910.12338747903 139 140 142
507.678190153999 746.604528736583 2913.8595004875 153 154 156
500.793092002598 747.679902863495 2916.28649911083 165 166 168
495.48514319473 748.405091426854 2920.03327887226 180 182 181
490.969661680729 748.954585062871 2924.43600384732 166 168 167
484.858499267546 749.855951802394 2927.5371003753 143 145 144
479.540034464612 750.581699479279 2931.29424003856 144 145 147
473.416058514512 751.484091880464 2934.40790900577 147 149 148
468.088669955763 752.210433819123 2938.17382225884 144 146 145
459.534628206626 753.645206880822 2939.3708310632 140 141 143
451.769416622227 754.904671526362 2941.22767751998 142 143 145
442.369727773938 756.520841204801 2941.82070673631 140 142 141
437.005210174128 757.250802410166 2945.62295474998 146 147 149
431.637165266042 757.981031382306 2949.4286658571 197 198 200
427.081038711366 758.533172280811 2953.87136069415 220 221 223
420.890497591516 759.442128245699 2957.05015976709 198 199 201
412.234790849385 760.887817754798 2958.34684780821 177 178 180
404.381117519233 762.15691425741 2960.28977665997 161 162 166
398.159010346509 763.069246898652 2963.49976006075 188 189 193
391.10426500522 764.161761993926 2966.09268742384 216 217 221
384.038296212236 765.255574045966 2968.69656815073 205 205 207
378.619179867554 765.990826132346 2972.55225153528 195 195 195
370.703546401268 767.2667901934 2974.55569269602 190 190 190
361.107427746842 768.905174272595 2975.34083417686 227 227 229
352.322973178331 770.365692277002 2976.7628412257 197 197 199
344.356405479906 771.647651587634 2978.81631257863 179 179 179
338.051933464996 772.56931922499 2982.10636793493 181 181 183
332.58082294878 773.310654252233 2986.01278324442 197 197 199
326.263554885977 774.233758128268 2989.31533298999 216 216 216
319.094448093008 775.339628862778 2992.01984900753 218 218 218
308.528473616905 777.17478623556 2992.32174148984 196 196 198
303.874103920056 777.737779053667 2996.86038931039 198 198 200
297.519695210607 778.665493091616 3000.1994767292 184 185 187
292.862072412953 779.228954983595 3004.74128559802 193 194 199
284.788048827775 780.52406107228 3006.89918130493 194 195 200
276.699012620685 781.821223609068 3009.07201866719 196 197 202
270.31101374389 782.753349127816 3012.4438096038 202 203 207
263.915192007641 783.686709755514 3015.82284836492 211 212 216
256.650164899257 784.804849676372 3018.62080129324 203 204 208
249.373784095176 785.924597817456 3021.42979091498 215 216 220
239.488769752447 787.598766169344 3022.49618334311 220 220 222
233.919247359233 788.353156234474 3026.49839357235 222 222 224
226.606809315845 789.47774480763 3029.342473152 234 233 238
222.769060682785 789.863884734356 3034.51325228216 224 222 233
217.188520961554 790.620253397006 3038.52611044514 223 222 230
215.10579944403 790.635316630145 3044.8431231562 227 226 234
208.648101785717 791.577951921649 3048.28223483137 230 229 235
199.545202846676 793.079663299801 3050.01471132695 234 233 238
192.185260756362 794.21159679589 3052.90487755104 218 218 220
187.463369767346 794.785873280588 3057.50890729187 221 221 223
184.511640923749 794.987282998349 3063.24440587723 236 235 240
177.132728105042 796.122492588582 3066.15292610977 246 245 251
167.964258317996 797.633780566095 3067.94876216754 251 250 255
159.667495656171 798.960432577422 3070.32351643866 248 247 253
148.676895078664 800.852246165121 3071.03869515297 245 244 250
139.448466411046 802.372154351114 3072.89279720246 244 243 248
124.821011689003 805.023331777293 3071.4392170883 245 244 249
108.353660226547 808.056874750063 3068.92201169782 246 245 250
83.731293089071 812.794048130163 3061.49786421028 246 245 250
62.6336932720557 816.786977429084 3056.35188257291 245 244 249
46.8925533760123 819.654711251206 3054.55495419938 246 247 251
38.3554993503732 821.014604248339 3057.16340834373 246 247 251
29.8027941654166 822.377001042229 3059.78703426059 253 254 255
20.3240373930544 823.931710348832 3061.8845722282 250 251 255
9.91365737364092 825.679362557639 3063.46179965764 249 250 255
68.7125858551454 812.615335436207 3113.28042116561 197 198 193
553.320605059009 736.996922826201 2828.8624969339 125 125 117
555.618374126646 736.036173052362 2839.47597406491 123 122 117
555.656244674896 735.579039515107 2848.00806377813 122 121 117
551.115878894426 736.136446683252 2852.43432958106 120 119 115
548.882557374638 736.18376342557 2858.89612326607 119 118 114
542.806871359445 737.079950175512 2861.96275680661 119 118 116
538.26938571853 737.6358738486 2866.3863818483 117 117 117
534.506933979511 738.020777041121 2871.48257283836 120 120 120
533.078747032141 737.892276165023 2878.58775107582 125 125 127
530.887830193313 737.932595996382 2885.00847042616 126 125 130
525.586775088011 738.656266841904 2888.74862895707 128 127 132
521.064621868623 739.208547523668 2893.15756711006 128 128 130
514.973919104469 740.104032745058 2896.23921618992 127 128 130
512.807726131679 740.140056363727 2902.63601935416 128 129 131
509.07706388699 740.518639163231 2907.70191489974 132 133 135
504.560256802102 741.069125472092 2912.10580946967 145 146 148
498.459404285262 741.964592916897 2915.19754003136 150 151 153
493.145443889866 742.687708832713 2918.95059572448 148 150 149
487.82776784846 743.411070327351 2922.70696697057 142 144 143
480.112811590245 744.654882415917 2924.51622258663 131 133 132
475.582456072873 745.205484561653 2928.93355382966 132 134 133
470.250649242864 745.92967092759 2932.70417308411 134 136 135
466.522878204807 746.305838373542 2937.76721676497 136 138 137
457.965088800458 747.727508018728 2938.97022156759 137 139 138
449.38808624739 749.151376949198 2940.19164241551 141 143 142
439.172997046928 750.926967762763 2940.1539045435 142 144 143
433.800597643313 751.655033122237 2943.96425951006 154 156 155
430.051600056884 752.032697135357 2949.04816027527 196 197 199
423.860533421147 752.93641215549 2952.2282558026 202 203 205
417.662345942174 753.840658020189 2955.41568181593 168 169 171
408.998707968539 755.273856563687 2956.72175400444 158 159 161
402.780008116692 756.18045246361 2959.92920177309 178 179 183
396.553745354887 757.087719982279 2963.14372251617 211 212 216
389.495120770828 758.172527450862 2965.74164120853 226 227 231
381.598310591407 759.435491110841 2967.72864986275 182 182 184
376.173288952083 760.16865714977 2971.59050560907 165 165 165
369.913825139411 761.079579469006 2974.83745530854 208 208 208
361.981368634248 762.34656516413 2976.85926683613 235 235 235
351.529443293081 764.149064495078 2977.05273368581 181 181 181
342.724131442759 765.598531123523 2978.49708571235 182 182 182
335.577228604111 766.693523967556 2981.18116062247 182 182 182
330.940888873185 767.253948977842 2985.70228394121 179 179 179
325.462387115961 767.993149409479 2989.61635435458 196 196 196
316.602465750612 769.449087653216 2991.1139779349 222 222 222
306.03081856529 771.265972199004 2991.42420421717 200 200 200
299.674121493577 772.188490620515 2994.76633192338 192 192 192
295.010550602396 772.752230613583 2999.31400623379 182 182 182
289.494826989108 773.496195458343 3003.2639964803 186 186 188
283.975806383924 774.240503934583 3007.21754774191 186 186 188
276.741001482984 775.346342354969 3009.98730772787 190 190 192
