ply
format ascii 1.0
comment KinectMotionCapture
element vertex 760
property float x
property float y
property float z
property uchar red
property uchar green
property uchar blue
end_header
125.612672629233 545.181329611811 3069.38111903964 157 157 159
117.226962582172 546.09568074258 3071.90513726926 147 147 149
104.375560209485 547.425619806483 3071.71734584769 147 147 149
91.4895524012409 548.759816535652 3071.56295101212 142 142 142
68.7350391207455 551.01343135042 3065.48522238141 139 139 139
55.7591931041688 552.358894644394 3065.41837302141 139 139 139
45.4427255885976 553.457726426242 3066.99823932201 137 137 137
40.5022846047394 554.056193387297 3071.81571709664 136 136 136
32.8569701493504 554.907204130877 3075.03078255796 146 146 146
22.4893512662212 556.012838168326 3076.66043755229 142 142 142
10.2876992587051 557.290716694068 3077.25203825555 142 142 142
-3.75954647266585 558.742133236787 3076.81653548893 154 154 154
-36.0344186280059 561.899712294369 3065.88895173423 163 163 163
-100.323125638917 568.05676428541 3036.71271607082 154 154 154
-143.856162137186 572.277461101301 3019.80326441391 127 129 128
-161.008869350909 574.030978409167 3018.15581465011 126 128 127
-169.04003101954 574.931073591035 3021.74677743951 136 138 135
-173.406073371813 575.487939244964 3027.41726469654 159 161 158
169.662749173114 530.096296462664 2871.99712942845 177 181 180
187.121212749948 528.731233196105 2893.12162708214 178 182 181
201.340738216289 527.647256449062 2911.75291858216 181 183 182
210.622013219304 526.994686672432 2926.72207244089 184 185 187
217.450200540009 526.555741328558 2939.84487708043 183 184 188
220.123632756164 526.48109332249 2949.95401185535 180 181 185
220.301418695662 526.62531699857 2958.25828318323 184 185 189
223.040345059905 526.542517314219 2968.3039239574 186 185 190
224.119329417603 526.605133791875 2977.14226275985 184 184 186
224.376557582723 526.739460450783 2985.36910955813 182 182 184
220.399843492928 527.247670910751 2990.65984146962 178 178 180
216.42788941196 527.755209289236 2995.94628379731 178 178 180
214.170962404955 528.110501686761 3002.38566157074 175 175 177
209.354466464721 528.692517842091 3007.08249150671 172 172 174
201.960971712061 529.503219193142 3010.05379183324 168 168 170
193.695004588535 530.391843990493 3012.46236806852 160 160 162
187.140740040326 531.128691252271 3016.02812531579 156 156 158
183.174359773035 531.635363094409 3021.30882299581 154 154 156
177.478585430878 532.295957722097 3025.45026620139 153 153 155
171.779369919438 532.956969717348 3029.59472701021 156 156 158
167.818810974304 533.463012589074 3034.87007483481 158 158 160
166.480913188199 533.734731738397 3041.82644225544 170 170 172
162.534853966588 534.239077665144 3047.08730460598 191 191 193
155.963369432417 534.978154748594 3050.6698319872 182 182 184
148.506017172852 535.796830937715 3053.7030272425 166 166 168
142.798551179464 536.459118912616 3057.85549231262 161 161 163
137.087850085135 537.121949107551 3062.01142758791 156 156 158
134.026974275643 537.547224463387 3067.82222348035 160 160 162
126.542706772687 538.369500137496 3070.88161396791 153 153 155
118.159133672655 539.273055936611 3073.40510572285 147 147 149
104.419532794976 540.658769687957 3072.67381791256 145 145 147
89.7495508854784 542.129458279231 3071.43660581648 140 140 140
67.8855626196846 544.249444659714 3065.91123222374 137 137 137
54.9082751557806 545.57107632074 3065.84967438918 137 137 137
45.4879414885792 546.573194696993 3067.97087004789 136 136 136
38.7481678652155 547.334165435644 3071.71727510977 137 137 137
28.3940466503672 548.421969903495 3073.33616192257 144 144 144
17.1134088597489 549.594484872581 3074.44566389873 140 140 140
4.90043344045699 550.852309794956 3075.0511349891 139 139 139
-9.15813274361055 552.278411097803 3074.63061518075 164 164 164
-45.0814387351159 555.686320667147 3061.62100630594 161 161 161
-118.501761937025 562.497216526126 3027.24585596899 148 148 148
-150.199504217865 565.532871784804 3017.18010331931 135 137 136
-161.873933736723 566.754794583022 3018.67334384736 138 140 139
-166.238167748483 567.313892511105 3024.34136762439 155 157 154
-171.517482029291 567.956347665485 3029.48885015659 173 175 172
172.205396188171 522.850481165471 2874.79423748695 178 182 181
190.503080684795 521.487074562427 2896.5020408249 179 183 182
200.549800043228 520.818264490595 2912.13074459161 182 184 183
208.990790830494 520.282935312333 2926.5000756713 185 186 188
214.134634920675 520.024957669355 2938.43421677134 181 182 186
217.642115456145 519.90419197083 2949.1391925702 178 179 183
218.657850303648 519.99369800963 2958.03670264787 182 183 187
220.546828017142 520.007787726658 2967.49478762586 184 183 188
221.619771069569 520.090212737789 2976.33619784116 182 182 184
221.871068273587 520.241562484692 2984.56641816652 181 181 183
217.888503216042 520.753370540197 2989.86242845242 178 178 180
213.910697898068 521.264536032577 2995.15414505911 177 177 179
210.792508967417 521.701973552924 3001.01971832352 176 176 178
206.825758648046 522.211686418247 3006.30067185082 175 175 177
202.003988965166 522.794544319113 3011.00261428157 168 168 170
193.738075986621 523.672577386276 3013.41270220318 161 161 163
186.320591943427 524.478325730495 3016.40821846009 158 158 160
179.757319168559 525.211060396822 3019.98352884942 153 153 155
174.05361972535 525.870131487793 3024.13272913356 151 151 153
169.215737656549 526.454843704441 3028.85039733466 151 151 153
165.249413047227 526.964443933421 3034.13094477319 149 149 151
162.160092456521 527.398330594059 3039.96837616479 157 157 159
159.953807879916 527.755776150487 3046.35748486225 190 190 192
156.006656353111 528.263195183074 3051.61931552628 190 190 192
147.670676450701 529.149913877241 3054.09769720719 163 163 165
142.841932608262 529.7337984038 3058.80641334665 160 160 162
137.131381951973 530.394103458504 3062.96257244936 155 155 157
132.30165833021 530.978317892709 3067.67221276397 159 159 161
122.154871835944 532.023709128508 3069.09148179143 152 152 154
112.873645997638 532.994950759903 3071.07944273105 145 145 147
100.012821249168 534.278001623904 3070.90760008139 143 143 145
82.6574693473812 535.953238302294 3068.05604001362 141 139 140
64.3544567033674 537.712915636654 3064.71579362009 139 137 138
53.1614503676923 538.855365821898 3065.74271982799 139 137 138
41.9419133277916 540.001160623965 3066.79549708447 136 134 135
36.0943244984142 540.679331206098 3071.0850966017 138 136 137
24.8330337283047 541.83059612019 3072.17852744934 144 142 143
13.5447887256186 542.985360534733 3073.29786918176 143 141 142
1.32447972036376 544.222809187876 3073.91397207709 139 137 138
-18.1863163355249 546.099736220397 3070.33883369397 159 157 158
-63.222366316845 550.215573168208 3052.10357625161 154 152 153
-130.300194196891 556.270271393939 3021.46104088871 131 129 130
-156.542541478223 558.750209147782 3014.56226675378 141 143 142
-164.569388106866 559.633514438602 3018.15142618324 150 152 151
-167.104819514502 560.034812936068 3024.86090110407 178 180 177
-170.547526319119 560.5158311345 3031.04262205138 173 175 172
139.119753700277 518.310681537565 2843.13719157252 184 189 185
177.244591830907 515.416950354984 2879.39104591844 178 182 181
189.714684416564 514.602891663426 2896.88549988219 180 184 183
198.922843685692 514.051147358752 2911.9123567848 184 186 185
206.52170724805 513.627924956237 2925.68445399754 185 186 188
212.499501379888 513.334603821095 2938.21294129058 179 180 184
217.686372924694 513.103782160414 2950.10034184979 175 176 180
219.545600324969 513.143339351785 2959.58454308901 179 180 184
219.745005524188 513.317506306531 2967.86292056888 182 181 186
219.120495363218 513.558273030202 2975.53236760466 183 183 185
218.51634846816 513.796459602735 2983.18231280356 183 183 185
214.525976384516 514.312141330426 2988.48550305473 181 181 183
211.393745700946 514.756938037449 2994.36427014478 178 178 180
208.269680761935 515.200718360532 3000.23474090888 174 174 176
204.297079205559 515.714058339749 3005.52096871517 174 174 176
199.469525843438 516.297792787349 3010.22852487168 174 174 176
191.197841621239 517.166027475948 3012.64579191963 165 165 167
184.637803944599 517.893282987663 3016.21869962524 160 160 162
178.070499362558 518.621349708526 3019.798365737 153 153 155
173.230107704643 519.20649623641 3024.51846180617 149 149 151
167.521496168664 519.863726330516 3028.67314981158 144 144 146
161.809525508248 520.521409380046 3032.83110653059 149 149 151
156.967049432761 521.106936619537 3037.55321618822 148 148 150
154.749043292791 521.474010601239 3043.95220365233 154 154 156
153.420167876312 521.766633640705 3050.89685998271 174 174 176
147.714149914407 522.423815171218 3055.04864186641 178 178 180
142.005068804954 523.081310853415 3059.20375691141 161 161 163
134.527706657346 523.886823899024 3062.2587677882 153 153 155
127.039374814699 524.693749333407 3065.32446298389 154 154 156
118.653742706778 525.576276956823 3067.85310731928 147 147 149
109.36498494495 526.535200120897 3069.85036823439 140 140 142
95.6064446052474 527.869829804659 3069.14509995075 138 138 140
78.241826048262 529.50876000295 3066.30810789048 140 138 139
62.6116863148209 531.004052081728 3064.60413884688 140 138 139
53.2067746771574 531.977572356543 3066.71424698918 140 138 139
40.1916631092059 533.255925791213 3066.69630771005 135 133 134
29.8417862176885 534.311132599566 3068.31613560887 137 135 136
17.665342413089 535.521422825769 3068.89235587315 138 136 137
7.26567876942363 536.583095989699 3070.56032918631 142 140 141
-4.96765759248952 537.800781264132 3071.19228945812 141 139 140
-29.9364694480397 540.097066455208 3064.47292890537 159 157 158
-89.5470486559411 545.329754904583 3037.87308597849 148 146 147
-141.186739740725 549.895712315321 3016.20943541377 116 114 115
-158.319062110053 551.542137544711 3014.55757136058 116 116 116
-166.349240132698 552.417918465606 3018.15148885412 125 127 126
-170.722708469491 552.983723596776 3023.82769113073 144 146 143
-176.930105435219 553.705661553298 3028.46811664748 155 157 154
157.431555620926 509.734105412432 2857.39528565664 184 189 185
178.955067431587 508.274540226789 2881.58198209464 179 183 182
192.262733560416 507.451571028001 2899.6632772772 181 185 184
200.640350721396 507.010561464266 2914.0815989068 185 187 186
206.566761338941 506.758804489307 2926.6549676244 185 186 188
210.024598232573 506.698371574523 2937.40032313438 180 181 185
213.521890506803 506.633023650922 2948.10722530433 176 177 181
216.214910061642 506.629221047401 2958.18677648481 179 180 184
217.25196170493 506.754176149612 2967.05754147107 182 181 186
217.46932977595 506.942442448298 2975.31599767683 184 184 186
217.71038181431 507.127795013314 2983.55102815948 183 183 185
217.124094472438 507.377440357548 2991.1815449566 182 182 184
214.850951314244 507.759648865459 2997.63338526052 180 180 182
210.02399023049 508.343632975505 3002.34031637586 173 173 175
204.340484009532 508.995486814753 3006.47086904045 171 171 173
199.51301433545 509.579358134212 3011.1783218639 172 172 174
192.102602485175 510.368676630364 3014.16924365307 165 165 167
185.544358120743 511.090500363346 3017.74083554568 161 161 163
177.249086324086 511.951081213821 3020.18299447968 153 153 155
170.672773246131 512.67506485759 3023.77220963805 149 149 151
162.351780186702 513.538711375451 3026.23945706191 146 146 148
157.499056400036 514.12564843942 3030.97153447678 140 140 142
152.646927045767 514.712599018979 3035.7030196139 138 138 140
149.544831844943 515.159257676911 3041.55158652856 145 145 147
148.204124790182 515.464265068775 3048.50582360678 151 151 153
146.000876602459 515.838016018031 3054.88950719526 185 185 187
142.929180656054 516.281179733375 3060.7080659099 165 165 167
134.571536463428 517.149594131005 3063.21100376027 154 154 156
125.314830787153 518.091149665623 3065.17900340866 153 153 155
115.152901090822 519.106636260773 3066.61772975246 144 144 146
104.968267503397 520.124955557731 3068.07858272366 138 138 140
92.0906196741056 521.362067644796 3067.93023537311 137 137 139
72.0425130714677 523.181085531153 3063.48030393462 139 137 138
59.0808949396315 524.428665471433 3063.41379319167 138 136 137
49.6686187268569 525.389862628505 3065.53337365934 139 137 138
40.2373395278501 526.353497936259 3067.67112617365 136 134 135
28.987784768959 527.465897103671 3068.75864732905 138 136 137
16.8099167243234 528.655125062517 3069.33973272065 141 139 140
6.40865608218011 529.700989517091 3071.01162839725 141 139 140
-4.92091811496076 530.823712281457 3072.17708421461 142 140 141
-38.0562804834157 533.72770165307 3060.72421324704 154 152 153
-108.595431689307 539.693085674242 3027.86438644401 139 137 138
-148.427391674743 543.157939260494 3013.05939951001 123 121 122
-160.09522750419 544.32277455893 3014.55452991453 129 129 129
-167.214110333858 545.116071757791 3018.67228034385 135 137 136
-172.506221470321 545.760051705921 3023.83224497904 124 126 123
-180.555420200043 546.630901908182 3027.44544123195 125 127 124
176.505189026059 501.453204899783 2880.77187215436 179 183 182
190.640560682191 500.627948415082 2899.44849089015 182 186 185
201.521890912768 500.042517281758 2915.65299967002 186 188 187
208.287728466737 499.762847616576 2928.81383983188 185 186 188
210.909395226663 499.7923058387 2938.959329457 181 182 186
212.724837260138 499.88081341198 2948.47977536765 178 179 183
214.571829472987 499.965356621748 2957.96913957298 181 182 186
217.296279837687 499.982034243806 2968.01445252625 183 182 187
219.208513546653 500.058470663997 2977.44022914145 181 181 183
218.604031749707 500.324060991721 2985.08645663983 180 180 182
216.316526628858 500.716424142174 2991.55105773324 183 183 185
212.33443486443 501.236870433467 2996.84532130461 184 184 186
207.501646507264 501.821854523638 3001.55789119196 175 175 177
202.669539501581 502.406634780975 3006.26981461362 170 170 172
198.697227221127 502.925789244097 3011.55455794447 165 165 167
192.146254095114 503.641670933781 3015.12014546325 167 167 169
185.588056580853 504.358358472651 3018.6924499602 169 169 171
178.157777422304 505.142161798287 3021.70391541997 162 162 164
170.716572162885 505.927254079308 3024.72604015238 154 154 156
164.133415435913 506.646986632376 3028.32301730674 141 141 143
157.542949017131 507.367565272913 3031.92679019978 140 140 142
150.945339177936 508.089103423924 3035.53751479965 138 138 140
144.340796860905 508.811473001596 3039.15533840999 132 132 134
137.728901527149 509.53478258177 3042.77998690069 132 132 134
136.380993137439 509.851754471294 3049.73960666344 147 147 149
135.049238007614 510.166765401075 3056.68381367133 173 173 175
131.968477266283 510.616673916368 3062.51037698284 155 155 157
125.358999997572 511.339989951658 3066.13296118713 153 153 155
115.197215698323 512.339536634045 3067.57389906163 143 143 145
103.236382530892 513.480070220802 3067.94632477673 138 138 140
88.5750389312565 514.832190875601 3066.71839684249 138 138 140
71.195713069244 516.39808475375 3063.90680408974 138 136 137
59.1263349533895 517.552154733897 3064.38501587018 137 135 136
48.818459261331 518.570105519735 3065.96864238091 138 136 137
39.3854727196752 519.520717563614 3068.11001514442 138 136 137
28.1341748572821 520.614702327751 3069.20198886813 138 136 137
16.8563032350013 521.712096105388 3070.31984687753 141 139 140
6.45531554140311 522.742004567311 3071.99382980094 140 138 139
-6.68512557744627 523.988393033826 3072.10506902689 146 144 145
-47.0830140934009 527.38075334252 3056.45586264669 151 149 150
-121.277507578604 533.441585677246 3021.54342458899 126 124 125
-154.756407862277 536.304721908368 3010.43806776797 116 114 115
-160.958053409316 537.020008440116 3015.07376511862 114 114 114
-167.163482147651 537.735961847629 3019.7127828282 125 127 126
-172.455467617429 538.380132344368 3024.87259451152 130 132 129
-181.423229691977 539.315790907846 3027.9714497795 121 123 120
180.712518298594 494.138241721951 2884.76030262665 183 185 184
194.023074419046 493.433759863571 2902.82121562764 180 182 181
202.403748583904 493.07896063761 2917.22375975692 189 191 190
209.17119593576 492.836975502839 2930.37743160855 185 185 187
210.95457564227 492.951238607937 2939.92557138549 183 182 187
211.927886601905 493.122293613613 2948.85281826728 180 179 184
213.772891395471 493.228892797049 2958.34123398806 179 178 183
216.495119973222 493.270322573643 2968.38509485098 181 180 185
218.405241970156 493.368755221248 2977.80971739464 184 183 188
216.94902995309 493.710053861466 2984.87328877725 181 180 185
215.508932206725 494.049291557405 2991.92116305751 180 179 184
211.525067324127 494.572955750658 2997.21704959892 181 180 185
206.690279045191 495.158368869224 3001.93154202794 173 172 177
201.856256613537 495.743626471745 3006.6452969445 170 169 174
197.881961887859 496.265949810499 3011.93154051433 167 166 171
193.91221649768 496.787699633226 3017.21335129217 170 169 174
187.358059456626 497.498793449261 3020.78280813128 170 169 174
179.931720442128 498.274316172038 3023.79158483925 164 163 168
172.49445532676 499.051127850199 3026.81102081986 161 160 165
165.046178268452 499.82932775874 3029.84118664275 147 145 148
159.328620678499 500.480285057374 3034.00568532844 148 146 149
151.862274637415 501.260674395058 3037.05347032166 145 143 146
145.25952482483 501.977700749069 3040.66996583272 134 134 136
136.896675085651 502.825513126608 3043.18111783735 135 135 137
132.032848398152 503.414498544736 3047.92391785103 138 138 140
129.810826914726 503.807127437626 3054.32345344783 151 151 151
129.365570466822 504.067046311688 3061.81206821721 170 170 170
125.403302144531 504.588223790665 3067.08687659026 152 152 152
116.12783473348 505.505769028123 3069.07671778807 139 141 140
101.504896120995 506.823799586128 3067.81569163528 141 143 142
86.8398265366577 508.147036522826 3066.59539481785 138 140 139
71.2410916182571 509.542279822916 3064.87502749446 136 136 136
59.171822600125 510.675077787615 3065.35627493385 133 133 133
47.9683146573899 511.744344755035 3066.40444584043 135 135 135
38.5338309079035 512.681894006296 3068.54957387049 138 138 138
28.1805238668076 513.689752043554 3070.17946824425 137 135 136
16.0011346115163 514.836520867125 3070.76800182017 140 138 139
6.50202182584181 515.782541963856 3072.9760553035 145 143 144
-12.0709534356207 517.415621292342 3069.92259690986 163 161 162
-58.8314969743307 521.185664128188 3050.61673880399 158 154 155
-131.230698721588 526.907494134576 3016.80581038473 131 127 128
-158.351140873903 529.205897086358 3009.38891888406 130 126 127
-163.647161703777 529.850163522572 3014.55272355979 118 118 116
-169.858179550634 530.564285866482 3019.19756196716 130 132 129
-173.321449435194 531.069508442781 3025.39612496036 132 134 131
-180.45299774959 531.854584017629 3029.52766755568 135 137 134
168.365574184697 487.711236829998 2868.2137864453 181 183 180
181.59138633194 487.076715004489 2886.34817356013 191 193 192
194.903397942863 486.431490235501 2904.39888306564 189 191 190
203.285589576491 486.119841795953 2918.79354265861 176 178 177
209.216838510509 485.973176495791 2931.34657435279 185 185 187
212.679649474467 485.993640923017 2942.07503394559 183 182 187
213.656655287889 486.183306549031 2950.99586114138 180 179 184
213.817812995734 486.427839058426 2959.30181894735 176 175 180
214.848517167158 486.610823606421 2968.17031034025 176 175 180
216.754528607304 486.731563436407 2977.59571773576 177 176 181
214.444848010654 487.143321882593 2984.07947278821 182 181 186
212.147497388724 487.55352593955 2990.55121373154 181 180 185
208.155615345211 488.081103333731 2995.85414522087 179 178 183
205.023731943952 488.548352867603 3001.72924893645 174 173 178
202.757546934563 488.954569035071 3008.17063137414 173 172 177
197.926030591724 489.539776064996 3012.88190518207 172 171 176
193.095194523352 490.124897335516 3017.59251614259 174 173 178
184.813007683976 490.952368750286 3020.02657508071 174 173 178
178.245805737565 491.659871896269 3023.60917856115 169 168 173
171.671713022711 492.368289664021 3027.19882733782 166 165 170
167.696839456404 492.893545962917 3032.48521221472 159 157 160
162.855757830883 493.479840911058 3037.20582369591 157 155 158
156.269805819466 494.189707800661 3040.80669690781 147 145 148
147.927757250251 495.024460377922 3043.29912327594 141 141 143
138.694288757139 495.923341507332 3045.25035531639 138 138 140
131.198932604103 496.699545176658 3048.32756641959 128 128 130
124.572844668367 497.414442352841 3051.96755172349 136 136 136
123.233705188548 497.752451576285 3058.91535452033 167 167 167
123.679144693371 497.962148318169 3066.94416501066 164 164 164
116.172519071185 498.740038042865 3070.03231766507 138 140 139
99.7734741153926 500.156093917843 3067.68634679038 139 141 140
81.5449504169248 501.706021111159 3064.30347059401 144 146 145
65.9346483423953 503.070686115791 3062.59877124438 136 136 136
54.7481901475715 504.119140057996 3063.63308765528 133 133 133
43.5352007100147 505.170997653738 3064.69324692392 134 134 134
33.1933071888821 506.161377314649 3066.31439080002 137 137 137
24.6281684190013 507.024548800594 3069.024148733 139 137 138
14.24464925763 508.020323456927 3070.68583010723 147 145 146
3.83838288025018 509.019024730103 3072.36966725053 146 144 145
-21.9837694885596 511.138939559117 3065.10684458691 153 151 152
-78.7458502106801 515.514120249678 3040.05620562252 160 156 157
-141.183430736835 520.313756712401 3012.07655589478 125 121 122
-161.034483967817 522.018578226959 3008.86473503684 120 116 117
-166.335990318345 522.663624653452 3014.03387163345 124 124 122
-174.382670987307 523.509832773222 3017.64820950383 125 127 124
-177.855682413292 524.021780564376 3023.85511416586 127 129 126
-186.834390119466 524.937590221106 3026.9677722676 137 139 136
170.903544469746 480.486945042333 2871.01235740053 188 190 187
189.959065893009 479.531872784293 2893.32417514729 190 192 191
199.120012099741 479.216016337269 2908.36338903844 193 195 194
205.839551900183 479.055875137015 2921.55253729905 186 188 187
209.262638242166 479.108443659807 2932.3156990574 188 188 190
211.04549217076 479.266380494748 2941.85790598139 187 186 191
209.493118073271 479.641797265434 2949.01192508662 184 183 188
210.488314100605 479.848292072237 2957.91253962752 177 176 181
211.511063425564 480.051355870393 2966.78596259616 176 175 180
214.256614851321 480.138773110887 2976.79952875716 181 180 185
212.790632890976 480.503315226475 2983.86970430436 182 181 186
209.637739286904 480.978887475502 2989.76410352626 174 173 178
206.493474214185 481.45335892314 2995.65043502893 177 176 181
203.357460458841 481.926744230199 3001.52839554057 180 179 184
201.944667727664 482.284551513895 3008.54674880214 173 172 177
197.111193172446 482.870270767324 3013.25989143749 183 182 187
191.417150044677 483.513618194988 3017.40182680823 183 182 187
184.857261584584 484.215203456066 3020.97838039145 182 181 186
176.560332920525 485.033948407723 3023.42836794684 175 174 179
169.982208129245 485.737727748368 3027.02236835051 173 172 177
165.134747045816 486.325033319436 3031.74916535808 168 166 169
161.158527983835 486.853466649591 3037.03641676825 169 167 170
156.31421263131 487.440434620122 3041.76013991574 172 170 173
151.470535305351 488.027292672852 3046.48324573922 173 173 175
145.750979972613 488.673784312588 3050.65038823546 172 172 174
136.514190397436 489.559917622353 3052.60646443968 157 157 159
126.378519930371 490.508423938316 3054.02935247864 140 140 140
119.749247002579 491.218651314278 3057.67319072117 138 138 138
120.186883983754 491.445695537594 3065.70718528265 156 156 156
113.558757403602 492.155955304701 3069.34988039763 153 155 154
100.706686846686 493.294048111559 3069.19076944389 142 144 143
79.8102142325781 494.98728294666 3064.18495935826 139 141 140
64.1964630581668 496.320362692358 3062.48835330327 144 144 144
52.112529588316 497.412391329163 3062.99052629085 140 140 140
41.7897021363962 498.384386857126 3064.59545444519 139 139 139
30.5465675978192 499.421469541496 3065.68773197022 135 135 135
21.0759751146394 500.337195360442 3067.87160415839 139 137 138
9.78347762151977 501.380559998404 3069.01197135699 137 135 136
-2.43919093803369 502.490255304155 3069.64929921357 167 165 166
-34.6124404199561 504.991791249786 3058.71776552734 159 157 158
-107.73334113084 510.357059413921 3024.25894737249 132 130 131
-148.407778637832 513.469595974605 3008.92571605629 120 118 119
-161.895132704556 514.68692131413 3009.38574048528 130 126 127
-169.937954763475 515.524475812325 3012.99752570034 120 120 118
-177.99183642598 516.363706355505 3016.62038338852 113 115 112
-185.140420875864 517.140167795092 3020.77011628365 119 121 118
-192.296532477566 517.917755058247 3024.92715735557 131 133 130
167.630707043819 473.636677361179 2869.60648696267 179 181 178
190.838308570026 472.503485248443 2894.90711393949 187 189 188
200.834512793408 472.181719360524 2910.53434916124 178 180 179
208.393672908965 472.007102430532 2924.30912870331 173 175 174
210.984238951213 472.138471135396 2934.47010163401 186 186 188
210.251556069432 472.475064255523 2942.23314052308 186 185 190
209.538773936026 472.809132123604 2949.97645306399 179 178 183
210.533731980383 473.034733347308 2958.87448000543 175 174 179
212.401845333318 473.203828796132 2968.33037382242 173 172 177
215.996705405884 473.262192499539 2978.92210520186 177 176 181
215.383899371137 473.583702722745 2986.5683338553 179 178 183
209.682520969729 474.225763547211 2990.71774342059 170 169 174
205.684927573729 474.759974277274 2996.02570380522 169 168 173
201.691673916917 475.29359198334 3001.32910457138 178 177 182
200.274658771791 475.662971777867 3008.34960249837 177 176 181
195.437312732256 476.24944445313 3013.06647821946 190 189 194
189.739675543497 476.89078472508 3017.21261704463 190 189 194
183.175712489823 477.587736919014 3020.79356368281 188 187 192
175.739808048166 478.341084376174 3023.81511649592 181 180 185
169.160026969937 479.039929192293 3027.41182877958 179 178 183
164.310607674129 479.627746986865 3032.14049461458 175 173 176
161.203113749673 480.103197923421 3037.98982921342 177 175 178
157.231584176963 480.634034441181 3043.27240654333 176 174 177
153.264394074188 481.164307453302 3048.55042015934 173 173 175
146.672115403574 481.864740827429 3052.15897010681 170 170 172
138.315886937222 482.680376557046 3054.66830278415 158 158 160
125.542946314139 483.784611403697 3054.43561882809 148 148 148
116.265118039212 484.662725723015 3056.4339701131 130 130 130
112.27373406017 485.196225664144 3061.7355316672 140 140 140
107.400714781985 485.787342940028 3066.48714497168 160 162 161
96.3116611638073 486.786514549035 3067.43202110539 156 158 157
77.1858689602851 488.315727387357 3063.52596021151 151 153 152
58.8909435843217 489.79376899436 3060.21964652076 144 144 144
46.7954727706545 490.865918419398 3060.73587655812 141 141 141
39.1487696247053 491.645692980621 3063.96284968634 140 140 140
28.7977278202503 492.605412246119 3065.59760953606 136 136 136
18.4241483960972 493.56807763643 3067.25465198135 138 138 138
6.22429662258073 494.653533362069 3067.87256718946 147 145 146
-12.3302777830823 496.16395404196 3064.81930321068 171 169 170
-63.5383338265392 499.855977731327 3042.85619969154 156 154 155
-133.090004803366 504.784770002398 3010.58556970711 134 132 133
-153.813065967438 506.460166042306 3006.82710537196 118 116 117
-163.666615257938 507.410446361682 3009.38649003286 128 126 127
-169.886873817057 508.118008727933 3014.04147416595 126 126 124
-178.855774744795 509.010911040687 3017.14777968717 126 128 125
-187.83985671987 509.905992525393 3020.26883813214 128 130 127
-196.839203968829 510.803175346907 3023.40474464309 131 133 130
172.659302065659 466.27816447608 2874.2027343508 193 195 192
194.213664262127 465.333092024794 2898.28309194018 188 190 189
201.715249773598 465.206287394584 2912.1076394362 175 177 176
207.604078668679 465.17073040465 2924.6863730964 179 181 180
210.19267557595 465.326806375346 2934.84598752613 185 185 187
209.457890174201 465.677404288093 2942.60904434638 187 186 191
209.584629742098 465.975498274517 2950.9409256692 183 182 187
209.735601636941 466.270524353185 2959.24953521056 178 177 182
212.447242111475 466.411206664799 2969.28924073517 174 173 178
214.34683149644 466.598152525449 2978.71124010398 166 165 170
214.579328688207 466.883048467122 2986.94039105016 173 172 177
211.430368369352 467.369433839825 2992.82962412873 185 184 189
208.289573525803 467.854832346944 2998.71055678592 176 175 180
202.591701428159 468.493990901898 3002.8572513359 168 167 172
199.462299269493 468.977881173329 3008.72743164715 177 176 181
194.622952231171 469.564900950415 3013.44621352821 182 181 186
189.784413826541 470.151730333136 3018.16422056426 185 184 189
184.083314491652 470.791131864054 3022.3137460548 186 185 190
176.649647595432 471.536341351227 3025.33461758262 182 181 186
170.071572910325 472.229971737038 3028.93006824121 180 179 184
165.224106711073 472.817838156888 3033.65678743567 180 178 181
161.247876315474 473.352169798474 3038.94317833243 180 178 181
158.148916439221 473.832222336499 3044.78369622255 175 173 176
153.309145037118 474.419207158143 3049.50290466952 174 174 176
147.593587957354 475.060359310791 3053.66686601531 172 172 174
138.360864831243 475.91970936784 3055.62286272854 158 158 160
127.348808532887 476.890687514145 3056.49544636692 146 146 146
115.427934525272 477.919862819737 3056.84465075094 138 138 138
107.898180206813 478.677038231183 3059.9591699511 134 134 134
101.243192258997 479.380335271446 3063.62956788924 141 143 142
94.5810186428675 480.08456766379 3067.30696305762 155 157 156
79.0118534759627 481.348150357811 3065.57669191395 168 170 169
59.8290971265225 482.841674094998 3061.73247209262 151 153 152
45.9482372509727 484.004956788457 3061.17433176863 142 144 143
39.1954167928183 484.72064613997 3064.94004725757 138 140 139
27.9469667325913 485.721248569622 3066.04299493989 140 140 140
17.5714098372706 486.668195737528 3067.70398634769 144 144 144
3.56699511159375 487.847054483052 3067.26623568265 156 156 156
-23.1244925226708 489.835426710688 3059.46920841008 150 150 150
-100.611582586096 495.066916165298 3022.28096883069 153 151 152
-142.11316741897 498.018397999122 3006.37566369516 114 112 113
-157.399354434698 499.301543700126 3005.77840897803 129 127 128
-165.438034753294 500.122683967408 3009.38850739988 129 127 128
-172.574703069095 500.886809371385 3013.52856850037 125 125 123
-178.804209904538 501.59329681441 3018.19289518175 133 135 132
-188.704965277766 502.536879397308 3020.80014610316 125 127 124
175.197676345764 459.088731303696 2876.99575204485 189 191 188
190.101004936548 458.598267079337 2896.27720535989 190 192 191
199.260690227469 458.420645097991 2911.29724036542 186 188 187
205.143162109991 458.421165906643 2923.8766165082 187 189 188
210.239155043568 458.462046816671 2935.81444119249 184 184 186
210.343866571767 458.779386536602 2944.16569001535 186 185 190
210.472536247108 459.09373543582 2952.49359008592 183 182 187
209.781484807087 459.452513793439 2960.2116715275 178 177 182
210.801711857793 459.713272232508 2969.07907190902 174 173 178
211.849997240816 459.970539403876 2977.91946380161 172 171 176
212.076310011748 460.27259187732 2986.1518823992 171 170 175
211.475497972818 460.620069539917 2993.78236286129 192 191 196
208.334651432528 461.111135571573 2999.66250919646 192 191 196
205.202475671491 461.601124960236 3005.53454228901 169 168 173
198.649998492203 462.286633961113 3009.10577458307 169 168 173
194.667955041025 462.824781256201 3014.39771182003 179 178 183
188.107187824428 463.511246894764 3017.97703485305 183 182 187
184.991382514029 463.999025105942 3023.83313865718 186 185 190
179.289115316147 464.636097173835 3027.98416814655 185 184 189
172.717036624086 465.323916796876 3031.57486136561 183 182 187
167.006689254459 465.96193549207 3035.73411251586 180 178 181
160.422284115645 466.651204159841 3039.33649406858 177 175 178
157.321359001458 467.137194939089 3045.17808579957 173 171 174
151.604976646886 467.775987477936 3049.34287756333 174 174 176
146.761970979271 468.363704358684 3054.06518948575 173 173 175
138.40601898672 469.158341816572 3056.57735115591 153 153 155
128.274441752339 470.05878679487 3058.00294015703 151 151 151
117.23810745099 471.014279873285 3058.90192089755 138 138 138
107.059464803918 471.920540257038 3060.37338703484 136 136 136
98.6305111268453 472.724351252796 3062.956684612 130 132 131
91.0746822925188 473.477042924088 3066.09742104471 139 141 140
79.9479575983399 474.443813210111 3067.08449401516 152 154 153
62.5512921280977 475.787605089874 3064.32294632808 160 162 161
46.8887586851454 477.030715428476 3062.68807922597 147 149 148
36.5550139980311 477.95646992002 3064.31068276123 140 140 140
27.0964734277439 478.831006830132 3066.48901276648 141 141 141
17.6187595333532 479.708032849135 3068.68567643479 145 145 145
2.71319053988428 480.914772626298 3067.72175515716 157 157 157
-29.4005449371402 483.167800292147 3056.76785259951 164 164 164
-109.615841228562 488.351144506428 3018.04481218517 182 180 181
-148.413659820871 491.031794383508 3003.74572184382 117 115 116
-161.894363632632 492.176237893271 3004.21025221593 129 127 128
-170.853839600893 493.046470940783 3007.31021127857 127 125 126
-175.262590596776 493.63900119025 3013.0178376384 127 127 125
-181.497644292843 494.343681728067 3017.68793949417 135 137 134
-189.570060051092 495.16188068672 3021.33197243043 147 149 146
181.886325006885 451.6985520877 2882.78204053438 191 193 190
191.812825042488 451.531655749901 2898.45594123513 187 189 188
195.972199014045 451.661629628771 2909.89342733288 175 177 176
202.682759855638 451.654511028053 2923.06921300097 176 178 177
208.610189941272 451.684686467909 2935.59956204191 184 184 186
212.069906620775 451.841569023638 2946.31126960709 182 181 186
210.518850317992 452.261075769636 2953.45746364359 179 178 183
208.984078623779 452.678470613145 2960.58779896132 177 176 181
206.620061687216 453.138917400734 2967.11831468695 175 174 179
207.658226299861 453.416549909297 2975.9654088242 178 177 182
208.724324682821 453.690660922262 2984.7852847901 171 170 175
211.52093273547 453.869841206273 2994.73492627008 174 173 178
210.939810669057 454.228589409454 3002.34385067543 195 194 199
207.813365005743 454.723576404419 3008.2094550522 199 198 203
202.123955462264 455.356832676185 3012.34861851567 178 177 182
196.431147266654 455.990500955551 3016.49075815441 175 174 179
189.013312201804 456.718336763021 3019.49813841993 177 176 181
185.036556469516 457.258765898448 3024.78448761885 183 182 187
179.334268564041 457.89345233939 3028.93589026579 190 189 194
173.629001737566 458.52853076716 3033.09053093183 192 191 196
168.789267736794 459.116071077623 3037.80962013772 186 184 187
162.208902263425 459.799834577629 3041.40914174632 187 185 188
157.366574446994 460.387731364184 3046.13075396249 179 177 180
150.775753281658 461.072708070554 3049.74014107442 171 171 173
145.930874166719 461.660955973237 3054.46423487291 166 166 168
138.451391651552 462.396298061637 3057.53172254286 165 165 167
130.080654240147 463.182332489802 3060.05983787655 166 166 166
118.165992808212 464.16826704645 3060.4092640449 151 151 151
106.221141476583 465.158023966155 3060.78844212833 143 143 143
96.0181963244162 466.051485452503 3062.28593268388 136 138 137
87.5686754340257 466.847363336773 3064.89082631832 134 136 135
79.1043155183089 467.645170884793 3067.51017012082 133 135 134
67.0572998008487 468.647613895675 3067.98858610892 153 155 154
53.1923591169807 469.755729325006 3067.4227914898 182 184 183
38.3937327632444 470.919738745248 3066.3589901181 141 143 142
27.14375040033 471.883472438557 3067.46890858276 142 144 143
15.8672376024445 472.850521230333 3068.60468219144 145 145 145
0.957857051457012 474.028447046034 3067.6484666957 144 144 144
-32.9658404127309 476.305650822125 3055.65449129349 170 170 170
-108.660294189278 481.00533335697 3019.59855684713 193 193 193
-149.269944077446 483.691613429121 3004.26399099055 118 118 118
-165.480222073815 484.970753129155 3003.16771720325 121 119 120
-172.624404836593 485.725299913047 3007.31665597654 135 133 134
-177.950155927412 486.374493697577 3012.50925498095 136 136 134
-184.190714236202 487.07739148858 3017.18508648773 136 138 135
-192.26850328887 487.888441428954 3020.83584964855 184 186 183
187.74517303958 444.391079360096 2887.96353785606 191 193 190
196.020571251425 444.352841553277 2902.42349708146 186 188 187
200.189490403479 444.511584720834 2913.84759042756 178 180 179
204.40163015523 444.664951251788 2925.22922190179 180 182 181
208.657137673526 444.812821102271 2936.56860094973 184 184 186
211.276758792379 445.038608558004 2946.68710455169 180 179 184
210.565384244501 445.427592307999 2954.42124063799 179 178 183
209.873995748561 445.814010567666 2962.13557161562 178 177 182
206.666290354717 446.324932134584 2968.07951298327 175 174 179
206.856926453599 446.664314817858 2976.34217949689 167 166 171
207.071498902538 447.000768397115 2984.58150978135 169 168 173
209.012581718845 447.248027202074 2993.95339133263 169 168 173
208.425551847162 447.62125991455 3001.56604147179 181 180 185
207.003707778499 448.035550506808 3008.58503463694 208 207 212
202.169368609743 448.622941432413 3013.2987887739 208 207 212
196.476582223696 449.254218724865 3017.44126014225 177 176 181
189.058732399793 449.974360961092 3020.44979217019 172 171 176
185.081906686457 450.517806328893 3025.7357650635 183 182 187
179.379597804137 451.15013666124 3029.88753677258 183 182 187
175.408001700769 451.692922753609 3035.16841402651 184 183 188
170.572133799238 452.280300009379 3039.88368823811 189 187 190
163.124906775809 453.003909833085 3042.92087975154 192 190 193
157.412008671138 453.637562067255 3047.08330918043 188 186 189
150.82127633462 454.317456256263 3050.69335927787 178 178 180
145.97639425789 454.906028860873 3055.41740802666 160 160 162
141.132107421318 455.494526426003 3060.14087678398 157 157 159
131.006643946452 456.362563892363 3061.56518454764 167 167 167
119.094256189883 457.327087938314 3061.91585522886 161 161 161
103.614786614851 458.483581257067 3060.11200495743 154 154 154
92.5201609562167 459.409213557771 3061.07328328733 137 139 138
83.1749594492761 460.243086766124 3063.14473816258 131 133 132
75.5908705142141 460.983861755197 3066.31529857351 129 131 130
66.2121622310439 461.822034440425 3068.41972855407 137 139 138
55.9208840087995 462.710739615074 3070.0056381348 156 158 157
42.0238731547125 463.796303058192 3069.47502284251 181 183 182
27.1913306473266 464.935280641746 3068.44860040729 159 161 160
15.0152566438524 465.932764722699 3069.05590610891 145 147 146
-1.69863640900303 467.179939463781 3067.04754460675 147 147 147
-44.6616411128526 469.866098904621 3049.79918474722 143 143 143
-119.474347659461 474.309660924121 3014.32242608495 149 149 149
-154.662501904267 476.594926520269 3002.1656362648 110 110 110
-169.065414413877 477.743175982223 3002.12812382883 109 109 109
-174.395034834983 478.392887041729 3007.32448868241 111 111 111
-177.89815480134 478.941639997722 3013.55618962481 115 117 114
-185.053516561258 479.692891603621 3017.7163784914 120 122 119
-195.883996794656 480.649512790518 3019.82768568313 150 152 149
191.943703883552 437.195942649601 2891.94265715645 182 184 181
201.060441293643 437.161970898227 2906.98377075929 185 187 186
204.406653324102 437.387544814407 2917.7976997238 187 189 188
207.792384241636 437.608225200182 2928.57310911092 188 190 189
209.542279379452 437.901273740097 2938.12841299238 185 185 187
212.163503908965 438.151478545495 2948.24171551023 180 179 184
212.295318003833 438.514800986343 2956.55891701568 181 180 185
211.607797120124 438.914576308347 2964.2677710712 181 180 185
208.403655630837 439.430811086959 2970.20705029659 173 172 177
206.055642545937 439.905957997062 2976.71950128925 181 180 185
206.268151748538 440.259094499478 2984.95841467906 174 173 178
206.504640626113 440.609207982842 2993.17396269804 171 170 175
207.618219969781 440.915751456721 3001.94189586451 171 170 175
205.338957123234 441.382231306883 3008.38735784184 180 179 184
202.215001074339 441.888285429903 3014.248854278 192 191 196
197.381382273919 442.475850901353 3018.96186728075 216 215 220
190.826408235314 443.146431229375 3022.53778544435 216 215 220
184.26450443908 443.817826194629 3026.12046455669 209 208 213
177.695710412913 444.490076744938 3029.71019715611 206 205 210
173.720008457562 445.03631244001 3034.99430388998 186 185 190
171.486324000326 445.497046409989 3041.39535509154 193 191 194
166.653046144901 446.084480446665 3046.10804895688 193 191 194
160.947865185451 446.714801059001 3050.26330755873 190 188 191
153.490462610876 447.431909787516 3053.3115644039 182 182 184
147.775077803669 448.06348727258 3057.47676981218 164 164 166
142.056166523616 448.69552236349 3061.64507158419 158 158 160
132.813163916911 449.503614050099 3063.61918978038 157 157 157
118.257971484721 450.578804531525 3062.32644448435 172 172 172
102.777090105242 451.703560657625 3060.52902474081 169 169 169
91.6806777489363 452.610901988445 3061.49478068528 142 144 143
83.2216568378312 453.38702712137 3064.11168958675 135 137 136
74.7478366983478 454.165093347513 3066.74334529004 133 135 134
65.3674205340207 454.990301805579 3068.85138732895 132 134 133
55.9680013834609 455.817948414328 3070.9776014145 128 130 129
44.7584508798089 456.739552606311 3072.05359716712 187 189 188
29.9319578052217 457.848519024806 3071.02560319279 185 187 186
15.9629962287768 458.916499090158 3070.56903484698 158 160 159
-7.05899114359365 460.454103604321 3064.86273795322 150 150 150
-57.2605007036615 463.402788597342 3043.426893349 150 150 150
-133.003597809909 467.689705299993 3007.48060689984 145 145 145
-159.147103279544 469.418067201833 3000.59476396744 109 109 109
-169.013481334165 470.303814805366 3003.17608784599 118 118 118
-173.431916839565 470.906129458888 3008.8915470943 113 113 113
-180.58514951344 471.651821911782 3013.05078122935 123 125 122
-191.405959430196 472.591184480808 3015.15503646989 124 126 123
-202.24955934937 473.533508544996 3017.28148481204 128 130 127
171.349936258908 430.66989449266 2869.42989047986 162 164 161
196.972377192595 429.991800282882 2896.51601090903 182 184 181
205.268450086737 430.037892600588 2910.94331375569 188 190 189
206.122415278931 430.396270463139 2919.96138651236 186 188 187
206.168595132898 430.786916178642 2928.35992355886 188 190 189
206.238775920416 431.174536195113 2936.73507452053 184 184 186
208.85182844309 431.450285797133 2946.85237861021 181 180 185
210.659197775718 431.758025205016 2956.34843846272 182 181 186
212.498117018467 432.061829767743 2965.81341251449 181 180 185
208.450402556849 432.620534490984 2971.16718581471 174 173 178
206.94978430831 433.066928099043 2978.25965809327 177 176 181
204.615980519128 433.548657275004 2984.75702618921 177 176 181
205.699665895506 433.878075258235 2993.55126366461 167 166 171
204.251431501157 434.317848602624 3000.59235863166 171 170 175
201.964353795195 434.793716697761 3007.04419330141 179 178 183
198.832398061929 435.306423868945 3012.9123123828 173 172 177
195.709113646422 435.817995360421 3018.77232641243 197 196 201
191.733170295138 436.367416319503 3024.05620207541 211 210 215
185.17339289241 437.033547315321 3027.63788550194 216 215 220
180.336030428389 437.621820610358 3032.35451140198 218 217 222
175.499476059552 438.209962547744 3037.07035426615 215 214 219
171.532164229079 438.758236397652 3042.3458282436 205 203 206
164.957594923163 439.426068279331 3045.94161101648 198 196 199
159.248566712241 440.054485661372 3050.10097129253 185 183 186
153.53639223191 440.683299680665 3054.2633972378 182 182 184
148.697328812466 441.271816892574 3058.9816761609 174 174 176
142.102181473168 441.942213477919 3062.59751416305 168 168 170
131.978877393222 442.778371427245 3064.02438939432 164 164 164
118.304330565656 443.783112645312 3063.28480952464 156 156 156
106.360102801005 444.709163590719 3063.67278411202 161 161 161
95.2716824232418 445.597010678555 3064.63348514425 167 169 168
85.9325451331063 446.403907752652 3066.70290522343 158 160 159
75.6847524411639 447.255582563083 3068.25110610141 149 151 150
65.4146785787182 448.110023746767 3069.8213614843 134 138 137
55.1216904211071 448.967366679358 3071.41360438181 134 136 135
44.8060831374573 449.82756111219 3073.02788695537 129 131 130
33.5703838760266 450.733916074651 3074.13210264047 146 148 147
16.910694107021 451.905087197087 3072.08114977783 173 175 174
-7.01036130040578 453.432746597637 3065.85220129928 166 168 167
-67.1480583937507 456.731487575963 3038.6443836568 153 155 154
-142.005545696074 460.767162987653 3003.27271625143 119 119 119
-161.817037034891 462.124830481438 3000.0729190624 99 99 99
-168.052251325779 462.819182235736 3004.7447069809 123 123 123
-175.201779327951 463.559129945928 3008.90111139264 121 121 121
-185.098057368016 464.435821197958 3011.51346492354 121 123 120
-195.013004235999 465.315000336538 3014.14432700998 125 127 124
-201.27981550381 466.014072502164 3018.84679351891 135 137 134
160.635085402632 424.009556603474 2862.63311830775 176 178 175
195.361217269966 423.078218134547 2896.30358447431 180 182 179
203.652981705736 423.168313627006 2910.72866203382 182 184 183
204.502817518327 423.546406416488 2919.74792146789 163 165 164
205.380651146218 423.920940152072 2928.73990468409 170 172 171
203.773382592769 424.391982802698 2935.93463917427 181 181 183
208.059786953095 424.625855591282 2947.23062600464 182 181 186
209.864769316873 424.95578638705 2956.72543843308 181 180 185
211.701700332577 425.281735478516 2966.18945171401 179 178 183
207.651959831564 425.843732510779 2971.54475029947 173 172 177
206.149074688917 426.301481589734 2978.63745746175 166 165 170
204.662726268304 426.757132914209 2985.71439130378 173 172 177
206.597385144653 427.070804378332 2995.08283616038 170 169 174
205.150962782794 427.521435426611 3002.12052698849 170 169 174
202.010660979748 428.04096065959 3007.99626397598 177 176 181
198.021636859721 428.595097036393 3013.29243209901 173 172 177
194.896344150618 429.112671165769 3019.15355320661 185 184 189
191.779259703231 429.629223551242 3025.0063365603 196 195 200
187.808133123426 430.181061136397 3030.2854097637 210 209 214
182.11167092575 430.80560762648 3034.43252607699 216 215 220
175.545563069316 431.467376904258 3038.02114039765 220 219 224
169.840852812977 432.092933708778 3042.17629783108 217 215 218
164.133164174145 432.718823463414 3046.33470147447 213 211 214
158.42224396234 433.345150093583 3050.49624954757 204 202 205
151.833563024989 434.009660167139 3054.10653634087 199 199 201
146.990670099875 434.598984477631 3058.8284987309 194 194 196
137.756963552202 435.379633636094 3060.79744179672 192 192 194
130.264923573014 436.085600158461 3063.88174090991 193 193 193
119.233260734147 436.947982236057 3064.78984458438 175 175 175
112.595600304403 437.618637468467 3068.44786048587 175 175 175
99.748635521693 438.564791738256 3068.31204785482 178 180 179
90.4195215569938 439.357350579943 3070.37397165015 169 171 170
78.4017233820293 440.271401536107 3070.83643849372 159 161 160
69.0293269543467 441.069416819983 3072.94053595485 148 152 151
56.0630606524533 442.030434035409 3072.92099475908 131 135 134
45.7495532087107 442.874589588972 3074.53556269991 143 145 144
35.4137218080566 443.721546394107 3076.1722224782 132 134 133
20.5571105158899 444.775825654527 3075.18188123525 141 143 142
-4.25730642067501 446.287437936007 3068.42517855893 199 201 200
-61.6775730645247 449.297601292639 3042.8129675927 190 192 191
-141.953869045854 453.374537448382 3004.31402740004 145 145 145
-159.950558970529 454.605815457232 3002.16460452519 116 116 116
-166.181502725895 455.297286536116 3006.83291534334 130 130 130
-175.149262022533 456.116245441789 3009.94901601127 121 121 121
-189.610164275199 457.192256485351 3009.9797650541 128 130 127
-198.619762605608 458.016725741332 3013.13659807369 129 131 128
