ply
format ascii 1.0
comment KinectMotionCapture
element vertex 801
property float x
property float y
property float z
property uchar red
property uchar green
property uchar blue
end_header
233.74849035864 56.3325438869935 3014.41420871743 19 22 15
234.753661434381 57.7364093276069 3023.12760918905 17 20 13
230.733093144924 58.4661159664351 3028.42948977257 15 18 11
241.913783557059 61.202729765535 3043.8453948346 15 18 9
245.553188138323 62.9283866775728 3054.14646765031 15 18 9
228.028854495433 61.8731111951376 3050.44936813665 15 18 9
211.297323749676 60.9359106551757 3047.36446151913 15 18 9
226.888733322674 64.2062197979163 3065.40679958588 14 17 8
228.056830066025 65.5895532404484 3073.96144708143 11 14 7
203.57667935502 63.6677308909589 3065.96336392305 11 14 7
169.572589659589 60.5492374909972 3052.01254440366 10 13 6
200.778245698328 65.7741134309013 3079.76721556082 10 12 7
214.913474818555 68.7918958947925 3096.45872919889 10 12 7
166.091424163941 63.836605986043 3073.40469407233 10 12 7
156.88780612316 63.9122103924253 3075.44762627047 10 13 6
159.810384817531 65.5103395613804 3085.06245701552 9 12 3
138.42520877497 64.0705474988657 3079.58774950622 9 12 3
143.978875513216 65.9907762214257 3090.79333055086 12 15 6
112.902666387357 63.3755622522004 3079.52867297666 17 20 13
47.5788994179678 56.5786024343306 3047.62688932824 14 17 10
40.7566210320205 57.0080786201241 3051.50387974716 11 14 7
34.806692957031 57.545559010599 3055.91589759702 10 13 6
11.2337376637224 55.9461406927476 3049.80312343842 10 13 6
8.77062686035623 56.9157595200219 3056.35678543356 10 12 7
37.2891782527574 61.6068623473311 3081.19070754731 10 12 7
44.6725447293685 63.7321447061451 3093.38288150137 11 13 8
38.7803134423401 64.2622409331836 3097.73869696401 15 16 10
10.6191034672833 62.151790251245 3089.1727734609 14 15 9
0.209454605384352 62.1618190715758 3091.00609481808 11 14 7
-29.0066364286261 59.9665979234312 3082.08330352069 12 15 8
-53.844211248864 58.3089974279353 3075.81800522957 13 16 9
-67.9860028430608 57.9179771481186 3075.74869926012 17 20 13
-59.6590679374174 60.1420791453287 3088.40653747597 16 19 12
210.324149707642 35.6710810596949 2933.03580192939 24 27 18
239.111842623331 41.0951317962974 2961.74519894612 19 22 11
272.193402918379 47.0811331705748 2993.19255055187 16 19 10
254.900523424061 45.956070102625 2989.27559037982 18 21 12
245.026530045896 45.8819344578451 2990.5894373944 20 23 14
255.945964683764 48.7034148255911 3006.25256790255 21 24 15
239.399324021528 47.7051953882845 3002.9930812653 20 23 14
237.019833383647 48.6724692319106 3009.46405378754 19 22 15
235.491199910014 49.753145581284 3016.4902610446 15 18 11
244.063509001045 52.2084654038845 3030.28717449116 13 16 9
222.375567463486 50.534629046448 3023.73079992094 13 16 9
207.364970345836 49.7843948994808 3021.74316585485 11 14 7
232.079358793046 54.3973136378124 3046.11516778809 14 17 8
239.119557675117 56.6043791105253 3058.63602472797 15 18 9
219.013260272421 55.1726761690139 3053.30708557314 16 19 10
208.210088756583 54.995490743371 3054.1419416091 15 18 9
196.526850185736 54.708651522767 3054.45001470575 15 18 11
180.534227588629 53.8618676778057 3052.03490714324 13 16 9
167.923304931759 53.4714200679263 3051.86225036598 13 16 9
169.89373580145 54.9938156153053 3061.01686205475 12 14 9
168.449220767266 56.0640791474852 3067.96107746776 11 13 8
166.157462123062 57.0205288546101 3074.34653062601 10 12 9
171.667591350321 58.9791122175753 3085.58933842158 10 12 7
134.720475131225 55.4789901993935 3070.36632649407 8 11 2
125.451154940952 55.5500681324275 3072.4755087507 8 11 2
124.876204618866 56.7313757866975 3079.95673059504 9 12 3
142.659466704786 60.2315529060297 3098.6227088058 12 15 8
118.535872144047 58.4245475036721 3091.67049954241 14 17 10
79.4174372999299 54.7573579435224 3075.79417513985 9 12 5
25.205946267258 49.2425059519775 3051.08941473816 9 12 5
7.77920904925633 48.3566298082095 3048.68727270128 8 11 4
11.4884297444187 50.1010974427576 3058.91623686725 9 11 6
23.200345927624 52.8222011690885 3073.80725710962 10 12 7
44.7403987308883 56.7309418782825 3094.35027619519 11 13 8
40.6252432387246 57.4760354511995 3099.74347124513 14 15 9
22.2653349727957 56.4872074856688 3096.86628877022 13 14 8
2.95567662169027 55.3975086740505 3093.52988367707 11 14 7
-21.7818710981974 53.6684988820859 3087.17581125946 11 14 7
-52.8780560935731 51.1969576680757 3077.32666456623 14 17 10
-70.6108336723377 50.3498691654559 3075.22269233527 15 18 11
-44.2854962102421 54.7578888921206 3098.02528206697 10 13 6
-12.411983677814 59.7898254666905 3123.72803104738 3 8 1
217.182893847896 26.8916015255438 2921.85459573536 28 31 22
219.52995456118 28.6118029526563 2932.0228821169 23 26 17
230.9647761711 31.6435970498055 2948.56005078335 25 28 17
235.87917295376 33.7102381561106 2960.37845881567 18 21 10
273.912562935126 40.5370316127127 2995.28643322913 17 20 11
306.347425925624 46.5057667090896 3025.96160744886 21 24 15
289.117837600898 45.3326702081707 3021.9888975302 22 25 16
266.835530729972 43.4564495452789 3014.63573951659 20 23 14
248.645349757422 42.1813151203335 3010.21508414029 19 22 13
231.23051102808 41.0319188182796 3006.42282773288 17 20 13
242.264460432417 43.8907447809008 3021.96672372247 14 17 10
234.044970278676 44.0393133768193 3024.43886546506 14 17 10
223.284039184169 43.8382203234502 3025.23530967515 14 17 10
194.768206132248 41.1848758660712 3014.26761511515 13 16 9
202.529589183284 43.5628383889796 3027.46431416451 15 18 9
201.020897942736 44.6524553975475 3034.46939706379 16 19 10
223.329204288918 48.9934923403696 3057.01979230726 16 19 10
199.756496203542 47.057421460995 3049.53962045139 15 18 9
194.885208131778 47.6775690287367 3054.28522397783 15 18 11
209.69870045559 50.9531248462787 3071.68236059879 14 17 10
193.722719876592 50.0697020203929 3069.25614249166 13 16 9
188.013693954984 50.5721617004677 3073.43411698773 12 15 8
167.653961536806 49.1247835710881 3068.35915933565 12 14 9
158.451852560705 49.1743416097747 3070.40478049403 10 12 7
132.786995885148 47.0559465419073 3062.19527191583 10 12 7
117.439182602606 46.3170145992545 3060.54082802559 9 12 5
109.000659943887 46.4937854109735 3063.22630400834 9 12 3
123.200612582795 49.6231004224695 3079.83706177374 9 12 3
167.175794429843 56.5918061575954 3114.49208741083 10 13 6
135.230494903325 53.7020913204153 3102.71377340069 11 14 7
82.993897651773 48.2342566478448 3078.87512161827 10 13 6
35.8234329739466 43.4678698281439 3058.40384536093 10 13 6
10.4917989996873 41.531487166958 3051.25344967791 10 12 7
2.72936174917149 41.8465679715738 3054.66403001711 11 13 8
16.191235508388 44.8454857809298 3070.61041219466 11 13 8
21.7539564632525 46.8302479018153 3081.79712641827 13 15 10
41.5822467583999 50.5894906339615 3101.22822807919 15 16 10
25.8961636313084 49.8935715352661 3099.90333386558 13 16 9
11.0571264194324 49.3142349389253 3099.13732685329 13 16 9
13.1703031646673 50.8404666042608 3108.14928495892 14 17 10
-32.1917237154143 46.5169589483301 3090.06781168295 15 18 11
-45.3883247863289 46.177290301731 3090.46957496215 15 18 11
-28.9124645790499 49.4655001072866 3107.63099476432 22 25 18
-8.73472027376554 53.1800841783879 3126.72168395789 2 7 0
241.82119646793 23.5467159728563 2940.39308974604 28 31 20
271.353526281577 30.6879544749506 2978.02829262154 17 23 13
267.289700400398 31.4323118531842 2983.37062541823 17 23 13
251.65611650767 30.4701441688571 2980.61604079577 17 23 13
285.030007448418 38.031173893858 3020.04244683681 20 23 14
255.245437806414 35.0098376085342 3007.55519686216 20 23 14
241.201009331791 34.2997288009125 3006.01912186103 20 23 14
241.334645428691 35.6455977158747 3014.18963199374 13 16 7
221.371212542825 34.0994057650647 3008.73608552934 11 14 5
235.792037688624 37.4873169175446 3026.50654039331 13 16 7
213.243489600255 35.5889403162928 3019.42070064041 14 15 7
201.589166351852 35.2561530979527 3019.70685148843 14 15 7
200.058135448113 36.3598862774027 3026.7320316396 15 16 10
197.695556520557 37.3424313061413 3033.183953509 16 17 11
194.495477369537 38.2045164402007 3039.06842008293 16 17 11
226.233002552277 43.9302021024258 3067.6378271771 15 16 10
182.143964609627 39.0966415384189 3046.95073334737 14 15 7
225.169154820197 46.3377552882198 3082.50851509535 14 17 8
202.36641274226 44.471991453284 3075.67027357915 14 17 8
212.15059724183 47.0877606398598 3089.65697180202 13 16 7
213.385549110712 48.5209214652907 3098.13820454618 12 15 6
138.65774387145 39.6392969684927 3058.87861926551 11 14 5
124.200100087628 38.9823510305933 3057.74535356792 11 14 5
122.711542205419 40.0809067172904 3064.72912261202 13 16 9
122.108486817656 41.293826623065 3072.23358092509 13 16 9
136.337014267034 44.479423873254 3088.80798283297 12 15 8
137.553473624789 45.9149290114562 3097.30689458365 11 14 7
132.671975377804 46.5370271333155 3102.06234867398 11 14 7
90.0783680671458 42.1946653259799 3084.06873695359 11 14 7
42.0457714214106 37.1821285462324 3063.07304202391 10 13 6
15.8473935543708 35.0675565867679 3055.392762822 9 12 5
4.56529716600995 34.9147762669564 3056.6995912722 11 14 7
10.9521616973525 37.0546768628149 3068.46223650216 12 15 8
36.0102434311349 41.5867196456828 3091.08765219229 12 15 8
25.6555298091894 41.5429280468738 3092.87437667856 14 15 9
17.9500079998522 41.8431678083375 3096.230632643 14 15 9
27.1906174018017 44.3009809016446 3109.36354549721 13 16 9
-1.96567195977337 41.8815840761972 3100.41450332225 14 17 10
-12.4024864084338 41.8481647044341 3102.28122213249 15 18 11
-1.30367043899593 44.523552631362 3116.37090740789 15 18 11
0.863090316069126 46.0649508420877 3125.32741419085 11 14 7
-2.35123167772988 46.9287872861689 3131.22576527535 4 9 2
226.233728241782 15.6037028601047 2938.6244774906 27 31 17
272.242962353809 23.9949553390578 2979.55120112058 17 23 13
270.655475674807 25.1166780434073 2986.62978384723 17 23 13
270.737982988966 26.4854964541482 2994.84767369157 18 24 14
293.218672585485 31.2077483338276 3018.58745573571 18 24 14
265.991777978164 28.4696626582006 3007.76959812097 20 23 14
246.986522362604 26.983023873417 3002.77267484848 20 23 14
242.936929551273 27.7290292522878 3008.10063042263 20 23 14
232.200846836624 27.4878744382298 3008.87832093492 14 17 8
232.337093814297 28.850139243596 3017.04381511899 12 15 6
214.851300167779 27.6298588874314 3013.33249462548 13 16 7
195.623993598546 26.1717733574542 3008.55185107392 14 15 7
206.721644043174 29.1261917621115 3024.01836246765 14 15 7
206.04818118288 30.3618526938536 3031.58937532804 14 15 9
201.154945306855 30.985747487799 3036.35621951017 15 16 10
201.362407306183 32.3391671879848 3044.45230342766 15 16 10
194.778661563824 32.7187000494025 3048.09980900688 15 16 10
212.095526215827 36.4901165445295 3067.18883770284 14 15 7
173.888731686041 32.3927750043351 3050.47081726643 15 18 9
184.421188149628 35.1895155131899 3065.10497004485 15 18 9
195.023886816502 37.9772591209582 3079.67036317309 15 18 9
194.496849911212 39.1945214075827 3087.0990300493 14 17 8
154.268672443731 34.8950309778872 3069.5839937917 13 16 5
119.941122263209 31.4530644704769 3056.00218449965 12 15 4
141.861775513213 35.7874837288368 3077.52159377135 13 16 9
138.693191748408 36.6516114850268 3083.37414522053 14 17 10
138.147021450589 37.8713595508297 3090.82144444129 12 15 8
143.732823687679 39.9189990063865 3101.97594536785 11 14 7
131.864273292784 39.5927563410022 3102.47385965712 11 14 7
94.531986885475 35.8440177440985 3087.67007284213 11 14 7
41.2365826259315 29.9911353298182 3063.52249479905 10 13 6
25.6072880245855 29.2244518846576 3062.15166767938 9 12 5
4.63579142028481 27.7591403074819 3057.68718930541 10 13 6
10.1374513341232 29.8174830641941 3068.92366285957 11 14 7
22.7797266180967 32.8052016010384 3084.2686643688 10 13 6
30.1679029697643 35.0829238167027 3096.43353150156 13 14 8
-0.681383192174145 32.3472786193557 3086.37824507029 13 14 8
-2.19108992068895 33.4597635000288 3093.38095650262 12 15 8
22.2520213232875 37.9323064230102 3115.20893171565 13 16 9
-6.95484234491994 35.4471369333075 3106.31983174586 14 17 10
12.2388865833485 39.2091127482496 3124.96341111648 14 17 10
-33.2735773732495 34.663433506772 3107.06449878667 16 19 12
2.22804925063258 40.4854672845315 3134.71567593218 7 12 5
206.742487925114 4.13450065967308 2917.16439022543 32 35 26
227.944150999012 8.87651534741901 2940.75443426189 28 31 20
245.156655415778 12.963861399049 2961.31730928142 18 24 14
253.402388299818 15.6351570566212 2975.40659659512 18 24 14
265.844533842967 18.9348224505566 2992.32079576192 19 25 15
263.453485285264 19.9377331596727 2998.79797835625 19 25 15
232.835253215856 16.6289399407217 2985.76414418733 18 24 14
235.398283413816 18.3962950818818 2995.71066253764 19 22 13
248.845267020942 21.8007589842474 3013.02880063861 20 23 14
237.286612709927 21.4134241367536 3013.22801293333 17 20 11
230.727659339995 21.7846422689618 3016.85212823356 15 18 9
215.759193302311 20.9014366917027 3014.84231050158 13 16 7
211.694047641414 21.652854135032 3020.18524822649 14 15 7
209.321745648417 22.6537848391684 3026.64410784881 14 15 7
206.115737271756 23.5283284251942 3032.5322830357 14 15 9
212.246677147588 25.7718520414998 3044.53374979467 14 15 9
202.279714694312 25.647165545092 3045.94738786897 15 16 10
194.846105037274 25.8975218335447 3049.0410038021 15 16 10
178.009938284561 24.7874214506914 3046.08555680757 15 16 8
189.360094467848 27.7616199602167 3061.29840277923 15 18 9
171.623340770887 26.5336817542557 3057.83742115254 15 18 9
165.004643434458 26.9129566153654 3061.52001015566 16 19 10
152.348073604423 26.4333679729534 3061.40585670182 15 18 9
152.609804221066 27.7967376249744 3069.44658048155 14 17 6
141.645182343859 27.5668063511967 3070.44955492634 14 17 6
151.470441752156 30.2701479858243 3084.38252198807 14 17 10
155.277298870582 32.112180663781 3094.5001116716 15 18 11
145.184311802681 32.0037943542807 3096.0364848907 12 15 8
135.942293083053 32.019619017971 3098.12672279246 11 14 7
132.806903949379 32.8854515750105 3103.9460595134 12 15 8
61.2749430125028 24.324067507102 3068.55084447425 12 15 8
43.9434429317744 23.2773405197847 3066.07790423662 10 13 6
30.9628446863863 22.8391683826825 3066.27939444785 9 12 5
23.2449598839253 23.12595912953 3069.64991480571 10 13 6
6.6692342229584 22.2155084582943 3067.82324713458 10 13 6
14.8699334554023 24.660625417516 3080.57377332516 9 12 5
23.1289278400539 27.0982221068571 3093.26718521845 13 14 8
2.95097460069504 25.7163658765175 3089.41928120626 13 14 8
3.23366731869168 27.0769676138325 3097.43959840605 12 15 8
17.8497581065633 30.3326243567777 3113.61878942714 12 15 8
10.1444172781759 30.6176789432082 3116.97711003706 14 17 10
-15.5359629369958 28.5412785484197 3110.19371908656 14 17 10
-56.6064556942125 24.471883146845 3094.89835357842 14 17 10
-69.8670307463267 24.0691539569452 3095.37262644543 6 11 4
215.700011040054 -0.0616751648768177 2932.97877792127 28 31 20
212.312868494437 0.841292261855253 2939.04295882634 24 27 16
249.346415324376 8.12377539030951 2973.45919437536 19 25 15
246.071560919588 9.01255025718833 2979.41396915081 19 25 15
245.291063195189 10.2894126116073 2987.08517966125 18 24 14
235.395037173084 10.1395834701383 2988.43243072472 17 23 13
240.461166479466 12.318685217189 3000.08354448438 18 21 12
248.912623358262 15.007756739031 3013.96591756515 20 23 14
243.208740715954 15.500398374509 3018.14023581155 18 21 12
218.22067459077 13.0382947442799 3009.30912634545 16 19 10
220.868678993361 14.8198609413501 3019.16950150854 13 16 7
225.236855982872 16.8529219910793 3030.11870551205 14 15 7
218.674842345181 17.219764185926 3033.74650646504 15 16 10
210.414038519227 17.3325429500636 3036.26496301637 14 15 9
215.706124837765 19.4832034520428 3047.6959017263 14 15 9
215.946190722965 20.8658450435283 3055.75529052038 15 16 10
205.136290014069 20.5976492501428 3056.61028003713 16 17 11
200.276632929416 21.2183797138707 3061.34424766967 17 18 10
184.293538665806 20.197638122795 3058.94538921004 15 18 9
183.698813224271 21.4515027863446 3066.43586198804 16 19 10
155.617313646561 18.6782188777668 3056.47150418374 16 19 10
132.601731228812 16.6713380649353 3049.86581114103 16 19 10
134.545644689594 18.3076413984055 3059.02958164581 15 18 7
151.23280904601 22.0653835909563 3077.32902378221 15 18 7
166.282794839026 25.5611092466359 3094.4587778863 16 19 12
168.383598820178 27.1773907907165 3103.46971299681 16 19 12
152.221755412012 26.1796715666346 3101.24529022634 13 16 9
134.264102773528 24.9401236661734 3098.00538042184 12 15 8
137.250204730707 26.6789419855825 3107.53633783288 12 15 8
86.7769646885241 20.8768662454542 3084.8298655936 12 15 8
43.1350999693776 16.0867345365925 3066.52645985411 11 14 7
31.9142660788501 15.8711598883817 3067.78139687065 10 13 6
21.5503678964644 15.7817803164573 3069.58431748572 11 14 7
10.2789807057029 15.5726229416197 3070.88850620651 12 15 8
2.5281254754419 15.8561270247237 3074.29259029603 11 14 7
-9.67656522104088 15.530604376302 3075.12385261366 13 14 8
15.4880930256804 20.3254362217242 3097.60459614228 12 15 8
20.2596342959667 22.3072045284684 3108.16083449716 12 15 8
39.3832735825699 26.2246864700845 3126.85103018045 13 16 9
22.7617325767482 25.2854337054161 3125.07411476087 14 17 10
-11.872792338854 21.9357446420225 3113.20040667046 14 17 10
-16.9306238313593 22.581671900718 3118.12744034426 8 11 4
-66.1871882149887 17.3305853803658 3098.38242101936 7 12 5
259.291285910701 -1.43983322055202 2956.49515645671 28 31 22
255.169709460315 -0.675493350150991 2961.89222086071 28 31 22
237.065625055511 -2.17557531111973 2957.41931746747 22 28 18
233.745099152201 -1.27522135884389 2963.41739549035 21 27 17
228.780084694047 -0.641223666333179 2968.25402366162 19 25 15
219.67309158591 -0.669384622348224 2970.21668019051 16 22 12
222.17492981807 1.1553603079047 2980.21581872367 15 21 11
242.19427963686 5.74611347014326 3002.16811721024 17 20 11
250.6491644292 8.47840452281806 3016.04069849441 20 23 14
254.985182038208 10.5455332018328 3027.01646421543 19 22 13
248.467071493312 10.9017325396473 3030.60224175789 17 20 11
228.498847173979 9.16383253979886 3025.18178762368 13 16 7
236.252558510562 11.7476108320059 3038.35534747609 14 15 7
233.092273675581 12.628148853162 3044.19757037727 14 15 9
207.09797914019 9.99223851836545 3034.97443983461 14 15 9
176.768122524542 6.71888338868215 3023.06591616074 13 14 8
188.817403010477 9.94547425302039 3038.96412720282 14 15 9
196.686013832219 12.5148283125688 3052.02605990522 15 16 10
196.075897105994 13.7846089039867 3059.52946408925 17 18 10
205.754134523104 16.599346156187 3073.59196193798 15 18 9
182.909224501717 14.5144260514428 3066.82798501395 15 18 9
178.034723275914 15.1376470277044 3071.57632500142 16 19 10
167.130727088754 14.8632395191534 3072.52567080786 16 19 10
157.927381560372 14.8481614468075 3074.58207306991 15 18 7
152.166713461898 15.3463310731904 3078.81162523709 15 18 7
166.350707484367 18.7769559049593 3095.39403452667 17 20 13
163.236253651023 19.6519889309568 3101.1915602016 17 20 13
144.449599917107 18.2401670104959 3097.38341344696 13 16 9
135.205652418902 18.2302794683212 3099.47902906516 12 15 8
105.818265691924 15.313463521743 3089.41607900146 12 15 8
71.0617019624773 11.6528632043567 3076.29226264511 12 15 8
31.7806665526885 7.37899603718328 3060.6674075353 11 14 7
19.6542724523066 7.02251413217136 3061.42549594017 10 13 6
21.6215357559206 8.67800360337262 3070.56358184506 12 15 8
20.0816706603799 9.82838177821504 3077.59064036934 13 16 9
13.2384009567366 10.2265824357095 3081.49309798647 12 15 8
-1.60836451627722 9.50281035448453 3080.75611275332 14 15 9
-10.2638119118543 9.65595679668774 3083.66048987801 14 15 9
19.4374843278271 15.1546548594461 3108.61713812684 13 16 9
28.7211865549724 17.78144309284 3121.68228471669 13 16 9
13.8694050674637 17.0581927933935 3120.95020334098 15 18 11
-19.8854565885429 13.7460305861768 3109.61433949474 15 18 11
-25.8606278637838 14.2714129859795 3114.05321229335 15 18 11
-38.1530968233341 13.9358986444967 3114.97345433368 16 21 14
215.018832955685 -14.2329656039549 2934.332799049 26 29 20
213.27510753453 -13.0462805781982 2941.55692775352 24 27 18
229.690890357168 -8.87786422081355 2961.48206762022 19 25 15
218.103288797751 -9.32516242925946 2961.71888751908 17 23 13
219.742399504737 -7.60650208982883 2971.17315933467 15 21 11
232.209933596952 -4.13840855643915 2988.03725369149 15 21 11
251.419394356411 0.396321231056651 3009.38515489893 14 17 8
279.08584259615 6.26048345672808 3036.30875969061 19 22 13
280.978506035089 7.94699516792613 3045.51600144839 18 21 12
267.814579116576 7.21947560265895 3044.52539584793 17 20 11
246.211010841627 5.16043266903032 3037.9421707444 13 16 7
225.373130810271 3.24464411205594 3031.99468012144 14 15 7
238.224554711112 6.66407687559117 3048.48475826389 11 12 6
211.396641082756 3.82674703311126 3038.70228420125 11 12 6
171.750215659069 -0.987550900513334 3020.68598573054 12 13 7
178.688177377879 1.50062289835695 3033.26681799704 13 14 8
186.532904738002 4.11394736453208 3046.345630681 14 15 9
191.87557801539 6.32405623341015 3057.7178871923 15 16 8
203.255141446609 9.4497902988851 3072.87913444305 15 18 9
223.284915200329 13.8801999535101 3093.42787119082 15 18 9
199.591575795949 11.6066071619522 3086.11737360919 15 18 9
185.290282834154 10.7839512753617 3084.85334109209 15 18 9
177.854328396318 11.0120181001489 3087.95257980022 16 19 8
175.599604628863 12.0240577421595 3094.29304061028 16 19 8
153.410181407033 10.0403657631122 3088.28010344936 17 20 13
149.397538861969 10.795085859506 3093.57041667344 17 20 13
124.482587692648 8.43675612534983 3086.06861239852 17 20 13
116.067586162687 8.54903512572452 3088.74026341426 15 18 11
70.8888012679112 3.23716833421983 3069.20599786896 14 17 10
56.2248333061528 2.46091720235425 3068.29491054367 10 13 6
38.8829148329104 1.30394934146033 3065.84860947679 10 13 6
22.3683392164737 0.28222573397102 3063.97766499886 11 14 7
21.693083442599 1.57448859337034 3071.54243035075 12 15 8
28.1148040914947 3.88778603360906 3083.24483496284 14 17 10
15.9695117668734 3.51266416340262 3084.02444456246 13 16 9
-8.64459494769187 1.3568809309617 3077.6108703299 14 15 9
-9.30165210060929 2.64670951406237 3085.15792396712 14 15 9
2.55389915151971 5.71153110586919 3099.85551111232 13 16 9
14.4832224058091 8.76681498501203 3114.4809133966 14 17 10
-7.56863023174681 7.00656576830211 3109.71592687085 15 18 11
-37.4899013494554 5.52949108158512 3108.47213251826 19 22 15
-48.0033832941125 5.42758105749214 3110.42510617388 4 9 2
192.107164199739 -25.1398039656992 2919.01994929293 24 27 20
238.849567415266 -15.7589253981412 2960.48926817891 21 27 17
208.319349591454 -19.4121133896094 2947.41893596 19 25 15
205.774094965144 -18.3552436785107 2954.04127234311 17 23 13
236.382769266656 -11.7866397985896 2983.60706210536 16 22 12
235.601140815852 -10.4675736783567 2991.27349558767 15 21 11
253.985054690418 -5.99233492643853 3012.03272264501 14 17 8
269.141014549019 -2.07937339244907 3030.41248497251 18 21 12
279.373227076974 1.00063851988064 3045.30291702771 19 22 13
269.5586078283 0.793428964465381 3046.57747291988 17 20 11
244.598915372413 -1.86503374929209 3037.74754760951 12 15 6
215.336585299152 -5.1921897896956 3026.20381536694 13 14 6
192.714986673429 -7.41823874456854 3019.23894570828 13 14 6
198.775960849088 -5.02348512409634 3031.28753771324 12 13 7
196.409083981463 -3.98877843524031 3037.73601803007 12 13 7
182.157124598287 -4.8470864188111 3036.42826590448 13 14 8
187.454088865737 -2.59828848445792 3047.84019391138 14 15 9
200.481523253888 0.855978215666908 3064.1503425974 15 16 8
210.168565463563 3.76231185019266 3078.19055925165 15 18 9
225.925273780845 7.59900310922063 3095.98538003431 15 18 9
217.70931148448 7.67536019653792 3098.46435354982 15 18 9
198.280221461854 6.01658196972194 3093.91374624333 15 18 9
178.786291365479 4.36613265763797 3089.42629507863 16 19 8
160.957966529222 2.99025725757401 3086.07810999961 16 19 8
156.081031728609 3.61489069010473 3090.82865780242 16 19 12
133.821640932576 1.58680894502633 3084.89209810703 16 19 12
114.970202880816 0.0980547294953671 3081.15965369731 16 19 12
117.010363425709 1.78841142962821 3090.22019820278 14 17 10
100.708181834459 0.705039490702053 3088.14745491454 13 16 9
69.4495842452536 -2.6099403075468 3077.16733686457 10 13 6
34.5604980773047 -6.43579712217729 3064.19954208681 10 13 6
36.5323748608972 -4.73669948908872 3073.3266014706 11 14 7
33.23974838777 -3.82707213475131 3079.29594218409 12 15 8
16.6865417485242 -4.87838559596848 3077.46773225034 12 15 8
0.970347240515146 -5.79297594565004 3076.2050585985 12 15 8
10.0854337009726 -3.05726648400434 3089.42154462731 15 16 10
11.2493848264164 -1.4987963541519 3097.95442365682 12 15 8
-17.8975491808488 -4.3525354566763 3089.06028707561 13 16 9
-5.11880602175552 -1.11036792678387 3104.23182867543 12 15 8
-30.7973260066876 -3.4326079954432 3097.48292548524 15 18 11
-41.2965074383305 -3.55190333882494 3099.42426806264 19 22 15
-10.9513151057019 3.53872138117328 3132.00870134022 9 14 7
197.923805551667 -31.2442122557944 2924.06520823208 30 32 27
187.774169328562 -29.945524470184 2933.95200155327 19 25 15
238.907473980108 -19.7229789565023 2978.02191466935 18 24 14
248.880009361038 -16.5609474169589 2993.1580875052 18 24 14
253.940239986245 -14.249638419885 3004.79551856864 15 18 9
235.741211356241 -15.8654112908926 3000.43399526054 12 15 6
242.510975379398 -13.2795123721752 3013.1677444372 11 14 5
240.973017120958 -12.0960793107963 3020.18802394626 20 23 14
235.260583599369 -11.6111313140559 3024.37197045863 20 23 14
224.504146282869 -11.9600672279779 3025.18546554896 12 15 6
193.512193812719 -15.6367033130827 3012.57710827755 12 13 5
183.501007279272 -15.8342800562289 3014.04543466385 13 14 6
192.078143055012 -12.9862613835105 3027.7795144226 14 15 9
191.391579655105 -11.6648502986298 3035.3512003193 12 13 7
191.574787465061 -10.2081940117001 3043.45577284095 11 12 6
202.00327869249 -7.10384934234082 3058.14770087518 12 13 7
228.721768724634 -1.39959574178045 3083.20212012792 15 16 8
202.536572903357 -4.21172018423216 3074.19460175234 14 17 8
196.836720420605 -3.72791596114325 3078.36622415641 14 17 8
193.712199076525 -2.83398208633351 3084.17095348113 15 18 9
200.933012146719 -0.305300584125368 3096.46492315353 15 18 9
201.302103580934 1.12779114283462 3104.38873116209 15 18 7
175.737176675378 -1.51692333445158 3096.15778062391 15 18 7
158.752071539887 -2.79411174188243 3093.37458934026 15 18 11
148.666899907668 -2.98178654169545 3094.91492052044 15 18 11
140.30144940607 -2.896408067254 3097.5413425185 14 17 10
120.572510756141 -4.56201026963909 3093.28949791211 13 16 9
106.903162653135 -5.27719005385985 3092.7989592051 12 15 8
56.3680145035219 -11.6298149980012 3070.23533356358 9 12 5
44.2995497964671 -12.0567095057461 3070.94664201846 10 13 6
41.0078077047942 -11.1413279478054 3076.91391621732 10 13 6
34.1942600297385 -10.7614009646051 3080.78989810376 12 15 8
11.4514177178711 -12.7809592511255 3075.33215314686 12 15 8
7.2484522380547 -11.9955399249839 3080.80658468389 12 15 8
23.4838731239058 -8.15504161273989 3098.12513628649 15 16 10
28.2380284700348 -6.05042394392236 3108.68048203901 12 15 8
-3.54837503174288 -9.37823746084337 3098.22637988064 13 16 9
-14.8831660741795 -9.6527147662534 3099.60318382064 13 16 9
-34.3092286532043 -11.1106439747065 3096.43713198041 16 19 12
-86.1269285690533 -17.2991946523326 3075.12284909743 20 23 16
-52.6451527858076 -10.9815756591453 3101.87270207273 18 21 14
-56.8777926813495 -10.1926955033203 3107.37608923412 10 15 8
196.35401906041 -38.6083852824546 2923.87863234543 32 34 29
205.26019004367 -35.5103659654337 2938.66593461075 25 28 21
255.463313768923 -25.2340948319272 2982.23434335438 19 25 15
209.221800942399 -31.7789963256368 2958.26964923293 18 24 14
250.606254322829 -23.1158931341875 2995.24653748932 18 24 14
239.061939198217 -23.6319365785541 2995.45053383437 16 22 12
199.187286429749 -28.9972881129301 2976.32506681266 12 15 6
211.711247401364 -25.3647677680432 2993.10882623316 12 15 6
221.808951137474 -22.1693946560553 3008.11577717214 20 23 14
205.15582886476 -23.5269397177247 3005.01513651854 20 23 14
196.010236540988 -23.6018635411734 3007.02269632855 14 17 8
195.266742731359 -22.2593146038909 3014.64779079833 14 15 7
202.139072351095 -19.6480471598204 3027.27560352243 15 16 10
192.994201338048 -19.7228997516744 3029.28243653223 14 15 9
186.374540527258 -19.3730173269659 3032.9703264689 12 13 7
177.198545341808 -19.4437693158662 3035.00746017467 11 12 6
231.030878097823 -9.132836929786 3077.80104426062 12 13 7
217.692818559683 -9.91715717926039 3076.99175004192 15 16 8
194.049987251752 -12.3737879230519 3069.65815010327 13 16 7
195.191004171522 -10.7735496690106 3078.20796766953 14 17 8
189.484074238263 -10.2910809983258 3082.38647763864 15 18 9
207.031418910812 -6.05460563267851 3101.17790076913 15 18 9
212.593816076338 -3.7739027885294 3112.32153445268 15 18 7
190.515549604333 -5.93203820134686 3106.22433750131 14 17 6
130.205106382697 -14.1645548904397 3076.64130837005 15 18 11
138.307598417047 -11.4611131204065 3089.45117546588 15 18 11
134.274249726388 -10.6941577287272 3094.75990398533 14 17 10
122.389017115751 -11.1655867220894 3095.29584243731 13 16 9
81.6017890708713 -16.1636271518947 3078.4391970523 12 15 8
52.9328838757075 -19.2228843435779 3069.10074627793 8 11 4
42.6142613947551 -19.3962839429321 3070.87078773355 9 12 5
35.7961660246771 -19.0206190942859 3074.75191548999 10 13 6
22.7925900379766 -19.5982010424986 3074.99682764722 12 15 8
9.75504217192968 -20.1714265844955 3075.27483050789 12 15 8
11.753685286426 -18.4316683015425 3084.36930090312 12 15 8
13.7836250928944 -16.6960193324663 3093.43296273337 15 16 10
13.174314748809 -15.3703126420701 3100.92730031501 12 15 8
-4.36824255824897 -16.6134027207702 3098.69262756029 13 16 9
-12.1279325131525 -16.3667182821775 3102.11058874737 14 17 10
3.40037713181074 -12.6199965132983 3118.72826307963 17 20 13
-78.8682073752844 -23.5254013881822 3080.17101251059 21 24 17
-82.2706776518296 -22.5902064228147 3086.24565086292 19 22 15
-83.8612933335168 -21.3885034555201 3093.31551968756 23 28 21
-93.5701253703338 -21.3910639763227 3095.8720274363 11 16 9
193.963846388224 -46.1299100438803 2923.11272142195 29 31 26
219.316515888575 -40.0510035975716 2949.46804712632 21 26 19
260.480554818606 -31.2081952231877 2986.63724984271 19 25 15
257.230868295228 -30.2874256337695 2992.56230373386 17 23 13
215.880849624179 -36.0810152987933 2972.13103379459 16 22 12
210.898486000601 -35.442265324362 2976.9841875584 15 21 11
227.557565670192 -31.022015494902 2996.6305091823 14 17 8
201.770840371793 -34.0196462618479 2987.25505928276 14 17 8
200.137861130119 -32.8014870708961 2994.36456352605 15 18 9
222.82731486145 -27.3890967280038 3017.79503753475 17 20 11
207.842009728248 -28.4934059623526 3015.8346202975 17 20 11
218.913662548935 -25.1215204780165 3031.26524626406 16 17 9
208.960927314818 -25.3579847739499 3032.68127720937 15 16 10
190.526997107459 -27.0285731860131 3028.5611163531 15 16 10
172.032347664282 -28.6912693940096 3024.50042197326 14 15 9
178.968911215127 -26.0498141469981 3037.05998771013 12 13 7
223.434513102931 -17.1251296059006 3073.77240697714 12 13 7
190.446194912871 -21.2161276303954 3060.37355641357 13 14 6
207.808665066085 -16.8854211380015 3079.33463535532 13 16 7
202.977892047773 -16.2653098174276 3084.04001219209 14 17 8
210.17993362421 -13.6577038868894 3096.34129508123 15 18 9
194.180279366408 -14.8835890260287 3093.98920106746 15 18 9
201.439723032875 -12.2833686673836 3106.23423657496 14 17 6
179.336901306522 -14.4917752881884 3100.16885341674 14 17 6
137.213289164677 -19.9327867322209 3081.87090948241 15 18 11
114.04393472744 -22.2565904314777 3075.46441755043 15 18 11
96.020522287942 -23.7271346865985 3072.32428720278 15 18 11
75.3209066071712 -25.6110890605953 3067.65136443316 13 16 9
86.9229461301142 -22.3067748734941 3082.56529557204 12 15 8
44.2375429825535 -27.6756663205819 3064.81455910713 7 10 3
33.8998025314079 -27.8622383084188 3066.60553186302 8 11 4
18.2558210665684 -28.881401085385 3065.28694319289 9 12 5
25.5133935743692 -26.2809006108386 3077.5337953876 11 14 7
8.94391229945279 -27.4336232016962 3075.73673463273 12 15 8
10.9401461095056 -25.6715527774488 3084.82996193615 12 15 8
3.19591562027766 -25.4342915489018 3088.2339643916 15 16 10
3.45347630670378 -23.9536453055915 3096.2614955447 12 15 8
-5.18742927449267 -23.8536497113955 3099.15928810486 13 16 9
-8.47809009595402 -22.9267269328055 3105.12412064104 13 16 9
-1.00758467928141 -20.3538366295313 3117.16360808077 16 19 12
-102.894752965483 -33.0088275487281 3075.67425098014 21 24 17
-95.5111530158916 -30.4249372038375 3087.79841103203 7 12 5
-51.9216386174017 -22.3972391966368 3119.845397232 0 4 0
217.835660319167 -48.8787657490153 2940.90734776279 22 24 19
216.920085341046 -47.4870749617575 2948.69572039076 21 27 17
287.760517563829 -33.1226238821865 3006.59218118914 19 25 15
249.035943565841 -38.606573014363 2987.75944477993 16 22 12
228.37847718931 -40.8000295203552 2981.67350209034 15 21 11
212.630513510024 -42.0936889513013 2979.08149262216 15 21 11
208.485207164987 -41.3068700577721 2984.49846093054 14 17 8
217.692489520319 -38.1542295560893 2998.97868216491 14 17 8
187.666391836451 -41.9495480115508 2986.845667333 13 16 7
224.573992469306 -33.937933440934 3019.86263253311 15 18 9
236.474497560281 -30.365818693279 3035.85751146262 18 21 12
224.877738855235 -30.9170171666891 3036.11844311425 16 17 9
201.436241677651 -33.5173927493346 3028.6064986743 15 16 10
199.902520958744 -32.3003509466134 3035.61760288667 15 16 10
186.51617809391 -33.1315678061601 3034.86318602362 14 15 9
192.635547608097 -30.6019577787088 3046.83385887612 13 14 8
199.657690720866 -27.9332268177879 3059.30441150429 12 13 7
213.563699407425 -24.1081646333336 3076.10456667334 11 12 4
195.90112465362 -25.6652274775316 3072.61856873732 12 15 6
202.190182284281 -23.1572452087009 3084.42393535499 14 17 8
209.389751770216 -20.5111322788191 3096.72164390687 15 18 9
173.578145016474 -25.0930270098372 3081.9478491466 15 18 9
155.756676090619 -26.629511552982 3078.6169318504 14 17 8
158.642216206748 -24.704509119128 3088.21989288339 13 16 7
148.556960704493 -24.9391403117853 3089.7675853241 13 16 9
121.93710622285 -27.8960343746728 3081.21308631037 13 16 9
140.51246878072 -23.395321097074 3100.36152755357 12 15 8
142.607776696891 -21.6237434615515 3109.35530548535 11 14 7
85.2452670170956 -29.5587079206396 3082.46893179179 10 13 6
47.817814508563 -34.1879719915528 3067.88978760265 7 9 4
23.4289675774697 -36.6661770345692 3061.30051871993 7 10 3
15.6876542626807 -36.4367873453818 3064.70278778813 9 12 5
13.2309602581371 -35.3558777184182 3071.23362907559 11 14 7
10.7864719355648 -34.2765822269375 3077.75225066694 12 15 8
-7.60112501498833 -35.7403705385692 3074.97276239691 13 16 9
-5.61410624351266 -33.9550840711846 3084.07170904883 15 16 10
-8.93705013027724 -33.0180619367487 3090.0671064657 13 14 8
4.70000503150736 -29.4135881552525 3105.74969217062 12 15 8
-3.04032836933121 -29.184543132888 3109.15103911138 12 15 8
-29.6085790379133 -31.8932272750119 3101.92585859026 14 17 10
-41.9011721825981 -32.3548013120006 3102.86485551621 18 21 14
-62.0681949776589 -32.5704565523791 3107.33552716255 10 15 8
-71.7306156338511 -32.6049027020472 3109.85066040626 14 19 12
259.766154444677 -46.5737777803014 2979.69864545828 21 24 15
235.885095381831 -49.4351806234282 2971.2445250237 19 22 11
235.883064581391 -47.8888894010767 2979.52013206149 16 19 10
231.763156703812 -47.1023386888181 2984.91191895331 17 20 11
233.460473396466 -45.2586073056804 2994.29024376105 17 20 11
226.034615484096 -45.0782291458988 2997.38650483399 14 17 8
218.597999654696 -44.8963768420863 3000.49323079973 14 17 8
233.726532115253 -40.6536315341302 3018.85148704117 11 14 7
218.777886799012 -41.8265140132256 3016.86480115937 13 16 9
239.904684834211 -36.5497354581648 3039.03324010221 18 21 14
235.051691083121 -35.92621843068 3043.76017909311 16 19 12
229.355685106466 -35.4520687733207 3047.92940880036 16 19 12
212.660727119112 -36.9159252446221 3044.88568656777 14 17 10
187.435146879799 -39.861378892624 3036.36220889164 12 15 8
181.660459812863 -39.3769711628916 3040.60805394604 11 14 7
178.437511025058 -38.4470431185571 3046.50486541287 12 15 8
191.441074642145 -34.7040024910273 3062.79637530907 12 15 8
192.549633469213 -33.0416045310832 3071.36889922182 11 14 7
170.535503369761 -35.3683679828391 3065.23293705491 14 17 10
185.397457462031 -31.3484842554462 3082.47193908337 16 19 12
175.371534090349 -31.6065479777708 3083.96383931699 15 18 11
91.0858600279867 -44.4925462181993 3039.20018773856 14 17 10
111.994724597431 -39.4450582550309 3060.20167972417 13 16 7
157.299016419319 -30.3140686567409 3096.05111353316 13 16 7
198.482860087881 -21.9426281233974 3129.01925201733 12 15 8
160.615441589361 -26.8724218513319 3113.50417155249 14 16 11
104.271651281615 -34.841624560587 3087.02850202118 13 15 10
40.7024702506966 -43.944667495623 3056.55938315335 10 12 7
32.1100934013838 -43.8712371597529 3059.41291229895 6 8 3
35.8044012414882 -41.7675605477072 3069.60359422044 9 11 6
16.6424010033253 -43.4294807247552 3066.20513650626 9 11 6
14.1875416485946 -42.3401929358858 3072.73291767066 11 14 7
4.66916167428355 -42.4056693528935 3075.10926480593 11 14 7
-14.6180112198975 -44.0515736524327 3071.83273824986 11 14 5
-8.20495532331922 -41.5239747192436 3083.51207342201 14 15 7
21.4052343718967 -35.2746447691151 3108.44858659316 12 13 5
17.2640137944762 -34.4844178202562 3113.8613318068 12 13 5
3.29205458132309 -35.2667227632247 3113.68121147473 13 14 6
-5.3418990359404 -35.1883180791428 3116.57495391703 17 18 10
-55.2963276148342 -41.6586760099807 3096.28622251863 18 19 11
-24.453700577765 -35.3102218054616 3121.40116598675 12 15 8
-32.2340994930386 -35.0838655468634 3124.84269597373 14 16 11
-58.100208496489 -37.6893750386961 3118.32193854904 11 13 8
222.9034604527 -61.9670031893544 2946.31151468243 29 32 25
214.596299264768 -61.9420466572091 2948.88864702504 20 23 14
220.291038546149 -59.2878183214935 2961.26256544437 18 21 10
230.995709637879 -55.7142566169334 2977.02780203549 17 20 11
245.088416934184 -51.5339761352007 2995.00697093366 18 21 12
241.834699528205 -50.5949782566251 3000.93333341764 16 19 10
246.911860922644 -48.1215017592504 3012.52998369123 13 16 7
247.031510226022 -46.5738178428885 3020.6845547476 14 17 8
234.633394508916 -47.3249230466978 3020.35388256817 10 13 6
233.096193693014 -46.0851358595405 3027.3654186524 11 14 7
246.69492262369 -42.1014247750316 3044.44692108133 16 19 12
235.963961484507 -42.5455620309169 3045.24952650974 16 19 12
224.362992431853 -43.1382875343019 3045.52111461766 15 18 11
204.273725947679 -45.2452076791516 3040.27506031675 14 17 10
200.222828743833 -44.4635664074533 3045.59938204455 13 16 9
174.93469874324 -47.4652649672654 3037.14599233744 13 16 9
172.547962185912 -46.3763832147613 3043.60618656898 13 16 9
173.587805114345 -44.6858038423785 3052.24278118443 11 14 7
187.487661627402 -40.7403183297713 3069.0312470374 10 13 6
174.036535145112 -41.6159536359825 3068.34772629118 13 16 9
184.608838825662 -38.2848282371416 3082.86299049876 15 18 11
165.107316367136 -40.2063509789968 3078.42314319644 16 19 12
124.824244001709 -45.7091365561248 3061.14080272328 15 18 11
75.7320536132071 -52.6848614201585 3038.6533019079 15 18 11
130.4911827471 -41.7466535645473 3080.4338524496 13 16 7
197.683591452001 -28.7592478799762 3129.40352169347 12 15 8
118.882019826229 -40.7738978768917 3088.98433134373 13 15 10
39.9020365014895 -51.2015637939305 3057.00988248484 9 11 8
24.2940069262008 -52.3208195654352 3055.6700489158 7 9 6
18.3056832757957 -51.8108063484067 3060.12425377588 9 11 8
28.1643821641815 -48.6483990774348 3073.95616523899 9 11 6
22.2045459494833 -48.1420803497702 3078.3826276982 11 14 7
10.9347933240218 -48.5164680484417 3079.70961424119 11 14 7
-8.33830282951453 -50.2067207332316 3076.42600178754 11 14 5
-6.35372781983756 -48.3770027664283 3085.52080817484 15 16 8
21.4787089823432 -42.3147163658769 3109.41614472629 13 14 6
8.41596251260635 -42.9797033298262 3109.73307031302 13 14 6
18.5648080198169 -39.8549203470673 3123.28242274784 15 17 6
19.8199214928416 -38.192157388843 3131.7093617841 17 18 10
5.8377030056973 -38.9997197014345 3131.54316209096 18 19 11
-9.98214797424213 -40.092168823733 3130.40970829699 12 15 8
-40.2760688062789 -43.4924687361674 3121.31841871965 14 16 11
-41.758971822917 -42.2596168069004 3128.27672347264 19 21 20
199.178728054648 -73.533946788389 2930.48670309033 26 29 22
204.798673147148 -70.8346575433334 2942.92823326216 23 26 17
199.751816507863 -70.1860523613458 2947.84397294858 18 21 10
244.289985361108 -60.1175306530842 2987.14942998983 18 21 12
244.331315555807 -58.543403128393 2995.37786472513 19 22 13
243.566315258597 -57.1288120631894 3003.01332981797 16 19 10
260.29830576055 -52.4354110614654 3022.54687828354 13 16 7
262.951257377039 -50.4070500856095 3032.36586462958 12 15 6
254.770800158054 -50.4079716605449 3034.82134067291 10 13 6
242.385465547879 -51.1844820474512 3034.48173154032 10 13 6
226.606302904034 -52.5775807060039 3031.93540017957 14 17 10
221.722411151154 -51.9491512821876 3036.69229529297 16 19 12
218.527160987616 -51.0112144640946 3042.56075576517 15 18 11
225.489540378295 -48.2202402266864 3055.07258714997 14 17 10
207.923558247083 -49.9098354806027 3051.5102595441 14 17 10
203.045021232349 -49.2818157468938 3056.26189787538 14 17 10
176.878116637204 -52.4978958041037 3047.2962583473 13 16 9
158.296844546684 -54.3199902684047 3043.34480268747 10 13 6
167.02860627568 -51.2297610020789 3056.88953796889 9 12 5
187.826288690454 -46.005325894137 3077.97528276694 12 15 8
182.961568404568 -45.3789005565721 3082.71343653329 14 17 10
183.265204277971 -43.8374133065551 3090.68622207038 16 19 12
152.518601683191 -47.7806654480639 3079.29054380022 15 18 11
112.140700939123 -53.3812980605068 3062.11649321596 15 18 11
127.09547805599 -49.2482938868088 3079.24660145626 13 16 7
153.436356612298 -43.1570096455695 3103.20188220924 12 15 8
172.949953113545 -38.2939064622396 3122.78232936692 12 14 9
121.000571021866 -45.8288888553821 3098.96365437327 11 13 8
51.348569448622 -56.3526063044384 3064.8258003893 9 11 8
28.7525743585446 -58.7111578462867 3059.27233702545 8 10 7
10.4731331086749 -60.3084809732513 3056.4048470912 9 11 8
27.3584815575525 -55.8972498303962 3074.41090411262 9 11 6
18.7490332684028 -55.8422491930192 3077.28377150974 11 14 7
16.3158719675787 -54.7386400555532 3083.78788949679 11 14 7
7.69068934191264 -54.6816099241332 3086.67641920632 11 14 5
18.5924417487122 -51.3439112474626 3100.86390227297 15 16 8
5.52910719186084 -52.0326049572619 3101.18457784359 14 15 7
3.13718981927558 -50.934445889802 3107.64854551817 14 15 7
-9.9712131902896 -51.6174285206152 3108.01313063359 14 16 5
-3.40216694119366 -49.0391006133344 3119.53006735951 17 18 10
-8.45519758784308 -48.3887293717741 3124.45167690368 17 18 10
-81.8943654753146 -58.9521388615865 3091.2462450432 13 16 9
-109.63664862409 -61.9657271821254 3083.814713675 15 17 12
-60.6620744817583 -52.46761521813 3118.79906099317 7 9 6
192.687626073664 -81.8876984053873 2926.83085608658 26 29 22
219.676708446765 -74.9856126240827 2954.2736905489 20 23 14
203.122747741785 -76.5804035169013 2951.10964582289 18 21 10
213.785784162767 -72.8980290990391 2966.90014378604 17 20 11
228.66484374961 -68.4279098454088 2985.47252450909 19 22 13
237.826067463288 -65.0841828673023 2999.97024015773 17 20 11
234.571349091647 -64.1332208091844 3005.89582831489 15 18 9
253.012315711105 -59.0570142125905 3026.50957836817 15 18 9
241.464563967512 -59.6991272915361 3026.7356203636 13 16 9
226.53448072783 -60.9701594161451 3024.74500854012 11 14 7
229.197620989082 -58.9181095828382 3034.55037620851 13 16 9
224.319571171471 -58.2899596193818 3039.30151149795 14 17 10
229.56813255695 -55.7723241262821 3050.72177020839 17 20 13
227.252079631803 -54.6756519529272 3057.11028528549 16 19 12
230.882581401511 -52.4817420656674 3067.35132898144 14 17 10
187.823799223623 -58.9119681066144 3047.29407172524 14 17 10
173.544169179831 -60.000173341046 3046.04743784598 13 16 9
164.344008896011 -60.1456276287468 3048.11994666078 10 13 6
167.956441710611 -57.9492499182024 3058.37823051106 10 13 6
164.749654833619 -57.0036080184608 3064.25700830257 12 15 8
189.048107003709 -51.08416342605 3087.43168999729 13 16 9
172.140935027672 -52.6320971572097 3084.61146381684 14 17 10
164.674906459863 -52.4684880560289 3087.750093404 15 18 11
157.198078131005 -52.3034732467469 3090.8992395505 15 18 11
125.434227033637 -56.4621991538076 3079.12830384984 13 16 7
133.522656818371 -53.5114236780989 3091.91557915373 12 15 8
100.738907105629 -57.8048835626832 3079.76042216032 11 14 7
94.8892749757127 -57.3170721216482 3084.08018570312 10 12 7
50.5483523365573 -63.5817573003247 3065.27164601133 9 11 8
33.2109799470781 -65.0741601195841 3062.87040775643 8 10 7
35.1491040555745 -63.1942564633059 3072.00392315228 9 11 8
7.18150944321261 -66.5111217473288 3063.42438212517 9 11 6
10.8821662951817 -64.3259692739634 3073.59671728731 11 14 7
19.9281668635467 -61.232574627075 3086.82860307207 11 14 7
20.1738688535635 -59.6670220015987 3094.8553609598 11 14 5
7.11988911013428 -60.3805693138068 3095.17075825598 15 16 8
-6.85836221760328 -61.2412761697176 3095.00847385519 14 15 7
-25.335189009136 -62.8533280220167 3092.33916758088 14 15 7
-34.0348102365327 -62.7972037822888 3095.30174981273 14 15 7
-30.2061280404056 -60.628869079298 3105.34943957467 16 17 9
-46.0915565472457 -61.7764720852265 3104.28925695424 16 17 9
-76.4192304892148 -65.3221060524133 3095.25296502385 13 16 9
-64.4735716326252 -61.8042882649725 3109.79378350391 16 18 13
-66.0086401188735 -60.542199573514 3116.79990600068 7 9 6
182.915378404802 -90.9366801750078 2920.8683526972 26 29 22
218.927285920454 -82.1338472904881 2954.65747484022 21 24 15
235.348139838726 -77.2596531684611 2974.47326538861 19 22 11
211.379724008466 -80.3562234113629 2966.14064915443 17 20 11
219.626203350565 -77.1172773664386 2980.1452967449 19 22 13
226.274978088704 -74.2101530318004 2992.95137525195 19 22 13
226.321721237518 -72.6032430869558 3001.16958961641 16 19 10
231.397025880344 -70.0309661230755 3012.753481006 17 20 11
235.683879271984 -67.625783366855 3023.72844111867 15 18 11
229.120365539949 -67.3179641341705 3027.36645525555 13 16 9
229.269361906124 -65.7238858632847 3035.48502717939 12 15 8
233.65156327479 -63.3307986499151 3046.36675521533 14 17 10
240.608713962341 -60.4627252057749 3058.87272139253 18 21 14
233.243612148527 -60.3201688723358 3061.91424081089 17 20 13
193.657160946386 -66.2432573061513 3044.0019279613 14 17 10
185.347526089689 -66.2476927707958 3046.58619865984 13 16 9
190.647530499161 -63.7036526252969 3057.9514710909 13 16 9
190.873908921423 -62.119139647742 3065.99427739332 11 14 7
182.570650695469 -62.1242757925658 3068.57231956349 11 14 7
185.397871922037 -60.0680998383343 3078.21414256889 12 15 8
156.468371951672 -63.8685735162942 3067.82677057185 13 16 9
165.323574371758 -60.7069121492068 3081.23836978893 14 17 10
163.020872293961 -59.6029433541681 3087.61288668174 14 17 10
139.104369011201 -62.4359829221867 3080.60668011955 14 17 10
131.576542173397 -62.2718935973257 3083.80694316751 13 16 7
106.659510351783 -65.244821614809 3076.39804236895 12 15 8
97.3294064385755 -65.3863533121971 3078.59866952952 11 14 7
51.3246368441509 -72.0950967104673 3058.67416743598 9 11 6
46.2499940204712 -71.440526689927 3063.61661761373 9 11 8
47.3125196733606 -69.6945898614327 3072.22250614065 8 10 7
43.1313017152948 -68.8863049430625 3077.67196254254 9 11 8
22.2256760559638 -71.0316566152472 3073.24258297552 9 11 6
19.7818985602058 -69.9095197248064 3079.75450460728 11 14 7
23.540852742955 -67.7044729584583 3089.86600929034 11 14 7
14.931082860282 -67.6700856105826 3092.74224266976 11 14 5
0.0892406654768863 -68.7147749013856 3092.04779997201 13 14 6
