ply
format ascii 1.0
comment KinectMotionCapture
element vertex 775
property float x
property float y
property float z
property uchar red
property uchar green
property uchar blue
end_header
-1256.75588515172 -78.8237948445851 2620.92039483667 170 175 169
-1256.94503167084 -78.8712063460666 2613.47698681092 131 133 128
-1251.11971919908 -78.6472661192456 2606.72320727182 156 157 152
-1247.30004075866 -78.5140143278317 2599.71057612647 21 22 17
-1240.47388422347 -78.2453492270619 2593.00378518412 3 5 0
-1242.66882548692 -78.3836194907978 2585.29506144842 104 106 101
-1240.85481364121 -78.3412079652335 2578.01281819628 134 136 131
-1232.02695499828 -77.9829187431487 2571.42871246233 125 127 122
-1225.20421355563 -77.7152409962907 2564.59671251663 116 118 113
-1241.42642946627 -78.4853870752961 2555.51728314197 86 91 85
-1285.69866052219 -80.5176325611897 2543.91272592664 64 69 63
-1324.95577425245 -82.3230056262958 2533.00046640993 81 86 80
-1339.16457493685 -83.0006236522849 2524.49530472118 79 84 78
-1345.35841136768 -83.3174912990157 2516.74611299574 93 97 96
-1348.54669592694 -83.4991315884049 2509.27568658932 123 127 126
-1345.72552135762 -83.4106912360745 2502.29811193514 189 190 192
-1343.90615120533 -83.3674008506395 2495.22623351804 202 203 205
-1337.08038187583 -83.0993933953378 2488.5129278952 186 187 189
-1332.2580555829 -82.9215892171461 2481.61759846971 174 174 174
-1322.43044357446 -82.5193531507118 2475.03701769126 173 173 171
-1194.82001000204 -82.5077059388366 2847.41786817386 16 21 15
-1206.06211841966 -83.0288533642941 2837.69551319014 13 18 12
-1190.18151517851 -82.3887198140259 2833.27461380119 9 12 5
-1177.31644468788 -81.8780981577439 2828.19099859241 7 10 3
-1203.623023591 -83.0434726871138 2815.67428113164 12 15 8
-1229.92604107686 -84.2079628360981 2803.29770577447 15 18 11
-1214.04840725289 -83.5686198291873 2798.75990245079 21 24 15
-1241.35128495129 -84.7749889686218 2786.3685216997 12 13 5
-1244.55268581469 -84.9510208030945 2778.39148661721 21 22 14
-1250.76575218865 -85.2556024836549 2769.90391382208 22 25 18
-1229.87172628419 -84.4028251870231 2766.10312598954 19 22 15
-1245.11971683269 -85.0930602653535 2756.07743909441 19 22 15
-1244.30507065115 -85.0976471182854 2748.80354709563 24 27 20
-1247.5054670291 -85.2735053099134 2740.86595722811 11 14 7
-1263.75310066413 -86.0055534552773 2730.84334654778 6 9 2
-1271.96967748673 -86.3948908752876 2722.17696439938 18 21 14
-1274.16423562082 -86.5274661139387 2714.48932956511 19 22 15
-1277.36193367459 -86.7027372265504 2706.6578299145 11 14 7
-1283.56918666353 -87.0060869344971 2698.38946235429 18 21 14
-1268.70634281057 -86.4125295072675 2693.2584771499 28 31 24
-1261.87147922938 -86.1609956502984 2686.88291830607 10 13 6
-1258.04717247978 -86.0377464870436 2680.04043746542 8 11 4
-1252.21714510323 -85.8293713569386 2673.45422013652 14 17 10
-1251.40305113142 -85.8343946813984 2666.14895243103 10 13 6
-1252.59540031617 -85.9247357147455 2658.56830116353 3 6 0
-1257.79895218273 -86.185450207272 2650.46566703521 0 3 0
-1260.99632874871 -86.3608795580738 2642.64656233698 0 2 0
-1256.17133627855 -86.1957491996979 2635.85115297019 6 9 2
-1258.36564212 -86.3286330058334 2628.16372250252 10 13 6
-1254.54416549623 -86.2063323645246 2621.20961209042 0 2 0
-1254.73343818834 -86.25425385805 2613.7607251969 16 19 12
-1252.91768059903 -86.2172256719707 2606.54093143654 46 48 43
-1252.10481247059 -86.2227923039637 2599.19649495201 0 1 0
-1254.29916935497 -86.3558091213678 2591.51625152079 7 9 4
-1238.45220095599 -85.7248927066016 2585.77088933175 2 4 0
-1240.6470740219 -85.8581600978476 2578.06087790283 20 22 17
-1235.82701556914 -85.6945871427018 2571.07095782411 1 3 0
-1219.98479109465 -85.0649899634921 2565.13877013906 9 11 6
-1237.21072063234 -85.8341588782752 2555.94927100898 0 1 0
-1293.50953068366 -88.2544430909259 2543.21361479713 9 11 6
-1327.7598665477 -89.7414735849218 2532.77525640531 96 98 93
-1337.96240735827 -90.211776291095 2524.62923605566 107 112 108
-1341.15158003935 -90.3856892461951 2517.13239578797 115 121 121
-1345.34193913933 -90.6018192608537 2509.56855439551 100 106 106
-1344.52375158675 -90.6065405076395 2502.42360235517 95 99 100
-1343.70596612085 -90.611353180671 2495.272161996 87 91 92
-1333.87531470638 -90.2362167957461 2488.7812741834 124 126 125
-1322.04324117598 -89.7770613180213 2482.37746070544 152 154 153
-1307.20917514688 -89.1918255759983 2476.11280326804 141 143 140
-1173.51087145283 -89.266461580883 2851.65911788913 11 16 10
-1180.73675061938 -89.5973745682228 2842.66720190719 19 24 18
-1188.96642915729 -89.9683262295327 2833.51782533751 11 14 7
-1185.14097517638 -89.8560852314338 2826.70836255084 14 17 10
-1225.51089445112 -91.5139675265885 2811.5703334677 10 13 6
-1237.75312662309 -92.0446088039551 2801.85764563114 8 11 4
-1219.86527771748 -91.3691073341231 2797.70851193191 17 20 11
-1217.04314344474 -91.2968623277029 2790.75105649709 13 14 6
-1235.30856993235 -92.0680297786927 2780.04043152773 33 34 26
-1227.465589016 -91.7949764347869 2773.9805345668 18 21 14
-1271.83229773439 -93.6085365379191 2758.90894574711 14 17 10
-1220.81838042813 -91.6107096706069 2760.19854228788 17 20 13
-1235.06330666172 -92.2203050788867 2750.35450643895 19 22 15
-1309.53491837579 -95.2335717856153 2730.72897035504 17 20 13
-1310.72328727641 -95.3205092758547 2723.29821205436 22 25 18
-1290.83461071826 -94.5667324990634 2719.20675176618 9 12 5
-1278.9774249379 -94.1338118742599 2713.75624304566 14 17 10
-1285.1855987969 -94.421317271731 2705.47822188175 17 20 13
-1281.35838004898 -94.3088296382747 2698.73799712097 12 15 8
-1280.5419437778 -94.3164041428985 2691.53086011644 8 11 4
-1260.66226782442 -93.5650560842645 2687.07569245533 18 21 14
-1263.86045206312 -93.7328004531754 2679.23327265085 20 23 16
-1260.03600232294 -93.621100649451 2672.38397956449 11 14 7
-1250.193411982 -93.2702107368467 2666.33367236283 12 15 8
-1253.39183733135 -93.4380849421072 2658.48168971093 18 21 14
-1273.6404224979 -94.2834595432644 2648.40832410124 14 17 10
-1272.82532950637 -94.2915267100205 2641.14815809169 15 18 11
-1270.00464167001 -94.220013771257 2634.1333848743 6 9 2
-1254.14841487155 -93.6311853975516 2628.70468211299 15 18 11
-1241.30255550049 -93.1623217931504 2622.82539322063 9 12 5
-1241.49271740886 -93.2109470445752 2615.34099703438 6 9 2
-1250.70600784585 -93.6173737733186 2606.81873148784 9 11 6
-1265.93282051936 -94.2619061077 2597.66982139785 21 23 18
-1246.07302233112 -93.5159019765836 2592.4413487048 12 14 9
-1253.27945757434 -93.8424824560791 2584.21402051765 14 16 11
-1248.45772895568 -93.6927043746696 2577.27456443514 4 6 1
-1242.634346801 -93.5034682797004 2570.4080787932 17 19 14
-1221.77982428738 -92.7198240138365 2564.98913187559 2 4 0
-1240.00889189433 -93.4823939145824 2555.70876930378 24 26 21
-1305.3298211237 -96.1059675569858 2542.14059578509 0 1 0
-1332.56814344754 -97.2228066327424 2532.36839319139 110 112 107
-1337.76188599509 -97.4681211808125 2524.67500129366 97 102 96
-1338.94759409594 -97.5550723946193 2517.34822153011 87 96 95
-1343.13838528201 -97.7606396789151 2509.7788341628 93 99 99
-1342.3204909306 -97.7685105933698 2502.62836572244 96 100 99
-1338.49798086754 -97.6579555113158 2495.70203422076 131 135 134
-1326.66378214701 -97.2317136233966 2489.34594045716 122 124 121
-1313.8299040849 -96.7664824248865 2482.99448030797 109 111 108
-1298.99501164144 -96.2228643122513 2476.70811141351 104 106 101
-1172.10093692574 -96.8418376506769 2859.52222624713 8 13 6
-1177.31819152657 -97.0792216383906 2850.90909229371 16 21 14
-1168.46912403789 -96.7908293694364 2845.078851758 10 15 8
-1188.75577552463 -97.591028878855 2833.56622802077 14 17 10
-1196.98473308182 -97.9404318069423 2824.45884245718 14 17 10
-1195.16782121862 -97.9146606249412 2817.28139960345 13 16 7
-1171.25332340897 -97.0645507257511 2814.18511813388 14 17 8
-1185.50844759013 -97.6386321188114 2803.9899681686 13 16 7
-1204.78279659656 -98.3994157258269 2792.96646728903 15 16 8
-1218.02938215884 -98.9350326224313 2783.11231389214 19 20 12
-1255.37419057092 -100.367867929655 2769.12324944592 18 21 12
-1241.50497112704 -99.8927704178953 2764.12962416173 20 23 14
-1270.81083950289 -101.024983410647 2751.75970064848 22 25 16
-1277.02184361695 -101.297153446175 2743.3875292428 20 23 14
-1304.31348825058 -102.353085851701 2731.59670295549 15 18 9
-1279.40333719656 -101.467773749641 2728.3529597574 17 20 11
-1269.55246903473 -101.142799586022 2722.58902734818 16 19 10
-1270.74383740523 -101.228274912269 2715.05193412124 17 20 11
-1272.93839459599 -101.350984884469 2707.36560393114 15 18 9
-1262.08696497326 -100.989503686655 2701.64744092617 16 19 10
-1262.27515023645 -101.037908420915 2694.24053565525 18 21 12
-1255.43961499206 -100.825888971173 2687.84880020899 16 19 10
-1268.67163446406 -101.357922428486 2678.56778770108 17 20 11
-1276.88547555116 -101.703659160754 2670.05514263354 18 21 12
-1268.04429307145 -101.417536784749 2663.91429139595 19 22 13
-1274.250826927 -101.688779909498 2655.70850363597 20 23 14
-1282.4629981017 -102.034086452415 2647.27091122254 17 20 11
-1286.66197760245 -102.230724548208 2639.39108362646 16 19 10
-1260.77308824281 -101.314791612561 2635.31521559932 15 18 9
-1261.96455510721 -101.400543230771 2627.76465144011 14 17 8
-1241.09505583676 -100.671278375811 2622.8726596382 12 15 6
-1237.27444044589 -100.572271214469 2615.85987851606 11 14 5
-1250.49916347502 -101.102611605224 2606.86585415608 13 16 9
-1242.66809184282 -100.85566987355 2600.30313968839 13 16 9
-1252.88321762927 -101.27458943674 2591.72042614634 13 16 9
-1249.06307509999 -101.175794441993 2584.68893614698 14 17 10
-1257.27188848351 -101.520433992373 2576.38329400999 16 17 11
-1248.44053038012 -101.237164085841 2569.84608456203 7 8 2
-1225.57945955854 -100.437615540841 2564.64142488017 13 14 8
-1240.80313487935 -101.040529678702 2555.65981981633 15 16 10
-1305.12690148362 -103.449395548774 2542.18659086448 0 1 0
-1331.36532361482 -104.455746968169 2532.50442292662 164 165 159
-1338.56323948281 -104.761410303587 2524.63252065418 171 174 167
-1342.75457698496 -104.95641901046 2517.05311834919 153 159 155
-1346.94538254094 -105.151312356459 2509.49463020886 140 145 139
-1344.12356783006 -105.088663570206 2502.51438150741 134 137 130
-1339.29901745905 -104.952643863171 2495.67043659887 127 130 123
-1327.46383160733 -104.559648558257 2489.31722572156 140 141 133
-1316.63202890426 -104.203850250245 2482.8258728557 142 144 133
-1139.73145861454 -103.391503414971 2866.04661884136 30 35 28
-1187.15530605349 -105.07913939284 2848.9604762866 19 24 17
-1194.38148330521 -105.372741130952 2840.00629683789 67 72 65
-1198.59230855251 -105.56172197034 2831.67171820279 23 26 19
-1195.77010353066 -105.507158121229 2824.6980432232 15 18 9
-1189.93458462441 -105.348445966007 2818.27312962138 13 16 7
-1181.08637391906 -105.085749245892 2812.37248833548 13 16 7
-1181.27948347869 -105.135870096581 2804.7712818673 13 16 7
-1227.6737884048 -106.782286903461 2788.85932336364 17 18 10
-1237.90681884239 -107.178450709054 2779.60126740937 21 22 14
-1254.16394884306 -107.782264304892 2769.34519424542 20 23 16
-1264.39386818536 -108.177633609099 2760.20958374701 23 26 19
-1273.61841413168 -108.538030689493 2751.29683699594 23 26 19
-1294.88992342603 -109.31346086163 2740.42731566199 21 24 17
-1257.92914343016 -108.081704351996 2739.20064111665 16 19 12
-1245.06678073144 -107.681115155972 2733.89305163839 17 20 13
-1249.27114614452 -107.868499992944 2725.81265936762 14 17 10
-1251.46763723307 -107.986680732131 2718.06493368226 15 18 11
-1252.66003861767 -108.070282259842 2710.48015383748 15 18 11
-1255.85965371914 -108.222877636153 2702.59807678099 14 17 10
-1249.02347223606 -108.030524310643 2696.210482612 16 19 12
-1250.21597652138 -108.114181367382 2688.62162142807 17 20 11
-1256.42551375232 -108.370080211575 2680.32425164832 17 20 11
-1263.63751613963 -108.66020890855 2671.91847930116 18 21 12
-1259.81274300807 -108.571554725529 2665.05708085748 19 22 13
-1264.01402467793 -108.758231118018 2657.09797262724 20 23 14
-1274.2335900489 -109.151050215887 2648.36976941177 19 22 13
-1262.38469897544 -108.78762236757 2642.52978360818 19 22 13
-1258.56130953215 -108.699377824837 2635.61386599364 18 21 12
-1249.72379646994 -108.439677293782 2629.29190667843 16 19 10
-1242.89336000174 -108.248939732108 2622.67804254321 13 16 7
-1224.03048157811 -107.647024448991 2617.4399422748 12 15 6
-1230.23813619075 -107.902555253881 2609.21654691242 16 19 12
-1240.4555024899 -108.294899556373 2600.57480084045 15 18 11
-1236.63556875567 -108.207640667569 2593.52276382529 15 18 11
-1240.83613761234 -108.394264207358 2585.59157155307 15 18 11
-1253.05554161877 -108.854339384625 2576.84685594992 16 17 11
-1243.22147771734 -108.562077340083 2570.4003558658 30 31 25
-1235.39351477633 -108.33852602588 2563.70035293643 3 4 0
-1249.61546928027 -108.866417340289 2554.84185942419 10 11 5
-1299.91310063808 -110.622292669619 2542.69882617311 22 21 16
-1330.16211919049 -111.694253579236 2532.64018240788 115 114 109
-1337.36086471608 -111.981138334733 2524.76534202362 105 106 100
-1340.55068947107 -112.131504236853 2517.26829946068 146 149 142
-1342.73808179138 -112.247731201938 2509.86895818194 146 147 139
-1334.90739565691 -112.023582436617 2503.27602858398 144 144 134
-1328.07951341191 -111.833764020247 2496.5613496502 147 147 137
-1317.24577009611 -111.50823288948 2490.10401930037 154 152 140
-1316.42979759282 -111.522915579169 2482.87112441821 164 164 152
-1143.53720796164 -111.272208873007 2865.28502814651 28 33 26
-1169.86083469453 -112.157919630362 2852.40230386053 47 52 45
-1212.2587466937 -113.555890341406 2836.50801528983 31 36 29
-1201.3968424717 -113.253367917462 2831.13593052022 24 27 18
-1205.60722977447 -113.431822609702 2822.82977044072 19 22 13
-1204.79394333727 -113.450046928723 2815.48809206189 14 17 8
-1205.98985756015 -113.532317954841 2807.76744691853 13 16 7
-1213.21281803057 -113.806469258451 2798.95055001682 12 15 4
-1224.45258662562 -114.208238565285 2789.44782243402 17 19 8
-1233.68225533126 -114.545730204761 2780.35945460089 22 23 15
-1238.89352795373 -114.75519327263 2772.01942120597 22 25 18
-1241.09115793148 -114.868744079038 2764.22283026213 20 23 16
-1276.42645771963 -116.034710709246 2750.83321869677 17 20 13
-1241.46957510083 -114.96817939513 2749.32621039031 18 21 14
-1229.61058539914 -114.635643662636 2743.84774438662 20 23 16
-1248.87585219636 -115.290536486236 2733.29290507345 16 19 12
-1249.06469863866 -115.340173205338 2725.85883582208 18 21 14
-1254.27282595857 -115.548838291658 2717.64258855832 23 26 19
-1257.47268798215 -115.693765388492 2709.75909453798 26 29 22
-1256.65747020603 -115.711536486976 2702.49338620824 24 27 20
-1261.86393910545 -115.919836632088 2694.33302281961 23 26 19
-1254.02383862998 -115.715497334021 2688.08676840067 23 24 18
-1254.21261760537 -115.765147976631 2680.65532103997 23 24 18
-1249.38426318055 -115.656346660608 2673.9215019322 24 25 19
-1246.56341236793 -115.611095556844 2666.88490045579 24 25 19
-1251.76932177888 -115.819222689352 2658.75591437059 24 25 19
-1261.99046255323 -116.185370106088 2649.99477693071 25 26 20
-1262.17892582782 -116.234969523079 2642.57572325292 25 26 20
-1252.33679277054 -115.968569379655 2636.41682521455 24 25 19
-1248.51385189082 -115.892045430077 2629.46146672344 22 23 17
-1231.65369788808 -115.405344803901 2624.05189813746 18 19 13
-1226.83029202277 -115.297844376775 2617.13260017516 17 18 12
-1246.07441389666 -115.947223491044 2607.41942270054 14 17 10
-1239.24502664701 -115.776650938364 2600.7335750477 13 16 9
-1225.39837978464 -115.385917143019 2594.77647660938 12 15 8
-1229.60000337053 -115.562231870744 2586.81513067398 11 14 7
-1238.81376056061 -115.895697478646 2578.35296283156 12 13 7
-1257.04831493596 -116.51178523002 2569.02476438239 26 27 21
-1260.24474719481 -116.655946460107 2561.27613977807 5 6 0
-1244.39703266135 -116.203405892707 2555.36841286221 17 16 11
-1266.63621037521 -116.943979924317 2545.82464519871 13 12 7
-1309.91789318993 -118.342405924103 2534.49720460515 2 1 0
-1332.14979150471 -119.08102260066 2525.2493675201 72 69 62
-1336.3421319548 -119.254959673223 2517.65339163302 89 79 67
-1340.5341806859 -119.428771576094 2510.07827632091 94 82 70
-1334.70663986413 -119.289543923991 2503.32063058074 95 81 68
-1326.87623714837 -119.088004630499 2496.68302290002 91 77 64
-1317.04363069856 -118.824274846155 2490.14892481371 82 69 53
-1313.22252882908 -118.748339284077 2483.13038445464 108 96 82
-1309.4020093862 -118.672568158512 2476.08890428712 123 114 99
-1202.43160337314 -120.695927316139 2860.91896651312 33 38 31
-1159.40458140917 -119.483584519338 2862.09357705353 59 64 57
-1182.71400740255 -120.210443225665 2849.85301218384 41 46 39
-1165.8227899196 -119.762889307093 2845.61547929446 36 41 34
-1185.10926773836 -120.371529364014 2834.29062722722 14 17 8
-1187.31135253981 -120.481329370017 2826.32395366161 20 23 14
-1204.58450861587 -121.030340992764 2815.53439054292 15 18 9
-1213.81767724404 -121.344598685187 2806.32485564753 14 17 8
-1218.02703410895 -121.512307215588 2798.07983183861 13 16 5
-1220.22649298855 -121.621410353736 2790.21653663848 17 19 8
-1211.37678720696 -121.409131573821 2784.32019321037 21 22 14
-1233.66446132774 -122.102167435376 2772.94138557736 21 24 17
-1265.99228877347 -123.086147230083 2759.9558047109 17 20 13
-1230.02680636036 -122.086360101623 2758.68854372828 13 16 9
-1219.17089368694 -121.81634507049 2753.04738454906 15 18 11
-1233.41913033923 -122.274718179264 2743.23633692787 20 23 16
-1243.64935731238 -122.616185179398 2734.14657929294 17 20 13
-1254.88213300334 -122.986374203265 2724.95106710276 18 21 14
-1256.07465153533 -123.065536290563 2717.37580024974 24 27 20
-1253.25154953739 -123.028484274699 2710.41837934526 28 31 24
-1262.4739034098 -123.339873556047 2701.63460244833 26 29 22
-1257.64362816978 -123.244828136254 2694.97041021868 25 28 21
-1255.82473665428 -123.236941256508 2687.84181146026 22 23 17
-1247.98502182898 -123.055312703422 2681.55609944794 22 23 17
-1234.12548952696 -122.70026655603 2676.06428998115 23 24 18
-1237.32574124522 -122.837633748118 2668.16435779783 23 24 18
-1249.55604289022 -123.235158446131 2659.07021140344 23 24 18
-1267.80442525366 -123.805640474014 2649.25053519033 21 22 16
-1269.99873192102 -123.913385779159 2641.59006422931 22 23 17
-1262.16164815394 -123.732461322611 2635.20076534255 21 22 16
-1230.25185092678 -122.859607664249 2631.72895844401 20 21 15
-1244.48457257631 -123.313867704248 2622.52870717407 15 16 10
-1246.68036223852 -123.421953871672 2614.8192344335 14 15 9
-1263.9187033702 -123.961784362111 2605.39089315138 12 15 8
-1234.02352846633 -123.148852960258 2601.34197541368 11 14 7
-1212.15423557213 -122.567040903458 2596.2495718041 11 14 7
-1236.41034776865 -123.30773558009 2586.11186125635 10 13 6
-1262.85678754263 -124.155184469464 2568.46093573568 8 9 3
-1248.0091121895 -123.775260405846 2562.50772995888 8 9 3
-1224.14210292276 -123.137973101809 2557.33624399932 14 13 8
-1226.33821407494 -123.246210534634 2549.60471911179 18 17 12
-1286.66391364064 -125.014421669482 2536.62638881701 13 12 7
-1325.93587559915 -126.179766919488 2525.82102167763 90 86 77
-1336.14155555591 -126.514731393772 2517.69762839043 138 120 106
-1339.33170264856 -126.649374070339 2510.20487014389 134 116 102
-1333.50376595242 -126.526986208065 2503.44461527652 137 118 104
-1323.66918352115 -126.2907141257 2496.95826342524 140 121 106
-1312.83427183228 -126.026312192539 2490.49028610623 154 135 120
-1308.01121831493 -125.933269963994 2483.53236827667 144 127 111
-1304.190735315 -125.868899616887 2476.4772225147 150 134 119
-1208.25357704322 -128.43531259976 2859.73373190477 47 50 43
-1194.3723282841 -128.113656486634 2855.05482516398 43 46 39
-1181.49805645772 -127.819148760762 2850.0987835379 55 58 49
-1174.6557378508 -127.684760943018 2843.88881053042 21 24 15
-1163.79445129838 -127.444291187236 2838.41663292947 18 21 12
-1177.05191273072 -127.841860066424 2828.28563818341 22 25 16
-1184.27896677616 -128.079665573927 2819.35710029417 19 22 13
-1189.49528162717 -128.264150007058 2810.83749448673 16 19 10
-1200.73899456841 -128.607527107422 2801.24330524487 14 17 8
-1195.90783403165 -128.526618448687 2794.59853451355 15 16 8
-1192.0818586658 -128.472374594635 2787.74717638992 19 20 12
-1233.45707542153 -129.608799962543 2772.98670134835 17 19 14
-1249.71699510058 -130.082778243983 2762.76100505031 14 16 11
-1246.89254120695 -130.054209277898 2755.84731246733 13 15 10
-1236.03460803942 -129.814559931173 2750.25251686429 14 16 11
-1247.27013424413 -130.155717163998 2740.98067716929 18 20 15
-1251.47539590521 -130.311930951199 2732.89872549429 21 23 18
-1246.64389550767 -130.230907429116 2726.26736103081 12 14 9
-1256.87264940599 -130.544959498468 2717.26461230467 14 16 11
-1255.05307166846 -130.542955250379 2710.1565171634 16 18 13
-1259.25688166197 -130.698764275308 2702.13173628836 17 19 14
-1257.43775122618 -130.696815194418 2695.01542459981 17 20 13
-1258.62981692317 -130.773694309796 2687.45098259858 19 20 14
-1256.81110289585 -130.771848586311 2680.31828524712 19 20 14
-1244.95685181014 -130.507933746635 2674.5716130978 19 20 14
-1244.14287440442 -130.532626377762 2667.24999498688 19 20 14
-1262.3939263756 -131.054716896911 2657.36861554198 19 20 14
-1273.61907154101 -131.393034440041 2648.50555186513 20 21 15
-1277.82000174394 -131.547975822507 2640.603579578 21 22 16
-1246.90754820398 -130.788525777196 2637.13852418266 22 23 17
-1220.01220144695 -130.134647639619 2633.00896169279 21 22 16
-1240.26516369746 -130.707719187477 2623.05690252557 17 18 12
-1259.51245298057 -131.253985280671 2613.33064654659 15 16 10
-1239.64252555432 -130.783727832253 2608.20198401408 12 15 8
-1229.80408123674 -130.574498819956 2601.83753129235 12 15 8
-1223.97820292922 -130.469680338226 2594.97796281938 11 14 7
-1245.22684029523 -131.066837015704 2585.19377202606 11 14 7
-1267.47541899528 -131.689189612935 2575.41884311449 13 14 8
-1252.62493525332 -131.350441680855 2569.52186235548 12 11 6
-1236.77435827157 -130.986327677293 2563.64038898955 14 13 8
-1213.90866271775 -130.441392223449 2558.3430959365 23 22 17
-1231.14144806355 -130.933218526658 2549.18343721192 19 18 13
-1263.40645940075 -131.812592374299 2538.75592049528 22 19 14
-1320.72346888637 -133.337293297107 2526.30459815706 27 18 11
-1337.94543030962 -133.82619670101 2517.57111420625 149 123 110
-1341.13565522385 -133.952945669905 2510.08379007788 159 133 120
-1338.31323990166 -133.924756252762 2503.09001553036 155 126 110
-1326.47351791518 -133.664604908332 2496.77145489995 155 126 108
-1319.64508411291 -133.533737783658 2490.01503537816 154 125 107
-1314.8213953454 -133.454632638593 2483.07630554701 156 127 109
-1314.0051635349 -133.478624416775 2475.83422511851 148 127 110
-1195.98100589799 -135.711201183017 2862.24079660061 46 45 40
-1188.13091818719 -135.572102361518 2856.31482773717 44 45 39
-1189.32822139113 -135.648300504106 2848.54641699687 68 69 63
-1187.51036924389 -135.652866199696 2841.37315029809 19 20 14
-1180.66760948156 -135.538253966352 2835.15918567313 22 23 17
-1178.85048164694 -135.543069378344 2827.94801741332 25 26 20
-1178.03871356047 -135.571783939199 2820.53573301462 23 24 18
-1172.20293670245 -135.481565495637 2814.04735778922 15 18 11
-1182.44396846657 -135.771988370239 2804.59011874392 13 16 9
-1191.67904971488 -136.038284803874 2795.36665392186 14 17 10
-1206.94036439025 -136.446671875905 2785.1228406731 16 19 12
-1209.14088548555 -136.546154867642 2777.23768456419 18 21 14
-1233.43929749163 -137.166973115762 2765.56614021223 15 18 11
-1237.64646784962 -137.313257364618 2757.42025162345 11 14 7
-1254.9096592385 -137.767019136931 2747.1224149529 12 15 8
-1261.12327300229 -137.960050775745 2738.72389732268 15 18 11
-1259.30290017322 -137.963862867907 2731.64995676308 17 20 13
-1253.46616403997 -137.873324329943 2725.19941702939 16 19 12
-1250.64247328059 -137.853775236465 2718.24621367169 15 18 11
-1228.74348645823 -137.386529259853 2714.19133940629 15 18 11
-1230.94169941058 -137.485318983248 2706.39713789806 17 20 13
-1253.21656007834 -138.05465985476 2695.65193855087 18 21 14
-1268.46176800362 -138.458582545598 2686.04242640105 17 20 11
-1272.66423812585 -138.603511362399 2678.08169466674 17 20 11
-1253.78276317675 -138.208372988783 2673.35771470419 18 21 12
-1248.95361254213 -138.14232489812 2666.60910911276 19 22 13
-1266.20223957251 -138.592087925945 2656.87546678193 17 20 11
-1280.43847465769 -138.970960768668 2647.62816803016 19 22 13
-1279.62205198105 -138.998301718212 2640.38995122925 18 21 12
-1244.69422705318 -138.230735079624 2637.43558724474 18 21 12
-1235.85483849936 -138.071891470911 2631.07863624308 18 21 12
-1257.11127157685 -138.613682545132 2621.04920936022 16 19 10
-1260.30944541874 -138.734841861538 2613.2572153405 15 18 11
-1240.43792164769 -138.319854284991 2608.1315989614 15 16 11
-1235.61347314311 -138.254921438587 2601.20734516391 14 15 10
-1251.84979067108 -138.678794425542 2591.94857711044 13 14 8
-1276.10673689706 -139.288066276335 2581.91938151073 13 14 8
-1260.25074581647 -138.967204123824 2576.19374458838 14 13 8
-1240.386393009 -138.554091901139 2570.78584850014 13 12 7
-1213.50670074481 -137.979377112648 2565.95945469279 15 14 9
-1233.74951629868 -138.494855211605 2556.46580299006 12 12 4
-1219.90585043528 -138.222288536474 2550.25599324405 15 12 5
-1279.23871854873 -139.639219549544 2537.34997114734 17 14 7
-1329.54248225655 -140.845863273201 2525.55698701258 17 10 2
-1344.7607407145 -141.242162365729 2517.01826382518 127 107 96
-1345.94624239226 -141.314760023157 2509.71496353413 151 127 115
-1340.11712795512 -141.225889867387 2502.97407492158 158 129 113
-1331.28249136126 -141.06810223677 2496.43026703516 162 131 111
-1324.45316929176 -140.956694256204 2489.68767034354 154 122 99
-1320.63033509535 -140.914551174261 2482.69122677131 156 124 101
-1312.80104374713 -140.780608190457 2475.946928074 150 128 107
-1304.97288967197 -140.646957665333 2469.15786678611 153 134 117
-1189.54715958307 -143.126961532173 2871.07703042788 16 18 13
-1174.65846593743 -142.86195610736 2866.59424604592 49 48 43
-1179.87816042339 -143.020981470097 2857.97921317408 41 40 35
-1191.12840488221 -143.306741420022 2848.19161445772 20 19 14
-1199.36165063745 -143.52868767312 2839.05348442023 19 18 13
-1202.56846633303 -143.644754100277 2830.92920517402 23 24 18
-1204.76995049914 -143.739618816714 2823.0113676701 23 24 18
-1193.90672226249 -143.560400961952 2817.55863502945 21 24 17
-1181.03518022592 -143.339480765076 2812.4168911398 18 21 14
-1173.18944057281 -143.22425828411 2806.28602375539 15 18 11
-1187.44943873763 -143.571794321805 2796.13430379102 13 16 9
-1208.74051894759 -144.065820745524 2784.81135773774 14 17 10
-1259.16230594444 -145.167542979118 2768.51827122735 17 20 13
-1229.21380530143 -144.590271353723 2766.30047478803 15 18 11
-1229.40369209684 -144.642480773063 2758.82298256542 12 15 8
-1246.66846585285 -145.050424444008 2748.50317266603 11 14 7
-1250.87454194116 -145.185933727272 2740.41162125523 11 14 7
-1265.12300066584 -145.530171950269 2730.72376831411 15 18 11
-1252.25602608885 -145.310418975636 2725.40225900818 16 19 12
-1234.37012731193 -144.986906978129 2720.78964354993 17 20 13
-1211.46658132194 -144.559928422198 2716.84502363138 17 20 13
-1211.65803262121 -144.612486835554 2709.30601045584 17 20 13
-1227.91229018965 -144.997720951769 2699.39689570485 17 20 13
-1295.36068692768 -146.441799500616 2682.16269669125 15 18 9
-1288.52005039453 -146.347486607126 2675.8439530472 15 18 9
-1261.60617123474 -145.838720364008 2672.28289108084 18 21 12
-1252.76154985798 -145.703868873343 2666.10469603872 19 22 13
-1262.98618005976 -145.962614642304 2657.3224993043 18 21 12
-1273.20945950942 -146.220972668682 2648.59351097029 19 22 13
-1263.36268377652 -146.06575031649 2642.49669062859 17 20 11
-1259.53757199494 -146.034742424952 2635.58663165309 18 21 12
-1264.74278694173 -146.189479659796 2627.54211359312 18 21 12
-1277.97306612142 -146.508833697285 2618.5574765186 16 19 10
-1281.16999674428 -146.621850179028 2610.82281495442 15 18 9
-1260.29223197162 -146.241183641621 2605.87024479855 14 15 10
-1245.43581497351 -145.984581127869 2600.12627960808 13 14 9
-1267.6903819264 -146.488031902832 2590.23565186206 13 14 8
-1271.89018142295 -146.621493184098 2582.39161038747 12 13 7
-1280.10089074682 -146.836750638445 2574.15078886395 13 12 7
-1233.15963172177 -145.925842300073 2571.54171410702 14 13 8
-1229.33960422147 -145.896091073857 2564.42226970728 16 15 10
-1201.45799541618 -145.376111304453 2559.58731305492 15 15 7
-1216.68900412832 -145.734944712249 2550.58116874279 16 16 8
-1240.9404406281 -146.276748456734 2540.83975438639 20 17 10
-1321.32243694426 -147.95864755629 2526.30372926071 22 15 7
-1342.55613252093 -148.436468753829 2517.23164860352 109 92 82
-1345.74644341397 -148.547413401886 2509.75793358835 141 121 110
-1340.91897745672 -148.495679480335 2502.9374403054 161 134 115
-1338.09632258707 -148.484714119514 2495.93453423709 163 132 111
-1331.26597233205 -148.39272521943 2489.21127188469 165 131 106
-1328.44448169148 -148.382028546425 2482.16257521448 155 124 96
-1318.61010859608 -148.229729259039 2475.57787827246 147 122 100
-1311.78268664895 -148.138459938799 2468.73939487405 149 131 111
-1157.16032548949 -150.147226271472 2877.77445418657 21 23 18
-1148.30541821672 -150.035200746353 2871.97375882909 41 40 35
-1170.61866363238 -150.495112755473 2859.8458468464 35 34 29
-1187.90224387624 -150.86208865697 2848.835002288 22 21 16
-1200.15743366498 -151.136420310904 2838.90041622201 15 14 9
-1210.4005619958 -151.373526752165 2829.41848316713 18 19 13
-1214.61168785064 -151.500085284448 2821.13918001392 22 23 17
-1199.72660208371 -151.277988068242 2816.46931570385 21 24 17
-1185.8487520561 -151.074796762338 2811.5303763755 20 23 16
-1161.92392590069 -150.689106070883 2808.3484296487 17 20 13
-1147.0457126945 -150.468896669378 2803.40793486704 13 16 9
-1242.69305569486 -152.258445182532 2778.8027453441 13 16 9
-1246.90058984947 -152.383946219856 2770.66495373496 17 20 13
-1206.9044505006 -151.70731463008 2770.14077703508 16 19 12
-1224.17315510283 -152.070046997556 2759.71588046401 13 16 9
-1230.39033582171 -152.232053434738 2751.22059113227 12 15 8
-1243.63757365771 -152.521008142853 2741.60579147955 10 13 6
-1250.85695170019 -152.700560980643 2733.03048081917 14 17 10
-1249.03711290999 -152.71666347983 2725.92247167828 16 19 12
-1236.17118129079 -152.533602852764 2720.52080255182 17 20 13
-1218.28629209819 -152.260573072391 2715.81452512411 18 21 14
-1213.45703862656 -152.223184217609 2709.0484914678 18 21 14
-1233.72828701845 -152.63732175558 2698.55239764777 17 20 13
-1276.08327991478 -153.447454484889 2684.96671144689 16 19 10
-1286.3089636902 -153.679460919412 2676.17204804304 15 18 9
-1265.41570271089 -153.353185548205 2671.76672227961 17 20 11
-1259.58128532299 -153.297363586378 2665.18828195932 18 21 12
-1278.83909062487 -153.690711326515 2655.2152154874 16 19 10
-1265.97963714093 -153.509274081263 2649.55861533122 18 21 12
-1258.13969365978 -153.41792492781 2643.18490491546 17 20 11
-1258.32832827481 -153.470069191223 2635.75642219962 17 20 11
-1289.6214630555 -154.076520899533 2624.49808899684 18 21 12
-1293.82118035282 -154.199492599723 2616.66852305693 17 20 11
-1290.99800660083 -154.197396965913 2609.68569786678 15 18 9
-1271.1210357382 -153.892386137171 2604.64556334614 13 14 9
-1259.27201515862 -153.73056906008 2598.59416497162 13 14 9
-1274.50611106686 -154.049398284691 2589.51031575249 12 13 7
-1281.71484462856 -154.225514576783 2581.36404296148 12 13 7
-1263.85011872115 -153.957654023628 2575.86416418129 12 11 6
-1261.03029853757 -153.956384299647 2568.74005833328 14 13 8
-1238.15597630181 -153.601023699964 2563.57637501748 15 14 9
-1239.34910383678 -153.671089192057 2555.97774865349 16 16 8
-1181.3883851347 -152.698502750124 2553.89580202986 17 17 9
-1197.6236026227 -153.034353165211 2544.78386399577 21 18 11
-1302.07385921476 -154.921267862323 2528.01787828594 22 18 9
-1336.3419190659 -155.571223562369 2517.78559152323 81 67 56
-1342.53964111457 -155.727202394627 2510.04796162198 133 115 103
-1339.71661124694 -155.724754943112 2503.05989068702 159 132 113
-1339.90038666739 -155.775061628012 2495.8232951788 162 131 110
-1332.06706749308 -155.685045282549 2489.17992804888 160 126 101
-1329.24526974999 -155.682898339629 2482.13405396753 156 124 99
-1317.40623592205 -155.523348020609 2475.68990487283 145 118 97
-1313.58386892345 -155.504068099499 2468.65065288995 147 126 107
-1138.84690580816 -157.562782816614 2881.56122092717 13 15 10
-1158.14730938416 -157.916580902619 2869.96573170667 34 33 28
-1172.41773999316 -158.19112217979 2859.48465183561 28 27 22
-1175.62711757803 -158.292599557946 2851.27590967804 27 28 22
-1187.88402332 -158.53495150255 2841.30859556395 23 24 18
-1188.07625655768 -158.589089150319 2833.73732586618 24 25 19
-1190.27897367699 -158.674478377415 2825.78147433063 21 22 16
-1190.47113942604 -158.72857555065 2818.21288578035 22 25 18
-1190.66333706073 -158.782677461557 2810.64304594215 21 24 17
-1169.75103014687 -158.509844466774 2806.92471897211 18 21 14
-1142.81244385527 -158.14453872714 2804.17526046766 13 16 9
-1195.25942524025 -159.007068692347 2787.21303634033 12 15 8
-1224.77978223024 -159.564294041152 2767.07753220503 16 19 12
-1222.96056990542 -159.586781537541 2759.92885812064 14 17 10
-1233.1964302693 -159.794758783087 2750.76225907828 13 16 9
-1232.38166762617 -159.832587691045 2743.45722604312 10 13 6
-1246.63321538904 -160.10163666958 2733.72005042007 13 16 9
-1233.76548872466 -159.954522210901 2728.34994165061 15 18 11
-1241.98962032199 -160.130747033843 2719.62644141635 17 20 13
-1229.12410978104 -159.984207565523 2714.16910148605 18 21 14
-1224.29346206598 -159.960841457618 2707.43317835872 18 21 14
-1219.46378098956 -159.937660807898 2700.66860130199 18 21 14
-1251.78264426867 -160.480601495365 2688.49760015827 17 20 11
-1279.07780720972 -160.945912831411 2677.21275443322 16 19 10
-1268.22206162842 -160.830385395357 2671.38986304592 16 19 10
-1276.44028161321 -161.004788800234 2662.89936480676 16 19 10
-1260.56783449157 -160.813619697083 2657.67763256745 14 17 8
-1258.74877145796 -160.835835590224 2650.52341529188 17 20 11
-1232.8439938777 -160.49380062297 2646.45230652791 17 20 11
-1253.10469135738 -160.850131127216 2636.4306476482 17 20 11
-1278.3800078928 -161.281375711222 2625.89932634802 18 21 12
-1291.61125542596 -161.53016882507 2616.95260555051 17 20 11
-1270.72803161242 -161.264954789943 2612.08942961855 15 18 9
-1273.92570004224 -161.362523356597 2604.34251878374 13 14 9
-1275.11678748949 -161.429830025336 2596.83591311536 13 14 9
-1281.32315367423 -161.57229453723 2588.78427585593 12 13 7
-1268.47104779394 -161.429023675799 2582.79952577238 12 13 7
-1275.68002096133 -161.586347138627 2574.65474186537 11 12 6
-1238.76058430871 -161.083956641605 2571.01976440575 13 12 7
-1237.94824243377 -161.121796075735 2563.62010806194 14 13 8
-1219.08635815691 -160.890573656614 2557.94513164631 17 17 9
-1201.22999543978 -160.674993018257 2552.07158106041 16 16 8
-1199.41781203023 -160.698620329755 2544.64696877204 18 18 10
-1245.72825956003 -161.437044562657 2532.98738030863 23 19 10
-1326.11671473967 -162.679291869545 2518.68030944637 36 24 12
-1339.33263460723 -162.923344113077 2510.33773729981 115 99 86
-1340.51863648139 -162.988873588909 2503.02247687018 147 121 104
-1335.69087422071 -162.965446657956 2496.17384549705 147 119 98
-1328.8595830179 -162.912592876253 2489.44533836747 147 112 90
-1322.02929076792 -162.859975034695 2482.67753536675 148 116 93
-1312.19379892342 -162.763317533933 2476.07681915005 140 113 94
-1304.36379597017 -162.696491775336 2469.28826713524 140 119 102
-1292.52706304094 -162.571054644388 2462.70823804551 133 117 102
-1128.57626514509 -165.180732846628 2883.68427656949 2 4 0
-1168.99649576914 -165.756164157713 2867.75148295532 23 24 18
-1178.23944360481 -165.927976426302 2858.31268967868 23 24 18
-1173.40503275236 -165.918139960515 2851.71864069745 18 19 13
-1185.66272777628 -166.128314870907 2841.74570314356 25 26 20
-1174.79661374207 -166.04107879731 2836.30699451613 25 26 20
-1160.91627053597 -165.915602987841 2831.38205232558 22 23 17
-1173.17248108679 -166.125318919009 2821.46762593947 23 24 18
-1193.46837175254 -166.437379960943 2810.12735335967 21 24 17
-1194.66535675587 -166.504843144005 2802.38075792838 18 21 14
-1148.62835669269 -165.970086194077 2803.13438987878 14 17 10
-1172.94128077479 -166.33260945179 2791.17300059115 13 16 9
-1228.40108634602 -167.090152266174 2773.90570773285 16 19 12
-1222.56222585475 -167.067566472922 2767.46523284613 16 19 12
-1221.74785028514 -167.108878253575 2760.1413319966 16 19 12
-1207.87341990561 -166.984931592517 2754.98365417891 15 18 11
-1216.10118206276 -167.140809324856 2746.1307814405 13 16 9
-1234.37280289833 -167.4231070786 2735.7029705238 11 14 7
-1234.56244208536 -167.476884221038 2728.23347239438 12 15 8
-1236.76091866368 -167.555922838162 2720.45017468674 13 16 9
-1244.9846748726 -167.710561518315 2711.75519868137 15 18 11
-1234.12742154158 -167.625541870822 2705.96780325032 18 21 14
-1220.25925920466 -167.503207673223 2700.56341727465 18 21 14
-1228.48264027331 -167.65765645179 2691.88330695175 17 20 11
-1244.73716001805 -167.912079451987 2682.1044003445 16 19 10
-1274.04073393609 -168.328584632791 2670.59262411771 15 18 9
-1260.17389356692 -168.206493596102 2665.13630997525 15 18 9
-1252.33163845682 -168.159806507408 2658.795666553 12 15 6
-1230.43857533273 -167.938981869857 2654.25401017151 16 19 10
-1236.65079950248 -168.067307827414 2645.97927866716 16 19 10
-1249.88759329815 -168.282308820376 2636.85207409425 16 19 10
-1274.16154386925 -168.633191453228 2626.43572822257 17 20 11
-1263.31094730221 -168.549764584504 2620.37712840375 17 20 11
-1272.52984566401 -168.713973201856 2611.89576088167 15 18 9
-1256.66452370383 -168.569242656356 2606.34569050312 13 15 10
-1267.88931249252 -168.757826900464 2597.66665213538 13 15 10
-1260.05194000386 -168.712184623588 2591.13405711439 13 14 8
-1283.31220479327 -169.047618928704 2581.23516377532 13 14 8
-1252.40531097484 -168.719855121536 2577.09862855549 12 13 7
-1207.46100445218 -168.221821305235 2574.21474302464 12 13 7
-1204.64483344019 -168.238981135521 2566.9282266737 13 14 8
-1204.83762163701 -168.292842644672 2559.33556374651 18 18 10
-1210.04436185252 -168.407602507302 2551.27435752475 16 16 8
-1219.26091373974 -168.570800669628 2542.87645851815 16 16 8
-1218.45027548554 -168.612120866876 2535.40648139877 23 20 11
-1319.90016705206 -169.890595347397 2519.23396540764 20 12 0
-1339.13241790128 -170.172138313989 2510.37970282636 62 48 35
-1339.3161436813 -170.223193274883 2503.14424399675 140 117 99
-1328.47395491217 -170.141434620264 2496.75524710935 136 109 88
-1322.64481070037 -170.120310219938 2489.93345723072 119 87 66
-1314.81226296848 -170.075317863498 2483.22092095506 132 100 79
-1302.97212560017 -169.982536276071 2476.7388861307 136 105 85
-1294.1401390942 -169.926158020573 2469.99194284075 119 98 81
-1282.30318223136 -169.834155652784 2463.38476617849 114 96 84
-1096.17794803997 -172.627194230021 2890.38220385465 0 2 0
-1131.770551673 -173.099672486569 2867.67155629867 18 19 13
-1166.15487056563 -173.503419185001 2853.15982371455 14 15 9
-1170.37030174187 -173.599962776242 2844.74448141848 22 23 17
-1155.48259576387 -173.503001673172 2840.04266251345 21 22 16
-1154.67178060482 -173.548821216294 2832.57476839719 23 24 18
-1168.93990925988 -173.746705512449 2822.26596522308 23 24 18
-1197.2789949109 -174.085663161773 2809.42483435582 20 23 16
-1201.49115052495 -174.181184657519 2801.13860982499 18 21 14
-1228.00374931784 -174.552753193151 2781.42224911907 14 17 10
-1213.11966891015 -174.456727310549 2776.57772619879 16 19 12
-1224.36395654269 -174.62171981649 2767.16193645728 16 19 12
-1214.50629477561 -174.576328195816 2761.3726522621 16 19 12
-1200.6310339494 -174.491413520325 2756.19619684893 16 19 12
-1194.79522951303 -174.48670113469 2749.62641444939 15 18 11
-1225.1245663116 -174.839940773154 2737.20036293373 11 14 7
-1217.27867090774 -174.815118031708 2730.97851854989 11 14 7
-1232.5360743691 -175.018238080593 2721.1172938027 12 15 8
-1237.74759192786 -175.12196651877 2712.87189236255 13 16 9
-1235.92867175066 -175.156471216865 2705.70822177946 18 21 14
-1216.03391498546 -175.013941481128 2701.19808704973 19 22 15
-1221.24567727053 -175.117641292646 2692.94315159503 16 19 10
-1243.52642966478 -175.387695847202 2682.28903376357 15 18 9
-1240.70367850075 -175.412388050434 2675.25160486737 15 18 9
-1264.98788770763 -175.700656700134 2664.49222125647 15 18 9
-1249.11375146741 -175.598383762699 2659.24105576648 13 16 7
-1232.23813178951 -175.486993971503 2654.03295947248 16 19 10
-1247.48460757838 -175.686642084409 2644.6025539191 16 19 10
-1265.73983105276 -175.914706066446 2634.87384072851 16 19 10
-1254.88838518907 -175.861876007842 2628.82490665486 17 20 11
-1253.07009893052 -175.896204979498 2621.62732422826 17 20 11
-1258.27656413495 -175.9979350141 2613.59085681819 16 19 10
-1251.44157941424 -175.984213144847 2606.96468832962 14 16 11
-1242.60085860684 -175.951565955405 2600.5243064174 13 15 10
-1232.75824255999 -175.909669771706 2594.14323022335 13 14 8
-1236.96155907113 -176.001723943116 2586.20619140028 13 14 8
-1195.02108186069 -175.655519304579 2583.093038381 13 14 8
-1199.22678532369 -175.7480845453 2575.07148525201 13 14 8
-1195.40778690305 -175.764578129889 2567.8621667381 13 14 8
-1199.61300006304 -175.85690030228 2559.86003733713 19 19 11
-1206.82598241722 -175.977351583234 2551.59815103076 17 17 9
-1208.02137607061 -176.040940008325 2543.91791148451 16 16 8
-1192.17084076029 -175.944537679096 2537.73803648916 23 20 11
-1337.92948907021 -177.411402888106 2510.50387732579 20 8 0
-1338.11327363065 -177.462841114694 2503.26570963294 138 117 98
-1330.27783034158 -177.439603777946 2496.64298289765 145 118 99
-1321.44100922916 -177.407323335171 2490.04979361203 114 82 61
-1310.60105001415 -177.35677110169 2483.54947576281 134 102 81
-1294.75147823206 -177.260231416084 2477.33209022912 137 106 86
-1286.92118712442 -177.238276323988 2470.49729683182 118 97 80
-1275.08403554803 -177.179652112415 2463.87121614477 115 99 86
-1107.22225862035 -180.630256112869 2880.35697005127 18 21 14
-1128.53899021457 -180.845305319753 2868.32169850124 8 11 4
-1127.7295656291 -180.89492741251 2860.79537306768 16 19 12
-1128.93125575413 -180.959513172041 2852.86797473661 18 21 14
-1143.20424914128 -181.120786201634 2842.41767612627 22 25 18
-1154.45887468958 -181.259227270069 2832.61702892502 22 25 18
-1183.80818582862 -181.530430269093 2819.47369795103 24 27 20
-1191.03758612958 -181.638094529 2810.58387112821 23 26 19
-1203.29215789941 -181.782267890476 2800.81319333191 19 22 15
-1227.6064974486 -182.014037616829 2788.9368757583 14 17 10
-1212.72019733975 -181.959340341304 2784.1347309734 13 16 9
-1202.86107108635 -181.941737776305 2778.37284622947 16 19 12
-1180.94446045985 -181.837161758924 2774.62668899965 16 19 12
-1200.2295255542 -182.031108731834 2763.79299180335 15 18 11
-1193.38785081344 -182.03604227512 2757.40826172896 14 17 10
-1191.57086364445 -182.077341088035 2750.1617474915 13 16 9
-1185.73542163901 -182.089895007007 2743.54993601932 12 15 8
-1218.07484290007 -182.375496035413 2730.86109401869 12 15 8
-1218.26558955416 -182.430685871889 2723.34679539807 12 15 8
-1238.54510490925 -182.628646875716 2712.75971373095 13 16 9
-1231.70399206162 -182.633549953797 2706.35305563751 16 19 12
-1233.90240106074 -182.702596779585 2698.57380278652 17 20 13
-1239.11351965888 -182.792781622532 2690.36786096775 17 20 11
-1239.30306291905 -182.847437263439 2682.90116872834 14 17 8
-1240.49666120844 -182.909099751978 2675.29316614902 13 16 7
-1243.6982933882 -182.984740037002 2667.41488313543 13 16 7
-1255.93518684907 -183.123224117617 2658.3412436059 14 17 8
-1245.08088700654 -183.100638454654 2652.36205402091 15 18 9
-1247.27798272226 -183.168956160867 2644.64423649559 15 18 9
-1264.53088179252 -183.341250914177 2635.04155211031 16 19 10
-1252.67481489034 -183.312143736902 2629.11372997497 16 19 10
-1239.81691238136 -183.276568068734 2623.23989741693 16 19 10
-1256.06346979948 -183.441018387692 2613.86879185276 16 19 10
-1241.20044074141 -183.392095778872 2608.16025818403 13 15 10
-1245.40391086 -183.473706267296 2600.22842947204 13 15 10
-1228.53704240504 -183.411870038853 2594.62509827065 12 15 8
-1205.65296443944 -183.309852168106 2589.57068276206 12 15 8
-1204.84213382624 -183.357892668814 2582.09168316633 14 15 9
-1198.01294826487 -183.365348432288 2575.21612453019 16 17 11
-1204.22444458311 -183.460690842319 2567.01457996561 16 17 11
-1208.42908351697 -183.542293651428 2559.03707814979 15 16 8
-1215.6419583255 -183.64379154421 2550.79974578865 16 16 8
-1200.79150857558 -183.597936565907 2544.59627539473 17 17 9
-1170.90146666728 -183.452657363176 2539.6298688978 17 17 7
-1258.3318629454 -184.085854685814 2524.51975400797 29 23 9
-1323.692402715 -184.569843859464 2511.70078437665 21 11 0
-1329.8925812253 -184.661542946927 2503.94549087237 140 119 102
-1328.07185299769 -184.700270899443 2496.83862576913 134 108 91
-1322.24177696009 -184.712764169096 2490.01715880602 129 98 80
-1314.40799493577 -184.712337457706 2483.30501179693 143 112 94
-1301.5638044786 -184.679527046969 2476.89229563253 130 101 85
-1297.74146526371 -184.705727714526 2469.81244900108 120 101 86
-1129.13421569728 -188.568535560603 2875.88310149311 26 31 24
-1133.35318308529 -188.645299015303 2867.3507901786 18 23 16
-1126.50915629763 -188.669697753501 2861.03708601736 14 19 12
-1103.57620108331 -188.618760210394 2857.83811658733 13 18 11
-1099.75194723355 -188.658154246838 2850.81893449586 11 14 7
-1160.27891337565 -188.997573880349 2831.50853544217 20 23 16
-1173.5433684102 -189.115295869958 2821.40468453144 21 24 17
-1182.78474923265 -189.213890983601 2812.1150752908 22 25 18
-1180.96676034193 -189.261240730527 2804.89188999329 21 22 16
-1175.12831457689 -189.290250439864 2798.37980689169 15 16 10
-1195.42427386244 -189.438669672588 2787.20323359586 14 15 9
-1204.66186103318 -189.536067248663 2778.06317922894 16 19 12
-1197.81825428453 -189.560382751286 2771.73314786044 16 19 12
-1194.99531278363 -189.603056254527 2764.68385105349 16 19 12
-1164.03665551301 -189.5197478697 2762.29860867039 15 18 11
-1173.27411148334 -189.616982976009 2753.16385651789 14 17 10
-1182.51036025319 -189.713821667387 2744.07671158164 13 16 9
-1196.76853566021 -189.832486823618 2734.24197523208 12 15 8
-1223.07988324566 -190.003624951972 2722.60641562055 12 15 8
-1224.2747444598 -190.063639287206 2714.95082322697 12 15 8
-1239.53189867885 -190.184920777319 2705.1872116739 14 17 10
-1239.72128335205 -190.240156895497 2697.72609429088 15 18 11
-1235.89353651115 -190.277983295897 2690.84511360062 18 21 12
-1229.05364790568 -190.302973574038 2684.36903979405 17 20 11
-1223.21886042199 -190.332507079109 2677.71341597264 15 18 9
-1231.44224640614 -190.422185358634 2669.10265910903 14 17 8
-1243.68086265373 -190.528552755133 2659.99617152824 14 17 8
-1248.88992905748 -190.604702580131 2651.87618150836 14 17 8
-1262.12959390643 -190.714376757297 2642.74985805 16 19 10
-1257.29883167612 -190.747877604925 2635.96667600681 16 19 10
-1228.3785933608 -190.681200910415 2632.12075004533 17 20 11
-1228.56923678383 -190.736291991225 2624.6105920884 17 20 11
-1239.79957206715 -190.836891341894 2615.79992411064 17 20 11
-1236.97886973475 -190.879305704061 2608.66339108753 14 16 11
-1237.16906178648 -190.93409655984 2601.17119664279 16 18 13
-1227.32524949402 -190.948025970876 2594.77693264711 12 15 8
-1223.50291220488 -190.986669850264 2587.68365018834 11 14 7
-1208.64532018791 -190.98097174596 2581.71620697477 13 16 9
-1214.85663835619 -191.060253510741 2573.52954502351 18 19 13
-1210.03308100532 -191.095229861827 2566.46318705026 17 18 12
