ply
format ascii 1.0
comment KinectMotionCapture
element vertex 784
property float x
property float y
property float z
property uchar red
property uchar green
property uchar blue
end_header
-1058.3459860928 -207.153223107921 2493.69146422413 11 14 5
-1060.55424528339 -207.207786290049 2485.55210797748 13 16 7
-1083.81204085946 -207.225587616594 2476.09076987823 17 20 11
-1099.04832246311 -207.256482798802 2467.23998229785 19 22 13
-1100.25106360553 -207.311625283096 2459.28164602804 20 23 14
-1102.45578529135 -207.364830914544 2451.2726805672 15 18 9
-1101.65418109855 -207.423324673327 2443.43118138468 15 18 9
-1078.80806975982 -207.522245166108 2436.67714643517 14 17 8
-1064.98286457343 -207.605231420585 2429.37338891668 14 17 8
-1095.24261420837 -207.605957722813 2420.04554648979 16 19 10
-1062.38368986514 -207.725056090974 2413.49567170195 17 20 11
-1068.59761798402 -207.770509876091 2405.25265050743 17 20 11
-1101.85601793445 -207.763292537678 2396.06950547246 14 17 8
-1044.96507924527 -207.930869274142 2390.06079246695 15 18 9
-1077.21889014946 -207.924598602744 2381.02196434722 13 16 7
-1081.42722101907 -207.972879672392 2372.93594721009 11 14 5
-1114.67590927892 -207.962442238455 2364.1451509649 16 16 8
-1002.726595294 -208.245687164866 2358.7675335072 21 21 13
-984.911790495635 -208.340042785124 2350.93696980728 18 19 11
-1061.2296103179 -208.521278598607 2301.3042037489 103 90 81
-1060.4325824949 -208.578946934307 2293.27540566911 77 60 50
-1064.63957617851 -208.62549470414 2285.25283626464 75 57 45
-1065.84386109806 -208.67845986434 2277.23650167979 83 71 59
-1069.04923752912 -208.726782989142 2269.24121141735 81 71 59
-965.090375300321 -214.153241359846 2689.16702114556 23 26 19
-963.290618741227 -214.223338251352 2681.20682903612 16 19 12
-977.555974073155 -214.229158485803 2671.21264053438 15 18 11
-969.732069787281 -214.323183152418 2664.01302267316 14 17 10
-988.01072981598 -214.311926174647 2653.62529216603 13 16 9
-988.217930902817 -214.373315976808 2645.46124026665 14 15 9
-1009.50449629409 -214.348494883702 2634.87184747159 10 13 6
-1024.7656988933 -214.347474374481 2625.07200487679 13 16 9
-1028.98523193667 -214.391313559515 2616.56226212397 18 21 14
-1026.17909841054 -214.464059948453 2608.82376148833 18 21 14
-1039.42933924593 -214.469910908468 2599.39556921733 15 18 11
-1051.67422060907 -214.479361833386 2590.13895587221 15 18 11
-1069.93787896281 -214.462898732359 2580.35245751378 14 17 10
-1103.24820856294 -214.381983765968 2569.21885271126 14 17 10
-1115.4863227741 -214.38915293006 2560.22917308678 15 18 11
-1103.64761067923 -214.498594237612 2553.48362705761 15 18 11
-1080.77660176245 -214.655766878798 2547.64012903761 11 14 7
-1080.97798147787 -214.714331461427 2539.70663000294 9 12 5
-1071.15003028598 -214.816225127238 2532.59801000891 9 12 3
-1086.39505457734 -214.809329494407 2523.43677998487 7 10 1
-1067.54295800822 -214.95079780152 2516.9790994461 10 13 4
-1101.83838243251 -214.859484898941 2506.47322750369 15 18 9
-1091.0091164152 -214.965837760688 2499.3771850502 14 17 8
-1071.15827787024 -215.112528388609 2492.84003158058 11 14 5
-1060.33299605386 -215.219742529018 2485.59667276572 10 13 4
-1086.59989502385 -215.161335572347 2475.94478685818 18 21 12
-1098.82992830025 -215.164863523068 2467.28417260128 20 23 14
-1094.01882045174 -215.244736849418 2459.67371324596 15 18 9
-1096.22433808048 -215.292883344852 2451.64839647731 13 16 7
-1103.44034304145 -215.318015071225 2443.37072302357 14 17 8
-1107.64906900054 -215.356520688959 2435.27976054801 16 19 10
-1084.80241077425 -215.519065824509 2428.47878461776 16 19 10
-1043.92374432839 -215.765615916398 2422.34742086804 16 19 10
-1056.15093299361 -215.767580660609 2413.79033753271 16 19 10
-1057.35648664285 -215.820253392742 2405.72473058295 13 16 7
-1069.58138309209 -215.821273411956 2397.26757414984 11 14 5
-1115.86184784213 -215.661846693508 2387.74385978756 17 20 11
-1064.97933055175 -215.958449367349 2381.43430678194 14 17 8
-1062.17800057487 -216.029391119142 2373.51000448168 11 14 5
-1042.35205193104 -216.181237680348 2365.99453140864 15 16 8
-1007.71513065162 -216.462885975558 2350.53475412003 15 15 7
-973.879568657487 -216.684027826819 2342.93753370226 15 15 7
-1047.19992173098 -216.674176610469 2293.32751616962 86 69 59
-1049.40622863871 -216.719986791938 2285.26453540976 84 66 54
-1055.61529193649 -216.745727077509 2277.23281511366 71 59 47
-927.704823441798 -222.649236830323 2694.0876668234 18 21 12
-1019.29754867223 -222.099555721271 2674.02069812393 17 20 11
-1000.42400371049 -222.289406024008 2668.34934620941 15 18 9
-1005.65059545035 -222.317287926076 2659.60555650957 14 17 10
-949.633354966478 -222.759651568495 2658.2628078208 14 17 10
-997.027130770507 -222.501774808252 2644.44091067262 15 16 11
-1012.29152630724 -222.460779526909 2634.56852363816 14 16 11
-1017.51588315738 -222.487695685776 2625.90379332329 14 16 11
-1033.78051955597 -222.438628598698 2616.05535711929 14 16 11
-1034.9882981384 -222.492343814234 2607.90167273424 13 15 10
-1071.32096319245 -222.303624669382 2596.09429061854 13 15 10
-1037.40378677803 -222.599406525305 2591.60670178521 13 15 10
-1036.60454168472 -222.666668427056 2583.66358626588 13 15 10
-1056.87594901951 -222.587200978256 2573.69127542574 13 15 10
-1047.04591208467 -222.716965882127 2566.63424750269 15 17 12
-1067.31391767506 -222.636270189772 2556.79620741124 14 16 11
-1066.51283579947 -222.702642326329 2548.91651027938 9 12 5
-1047.65678787099 -222.896156155834 2542.56670486719 10 13 6
-1029.80611640163 -223.083232372183 2536.02905389573 10 13 6
-1034.0228138015 -223.11460227596 2527.63420168 10 13 6
-1082.36560250395 -222.832092574913 2515.86552849598 10 13 6
-1086.57819425902 -222.862024329672 2507.6326832756 13 16 9
-1080.76291741383 -222.963365764199 2500.13741428887 13 16 9
-1068.13243053166 -223.173662178069 2485.1113927186 12 15 8
-1079.3629657705 -223.152539246994 2476.43293058591 14 17 10
-1097.60892807473 -223.080128057822 2467.38880310458 15 18 11
-1096.80723697296 -223.144968200562 2459.54388636745 16 19 12
-1101.01717740833 -223.173301315211 2451.416380402 16 17 11
-1117.25365066275 -223.113667923801 2442.68000271869 17 18 12
-1079.3701322244 -223.448959809278 2436.71708052863 18 19 13
-1077.5681085683 -223.521134620397 2428.85258810179 17 18 12
-1071.96069600312 -223.680141179781 2413.17134660081 14 15 9
-1060.14048583692 -223.826292680934 2405.6539397381 16 17 11
-1059.34226341404 -223.89111098468 2397.67347846279 15 16 10
-1068.5618027413 -223.881371232289 2389.35383215239 16 17 11
-1062.75463358709 -223.983130612453 2381.54123775792 15 16 10
-1052.94188591246 -224.11492509267 2373.80630645004 13 14 8
-1025.10248736057 -224.382068515118 2366.46714982054 16 18 7
-1094.4109215509 -223.920394706217 2356.80814224813 17 20 9
-1043.76922002692 -224.707577053477 2301.451766335 84 80 71
-1040.97150887053 -224.786617002743 2293.377332773 46 38 36
-1049.1835519919 -224.78098119646 2285.31223520499 80 71 72
-928.267880593888 -230.924225784916 2702.31388360131 18 21 12
-963.83913616161 -230.720506516982 2681.1636412141 17 20 11
-1036.35013337863 -230.099828759526 2663.84191281214 15 18 9
-1030.5290097946 -230.218467109627 2656.55658253759 15 18 11
-1015.67238695798 -230.423146217667 2650.32537355026 15 18 11
-995.79781321343 -230.676158610636 2644.60171378133 15 16 11
-1006.04367252891 -230.642490321778 2635.30378143634 13 15 10
-1037.3689929381 -230.406676967334 2623.6918817302 13 15 10
-1008.46312328991 -230.746838531691 2618.84754689281 13 15 10
-985.583639786209 -231.030248278678 2613.19972140561 13 15 10
-1045.00623241058 -230.522076364639 2598.85398185639 12 14 9
-1037.18124321269 -230.660226293227 2591.64938780718 12 14 9
-1022.33265426242 -230.866538455623 2585.09310847424 14 16 11
-1030.56545289045 -230.849686176415 2576.23818197782 13 15 10
-1031.77339923484 -230.900640164407 2568.08090566775 15 17 12
-1008.90217921265 -231.185837254368 2562.10819558581 15 17 12
-1005.09556991347 -231.285919042847 2554.33424149945 13 15 10
-1047.43483910879 -230.934867210017 2542.6098825559 10 13 6
-1029.58279048352 -231.171707699138 2536.07262256445 10 13 6
-1037.81204182777 -231.153100774874 2527.35822020961 9 12 5
-1051.05483964582 -231.084699754215 2518.30065289836 10 13 6
-1074.32465717431 -230.916761699652 2508.5688878947 12 15 8
-1083.55177559086 -230.886529437775 2499.96570300972 13 16 9
-1042.64089154597 -231.352304589289 2494.85812765336 12 15 8
-1024.79695346231 -231.590756661571 2488.0021492054 12 15 8
-1049.06514007404 -231.411055601451 2478.38077873871 12 15 8
-1070.32215922323 -231.260240331348 2469.07211349338 13 16 9
-1089.57150465107 -231.128455482209 2459.99353513601 15 18 11
-1114.83239751407 -230.93562758657 2450.68669709626 16 17 11
-1087.969179345 -231.264295875416 2444.24645540982 16 17 11
-1070.13009902858 -231.503279115982 2437.20937305061 18 19 13
-1094.58614850708 -231.376387750048 2420.17964318728 15 16 10
-1080.75861286571 -231.57541559802 2412.84237139649 14 15 9
-1059.91900957351 -231.845900924846 2405.69916166361 15 16 10
-1037.0786850508 -232.137432675936 2398.51214676276 15 16 10
-1061.32808524977 -231.950832035686 2389.63242262451 15 16 10
-1094.58989229917 -231.671255032859 2380.60855519022 16 17 11
-1138.86571267945 -231.277751511956 2371.45897241578 12 13 5
-1134.05587392929 -231.384539277726 2363.77933843679 17 20 9
-1045.11575270728 -232.353849125381 2357.94843683424 19 22 11
-952.145046117081 -238.976879025858 2699.1263790429 13 16 7
-904.142431239719 -239.62625787523 2697.20596487861 22 25 16
-1022.0680489509 -238.324460910126 2665.65270644556 16 19 10
-1023.27683180697 -238.374549756065 2657.46366528423 15 18 11
-978.295492468427 -238.989331206086 2654.84161994779 15 18 11
-988.543926844207 -238.929422425604 2645.47122034455 16 17 12
-1019.87486370372 -238.610259901608 2633.72930422224 12 14 9
-1009.03674772784 -238.808062059371 2626.89028238488 11 13 8
-970.092033179978 -239.352376658621 2623.06998599506 11 13 8
-1007.44073166495 -238.957060795824 2610.88248716323 11 13 8
-979.542717322706 -239.366407247257 2605.69087680481 11 13 8
-1012.07318087779 -239.092986218196 2586.12635018911 13 15 10
-1030.34237135056 -238.930199015971 2576.28074900516 12 14 9
-1020.51259587868 -239.116196354033 2569.15312414708 13 15 10
-1034.76512355694 -239.002284584635 2559.78884379249 13 15 10
-1018.91666539547 -239.263559847998 2553.1437399725 13 15 10
-1038.18374108115 -239.086139315763 2543.42120179931 10 13 6
-1026.34996995841 -239.297492344307 2536.36379571732 9 12 5
-1082.72844781653 -238.653035705813 2523.80512831964 9 12 5
-1060.86334408761 -238.989849279158 2517.57197295507 10 13 6
-1086.13995952269 -238.733760773071 2507.71856670363 12 15 8
-1084.3354819882 -238.818118866083 2499.93689887551 13 16 9
-1089.55076287963 -238.813719574257 2491.660512587 13 16 9
-1086.74349978485 -238.910547978625 2483.94030199354 12 15 8
-1046.83765431113 -239.477742956908 2478.551602685 11 14 7
-1058.07031597911 -239.397013909655 2469.84470800394 12 15 8
-1077.32192115994 -239.213704126819 2460.73313417684 14 17 10
-1069.5042879674 -239.374361455346 2453.21687524323 16 17 11
-1099.7788553401 -239.049055430793 2443.65997269553 16 17 11
-1101.98391115744 -239.081185800328 2435.66057721037 17 18 12
-1042.04875558295 -239.908805877588 2430.58789177749 17 18 12
-1063.29954204119 -239.697508252444 2421.59708776876 16 17 11
-1073.52393711496 -239.62683313983 2413.17778742305 15 16 10
-1063.70594541124 -239.813514373681 2405.58887776917 14 15 9
-1031.84568674204 -240.284528464488 2398.73799072652 15 16 10
-1093.1677096369 -239.553883218775 2388.61113465422 16 17 11
-1089.36165005155 -239.662611554566 2380.80641185041 15 16 10
-1143.85692416094 -239.07459914315 2363.5729415591 17 18 10
-902.693183302819 -247.986187424964 2705.76318437851 17 23 13
-868.753335311327 -248.559545976615 2701.86363883823 20 23 14
-845.866767218839 -248.969787957897 2696.35652093833 20 23 14
-980.077075545564 -247.172091261595 2654.64148772226 15 18 11
-966.226766513414 -247.446186934649 2648.11367688555 15 16 11
-983.504596690431 -247.253904989801 2637.9280528618 11 13 8
-969.656095823056 -247.528332000152 2631.32921691736 11 13 8
-987.935296662605 -247.319973898725 2621.13198165517 11 13 8
-966.05771847569 -247.715676160877 2615.32314118431 10 12 7
-996.380410464865 -247.324647352842 2603.95592997479 10 12 7
-971.493964107236 -247.766390292372 2598.35151083838 10 12 7
-1002.81604117265 -247.358609795838 2587.06034210374 11 13 8
-999.007965384206 -247.481675447534 2579.30970040764 11 13 8
-1014.26761714646 -247.315440389872 2569.75718933962 10 12 7
-1028.52160572843 -247.163715429785 2560.37641269895 11 13 8
-1032.73990306812 -247.163993779849 2551.95241300825 12 14 9
-1039.96786772668 -247.11808409422 2543.29291672685 9 12 5
-1074.28209369178 -246.658335037301 2532.438489016 9 12 5
-1005.26510736637 -247.77631173681 2530.00201689878 9 12 5
-1046.59878278974 -247.208189973834 2518.69533246258 9 12 5
-1064.85729878599 -246.991792308926 2509.32448958512 12 15 8
-1086.12201203331 -246.728366535542 2499.83602481633 13 16 9
-1100.36361773782 -246.571844424853 2490.94436473458 14 17 10
-1074.49065072008 -247.032014639918 2484.77796763655 13 16 9
-1065.66786378428 -247.230365007552 2477.38864050973 13 16 9
-1080.91070973394 -247.057506948033 2468.49074529725 13 16 9
-1079.10732497337 -247.147355118699 2460.66047325619 15 18 11
-1097.3548917886 -246.926793939662 2451.71270797567 16 17 11
-1113.59517472636 -246.736440483708 2442.96779180739 16 17 11
-1071.69362355075 -247.447582611632 2437.19797697562 16 17 11
-1043.83082937818 -247.942184757502 2430.53829937844 16 17 11
-1035.01484143342 -248.141429919532 2422.88228336782 16 17 11
-1052.25728135057 -247.934834527867 2414.09520197513 16 17 11
-1070.49967166975 -247.71178800114 2405.36174545575 15 16 10
-1060.68184066053 -247.926218310037 2397.73676048468 16 17 11
-1064.89319980679 -247.921438496429 2389.58936049533 14 15 9
-1072.10979967416 -247.869274020794 2381.37143074682 13 14 8
-1102.56864204599 -247.51180646671 2364.6469554424 17 16 11
-896.433164190447 -256.504457308897 2706.61253434485 18 24 14
-868.518571716488 -257.065574760733 2701.90589479249 20 23 14
-836.589729595945 -257.698589697024 2697.56154258329 21 24 15
-863.926495578631 -257.287704704341 2685.5821732177 16 19 10
-944.490668481671 -255.935557296722 2667.19310623639 14 17 8
-963.990642262973 -255.727460815647 2648.39171636561 12 13 8
-971.228403176714 -255.667155640954 2639.35548047493 11 13 8
-938.302099424887 -256.31928306257 2634.86670084537 11 13 8
-920.440661804464 -256.705077637609 2628.54578467252 11 13 8
-998.162523994553 -255.457552761912 2603.78859590569 10 12 7
-1021.45662074222 -255.108721561894 2593.30214403647 10 12 7
-997.57220387348 -255.601368080237 2587.59777155226 10 12 7
-1030.89987192189 -255.0718652615 2576.2681792141 10 12 7
-1012.0360781525 -255.475226050492 2569.98646580657 7 9 4
-1036.32672210328 -255.105691625018 2559.69121318083 6 8 3
-1048.57228783897 -254.951142640235 2550.58394265757 8 10 5
-1027.7047473642 -255.391039557847 2544.3600384692 9 12 5
-998.813495401016 -255.976084253339 2538.6814572172 9 12 5
-1001.02708333937 -256.001914029915 2530.36468676573 8 11 4
-987.189322241607 -256.317054152584 2523.29306402759 9 12 5
-1046.5805846481 -255.310178108414 2510.70728801305 11 14 7
-1069.85429442702 -254.953623588514 2501.02592221281 12 15 8
-1092.12194329614 -254.614132257477 2491.53841896334 14 17 10
-1084.29962064611 -254.818915520181 2484.15806124396 15 18 11
-1074.47268751501 -255.060271900277 2476.85990758608 16 19 12
-1094.72994404957 -254.755319235541 2467.68276769844 17 20 13
-1083.90090676922 -255.014819081005 2460.41334797582 16 19 12
-1103.15226390946 -254.726822557528 2451.4238729935 16 17 11
-1117.38813258406 -254.529325566113 2442.80043158564 16 17 11
-1076.48575833151 -255.337561739902 2436.99255579478 16 17 11
-1083.70475533606 -255.267969716584 2428.69964997976 16 17 11
-1053.83618930933 -255.876485434212 2422.08452470433 17 18 12
-1048.02630309587 -256.045425507699 2414.30598894326 17 18 12
-1093.32976540799 -255.27704202475 2404.5126033977 16 17 11
-1057.4540646661 -255.997108103707 2397.88971776683 15 16 10
-1036.6142276743 -256.442141632001 2390.56822540876 13 14 8
-1063.87340640847 -256.002726340872 2381.66119291745 11 12 6
-1091.12860682874 -255.562098726464 2372.90162362624 13 14 8
-1077.30411745893 -255.877849367428 2365.31996504487 18 20 6
-998.573420796435 -257.454945124749 2350.92638346205 19 19 7
-837.357053095197 -266.27187444697 2697.4747110569 21 24 15
-914.921031802053 -264.764900624486 2679.17605683874 16 19 10
-920.155009802985 -264.728679855734 2670.20309019142 13 16 7
-928.61280418694 -264.696306411907 2652.57121555621 10 11 6
-956.14729641999 -264.272100838829 2632.87832197812 11 13 8
-924.225858132438 -264.995464936141 2628.14759235663 11 13 8
-987.690467885382 -263.762687890525 2613.04581848978 11 13 8
-1033.07544729881 -262.898354238502 2600.16948613582 10 12 7
-1020.22923558674 -263.22946763741 2593.44501425688 10 12 7
-1038.50305479341 -262.920303386689 2583.57567451817 11 13 8
-967.650331279085 -264.515307604591 2574.14832718183 7 9 4
-1040.11848635285 -263.086223592379 2559.36902252668 5 7 2
-1054.57485295595 -262.919100433183 2542.09514514439 9 12 5
-1067.82201967774 -262.710112549521 2533.01777728643 9 12 5
-980.735291456941 -264.581966723806 2532.0064225986 8 11 4
-1029.09955116317 -263.644427869173 2520.09258327583 9 12 5
-1042.34591226932 -263.434745355309 2511.04744750807 11 14 7
-1022.48775428291 -263.913305789022 2504.44002692876 12 15 8
-1042.75413977551 -263.556616320781 2494.96164673139 13 16 9
-1086.08619494535 -262.717793859139 2484.06766509173 15 18 11
-1081.27299255144 -262.882152183546 2476.45767913073 17 20 13
-1072.44898566112 -263.130398704008 2469.06245740674 17 20 13
-1082.67886807238 -262.98023378415 2460.51404293581 16 19 12
-1104.93983089525 -262.57745791664 2451.35580359645 16 17 11
-1123.18706537422 -262.257716809967 2442.52751893563 15 16 10
-1109.35015799511 -262.610419200732 2435.39152323308 16 17 11
-1060.42806275748 -263.700718655866 2429.82599836191 16 17 11
-1045.59495301727 -264.076031655085 2422.48327779413 17 18 12
-1068.85331427377 -263.649850119978 2413.47654554687 17 18 12
-1074.06758659552 -263.602789497589 2405.29470889427 15 16 10
-1085.29424704472 -263.428483562177 2396.92283828819 14 15 9
-1070.46397793574 -263.803820720196 2389.47839485976 10 11 5
-1101.73081447121 -263.205159573052 2380.54184555226 11 12 6
-1100.92951093576 -263.283577173525 2372.66720295245 17 20 11
-946.254043502815 -266.749758769547 2351.99522437526 18 22 7
-976.517242940152 -266.170861751346 2343.15490660015 20 20 10
-897.97765052823 -273.314331761403 2706.42515782655 39 45 35
-874.077462124366 -273.93725212806 2701.19731354557 15 18 9
-970.738060827685 -271.780701530906 2680.33576020065 19 22 13
-953.86829887124 -272.240538286379 2674.28538478859 17 20 11
-888.99823131245 -273.882377538274 2665.65245049369 12 15 8
-971.57032256237 -272.042305994853 2647.52719776959 13 14 9
-986.842848922451 -271.758226897279 2637.58870988409 12 14 9
-980.020428015561 -271.9859754506 2630.21223168568 12 14 9
-987.257210832484 -271.887402815778 2621.25531185835 11 13 8
-1013.5708602805 -271.344859558257 2610.29608358979 11 13 8
-979.639648692039 -272.202982016578 2605.75323994971 11 13 8
-996.914678548682 -271.869720038243 2595.8284356491 11 13 8
-1018.20287178121 -271.44194115769 2585.59876142766 11 13 8
-960.396458499109 -272.928360751201 2574.84573315239 8 10 5
-1044.11455697812 -271.106578106862 2551.01907256991 8 10 5
-1061.37835130962 -270.7689294691 2541.53810157104 7 10 3
-992.341664643923 -272.454453173671 2539.26219873443 8 11 4
-1099.91273775514 -269.996778519757 2522.5319129263 9 12 5
-1072.01941592854 -270.717429525405 2516.81332315802 10 13 6
-1003.99993658452 -272.383038820659 2513.92030359071 11 14 7
-1024.27043073319 -271.972825858793 2504.33881228621 12 15 8
-981.341656934955 -273.050935168252 2499.21423309187 12 15 8
-1071.82449339373 -270.98376640999 2485.03743717888 13 16 9
-1092.08625327084 -270.570402874552 2475.80069430709 13 16 9
-1068.21724964866 -271.198954669853 2469.34799413355 14 17 10
-1058.39133625145 -271.49622019076 2461.94995481331 14 17 10
-1082.66102063949 -270.986434856245 2452.6151403436 15 18 11
-1114.94915124911 -270.285370783549 2442.99031967717 16 19 12
-1078.05092446068 -271.223963762203 2436.97917017448 17 20 13
-1079.25563529348 -271.259264804582 2428.97448058125 16 19 12
-1072.44014404602 -271.484971997009 2421.32935914277 15 18 11
-1091.08858189666 -271.231184677479 2396.74984077503 10 13 6
-1086.27889433491 -271.408722636273 2388.98833172088 10 13 6
-1068.64469005551 -271.955346903514 2373.60433807602 14 17 10
-1024.96543788593 -273.126260189956 2358.60324581717 16 25 22
-929.106565562238 -281.001553465351 2693.98231573245 18 21 12
-907.213638422792 -281.638632306106 2688.51419391828 18 21 12
-865.230528980017 -282.795189562452 2685.45370624069 15 18 9
-911.868814519405 -281.736794365761 2662.91035898669 11 14 7
-923.129820441908 -281.517840099873 2653.24408824301 12 13 8
-953.472526314751 -280.803940391302 2641.44133903422 11 13 8
-1009.1245208422 -279.50211326985 2618.87382881802 11 13 8
-986.234363107293 -280.166420526321 2613.23421085396 11 13 8
-963.347431321788 -280.831586622326 2607.46758945621 12 14 9
-979.620886747677 -280.478650222144 2597.60074657977 12 14 9
-976.816876338848 -280.621696478144 2589.70378458218 12 14 9
-957.951044244064 -281.183460054019 2583.33165527924 10 12 7
-972.213960696133 -280.881558528653 2573.76319457697 9 11 6
-962.385011641817 -281.207995386339 2566.45247731775 8 10 5
-998.72685482873 -280.327959531661 2555.02866461484 9 11 6
-979.86522367131 -280.890244461399 2548.5011131255 8 11 4
-996.129877953174 -280.533521353755 2538.97299053298 8 11 4
-1085.64634210102 -278.256234695372 2523.69214358195 9 12 5
-1073.80635776181 -278.63318417192 2516.69976681142 10 13 6
-1063.97483489917 -278.957810451414 2509.49158695686 12 15 8
-1060.16436623296 -279.124521239796 2501.79692921543 13 16 9
-1068.39267818384 -278.97464700493 2493.25086154746 12 15 8
-1100.69510297935 -278.190615910881 2483.1564581766 12 15 8
-1089.86145361016 -278.541272208567 2475.9694180849 12 15 8
-1066.99367461896 -279.209526685314 2469.45092307138 13 16 9
-1037.10873035601 -280.063826442776 2463.21201203244 13 16 9
-1037.31339773765 -280.124616724321 2455.14762982848 16 19 12
-1065.59600684123 -279.443039577863 2445.609569746 16 19 12
-1084.85030446268 -278.998876080443 2436.67285064062 16 19 12
-1054.97239571738 -279.854565605246 2430.14815018606 15 18 11
-993.01687031972 -281.56143513439 2424.87812233795 14 17 10
-1050.7752412786 -280.225306875434 2398.23927791821 10 13 6
-1036.94726421924 -280.657391211609 2390.66902016419 10 13 6
-1059.40454248161 -280.188234309966 2373.90004342866 15 18 11
-970.076179747827 -288.164855985136 2688.61232249276 20 23 14
-857.962551261449 -291.509054238302 2686.37939382115 13 16 7
-904.392626124071 -290.25821894962 2672.1802684465 12 15 6
-910.845074940115 -290.221259921054 2654.70352065733 12 13 8
-1085.22795238138 -285.440503370181 2610.54667252586 11 13 8
-943.830058214433 -289.567670910101 2617.78298397016 12 14 9
-951.069468564591 -289.431880765054 2608.76333233783 12 14 9
-968.349218117151 -289.006968951165 2598.76179729389 12 14 9
-986.630372325152 -288.552257537788 2588.75273283869 13 15 10
-1002.90127912758 -288.154438591759 2579.03369041691 13 15 10
-978.010126456866 -288.941958719429 2573.24194138567 12 14 9
-971.191489584559 -289.209246920043 2565.67511537911 11 13 8
-964.373861767816 -289.476653712341 2558.06872465091 11 13 8
-1025.80810548864 -287.77249701679 2544.61049635128 12 15 8
-1025.00928419996 -287.864626469919 2536.61479142909 12 15 8
-1095.86347425042 -286.017297285584 2507.14758671387 12 15 8
-1111.11375563283 -285.641708777716 2498.17676537371 12 15 8
-1071.38433698316 -286.928176977167 2485.12039441647 12 15 8
-1073.59282823647 -286.930772927702 2477.02776676531 13 16 9
-1053.73337547869 -287.575208277978 2470.28352183786 14 17 10
-1035.88305287573 -288.16185979703 2463.31252756073 14 17 10
-1011.01458905685 -288.953649780779 2456.62943495889 12 15 8
-1079.41524084866 -287.026197259259 2444.91538669011 12 15 8
-1051.53918438546 -287.905561844905 2438.36091707923 14 17 10
-1032.6913099879 -288.522252186443 2431.22796262931 14 17 10
-969.729795236913 -290.429183895865 2425.94318564545 13 16 9
-1068.79981646522 -287.793544879378 2389.64378527818 12 15 8
-1049.95914997201 -288.41100193876 2382.23762250206 14 17 10
-996.250778427435 -290.118841633176 2367.5138302885 18 24 10
-1156.792974606 -285.462934085166 2355.7306209603 18 21 0
-1066.80818551968 -288.173219260009 2349.75147134943 20 20 0
-976.883828849929 -296.169363810611 2687.7269711202 5 8 0
-929.068055941352 -297.810904420104 2677.43881867482 15 18 9
-975.496672747586 -296.433055766218 2663.43305636419 15 18 9
-962.64370219674 -296.908651197627 2656.81760963927 14 17 10
-967.079290405544 -296.916260661265 2639.90258324957 11 13 8
-980.553239802287 -296.639102980738 2622.03495831325 11 13 8
-1009.88588929846 -295.789726543288 2610.73668916851 11 13 8
-959.879102293241 -297.434047482585 2607.86164869977 12 14 9
-953.059009438651 -297.721339531255 2600.33024893323 12 14 9
-990.420702164955 -296.617184531477 2588.39598700805 13 15 10
-1008.70070157033 -296.112578072635 2578.49495448526 13 15 10
-964.731707411687 -297.570621275393 2574.50036010226 12 14 9
-963.936884346642 -297.667629514341 2566.35247707357 11 13 8
-1002.29176217278 -296.527636682108 2554.75706741045 10 12 7
-1008.52065776409 -296.401373834826 2546.10411684956 12 15 8
-1043.85617219524 -295.353711265382 2535.08294083928 12 15 8
-1025.99477056798 -295.988654496154 2528.49310129118 13 16 9
-1077.38098850301 -294.429988145082 2516.47139496381 13 16 9
-1083.60345372616 -294.300891128908 2508.08213336732 12 15 8
-1092.83538682032 -294.075854070311 2499.5092653777 12 15 8
-1090.02585393663 -294.232599901035 2491.81343128062 14 17 10
-1023.0068815519 -296.429948905277 2488.34502971624 14 17 10
-1027.22535556616 -296.364586577043 2479.99392966447 13 16 9
-1083.60630979813 -294.638623255084 2468.49971558045 12 15 8
-1086.21614041632 -294.755881511668 2444.58891489183 11 14 7
-1070.37163368978 -295.32800458441 2437.45561086927 13 16 9
-1012.41235241601 -297.245911233262 2432.21389570403 13 16 9
-938.417359765159 -299.67880672398 2427.36383817772 12 15 8
-992.772348954158 -298.00928757282 2416.77442719171 11 14 7
-1018.04469041681 -297.268015084032 2407.60901578191 11 14 7
-1005.2182373902 -297.745823696797 2399.9547960045 11 14 7
-1021.67056299648 -297.351859493184 2383.14113933332 15 18 11
-965.747652556594 -299.213196369779 2376.58806157453 17 20 13
-1007.25654349199 -298.013209746152 2359.12112055964 19 20 4
-1001.45112515528 -298.265820473972 2351.078125593 26 23 0
-979.672548234609 -304.271324793258 2687.36870554687 28 31 22
-966.815411538189 -304.782437702945 2680.87795029061 16 19 10
-946.925989903027 -305.533008837831 2675.20035726614 16 19 10
-962.624754378231 -305.223357324013 2648.63046496209 15 16 11
-952.787390658386 -305.632916051031 2641.55937212028 12 14 9
-966.055710005489 -305.254859150656 2631.83681967713 12 14 9
-970.49031146175 -305.251174277112 2614.96316119626 11 13 8
-978.941168815491 -305.109099766973 2597.72019828915 11 13 8
-947.014983031143 -306.274785733589 2592.70008613182 12 14 9
-1059.68615687071 -302.489679870864 2573.61562359055 11 13 8
-927.354282082863 -307.095716829227 2578.00774922478 11 13 8
-981.988645750168 -305.368068058651 2556.56183092814 9 11 6
-955.302471380173 -306.429277349569 2542.40623336213 11 14 7
-1031.79350703991 -303.871029229062 2528.05320103831 15 18 11
-1075.35583861097 -302.51138814016 2508.71843484716 14 17 10
-1089.60656963408 -302.089238505652 2499.76466086799 13 16 9
-1079.7730763532 -302.496856710732 2492.54438144631 14 17 10
-1065.92740191046 -303.04321412963 2485.53377631841 14 17 10
-980.055958458307 -306.14784546369 2474.80938357775 11 14 7
-1064.93409434523 -303.418980199831 2445.7358846007 11 14 7
-1059.11917389527 -303.688162257112 2438.04647211948 12 15 8
-1083.39107822309 -302.914193898087 2428.908554098 12 15 8
-1046.48919472329 -304.261401488062 2422.610907432 10 13 6
-972.491634663865 -306.898056483254 2417.65173665213 10 13 6
-1015.81521105796 -305.461887857162 2407.73051924621 11 14 7
-1054.1197729704 -304.198001291922 2398.22533255445 11 14 7
-1134.72332079394 -301.525309158781 2379.71525649937 15 18 11
-953.701476182461 -307.963531679506 2368.66368700416 28 26 29
-1018.26222750206 -305.846228681292 2350.78812595491 26 17 0
-970.400545169441 -312.798362412349 2688.593598008 15 17 6
-1002.769184818 -311.687060130146 2676.26268739506 15 16 8
-1013.22933949958 -311.452564018747 2658.80498323127 12 17 10
-952.140461931862 -313.771988107567 2658.10447911203 12 17 10
-955.364008684592 -313.729230746044 2649.49682494471 12 17 11
-936.484196909023 -314.499529900644 2643.44716055154 12 15 8
-951.763899481151 -314.012729501886 2633.45519274784 12 15 8
-978.091411440977 -313.117888853793 2622.33243930049 11 14 7
-985.330377516835 -312.925502504963 2613.39092009161 11 14 7
-977.502538389693 -313.288542819221 2606.05624117458 11 14 7
-967.667092429172 -313.725920775743 2598.88032550881 11 14 7
-957.833070147159 -314.163557717901 2591.64848947623 12 15 8
-923.899683900744 -315.492562721528 2586.67571680296 11 14 7
-988.200846445429 -313.480676870641 2539.71510888596 8 11 4
-1056.66521703537 -311.01190591536 2526.09193529534 12 15 8
-1102.03492511249 -309.397439807639 2514.61789412535 14 17 10
-1066.10371562142 -310.802339925187 2509.42916065898 14 17 10
-1078.34864544051 -310.417073468473 2500.59447061174 12 15 8
-1086.57824007696 -310.180426206342 2492.10076612994 11 14 7
-1135.94722293866 -308.411192709026 2480.92936163313 10 13 6
-1052.06594762552 -311.6743809809 2470.4683811768 9 12 5
-1014.55949731968 -313.283224614723 2448.41021313816 10 13 6
-1050.87413130161 -311.995467789417 2438.48760980047 12 15 8
-1069.13070018513 -311.381222506544 2429.61072017664 11 14 7
-1053.49084634161 -312.102720117542 2414.31848565404 11 14 7
-1014.58787625182 -313.628468745911 2407.81288295908 9 12 5
-999.754457389181 -314.253261789897 2400.22369629709 12 15 8
-1060.11752454141 -312.057123445741 2390.04152441986 14 17 10
-1047.28801393552 -312.605870817238 2382.43063685705 16 19 12
-1092.60281092665 -310.970768906095 2373.1248682861 21 22 17
-1002.0018161962 -314.577380826171 2351.14927663288 22 18 6
-954.091067870536 -321.650984492404 2690.74199260728 22 22 12
-978.422521927367 -320.769714012169 2679.4012024262 15 16 8
-960.956297954707 -321.688418316646 2657.05244559043 12 17 10
-930.015547637363 -322.987077511152 2652.49281187701 12 17 11
-938.264301005111 -322.738272236573 2643.25404735598 13 16 9
-956.559052638926 -322.091641917808 2632.92894092364 13 16 9
-972.841791200226 -321.523499730396 2622.92102756834 13 16 9
-986.108929431649 -321.073825752937 2613.32153411918 13 16 9
-977.275995878447 -321.498990781782 2606.09456062404 12 15 8
-984.514650093323 -321.287210277596 2597.18605397303 12 15 8
-961.622278905468 -322.270304615586 2591.29065640197 11 14 7
-931.332597455658 -323.774974107642 2561.05447313847 9 12 5
-988.182357349912 -321.734990915761 2531.57488009083 11 14 7
-1081.7418197911 -318.078064857973 2516.20297685201 13 16 9
-1084.95409529443 -318.02070808784 2508.05151787789 13 16 9
-1014.89982753663 -320.88774540066 2505.16010425839 12 15 8
-976.969987045337 -322.474814382698 2499.67287131609 10 13 6
-1062.67903709434 -319.192471430244 2477.82681200805 9 12 5
-1016.72688834415 -321.101502769744 2472.64020905429 10 13 6
-1059.0710223247 -319.477223430865 2462.0834862988 10 13 6
-1032.18696015404 -320.62420143487 2455.57926245396 10 13 6
-1024.57220756107 -321.070079734913 2439.82747855954 12 15 8
-995.102519352639 -322.463723563785 2416.77981625806 11 14 7
-1001.32686423179 -322.283552462205 2408.3626058244 10 13 6
-1012.56445131523 -321.901161675509 2399.79643477551 13 16 9
-1018.78706826751 -321.719873476361 2391.45728195148 14 17 10
-1052.07903119762 -320.447867295632 2382.3204122504 16 19 12
-1002.15619707239 -322.527406785029 2375.68757345484 18 21 14
-991.336598313485 -323.032394684804 2367.79500223959 19 18 14
-1051.892230479 -320.725126084723 2350.20604567096 23 21 8
-913.653419995559 -331.605913011447 2696.0581481459 23 23 13
-954.072027109697 -329.983071399172 2682.53981829501 16 17 9
-948.250272556845 -330.306626858614 2675.05912425812 15 18 11
-967.555395705148 -329.570842711806 2664.44908728759 14 17 10
-930.579767462747 -331.208565789554 2660.72170747221 12 17 10
-984.050039762873 -329.02952954192 2646.13969090623 12 17 11
-947.07850873387 -330.668223376374 2642.25113547394 12 15 8
-934.226299653167 -331.289147593829 2635.44988500035 12 15 8
-915.347747857536 -332.165430722342 2629.23717879775 11 14 7
-936.656664157224 -331.341791520312 2618.62261964837 11 14 7
-989.103949695039 -329.198269604261 2604.87617516723 11 14 7
-1012.41403286128 -328.286499423873 2594.3693592014 11 14 7
-971.438644433164 -330.098877016537 2590.33696060705 10 13 6
-940.933205448428 -331.621939781505 2568.51357995409 10 13 6
-928.301519600881 -332.311281640445 2553.0200559999 7 10 3
-950.811129047939 -331.505008505764 2534.57708951705 9 12 5
-1041.38461949827 -328.083436699198 2479.20331339744 10 13 6
-1020.7221549862 -329.110149593089 2464.33425236376 11 14 7
-1072.09606501572 -326.983457283638 2453.40348414713 12 15 8
-1033.17207558853 -328.720218714877 2447.49282067663 12 15 8
-1087.54786810767 -326.461674295841 2436.72279344951 11 14 7
-1034.99477236669 -328.924231531115 2415.15394980837 10 13 6
-1028.1795017974 -329.286780887533 2407.35327292599 12 15 8
-1039.41579014838 -328.87392664807 2398.86124536164 14 17 10
-1073.71372283601 -327.46905626519 2389.65841386653 16 19 12
-1089.95889197726 -326.838713596235 2381.19495446933 17 20 13
-1006.14842148676 -330.581956641127 2367.46055520815 20 19 15
-896.332116799258 -340.743008836184 2698.3385961222 22 24 13
-851.30857941239 -342.842580148178 2695.76221890876 18 19 11
-995.265577818632 -336.466482483959 2669.14762502345 15 18 11
-1025.62501475455 -335.181784483219 2657.30384715481 11 16 9
-991.657471320658 -336.784505631445 2653.37216038013 11 16 9
-916.491112210222 -340.240266599465 2654.10605069481 12 17 10
-908.663438206234 -340.671889493139 2646.68195471292 12 15 8
-923.948358397744 -340.063889265102 2636.61619931117 12 15 8
-884.973749910995 -341.897504479417 2632.57990990938 12 15 8
-908.295802609609 -340.926966265612 2621.66838374173 11 14 7
-990.887724373145 -337.28384523041 2604.70406152733 11 14 7
-972.007905737166 -338.212052677083 2598.48511550037 11 14 7
-973.220509642066 -338.234507201336 2590.17640612016 10 13 6
-945.3050521141 -339.571695738606 2584.67029051435 10 13 6
-985.689143075884 -337.824968541253 2572.63399026794 10 13 6
-950.746640360606 -339.480461722408 2567.6422652565 10 13 6
-1003.41008240011 -337.624969778902 2506.03024962587 9 12 5
-1018.67239109008 -337.006250099798 2496.85041496795 9 12 5
-1046.18055601866 -335.90288525207 2478.92503736182 10 13 6
-1044.58109123909 -336.120107786707 2462.97877647492 12 15 8
-1028.73096003098 -336.913554182639 2455.82765673772 12 15 8
-993.82041672707 -338.575578375251 2449.58915950757 12 15 8
-1068.46993779009 -335.317286564661 2429.73490148473 9 12 5
-1052.82637306887 -336.171818771329 2414.44485861493 11 14 7
-1095.15439091209 -334.309222715655 2404.78322125992 13 16 9
-1073.29144833497 -335.377115366699 2397.67129940034 15 18 11
-1091.54464179068 -334.612031994444 2389.09761629971 17 20 13
-1003.91793054145 -338.828853881589 2367.55533659772 24 23 19
-962.018328284684 -340.818020329907 2360.33710718089 19 18 14
-914.323516611655 -343.145870001082 2344.59378959279 23 18 0
-840.014501588732 -351.909185650637 2697.22112764023 19 22 13
-914.62008109261 -348.442783007936 2679.3077113541 15 18 11
-1034.44921440657 -342.81932710659 2656.22438204246 13 16 9
-927.948620232823 -348.291344975846 2627.88007304161 13 16 9
-907.059536231607 -349.368925606085 2621.8134688394 13 16 9
-931.384860440073 -348.286606759445 2610.91879983084 12 15 8
-976.804345339912 -346.194211764383 2598.01247122282 12 15 8
-971.98923473009 -346.502584802663 2590.31310825372 11 14 7
-948.089642192032 -347.724533878914 2584.41878457997 11 14 7
-1005.55172196826 -345.050819979772 2570.79622243096 10 13 6
-1019.81863954627 -344.443841502662 2561.39895200116 10 13 6
-992.908010285966 -345.810183459326 2555.69752593523 9 12 5
-999.169821875554 -345.96521322722 2506.35723672219 9 12 5
-1030.69908300512 -344.597110590699 2487.99039219958 11 14 7
-1041.94402221095 -344.129241262973 2479.21933022416 12 15 8
-1036.12667495069 -344.482932395656 2471.54335134835 13 16 9
-1018.26759516864 -345.417340483268 2464.53189895836 14 17 10
-995.393904134358 -346.594362981455 2457.69819115156 11 14 7
-979.547099172037 -347.433033991288 2450.36851149881 12 15 8
-1047.98105515173 -344.201846390575 2438.75267051371 10 13 6
-1070.25632464562 -343.197407197454 2429.68129665043 9 12 5
-1003.24574369501 -346.508182917596 2424.68941691674 11 14 7
-1080.69201254806 -342.834693706112 2413.31750892067 13 16 9
-1083.90280676077 -342.74970893068 2405.25360873918 14 17 10
-1100.15154630204 -342.033030966201 2396.73398114341 17 20 13
-986.646977971704 -347.815502471601 2368.02944631769 23 22 17
-944.745367932049 -349.920316265513 2360.7655147986 19 18 13
-960.997551483241 -349.202847786862 2352.1214569458 18 19 11
-906.134604552621 -357.14333330802 2688.72360462186 19 22 13
-962.645318525612 -354.383591650371 2673.26792190402 16 19 12
-978.937843517712 -353.644647986648 2663.07023918981 13 16 9
-1015.33205190812 -351.892492015643 2650.53622834377 13 16 9
-957.239509808418 -354.898354268418 2649.32532017285 12 17 10
-894.556370378936 -358.302599115103 2631.55297175124 11 14 7
-952.045903449626 -355.481990121987 2617.01516438978 11 14 7
-992.653048797457 -353.589666291975 2596.41745648418 11 14 7
-968.748468177334 -354.876938552993 2590.64794533239 11 14 7
-951.87921441971 -355.809350551423 2584.07029285042 11 14 7
-1007.33645085634 -353.081522147057 2570.64573385386 10 13 6
-969.373782487281 -355.081602137442 2565.98874389663 9 12 5
-911.329439557342 -358.100929716149 2562.88891195839 9 12 5
-909.958866741317 -358.408649186986 2537.89959157037 7 10 3
-991.917132395085 -354.479548447389 2506.89964635874 10 13 6
-1032.27944601896 -352.503422535064 2495.9607905912 12 15 8
-1026.46111986916 -352.874285458015 2488.29530757547 12 15 8
-1042.72595347753 -352.121247426393 2479.19503351249 13 16 9
-1044.93706807304 -352.082810406022 2471.03460981634 13 16 9
-1019.04730386514 -353.475673039887 2464.51392702408 14 17 10
-1057.79327764811 -351.720697847577 2438.29345323064 10 13 6
-1077.05951868033 -350.809689846749 2429.39120593094 9 12 5
-1074.25155311836 -351.024846349433 2421.57139859032 11 14 7
-1057.39955411227 -351.957515677447 2414.31909434391 13 16 9
-1067.63391311198 -351.506061549501 2405.91922043562 14 17 10
-1084.88817147256 -350.694784647549 2397.31949376702 17 20 13
-1098.12825144547 -350.087799349545 2388.94643957593 19 22 15
-1007.27144702145 -354.880915644868 2375.69479990449 19 22 15
-965.36223895286 -357.100008539889 2368.60512157979 20 19 14
-904.407897318341 -360.297185275758 2361.7133487308 18 17 12
-1002.42897678084 -360.417172277604 2676.34471651919 18 21 14
-971.674547918461 -362.210506805243 2663.9718506182 17 20 13
-939.713554976055 -363.98825831818 2659.65493393235 13 16 9
-962.037970573419 -362.885192761025 2648.76865748768 12 15 8
-960.236073065532 -363.062416352487 2640.77711667391 13 16 9
-881.258997997794 -367.424809000331 2633.02221938473 12 15 8
-968.901377115141 -362.844938469028 2615.22447155449 11 14 7
-940.973794058125 -364.412147875447 2609.94528493542 11 14 7
-959.269979490504 -363.518827723251 2599.81969244378 11 14 7
-960.483832264658 -363.534535619511 2591.47874172458 12 15 8
-939.595060216745 -364.728333025564 2585.26583589521 11 14 7
-916.700231894489 -366.029984517751 2579.12442951074 11 14 7
-909.880778998186 -366.474756869546 2571.39892773657 10 13 6
-915.115670811064 -366.276130895422 2562.57394914257 10 13 6
-939.432717858734 -365.05770593421 2552.14892051492 9 12 5
-915.5402626007 -366.4141972563 2545.83118611141 7 10 3
-964.959890383969 -363.851775852014 2533.53206672128 10 13 6
-917.973179105771 -366.443753054584 2528.92896997303 12 15 8
-988.471989703226 -362.75008077112 2515.33368640351 9 12 5
-1060.969010906 -358.945550370659 2501.97676481034 10 13 6
-1003.94608640678 -362.075644509067 2497.93626667578 12 15 8
-993.109947426964 -362.732893654575 2490.52665819318 13 16 9
-995.739090615277 -362.820527432656 2465.89286384516 13 16 9
-1025.25615584304 -361.385804481717 2448.02481385087 10 13 6
-1072.82652982749 -358.976238478223 2429.62049102265 11 14 7
-1090.08511060308 -358.120407820167 2420.89966779385 14 17 10
-1032.30201599046 -361.37561179038 2407.32675590959 17 20 13
-1068.61927363587 -359.491904090616 2397.94149686515 17 20 13
-1077.84929540911 -359.066089621498 2389.65890923855 16 19 12
-1017.90060996372 -362.728580228448 2342.95366574644 18 14 0
-957.163528477909 -371.13474069455 2673.9697143737 20 23 16
-911.546764206657 -373.929858819388 2654.72371240058 11 14 7
-877.581732564059 -375.910471537592 2650.29743004517 13 16 9
-902.924550133177 -374.579191712938 2639.02039747689 12 15 8
-978.517285052932 -370.43747851393 2622.36811095021 11 14 7
-946.774422586754 -372.376325265146 2609.35292794782 10 13 6
-946.98416758834 -372.44653991574 2601.07997560486 11 14 7
-949.203387088919 -372.403958651578 2592.60723391127 11 14 7
-902.191238630973 -375.11954326797 2588.87491493407 10 13 6
-894.36710592626 -375.640625184413 2581.22568328819 10 13 6
-903.834734858943 -375.274044091338 2563.58365972846 9 12 5
-970.341042904276 -371.622212610599 2549.53298426437 9 12 5
-950.462052318521 -372.81845635667 2542.96918076845 7 10 3
-942.848119867184 -373.40624297221 2527.03297267823 12 15 8
-1032.42944105258 -368.447613466887 2512.08698267392 11 14 7
-1047.69538959229 -367.665713855018 2502.94942491137 11 14 7
-1028.82219565165 -368.804656308752 2496.24529182069 13 16 9
-1024.0070229676 -369.152580379306 2488.50588807525 14 17 10
-978.033258871654 -371.819629509544 2483.35018658994 14 17 10
-1053.73124010478 -367.705080602781 2462.55534261863 13 16 9
-1024.82766341947 -369.410985893717 2456.15496042041 9 12 5
-1048.11594932513 -368.171800586991 2446.85161005425 10 13 6
-1081.4364665491 -366.364659114506 2437.17332669339 11 14 7
-1099.90066500544 -365.467696592177 2420.49443888059 15 18 11
-1057.96085125055 -367.911890412582 2414.35924076339 15 18 11
-1038.09876609285 -369.108853664591 2407.13394202541 17 20 13
-1047.33214265263 -368.659699643994 2398.74529793222 17 20 13
-1053.55466181188 -368.380281138322 2390.50600717563 15 18 11
-901.049746776988 -382.820571497598 2664.32776178732 14 17 10
-927.401430193021 -381.363500492376 2652.86398375292 12 15 8
-923.591130465117 -381.671105960711 2645.01144146116 12 15 8
-979.296302303351 -378.574477013844 2622.29269769262 10 13 6
-929.250015805082 -381.591751158164 2619.48726283561 10 13 6
-925.440676076629 -381.898828822752 2611.58844236642 10 13 6
-965.849476939616 -379.61043923443 2599.17731372751 10 13 6
-981.130782643795 -378.795218129067 2589.4659980422 10 13 6
-906.403830383783 -383.433521765108 2571.74729842369 9 12 5
-971.914923206644 -379.662156633449 2557.61326564387 9 12 5
-923.906183396877 -382.568766783353 2553.50859393095 9 12 5
-927.131211616712 -382.460742990681 2544.91311696423 7 10 3
-950.443456375147 -381.168877467945 2534.72993559194 10 13 6
-967.726871854366 -380.230893476214 2525.13602082393 12 15 8
-1026.18153099032 -376.864043778888 2512.57241650305 11 14 7
-1057.51580377818 -375.093731651349 2502.26757821384 13 16 9
-1035.628133502 -376.462578693435 2495.79895884823 14 17 10
-991.654978316579 -379.13632844694 2490.67098453064 14 17 10
-1029.00891003333 -377.008102875368 2480.13961785342 14 17 10
-1016.16305071315 -377.844250352152 2472.85910658166 13 16 9
-1049.49499023798 -375.950676423578 2462.82720464888 12 15 8
-998.506787155864 -379.042480486587 2457.63762173883 9 12 5
-956.559180116795 -381.601654798993 2451.6928797563 9 12 5
-993.90291824077 -379.468674755263 2441.56501898334 11 14 7
-1034.66160271663 -377.281353520823 2415.36138248696 16 19 12
-1036.8731144851 -377.224809593039 2407.21420248624 16 19 12
-1046.10698781271 -376.751251904525 2398.82302097617 16 19 12
-1038.28552392985 -377.28921947106 2391.05135201633 16 19 12
-862.806833752846 -388.090901196012 2354.2284170887 19 20 12
-1063.30603671412 -381.109707885482 2660.61531756282 23 26 19
-932.99399034501 -389.251877682309 2660.48504812983 20 23 16
-961.356351832879 -387.60019825409 2648.87160970734 14 17 10
-950.714874563788 -388.421414344834 2633.66856735837 12 15 8
-921.772733256612 -390.280949654631 2628.61046809621 11 14 7
-900.875983107015 -391.648151907714 2622.53251013694 10 13 6
-927.220878017503 -390.116260435749 2611.41438687069 10 13 6
-982.707570736604 -386.792932639712 2597.47797569595 11 14 7
-971.860311093614 -387.542078120232 2590.39500525916 11 14 7
-910.983607867145 -391.451088775847 2579.70454202965 11 14 7
-929.281060181136 -390.40924365675 2569.68891008637 11 14 7
-933.511054244747 -390.232071833274 2561.00761902312 11 14 7
-918.652933064921 -391.229845749464 2553.97408156757 10 13 6
-950.005112176627 -389.381291314551 2543.04408788688 7 10 3
-1005.66623696043 -386.112624907835 2522.23157616743 11 14 7
-991.811982187193 -387.047080034775 2515.14893543872 11 14 7
-1048.46027800317 -383.709206462564 2494.93683121097 12 15 8
-1012.51564756232 -386.007308165334 2489.31358388431 13 16 9
-1028.78616070521 -385.080481549407 2480.1779347343 13 16 9
-1007.90740589162 -386.449050451957 2473.38586451347 13 16 9
-1046.26199888486 -384.155100563004 2463.0406173194 12 15 8
-970.174496256779 -388.939633154963 2459.23176804732 10 13 6
-983.432370649468 -388.197540853202 2450.308313783 11 14 7
-1029.81030798726 -385.403524692695 2439.80385226194 13 16 9
-1027.00433841797 -385.653753548261 2431.86837662139 15 18 11
-1103.47951857137 -380.99031742266 2420.39542115602 16 19 12
-1067.55399133939 -383.291674362267 2414.02205902678 16 19 12
-1043.67455290106 -384.847413270761 2406.98164550372 15 18 11
-1062.94228213447 -383.726644770582 2398.24645881525 16 19 12
-1015.19401156057 -386.839712761409 2383.7400685203 16 19 12
-912.504160291951 -393.447674408318 2361.69033369617 17 19 8
-866.582969729329 -396.380304958839 2354.19471552897 19 20 12
-976.388556317671 -394.518413176269 2679.70995125376 17 20 13
-910.218632265496 -398.831237881119 2679.89452656214 20 23 16
-992.892872345148 -393.635162482147 2661.38036217916 28 31 24
-955.892894966519 -396.08587321549 2657.73170742711 25 28 21
-936.997001727321 -397.380418774298 2651.74766692894 19 22 15
-924.136415897227 -398.289590056164 2644.9643113424 13 16 9
-940.43325170588 -397.33255947243 2634.83231192208 13 16 9
-922.547989430882 -398.563816597775 2628.53475321181 11 14 7
-991.320865089218 -394.326773043452 2604.74344296897 11 14 7
-897.049460835984 -400.456347815153 2606.18672170647 11 14 7
-954.54848098645 -396.85314036499 2592.11842035195 12 15 8
-958.986413814954 -396.736186165916 2575.2361801814 12 15 8
-951.157060313552 -397.322709369018 2567.72072954249 12 15 8
-943.328850566048 -397.909387024334 2560.1604112002 12 15 8
-955.59493990137 -397.204150490954 2550.84229318308 10 13 6
-969.868697971733 -396.368835098564 2541.42284320885 8 11 4
-1005.23586360573 -394.175012530115 2530.39528687852 9 12 5
-961.454850660894 -397.156617489542 2517.42717697135 10 13 6
-1017.90616244976 -393.600798635346 2505.14790377168 11 14 7
-1027.14986070545 -393.084755442071 2496.42767248794 11 14 7
-993.212176341128 -395.352694532395 2490.61473004377 12 15 8
-982.374142260467 -396.131817989496 2483.14832941783 13 16 9
