ply
format ascii 1.0
comment KinectMotionCapture
element vertex 751
property float x
property float y
property float z
property uchar red
property uchar green
property uchar blue
end_header
-996.955215930939 483.222454786301 2473.00004959106 136 137 132
-993.832468986511 484.978526830673 2482.00011253357 138 139 134
-989.469528198242 486.149311065674 2487.99991607666 134 135 129
-984.681308269501 487.125813961029 2493.00003051758 133 134 128
-979.86763715744 488.103181123734 2497.99990653992 133 134 128
-975.418388843536 489.276975393295 2503.99994850159 133 134 128
-970.551490783691 490.256279706955 2509.0000629425 135 136 130
-966.04335308075 491.431951522827 2515.00010490417 136 138 133
-960.359930992126 492.02224612236 2517.99988746643 138 140 135
-955.797970294952 493.199676275253 2523.9999294281 133 135 130
-951.204836368561 494.37803030014 2529.99997138977 143 145 140
-946.207523345947 495.361834764481 2535.00008583069 140 142 137
-940.443396568298 495.9557056427 2538.00010681152 128 130 125
-935.032069683075 496.74579501152 2542.00005531311 127 132 126
-930.695712566376 498.122990131378 2549.00002479553 177 182 176
-927.047431468964 499.891877174377 2558.00008773804 175 180 174
-923.351466655731 501.661539077759 2566.99991226196 185 190 184
-1239.56322669983 445.337563753128 2302.99997329712 201 203 200
-1231.48095607758 444.687366485596 2299.99995231628 203 205 202
-1219.69449520111 442.686200141907 2289.99996185303 199 201 198
-1210.62040328979 441.653907299042 2285.00008583069 170 172 169
-1204.21636104584 441.58998131752 2285.00008583069 166 168 165
-1199.91564750671 442.300826311111 2289.00003433228 172 174 171
-1194.03529167175 442.433685064316 2289.99996185303 169 171 168
-1188.67468833923 442.76151061058 2292.00005531311 148 150 147
-1181.76126480103 442.511409521103 2290.99988937378 142 144 141
-1177.42526531219 443.228900432587 2295.00007629395 142 144 141
-1173.0729341507 443.947851657867 2299.00002479553 137 139 136
-1168.19679737091 444.475263357162 2302.00004577637 134 136 133
-1162.30046749115 444.618046283722 2302.99997329712 150 150 148
-1155.40063381195 444.376438856125 2302.00004577637 143 143 141
-1149.01077747345 444.329470396042 2302.00004577637 132 132 130
-1143.61929893494 444.670110940933 2303.99990081787 135 135 133
-1138.71562480927 445.205271244049 2306.99992179871 134 134 132
-1134.78243350983 446.127861738205 2312.00003623962 135 135 133
-1127.89821624756 445.894092321396 2311.00010871887 134 134 132
-1122.48027324677 446.240693330765 2312.99996376038 156 156 154
-1115.6085729599 446.009993553162 2312.00003623962 181 181 179
-1111.62579059601 446.938127279282 2316.99991226196 152 152 150
-1105.23521900177 446.903258562088 2316.99991226196 139 139 137
-1102.16879844666 448.219835758209 2323.99988174438 135 137 134
-1098.59669208527 449.344843626022 2329.99992370605 138 140 137
-1096.40216827393 451.049566268921 2338.99998664856 149 151 148
-1092.76449680328 452.177047729492 2345.00002861023 169 171 168
-1088.17136287689 452.92004942894 2348.99997711182 167 169 164
-1083.09972286224 453.471511602402 2351.99999809265 146 148 143
-1079.84673976898 454.795479774475 2358.99996757507 143 145 140
-1076.10416412354 455.927819013596 2365.00000953674 136 138 133
-1071.8799829483 456.868529319763 2369.99988555908 135 137 132
-1068.53127479553 458.196043968201 2377.00009346008 135 138 131
-1063.8073682785 458.946406841278 2381.00004196167 136 138 133
-1059.50891971588 459.890633821487 2385.99991798401 135 137 132
-1053.86281013489 460.257917642593 2388.00001144409 138 140 137
-1050.40180683136 461.590021848679 2394.99998092651 137 139 136
-1046.03409767151 462.53776550293 2400.00009536743 134 136 133
-1041.6419506073 463.486582040787 2404.99997138977 135 137 134
-1037.65618801117 464.629262685776 2411.00001335144 137 139 138
-1033.64050388336 465.773046016693 2417.00005531311 138 140 137
-1028.32019329071 466.339826583862 2420.00007629395 138 140 139
-1024.25289154053 467.485785484314 2426.00011825562 132 136 135
-1020.15542984009 468.632727861404 2431.99992179871 130 135 131
-1016.86143875122 470.166146755219 2440.00005722046 133 138 134
-1011.87026500702 470.929801464081 2444.00000572205 137 139 134
-1008.91625881195 472.657978534698 2453.00006866455 137 139 134
-1005.09858131409 474.001795053482 2460.00003814697 136 138 133
-1000.02729892731 474.768489599228 2463.99998664856 134 136 131
-995.742976665497 475.921601057053 2470.00002861023 136 137 132
-992.228925228119 477.461069822311 2477.9999256134 137 138 133
-986.684918403625 478.03807258606 2480.99994659424 136 137 131
-981.916546821594 479.001373052597 2486.00006103516 135 136 130
-976.730763912201 479.773014783859 2490.00000953674 134 135 129
-973.472833633423 481.50897026062 2499.00007247925 135 136 130
-968.620300292969 482.475072145462 2503.99994850159 135 136 130
-962.97425031662 483.056783676147 2506.99996948242 125 127 122
-957.694888114929 483.832031488419 2510.99991798401 139 141 136
-953.531503677368 485.186189413071 2517.99988746643 133 135 130
-949.331521987915 486.541330814362 2525.00009536743 139 141 136
-945.095181465149 487.897276878357 2532.00006484985 135 137 132
-939.339995384216 488.483339548111 2535.00008583069 122 124 119
-934.305489063263 489.455580711365 2539.99996185303 119 124 118
-928.514659404755 490.043252706528 2542.99998283386 143 148 142
-925.608396530151 492.173373699188 2553.99990081787 172 177 171
-921.564400196075 493.726253509521 2562.00003623962 176 181 175
-918.905973434448 496.05068564415 2573.99988174438 171 176 170
-1238.95466327667 438.840210437775 2302.00004577637 203 205 202
-1232.4835062027 438.771665096283 2302.00004577637 204 206 205
-1220.16084194183 436.608642339706 2290.99988937378 193 195 194
-1211.61580085754 435.782045125961 2286.99994087219 162 164 161
-1202.04603672028 434.576421976089 2280.99989891052 167 169 166
-1197.75855541229 435.277909040451 2285.00008583069 169 171 168
-1190.84823131561 435.028582811356 2283.99991989136 154 156 153
-1186.54310703278 435.733288526535 2288.00010681152 143 145 142
-1179.64279651642 435.487389564514 2286.99994087219 141 143 138
-1174.80659484863 436.004936695099 2289.99996185303 142 144 139
-1171.49019241333 437.095075845718 2296.0000038147 138 140 135
-1167.63889789581 437.996357679367 2301.00011825562 132 134 129
-1162.25159168243 438.327997922897 2302.99997329712 133 135 130
-1155.35342693329 438.090294599533 2302.00004577637 138 140 135
-1148.46611022949 437.8542304039 2301.00011825562 126 128 123
-1142.0863866806 437.810063362122 2301.00011825562 138 140 135
-1135.71178913116 437.76747584343 2301.00011825562 132 134 131
-1131.30581378937 438.487410545349 2305.0000667572 125 127 124
-1124.93050098419 438.447773456573 2305.0000667572 112 114 111
-1119.53067779541 438.790053129196 2306.99992179871 171 173 170
-1114.12453651428 439.133703708649 2309.00001525879 166 168 165
-1109.67171192169 439.859181642532 2312.99996376038 144 146 145
-1103.29341888428 439.825296401978 2312.99996376038 142 144 143
-1097.39398956299 439.983040094376 2313.99989128113 138 140 137
-1093.37937831879 440.90262055397 2319.00000572205 137 139 136
-1091.21644496918 442.583918571472 2328.00006866455 138 140 137
-1087.14425563812 443.505942821503 2332.99994468689 148 150 147
-1082.58533477783 444.239050149918 2336.99989318848 144 146 143
-1078.46903800964 445.163547992706 2342.00000762939 140 142 139
-1075.24466514587 446.469366550446 2348.99997711182 140 142 139
-1071.53069972992 447.586268186569 2355.00001907349 139 141 138
-1067.78764724731 448.704421520233 2361.00006103516 139 141 138
-1065.36364555359 450.393736362457 2369.99988555908 139 141 138
-1062.00051307678 451.704114675522 2377.00009346008 139 141 138
-1057.27028846741 452.445566654205 2381.00004196167 137 139 134
-1051.63884162903 452.808082103729 2382.99989700317 135 137 132
-1046.43845558167 453.361839056015 2385.99991798401 135 137 132
-1043.83969306946 455.056726932526 2394.99998092651 137 139 134
-1040.76206684113 456.562757492065 2403.00011634827 136 138 133
-1037.6433134079 458.069711923599 2411.00001335144 135 137 132
-1032.77349472046 458.817839622498 2414.99996185303 135 137 132
-1027.03475952148 459.187060594559 2417.00005531311 134 136 131
-1022.97687530518 460.317373275757 2423.00009727478 134 136 131
-1019.30797100067 461.638599634171 2430.0000667572 134 136 131
-1014.77026939392 462.580889463425 2434.99994277954 135 137 132
-1010.20801067352 463.52431178093 2440.00005722046 136 138 133
-1006.03199005127 464.658617973328 2446.00009918213 136 138 133
-1002.23422050476 465.983927249908 2453.00006866455 137 139 134
-997.183203697205 466.740310192108 2457.00001716614 136 138 133
-992.918789386749 467.877596616745 2463.00005912781 136 138 133
-989.02440071106 469.205856323242 2470.00002861023 135 137 132
-984.696209430695 470.345079898834 2476.0000705719 134 136 131
-979.547321796417 471.1052775383 2480.00001907349 134 136 131
-975.163400173187 472.246408462524 2486.00006103516 136 138 133
-971.138060092926 473.57839345932 2493.00003051758 137 139 134
-966.689646244049 474.721312522888 2499.00007247925 137 139 134
-961.826145648956 475.675106048584 2503.99994850159 136 138 133
-957.318603992462 476.819813251495 2509.99999046326 137 139 134
-953.158915042877 478.155374526978 2516.99995994568 134 136 131
-948.586523532867 479.301869869232 2523.00000190735 135 137 132
-943.609833717346 480.25918006897 2528.00011634827 137 139 134
-937.866270542145 480.837374925613 2530.99989891052 131 133 128
-932.107627391815 481.416314840317 2533.99991989136 122 124 119
-926.334142684937 481.996238231659 2536.99994087219 125 127 122
-923.444807529449 484.096735715866 2548.00009727478 130 132 127
-920.137226581573 486.008077859879 2558.00008773804 156 158 153
-918.204545974731 488.680243492126 2572.00002670288 157 159 154
-1244.28069591522 432.23050236702 2299.99995231628 202 204 201
-1238.88599872589 432.537466287613 2302.00004577637 201 203 200
-1230.27527332306 431.718975305557 2298.00009727478 199 201 200
-1219.56384181976 430.151224136353 2289.99996185303 185 187 186
-1212.08298206329 429.712682962418 2288.00010681152 156 158 155
-1203.56631278992 428.900420665741 2283.99991989136 165 167 164
-1196.65122032166 428.653448820114 2282.99999237061 167 169 166
-1189.74828720093 428.408294916153 2282.00006484985 151 153 150
-1185.96887588501 429.291129112244 2286.99994087219 143 145 142
-1179.58891391754 429.23703789711 2286.99994087219 141 143 138
-1174.75414276123 429.747611284256 2289.99996185303 140 142 137
-1170.9291934967 430.635005235672 2295.00007629395 141 143 138
-1165.55988788605 430.960983037949 2296.99993133545 131 133 128
-1160.18545627594 431.288480758667 2299.00002479553 129 131 126
-1152.79805660248 430.867195129395 2296.99993133545 144 146 141
-1146.42536640167 430.822640657425 2296.99993133545 120 122 117
-1139.56201076508 430.592209100723 2296.0000038147 135 137 132
-1133.2026720047 430.550783872604 2296.0000038147 132 134 131
-1128.81195545197 431.260883808136 2299.99995231628 123 125 122
-1124.40395355225 431.97238445282 2303.99990081787 100 102 99
-1118.03793907166 431.93531036377 2303.99990081787 161 163 160
-1112.64157295227 432.274639606476 2305.99999427795 155 157 154
-1106.75919055939 432.427823543549 2306.99992179871 146 148 147
-1100.87597370148 432.582527399063 2308.00008773804 142 144 143
-1094.51746940613 432.551085948944 2308.00008773804 138 140 137
-1090.04902839661 433.270633220673 2312.00003623962 137 139 136
-1086.96913719177 434.553563594818 2319.00000572205 135 137 134
-1083.38904380798 435.650378465652 2325.00004768372 136 138 135
-1079.31661605835 436.560958623886 2329.99992370605 135 137 134
-1075.68120956421 437.660038471222 2335.99996566772 139 141 138
-1071.55919075012 438.573002815247 2341.00008010864 138 140 137
-1068.32337379456 439.861804246902 2348.00004959106 137 139 136
-1065.05286693573 441.151708364487 2355.00001907349 138 140 137
-1062.19696998596 442.630052566528 2362.99991607666 140 142 139
-1058.40742588043 443.73494386673 2368.99995803833 140 142 139
-1055.47642707825 445.215463638306 2377.00009346008 137 139 134
-1051.18107795715 446.13516330719 2381.99996948242 135 137 132
-1045.98462581635 446.681499481201 2384.99999046326 135 137 132
-1042.08219051361 447.790712118149 2391.00003242493 137 139 134
-1038.15031051636 448.901057243347 2397.0000743866 138 140 135
-1035.04908084869 450.386971235275 2404.99997138977 137 139 134
-1030.19666671753 451.124846935272 2408.99991989136 136 138 133
-1025.32541751862 451.863825321198 2413.00010681152 135 137 132
-1020.43485641479 452.603846788406 2417.00005531311 134 136 131
-1016.78359508514 453.906655311584 2424.00002479553 134 136 131
-1012.67993450165 455.023199319839 2430.0000667572 134 136 131
-1008.13210010529 455.953478813171 2434.99994277954 137 139 134
-1004.3820142746 457.259297370911 2441.99991226196 136 138 133
-999.779164791107 458.191633224487 2447.00002670288 135 137 132
-995.151162147522 459.124863147736 2451.99990272522 135 137 132
-990.498244762421 460.059106349945 2457.00001716614 135 137 132
-987.021386623383 461.555987596512 2464.99991416931 135 137 132
-982.707738876343 462.679356336594 2470.99995613098 134 136 131
-977.968573570251 463.616400957108 2476.0000705719 133 135 130
-973.98853302002 464.928895235062 2483.00004005432 135 137 132
-969.193160533905 465.867727994919 2487.99991607666 136 138 133
-964.759230613709 466.994732618332 2493.99995803833 136 138 133
-959.910213947296 467.935353517532 2499.00007247925 137 139 134
-956.179916858673 469.438642263412 2506.99996948242 138 140 135
-951.271772384644 470.381021499634 2512.00008392334 135 137 132
-947.089791297913 471.698760986328 2519.00005340576 135 137 132
-942.124724388123 472.642779350281 2523.9999294281 137 139 134
-937.504529953003 473.774969577789 2529.99997138977 136 138 133
-932.485282421112 474.720656871796 2535.00008583069 127 129 124
-927.074730396271 475.479811429977 2539.00003433228 124 126 121
-922.731101512909 476.801633834839 2546.0000038147 129 131 126
-918.710291385651 478.311538696289 2553.99990081787 149 151 146
-916.789352893829 480.945944786072 2568.00007820129 154 156 151
-914.084553718567 483.206570148468 2579.99992370605 162 164 159
-1245.29373645782 426.303327083588 2302.00004577637 201 203 200
-1235.58986186981 425.125002861023 2296.0000038147 197 199 196
-1225.3919839859 423.76372218132 2289.00003433228 193 195 194
-1215.24047851563 422.404736280441 2282.00006484985 159 161 158
-1210.43241024017 422.898650169373 2285.00008583069 153 155 152
-1203.50682735443 422.653943300247 2283.99991989136 165 167 164
-1196.59352302551 422.411054372787 2282.99999237061 165 167 164
-1189.17095661163 421.984940767288 2280.99989891052 154 156 153
-1183.84039402008 422.300606966019 2282.99999237061 145 147 144
-1178.50482463837 422.617793083191 2285.00008583069 134 136 131
-1172.65129089355 422.751605510712 2286.00001335144 133 135 130
-1169.349193573 423.811614513397 2292.00005531311 139 141 136
-1165.00461101532 424.503147602081 2296.0000038147 134 136 131
-1160.1390838623 425.011247396469 2299.00002479553 127 129 124
-1153.75697612762 424.966305494308 2299.00002479553 149 151 146
-1147.87936210632 425.107687711716 2299.99995231628 123 125 120
-1140.01655578613 424.51137304306 2296.99993133545 127 129 124
-1134.14978981018 424.655824899673 2298.00009727478 130 132 129
-1129.26399707794 425.171256065369 2301.00011825562 120 122 119
-1124.36676025391 425.688087940216 2303.99990081787 99 101 98
-1116.06109142303 424.913048744202 2299.99995231628 159 161 158
-1109.22992229462 424.693822860718 2299.00002479553 141 143 140
-1102.88846492767 424.6606528759 2299.00002479553 146 148 147
-1098.93643856049 425.552368164063 2303.99990081787 144 146 145
-1093.53864192963 425.891309976578 2305.99999427795 136 138 135
-1090.02006053925 426.970273256302 2312.00003623962 136 138 135
-1085.53540706635 427.681058645248 2315.99998474121 142 144 141
-1081.03275299072 428.39303612709 2319.9999332428 143 145 142
-1076.97546482086 429.290890693665 2325.00004768372 141 143 140
-1073.3550786972 430.374562740326 2331.00008964539 141 143 140
-1069.70536708832 431.459337472916 2336.99989318848 140 142 139
-1065.57190418243 432.360678911209 2342.00000762939 137 139 136
-1060.96220016479 433.078527450562 2345.99995613098 137 139 136
-1058.58170986176 434.720546007156 2355.00001907349 137 139 136
-1056.15556240082 436.363607645035 2364.00008201599 137 139 136
-1053.23934555054 437.823086977005 2371.99997901917 136 138 133
-1049.40021038055 438.91453742981 2378.00002098084 135 137 132
-1043.77710819244 439.268827438354 2380.00011444092 135 137 132
-1039.88945484161 440.362393856049 2385.99991798401 136 138 133
-1035.97223758698 441.457033157349 2391.99995994568 138 140 135
-1034.60741043091 443.660080432892 2404.00004386902 138 140 135
-1030.61401844025 444.756746292114 2410.00008583069 138 140 135
-1025.31599998474 445.300877094269 2413.00010681152 137 139 134
-1018.31567287445 445.107877254486 2411.99994087219 137 139 134
-1014.25957679749 446.207702159882 2417.99998283386 137 139 134
-1010.59007644653 447.493046522141 2424.99995231628 138 140 135
-1006.88481330872 448.779314756393 2431.99992179871 138 140 135
-1002.32136249542 449.697554111481 2437.00003623962 136 138 133
-996.915817260742 450.247704982758 2440.00005722046 135 137 132
-991.902112960815 450.983345508575 2444.00000572205 135 137 132
-988.078117370605 452.273517847061 2450.99997520447 135 137 132
-984.618723392487 453.749120235443 2459.00011062622 136 138 133
-981.515228748322 455.410152673721 2467.99993515015 136 138 133
-976.785063743591 456.334054470062 2473.00004959106 135 137 132
-972.029566764832 457.25879073143 2477.9999256134 135 137 132
-966.080009937286 457.63087272644 2480.00001907349 135 137 132
-962.442278862 459.110975265503 2487.99991607666 135 137 132
-958.378672599792 460.407435894012 2494.99988555908 135 137 132
-955.423057079315 462.258398532867 2505.00011444092 136 138 133
-950.142443180084 463.002979755402 2509.0000629425 138 140 135
-946.345269680023 464.486509561539 2516.99995994568 138 140 135
-941.386580467224 465.417295694351 2522.0000743866 137 139 134
-936.401963233948 466.348886489868 2526.99995040894 138 140 135
-931.391477584839 467.281252145767 2532.00006484985 134 136 131
-926.720321178436 468.39901804924 2538.00010681152 120 122 117
-922.742545604706 469.886600971222 2546.0000038147 128 130 125
-918.722450733185 471.374988555908 2553.99990081787 133 135 130
-916.088104248047 473.602443933487 2565.99998474121 147 149 144
-914.098262786865 476.199835538864 2579.99992370605 154 156 151
-913.791537284851 479.72097992897 2598.99997711182 180 181 176
-1239.81690406799 418.176978826523 2292.00005531311 199 201 198
-1231.2194108963 417.38173365593 2288.00010681152 197 199 196
-1221.04597091675 416.041254997253 2280.99989891052 188 190 189
-1211.98391914368 415.067821741104 2276.00002288818 157 159 156
-1209.31327342987 416.284441947937 2282.99999237061 154 156 153
-1201.86805725098 415.8616065979 2280.99989891052 165 167 164
-1196.53713703156 416.169762611389 2282.99999237061 165 167 164
-1189.63778018951 415.93274474144 2282.00006484985 156 158 155
-1184.82458591461 416.42639040947 2285.00008583069 146 148 145
-1177.93762683868 416.192680597305 2283.99991989136 134 136 131
-1172.08862304688 416.325002908707 2285.00008583069 131 133 128
-1168.79057884216 417.369782924652 2290.99988937378 138 140 135
-1164.95788097382 418.233782052994 2296.0000038147 134 136 131
-1160.09402275085 418.734908103943 2299.00002479553 129 131 126
-1153.21159362793 418.509006500244 2298.00009727478 142 144 139
-1147.83728122711 418.830871582031 2299.99995231628 129 131 126
-1139.97602462769 418.243765830994 2296.99993133545 120 122 117
-1134.60421562195 418.568670749664 2299.00002479553 128 130 127
-1128.73566150665 418.712884187698 2299.99995231628 120 122 119
-1122.86651134491 418.858468532562 2301.00011825562 110 112 109
-1113.60025405884 417.731374502182 2295.00007629395 160 162 159
-1106.7841053009 417.515844106674 2293.99991035461 140 142 139
-1100.45790672302 417.48371720314 2293.99991035461 145 147 146
-1096.99785709381 418.544799089432 2299.99995231628 145 147 146
-1093.03522109985 419.425129890442 2305.0000667572 136 138 135
-1089.52069282532 420.488625764847 2311.00010871887 135 137 134
-1085.03985404968 421.189367771149 2315.00005722046 143 145 142
-1079.60915565491 421.52738571167 2316.99991226196 143 145 142
-1075.09827613831 422.23060131073 2321.00009918213 139 141 138
-1070.56903839111 422.934919595718 2325.00004768372 141 143 140
-1067.39485263824 424.186110496521 2332.00001716614 141 143 140
-1064.18609619141 425.438433885574 2338.99998664856 140 142 139
-1060.03820896149 426.328092813492 2344.00010108948 139 141 138
-1057.21473693848 427.764415740967 2351.99999809265 138 140 137
-1054.3509721756 429.201781749725 2359.99989509583 137 139 136
-1051.89096927643 430.822104215622 2368.99995803833 135 137 132
-1048.06113243103 431.897938251495 2375 136 138 133
-1044.20149326324 432.97478556633 2381.00004196167 135 137 132
-1039.44063186646 433.688968420029 2384.99999046326 135 137 132
-1035.52722930908 434.767931699753 2391.00003242493 137 139 134
-1032.87506103516 436.393469572067 2400.00009536743 137 139 134
-1028.46610546112 437.292575836182 2404.99997138977 137 139 134
-1023.18274974823 437.829166650772 2407.99999237061 136 138 133
-1017.46368408203 438.184946775436 2410.00008583069 136 138 133
-1012.57503032684 438.905328512192 2414.00003433228 136 138 133
-1009.33408737183 440.35392999649 2421.99993133545 137 139 134
-1006.0521364212 441.80354475975 2430.0000667572 138 140 135
-1001.90651416779 442.890495061874 2436.00010871887 137 139 134
-995.687425136566 443.069308996201 2437.00003623962 136 138 133
-990.682780742645 443.794548511505 2440.99998474121 136 138 133
-987.271010875702 445.247918367386 2448.99988174438 136 138 133
-983.817934989929 446.702241897583 2457.00001716614 136 138 133
-979.925453662872 447.975635528564 2463.99998664856 135 137 132
-974.022090435028 448.340833187103 2466.00008010864 134 136 131
-968.894243240356 449.070602655411 2470.00002861023 136 138 133
-963.746309280396 449.801206588745 2473.99997711182 137 139 134
-960.125863552094 451.2600004673 2482.00011253357 137 139 134
-956.463515758514 452.719569206238 2490.00000953674 136 138 133
-953.522205352783 454.543590545654 2500 135 137 132
-948.255896568298 455.277591943741 2503.99994850159 138 140 135
-944.097220897675 456.557869911194 2510.99991798401 139 141 136
-940.275371074677 458.020806312561 2519.00005340576 136 138 133
-936.411380767822 459.484606981277 2526.99995040894 137 139 134
-932.873129844666 461.131006479263 2536.00001335144 135 137 132
-927.826523780823 462.050795555115 2540.99988937378 116 118 113
-923.47913980484 463.335126638412 2548.00009727478 127 129 124
-918.375074863434 464.256465435028 2552.99997329712 123 125 120
-915.030241012573 466.087818145752 2562.99996376038 138 140 135
-913.403689861298 468.829333782196 2578.00006866455 147 149 144
-910.64178943634 471.025943756104 2589.99991416931 166 167 162
-1234.23981666565 408.015310764313 2269.99998092651 201 203 200
-1239.21012878418 411.724001169205 2290.99988937378 199 201 198
-1227.9269695282 410.042762756348 2282.00006484985 195 197 194
-1219.91360187531 409.441769123077 2279.00004386902 179 181 180
-1211.3915681839 408.663064241409 2275.00009536743 153 155 152
-1208.72521400452 409.861922264099 2282.00006484985 153 155 152
-1201.28464698792 409.445941448212 2279.99997138977 164 166 163
-1195.43397426605 409.57036614418 2280.99989891052 164 166 163
-1188.02058696747 409.157931804657 2279.00004386902 156 158 155
-1182.18040466309 409.285724163055 2279.99997138977 144 146 143
-1175.82488059998 409.235537052155 2279.99997138977 137 139 134
-1170.5014705658 409.545928239822 2282.00006484985 130 132 127
-1167.21332073212 410.57562828064 2288.00010681152 131 133 128
-1163.89751434326 411.606580018997 2293.99991035461 131 133 128
-1159.54530239105 412.280112504959 2298.00009727478 129 131 126
-1154.6745300293 412.775576114655 2301.00011825562 120 122 117
-1148.29540252686 412.73432970047 2301.00011825562 137 139 134
-1141.42549037933 412.515193223953 2299.99995231628 118 120 115
-1134.07266139984 412.118226289749 2298.00009727478 141 143 140
-1128.20816040039 412.260711193085 2299.00002479553 116 118 115
-1121.36745452881 412.046015262604 2298.00009727478 120 122 119
-1112.59603500366 411.115556955338 2292.99998283386 145 147 144
-1105.78680038452 410.903722047806 2292.00005531311 133 135 132
-1099.94721412659 411.05180978775 2292.99998283386 136 138 137
-1096.01438045502 411.918222904205 2298.00009727478 138 140 139
-1090.63577651978 412.248104810715 2299.99995231628 136 138 135
-1087.60750293732 413.475334644318 2306.99992179871 134 136 133
-1083.1390619278 414.16609287262 2311.00010871887 135 137 134
-1078.65273952484 414.858043193817 2315.00005722046 132 134 131
-1073.22192192078 415.192693471909 2316.99991226196 131 133 130
-1068.70496273041 415.886998176575 2321.00009918213 130 132 129
-1066.45834445953 417.478263378143 2329.99992370605 131 133 130
-1063.25614452362 418.712228536606 2336.99989318848 137 139 136
-1060.471534729 420.126467943192 2345.00002861023 139 141 138
-1056.74755573273 421.183437108994 2351.0000705719 140 142 139
-1053.88760566711 422.599762678146 2358.99996757507 139 141 138
-1050.09937286377 423.658847808838 2365.00000953674 135 137 134
-1045.8402633667 424.539864063263 2369.99988555908 136 138 135
-1041.99540615082 425.601035356522 2375.99992752075 136 138 135
-1037.68515586853 426.484167575836 2381.00004196167 133 135 132
-1034.21688079834 427.726566791534 2388.00001144409 134 136 133
-1031.14342689514 429.149031639099 2395.99990844727 141 143 140
-1027.17399597168 430.214285850525 2401.99995040894 141 143 140
-1021.47495746613 430.564135313034 2404.00004386902 138 140 137
-1016.19005203247 431.094080209732 2407.00006484985 137 139 136
-1010.89107990265 431.625038385391 2410.00008583069 137 139 136
-1007.66205787659 433.05242061615 2417.99998283386 136 138 135
-1003.97801399231 434.301644563675 2424.99995231628 136 138 133
-1000.25808811188 435.551851987839 2431.99992179871 138 140 135
-995.276629924774 436.265736818314 2436.00010871887 139 141 136
-990.275621414185 436.98051571846 2440.00005722046 138 140 135
-986.464381217957 438.233435153961 2447.00002670288 137 139 134
-982.216775417328 439.308226108551 2453.00006866455 137 139 134
-977.142930030823 440.025687217712 2457.00001716614 136 138 133
-971.654415130615 440.56499004364 2460.00003814697 135 137 132
-966.151475906372 441.105157136917 2463.00005912781 137 139 134
-962.192118167877 442.362487316132 2470.00002861023 138 140 135
-959.743797779083 444.337099790573 2480.99994659424 138 140 135
-956.08514547348 445.775300264359 2489.00008201599 140 142 137
-952.002942562103 447.035163640976 2496.00005149841 135 137 132
-945.990979671478 447.400361299515 2497.99990653992 137 139 134
-942.225337028503 448.841005563736 2506.00004196167 139 141 136
-938.417792320251 450.282454490662 2513.99993896484 137 139 134
-934.568285942078 451.724767684937 2522.0000743866 138 140 135
-931.044161319733 453.346908092499 2530.99989891052 138 140 135
-926.01203918457 454.253405332565 2536.00001335144 116 118 113
-921.678721904755 455.518871545792 2542.99998283386 129 131 126
-916.948914527893 456.60600066185 2549.00002479553 117 119 114
-914.329588413239 458.768665790558 2561.00010871887 132 134 129
-913.063287734985 461.648613214493 2576.99990272522 150 152 147
-910.304963588715 463.812857866287 2588.99998664856 158 159 154
-903.295695781708 463.828057050705 2588.99998664856 173 174 169
-1241.24228954315 404.102951288223 2282.99999237061 197 199 196
-1238.60490322113 405.277580022812 2289.99996185303 196 198 195
-1231.09316825867 404.861152172089 2288.00010681152 189 191 188
-1222.52941131592 404.092609882355 2283.99991989136 169 171 170
-1212.397813797 402.79546380043 2276.99995040894 148 150 147
-1207.07929134369 403.0921459198 2279.00004386902 151 153 150
-1200.70254802704 403.036743402481 2279.00004386902 164 166 163
-1194.85640525818 403.15979719162 2279.99997138977 166 168 165
-1186.40494346619 402.400463819504 2276.00002288818 150 152 149
-1180.05621433258 402.350038290024 2276.00002288818 141 143 140
-1175.26042461395 402.831465005875 2279.00004386902 136 138 133
-1170.45426368713 403.314381837845 2282.00006484985 134 136 131
-1166.65744781494 404.152065515518 2286.99994087219 133 135 130
-1162.83869743347 404.991149902344 2292.00005531311 123 125 120
-1158.49328041077 405.654907226563 2296.0000038147 127 129 124
-1153.12767028809 405.966639518738 2298.00009727478 124 126 121
-1146.75831794739 405.926555395126 2298.00009727478 122 124 119
-1139.40191268921 405.534595251083 2296.0000038147 120 122 117
-1132.06148147583 405.14412522316 2293.99991035461 143 145 142
-1125.2281665802 404.931783676147 2292.99998283386 116 118 115
-1119.38118934631 405.074030160904 2293.99991035461 138 140 137
-1112.07818984985 404.687941074371 2292.00005531311 126 128 125
-1106.7202091217 405.009388923645 2293.99991035461 131 133 130
-1101.35626792908 405.332177877426 2296.0000038147 127 129 128
-1096.93932533264 406.00922703743 2299.99995231628 129 131 130
-1091.08233451843 406.158000230789 2301.00011825562 134 136 133
-1086.63833141327 406.837522983551 2305.0000667572 136 138 135
-1081.23922348022 407.165229320526 2306.99992179871 134 136 133
-1077.69691944122 408.200025558472 2312.99996376038 134 136 133
-1072.27289676666 408.530116081238 2315.00005722046 136 138 135
-1067.76249408722 409.21425819397 2319.00000572205 129 131 128
-1064.6071434021 410.42885184288 2325.99997520447 131 133 130
-1061.87212467194 411.821037530899 2334.00011062622 140 142 139
-1061.81001663208 414.272755384445 2348.00004959106 143 145 142
-1057.17992782593 414.961248636246 2351.99999809265 143 145 142
-1052.97827720642 415.827214717865 2357.00011253357 142 144 141
-1047.86431789398 416.341304779053 2359.99989509583 135 137 134
-1044.50261592865 417.562246322632 2367.00010299683 137 139 136
-1041.54407978058 418.960511684418 2375 138 140 137
-1035.93027591705 419.301450252533 2377.00009346008 133 135 132
-1032.47380256653 420.525372028351 2384.0000629425 134 136 133
-1028.12135219574 421.397507190704 2388.99993896484 140 142 139
-1025.02727508545 422.799825668335 2397.0000743866 139 141 138
-1020.19274234772 423.497498035431 2401.00002288818 138 140 137
-1016.18337631226 424.548983573914 2407.00006484985 138 140 137
-1010.88547706604 425.072252750397 2410.00008583069 137 139 136
-1007.65740871429 426.478385925293 2417.99998283386 134 136 133
-1003.14629077911 427.356332540512 2423.00009727478 139 141 136
-999.844074249268 428.764343261719 2430.99999427795 138 140 135
-994.866073131561 429.467678070068 2434.99994277954 137 139 134
-989.868760108948 430.171996355057 2438.99989128113 138 140 135
-985.254943370819 431.05360865593 2444.00000572205 138 140 135
-980.215489864349 431.759715080261 2447.99995422363 139 141 136
-974.758565425873 432.290375232697 2450.99997520447 138 140 135
-969.682097434998 432.998210191727 2454.99992370605 138 140 135
-964.585900306702 433.706909418106 2459.00011062622 137 139 134
-961.417317390442 435.298323631287 2467.99993515015 137 139 134
-958.20152759552 436.890572309494 2476.99999809265 137 139 134
-954.554438591003 438.30731511116 2484.99989509583 140 142 137
-949.339985847473 439.019381999969 2489.00008201599 139 141 136
-943.726420402527 439.555823802948 2492.00010299683 131 133 128
-939.225733280182 440.622121095657 2497.99990653992 133 135 130
-934.320867061615 441.512912511826 2503.00002098084 139 141 136
-930.872321128845 443.110048770905 2512.00008392334 136 138 133
-928.112030029297 445.060759782791 2523.00000190735 141 143 138
-924.197614192963 446.483016014099 2530.99989891052 126 128 123
-920.603513717651 448.082506656647 2539.99996185303 123 125 120
-916.242063045502 449.329853057861 2546.99993133545 121 123 118
-913.986027240753 451.636523008347 2559.99994277954 120 122 117
-912.369012832642 454.296827316284 2575.00004768372 147 149 144
-910.319924354553 456.781476736069 2588.99998664856 140 140 138
-905.404686927795 457.855433225632 2595.00002861023 159 160 155
-1242.80893802643 398.377954959869 2286.00001335144 197 199 196
-1239.62390422821 399.360567331314 2292.00005531311 199 201 198
-1228.88004779816 397.905617952347 2283.99991989136 184 186 183
-1220.32952308655 397.149622440338 2279.99997138977 166 168 167
-1210.74330806732 396.047174930573 2273.9999294281 149 151 148
-1204.3753862381 395.991504192352 2273.9999294281 149 151 148
-1199.06806945801 396.285802125931 2276.00002288818 158 160 157
-1193.23194026947 396.407455205917 2276.99995040894 163 165 162
-1186.35427951813 396.18256688118 2276.00002288818 152 154 151
-1180.00710010529 396.133363246918 2276.00002288818 141 143 140
-1175.72867870331 396.781861782074 2279.99997138977 132 134 129
-1171.43404483795 397.431701421738 2283.99991989136 130 132 127
-1166.10276699066 397.734940052032 2286.00001335144 132 134 129
-1161.78071498871 398.387551307678 2289.99996185303 124 126 121
-1157.44245052338 399.041473865509 2293.99991035461 128 130 125
-1153.58901023865 399.870663881302 2299.00002479553 125 127 122
-1146.22032642365 399.483740329742 2296.99993133545 124 126 121
-1138.86821269989 399.098306894302 2295.00007629395 114 116 111
-1132.02559947968 398.888200521469 2293.99991035461 138 140 137
-1125.19371509552 398.679584264755 2292.99998283386 110 112 109
-1119.34816837311 398.820042610168 2293.99991035461 135 137 134
-1112.04624176025 398.440301418304 2292.00005531311 118 120 117
-1107.65469074249 399.104863405228 2296.0000038147 121 123 120
-1102.28621959686 399.423092603683 2298.00009727478 121 123 122
-1097.38838672638 399.916291236877 2301.00011825562 119 121 120
-1090.1073217392 399.541765451431 2299.00002479553 128 130 127
-1085.19864082336 400.037437677383 2302.00004577637 132 134 131
-1080.27768135071 400.534301996231 2305.0000667572 135 137 134
-1078.13966274261 402.074813842773 2313.99989128113 133 135 132
-1072.71409034729 402.400195598602 2315.99998474121 132 134 131
-1068.20213794708 403.074145317078 2319.9999332428 128 130 127
-1064.12982940674 403.923034667969 2325.00004768372 131 133 130
-1061.85352802277 405.46777844429 2334.00011062622 138 140 137
-1061.34021282196 407.708406448364 2346.99988365173 140 142 139
-1057.16347694397 408.560365438461 2351.99999809265 140 142 139
-1052.06942558289 409.065932035446 2355.00001907349 139 141 138
-1046.51832580566 409.398943185806 2357.00011253357 135 137 134
-1042.72437095642 410.42771935463 2362.99991607666 137 139 136
-1039.77787494659 411.804884672165 2371.00005149841 139 141 138
-1034.61182117462 412.314623594284 2374.00007247925 135 137 134
-1029.86526489258 412.999004125595 2378.00002098084 134 136 133
-1025.53009986877 413.858085870743 2382.99989700317 140 142 139
-1022.88103103638 415.412843227386 2391.99995994568 140 142 139
-1018.48614215851 416.273921728134 2397.0000743866 139 141 138
-1014.9108171463 417.483180761337 2404.00004386902 138 140 137
-1009.20248031616 417.825102806091 2405.99989891052 136 138 135
-1005.56969642639 419.036358594894 2413.00010681152 135 137 134
-1000.65898895264 419.727504253387 2417.00005531311 140 142 137
-997.785270214081 421.28786444664 2426.00011825562 138 140 135
-993.63899230957 422.328054904938 2431.99992179871 138 140 135
-988.650798797607 423.02194237709 2436.00010871887 138 140 135
-984.045922756195 423.890292644501 2440.99998474121 139 141 136
-979.415953159332 424.759596586227 2446.00009918213 139 141 136
-974.760591983795 425.629734992981 2450.99997520447 140 142 137
-969.29007768631 426.153361797333 2453.9999961853 139 141 136
-964.589595794678 427.02516913414 2459.00011062622 139 141 136
-960.64281463623 428.24512720108 2466.00008010864 138 140 135
-957.046389579773 429.639577865601 2473.99997711182 138 140 135
-953.024208545685 430.861204862595 2480.99994659424 140 142 137
-948.584020137787 431.909948587418 2486.99998855591 140 142 137
-942.976653575897 432.438462972641 2490.00000953674 134 136 131
-938.482403755188 433.488786220551 2496.00005149841 133 135 130
-932.837009429932 434.018820524216 2499.00007247925 139 141 136
-928.658902645111 435.244351625443 2506.00004196167 138 140 135
-924.811959266663 436.644315719604 2513.99993896484 140 142 137
-922.018229961395 438.566118478775 2525.00009536743 135 137 132
-919.528365135193 440.662354230881 2536.99994087219 126 128 123
-915.895342826843 442.238330841064 2546.0000038147 122 124 119
-913.285672664642 444.336086511612 2558.00008773804 119 121 116
-910.966098308563 446.608364582062 2571.00009918213 141 143 138
-908.577084541321 448.881447315216 2584.00011062622 143 143 141
-904.024839401245 450.112849473953 2591.00008010864 154 155 150
-898.050606250763 450.650125741959 2594.00010108948 168 169 164
-1254.09984588623 393.730163574219 2295.00007629395 204 206 203
-1242.74599552155 392.122954130173 2286.00001335144 198 200 197
-1236.31763458252 392.061620950699 2286.00001335144 201 203 200
-1226.66847705841 390.973061323166 2279.99997138977 168 170 167
-1219.20144557953 390.572398900986 2278.00011634827 161 163 162
-1210.68751811981 389.830589294434 2273.9999294281 152 154 151
-1203.79173755646 389.604896306992 2273.00000190735 151 153 150
-1197.96180725098 389.723539352417 2273.9999294281 156 158 155
-1192.65711307526 390.015244483948 2276.00002288818 164 166 163
-1186.82610988617 390.136986970901 2276.99995040894 153 155 152
-1180.99617958069 390.260279178619 2278.00011634827 140 142 139
-1175.16660690308 390.385061502457 2279.00004386902 128 130 125
-1170.3634262085 390.853852033615 2282.00006484985 124 126 121
-1165.0390625 391.152799129486 2283.99991989136 130 132 127
-1161.23139858246 391.966879367828 2289.00003433228 129 131 126
-1156.89718723297 392.610967159271 2292.99998283386 120 122 117
-1152.04453468323 393.085211515427 2296.0000038147 119 121 116
-1145.18451690674 392.875999212265 2295.00007629395 126 128 123
-1138.33546638489 392.668187618256 2293.99991035461 109 111 106
-1132.48419761658 392.804205417633 2295.00007629395 131 133 130
-1124.66943264008 392.256885766983 2292.00005531311 112 114 111
-1118.82793903351 392.395585775375 2292.99998283386 136 138 135
-1112.01536655426 392.19331741333 2292.00005531311 100 102 99
-1107.62500762939 392.847895622253 2296.0000038147 111 113 110
-1103.21724414825 393.503695726395 2299.99995231628 117 119 118
-1098.79171848297 394.160568714142 2303.99990081787 113 115 114
-1092.45216846466 394.134402275085 2303.99990081787 118 120 117
-1086.11667156219 394.109517335892 2303.99990081787 125 127 124
-1081.66003227234 394.769996404648 2308.00008773804 134 136 133
-1079.0491104126 396.115720272064 2315.99998474121 134 136 133
-1074.54562187195 396.778434514999 2319.9999332428 129 131 128
-1069.10300254822 397.100150585175 2322.00002670288 129 131 128
-1063.65311145782 397.4229991436 2323.99988174438 131 133 130
-1060.47081947327 398.60200881958 2331.00008964539 137 139 136
-1058.61032009125 400.29501914978 2341.00008010864 139 141 138
-1054.90028858185 401.304960250854 2346.99988365173 139 141 138
-1050.2678155899 401.974052190781 2351.0000705719 139 141 138
-1045.6166267395 402.644157409668 2355.00001907349 136 138 135
-1042.2705411911 403.828173875809 2361.99998855591 136 138 135
-1038.88928890228 405.013173818588 2368.99995803833 140 142 139
-1033.72967243195 405.515342950821 2371.99997901917 140 142 139
-1028.12349796295 405.847549438477 2374.00007247925 137 139 136
-1023.36978912354 406.52260184288 2378.00002098084 140 142 139
-1020.73538303375 408.053427934647 2387.00008392334 143 145 142
-1016.77978038788 409.072279930115 2392.99988746643 144 146 143
-1013.63861560822 410.433977842331 2401.00002288818 139 141 138
-1007.51996040344 410.600006580353 2401.99995040894 136 138 135
-1003.48234176636 411.62171959877 2407.99999237061 136 138 135
-999.414145946503 412.644267082214 2414.00003433228 141 143 138
-996.960818767548 414.351522922516 2424.00002479553 140 142 137
-992.412328720093 415.204912424088 2428.99990081787 140 142 137
-987.433135509491 415.888279676437 2433.00008773804 139 141 136
-983.2404255867 416.914343833923 2438.99989128113 139 141 136
-978.616654872894 417.770385742188 2444.00000572205 139 141 136
-973.569929599762 418.456315994263 2447.99995422363 142 144 139
-968.108415603638 418.972134590149 2450.99997520447 142 144 139
-963.416934013367 419.830709695816 2456.00008964539 141 143 138
-959.868669509888 421.20286822319 2463.99998664856 140 142 137
-955.118060112 422.063052654266 2469.00010108948 139 141 136
-950.725853443146 423.094868659973 2474.99990463257 136 138 133
-947.065711021423 424.469500780106 2483.00004005432 140 142 137
-942.227184772491 425.331979990005 2487.99991607666 138 140 135
-936.987102031708 426.024347543716 2492.00010299683 133 135 130
-931.353390216827 426.546424627304 2494.99988555908 133 135 130
-926.445722579956 427.411198616028 2500 135 137 132
-922.615706920624 428.789556026459 2507.99989700317 133 135 130
-919.838905334473 430.681645870209 2519.00005340576 145 147 142
-918.815910816193 433.429330587387 2535.00008583069 135 137 132
-915.18896818161 434.98095870018 2543.99991035461 122 124 119
-912.228345870972 436.875373125076 2555.0000667572 116 118 113
-908.85454416275 438.599437475204 2565.00005722046 135 137 132
-906.130731105804 440.666228532791 2576.99990272522 143 143 141
-903.34278345108 442.73379445076 2588.99998664856 142 142 140
-898.067057132721 443.605035543442 2594.00010108948 151 152 147
-1251.85060501099 386.774927377701 2290.99988937378 201 203 200
-1241.05370044708 385.36274433136 2282.99999237061 197 199 196
-1234.09473896027 385.134130716324 2282.00006484985 197 199 196
-1223.92082214355 383.894741535187 2275.00009536743 162 164 161
-1218.07479858398 384.007155895233 2276.00002288818 158 160 159
-1210.10065078735 383.446335792542 2273.00000190735 150 152 149
-1203.20928096771 383.224636316299 2272.0000743866 151 153 150
-1196.85709476471 383.173257112503 2272.0000743866 159 161 158
-1192.08323955536 383.629322052002 2275.00009536743 165 167 164
-1185.21428108215 383.41236114502 2273.9999294281 151 153 150
-1179.91268634796 383.702754974365 2276.00002288818 139 141 138
-1174.09014701843 383.826017379761 2276.99995040894 130 132 127
-1169.80671882629 384.456336498261 2280.99989891052 124 126 121
-1162.95647621155 384.245336055756 2279.99997138977 129 131 126
-1159.16132926941 385.046929121017 2285.00008583069 130 132 127
-1155.84862232208 386.018246412277 2290.99988937378 123 125 120
-1152.50790119171 386.990755796433 2296.99993133545 118 120 115
-1147.14372158051 387.290686368942 2299.00002479553 127 129 124
-1140.78116416931 387.255012989044 2299.00002479553 112 114 109
-1135.41066646576 387.557566165924 2301.00011825562 131 133 130
-1127.58088111877 387.019366025925 2298.00009727478 111 113 110
-1120.74816226959 386.819273233414 2296.99993133545 131 133 130
-1113.44075202942 386.452168226242 2295.00007629395 86 88 85
-1109.04347896576 387.096703052521 2299.00002479553 107 109 106
-1103.66928577423 387.405663728714 2301.00011825562 111 113 112
-1097.33486175537 387.379109859467 2301.00011825562 112 114 113
-1091.00472927094 387.353777885437 2301.00011825562 120 122 119
-1085.62135696411 387.666285037994 2302.99997329712 125 127 124
-1082.57460594177 388.821631669998 2309.99994277954 134 136 133
-1079.0274143219 389.809668064117 2315.99998474121 134 136 133
-1074.52499866486 390.462189912796 2319.9999332428 131 133 130
-1069.08357143402 390.779197216034 2322.00002670288 128 130 127
-1063.17722797394 390.928983688354 2322.99995422363 130 132 129
-1059.08870697021 391.753017902374 2328.00006866455 137 139 136
-1054.97646331787 392.578125 2332.99994468689 140 142 139
-1051.73909664154 393.740713596344 2339.99991416931 142 144 141
-1047.12677001953 394.399583339691 2344.00010108948 142 144 141
-1043.8277721405 395.564198493958 2351.0000705719 137 139 138
-1040.49360752106 396.72976732254 2358.00004005432 135 137 136
-1037.56260871887 398.064494132996 2365.9999370575 138 140 139
-1033.28382968903 398.895561695099 2371.00005149841 141 143 142
-1027.24838256836 399.05458688736 2371.99997901917 138 140 139
-1022.07088470459 399.551093578339 2375 140 142 141
-1018.16272735596 400.55325627327 2381.00004196167 143 145 144
-1015.49923419952 402.060985565186 2390.00010490417 145 147 146
-1012.78901100159 403.569549322128 2398.9999294281 141 143 142
-1007.51578807831 404.069811105728 2401.99995040894 137 139 138
-1003.06224822998 404.907375574112 2407.00006484985 136 138 135
-997.341632843018 405.241131782532 2408.99991989136 141 143 138
-995.314180850983 407.089859247208 2420.00007629395 141 143 138
-990.777373313904 407.929986715317 2424.99995231628 141 143 138
-987.43337392807 409.275740385056 2433.00008773804 140 142 137
-982.838332653046 410.117655992508 2437.99996376038 139 141 136
-979.419529438019 411.465138196945 2446.00009918213 139 141 136
-973.572671413422 411.804050207138 2447.99995422363 142 144 139
-967.321932315826 411.975532770157 2448.99988174438 141 143 138
-962.24457025528 412.652611732483 2453.00006866455 140 142 137
-957.925975322723 413.666844367981 2459.00011062622 140 142 137
-954.350292682648 415.018379688263 2467.00000762939 139 141 136
-949.580132961273 415.865927934647 2471.99988365173 136 138 133
-945.928871631622 417.219042778015 2480.00001907349 138 140 135
-941.478133201599 418.236404657364 2486.00006103516 138 140 135
-936.620056629181 419.086307287216 2490.9999370575 133 135 130
-930.989801883698 419.600516557693 2493.99995803833 129 131 126
-926.085591316223 420.451879501343 2499.00007247925 131 133 128
-922.626733779907 421.976923942566 2507.99989700317 135 137 132
-919.485569000244 423.67097735405 2517.99988746643 141 143 138
-918.103516101837 426.20712518692 2532.99999237061 140 142 137
-914.842426776886 427.902698516846 2542.99998283386 120 122 117
-911.528170108795 429.599016904831 2552.99997329712 111 113 108
-907.806158065796 431.127816438675 2562.00003623962 133 135 130
-905.442833900452 433.33038687706 2575.00004768372 139 139 137
-903.009831905365 435.533732175827 2588.00005912781 141 141 139
-899.122178554535 437.064647674561 2596.99988365173 149 149 147
-893.812537193298 437.923014163971 2601.99999809265 138 138 136
-1254.39822673798 379.406243562698 2283.99991989136 201 203 200
-1247.96366691589 379.344344139099 2283.99991989136 196 198 195
-1238.27564716339 378.287822008133 2278.00011634827 194 196 193
-1231.3324213028 378.063410520554 2276.99995040894 182 184 181
-1222.78821468353 377.34267115593 2273.00000190735 161 163 160
-1216.94958209991 377.453744411469 2273.9999294281 154 156 155
-1210.04736423492 377.234429121017 2273.00000190735 145 147 144
-1203.15754413605 377.016752958298 2272.0000743866 147 149 146
-1198.38738441467 377.464383840561 2275.00009536743 155 157 154
-1191.51079654694 377.249747514725 2273.9999294281 161 163 160
-1184.12494659424 376.870900392532 2272.0000743866 154 156 153
-1176.75673961639 376.493602991104 2269.99998092651 141 143 140
-1171.98359966278 376.947045326233 2273.00000190735 130 132 127
-1168.73836517334 377.899289131165 2279.00004386902 120 122 117
-1162.91534900665 378.023743629456 2279.99997138977 122 124 119
-1159.1215133667 378.81276011467 2285.00008583069 126 128 123
-1154.8011302948 379.437208175659 2289.00003433228 124 126 121
-1150.96545219421 380.228638648987 2293.99991035461 116 118 113
-1147.10783958435 381.021350622177 2299.00002479553 116 118 113
-1142.23539829254 381.483823060989 2302.00004577637 107 109 104
-1136.85774803162 381.781756877899 2303.99990081787 129 131 128
-1128.53026390076 381.086856126785 2299.99995231628 126 128 125
-1120.71776390076 380.559086799622 2296.99993133545 134 136 133
-1113.41166496277 380.198359489441 2295.00007629395 82 84 81
-1109.01546478271 380.83279132843 2299.00002479553 111 113 110
