ply
format ascii 1.0
comment KinectMotionCapture
element vertex 752
property float x
property float y
property float z
property uchar red
property uchar green
property uchar blue
end_header
-1136.82286127488 291.441786648691 2595.06350217812 178 182 185
-1144.58964623261 291.653667547062 2590.06270668984 185 189 192
-1152.42313672448 292.773061901428 2580.01228081244 189 193 196
-1160.35201969852 294.615683594667 2565.91705726224 190 194 197
-1168.26220465262 295.364137658297 2557.87365169254 182 186 189
-1176.17449725335 295.747296368422 2551.84631928969 178 182 185
-1184.25275546058 297.396092020142 2538.74089239441 191 195 198
-1192.46294396975 299.583323740249 2522.59404159313 186 190 193
-1200.575027891 300.499286501945 2513.51731199956 175 179 182
-1208.56060446006 300.328544425288 2510.50559443204 179 183 186
-1216.64823141085 300.697967780627 2504.45665777918 176 180 183
-1224.7618716913 301.065432822718 2498.40423970497 168 172 173
-1232.93742732859 301.610817377075 2491.33593931738 178 182 181
-1241.4162984986 303.412907223959 2477.172187231 189 193 194
-1250.08873004898 305.74909139806 2459.95957187175 182 186 187
-1258.93468399139 308.438247562545 2440.70899820827 184 188 189
-1267.64174314164 310.224068581859 2426.51681245438 183 187 190
-1276.96346493411 313.97552718364 2401.15746511363 163 167 168
-1286.30865925061 317.360269644412 2377.81152847094 158 162 163
-1295.33104950307 319.306492528143 2362.57188174891 134 138 137
-903.386679867312 299.86879174319 2619.13384931086 189 191 188
-911.385283737938 298.811794258068 2621.16175596364 175 179 180
-920.086196049154 295.910356382556 2633.1844677313 174 178 181
-928.508874673815 293.565902161055 2642.2171330582 176 180 183
-936.810620910888 291.408567292688 2650.25671016177 171 175 178
-944.616788854632 290.541512402964 2651.3004443753 165 170 173
-952.472754855414 289.490854547958 2653.34613469578 163 169 169
-960.195263479343 288.80800449941 2653.391896634 161 167 167
-968.078902428189 287.574615675819 2656.44230184786 157 161 160
-975.569559592456 287.624911122232 2652.48407810348 158 162 161
-983.075840855302 287.673673724162 2648.52390860066 162 166 165
-990.455032742963 288.269552331226 2641.55485672668 122 126 125
-997.821157066668 289.045499516508 2633.57927430504 114 118 117
-1005.09797073737 290.366155985494 2622.59010128907 149 154 150
-1012.42807650298 291.682760498056 2611.59428840539 86 91 87
-1020.0690134342 291.720018373653 2607.61734496852 58 63 59
-1027.86176494781 291.027679289622 2607.65460626717 95 100 96
-1035.64842520989 290.335307694039 2607.69238753487 105 110 106
-1043.4863221556 289.279530111361 2609.74034624922 119 124 120
-1051.22932275921 288.768698208457 2608.77541080767 100 105 101
-1059.11127283838 287.169720895397 2613.84260401187 141 146 142
-1066.77482049036 287.202492506505 2609.86285070514 153 158 154
-1074.43590004169 287.414717171375 2604.87524572136 137 142 138
-1082.10253574903 287.805821472725 2598.87854892207 140 145 141
-1089.89521889532 286.750117325534 2600.9321498579 133 137 136
-1097.65132633493 286.055810177601 2600.97374903442 130 134 133
-1105.37990457738 285.902159539551 2597.99429859775 133 137 136
-1113.14920381291 284.487203439591 2602.06713798101 164 168 167
-1120.89063735407 283.073487548452 2606.14369184088 164 168 167
-1128.60917229705 282.55973508413 2605.18181726034 176 180 179
-1136.34889624445 283.122612401465 2598.16786002446 180 184 187
-1144.1328813354 284.041677224554 2589.1318267873 183 187 190
-1151.93173721208 284.420001126111 2583.11890361802 186 190 193
-1159.87438671735 286.585994691043 2567.00549603268 186 190 193
-1167.79562894547 287.49464572923 2557.95260160932 179 183 186
-1175.75895512553 288.400075774526 2548.8942235712 175 179 182
-1183.76436898881 289.302349319193 2539.8308418203 191 195 198
-1192.01486290546 291.805650850075 2521.66275458746 186 190 193
-1200.17920929378 293.055970564663 2510.56300796471 172 176 179
-1208.31261622932 293.768883284291 2502.49183920826 175 179 182
-1216.23758169778 293.057249469635 2502.51241153023 173 177 180
-1224.32275342534 293.233379255637 2497.47197740464 168 172 173
-1232.50046108876 293.76244199948 2490.40345143981 175 179 178
-1241.13499432816 296.237873856402 2472.18751176371 187 191 190
-1249.81872437904 298.530039661797 2454.97360233921 182 186 187
-1258.54328746508 300.639293069643 2438.76276598479 182 186 187
-1267.34747341488 302.742879326048 2422.54224836069 178 182 183
-1276.92372727812 307.310992739479 2392.11007026247 162 166 167
-1286.23772356627 310.458289128425 2369.77657962199 145 149 150
-902.752593965544 292.4355113956 2617.21718056557 187 189 186
-910.98194122569 290.840441764091 2622.24101036464 179 183 184
-919.610806479098 288.156271722829 2633.26421364514 173 177 180
-928.105102539221 285.657345060536 2643.29627570409 176 180 183
-936.472820472257 283.343147692656 2652.33572012003 171 175 178
-944.21051955546 282.663211867164 2652.37957870424 165 170 173
-952.126061081583 281.439854549134 2655.42597624744 165 171 171
-959.785338597066 280.940925728608 2654.47145760599 164 170 170
-967.61163039979 279.899324953399 2656.52082723945 163 167 166
-975.049172121612 280.122087485057 2651.56109070416 160 164 163
-982.507761208684 280.342852234634 2646.59873284319 154 158 157
-989.844179403589 281.102416879988 2638.62690071364 130 134 133
-997.217778410065 281.859013168439 2630.65019618694 112 117 113
-1004.37451747148 283.691520723633 2616.6513582674 139 144 140
-1011.71974642338 284.980047927152 2605.65373204008 106 111 107
-1019.48770247159 284.469776218119 2604.68568083133 66 71 67
-1027.28926149258 283.779682988353 2604.72183709074 106 111 107
-1035.0846702328 283.089561007538 2604.75852067581 104 109 105
-1042.87395079171 282.399291927313 2604.79596940906 106 111 105
-1050.73552958992 281.172566518734 2607.84935032016 99 104 98
-1058.57474724463 279.946964528487 2610.90527854256 148 153 149
-1066.26714315394 279.792809465799 2607.9301045068 148 153 149
-1073.89731144924 280.350363335351 2600.92983318774 143 148 144
-1081.58976805886 280.549241884998 2595.9383476791 143 148 144
-1089.37887860524 279.679033373735 2596.98421885993 126 131 127
-1097.16629271333 278.631488501701 2599.03845585341 130 135 131
-1104.92216866795 277.939644710573 2599.08007743073 140 144 143
-1112.68546246218 276.715833674188 2602.14547578565 166 170 169
-1120.4243613968 275.670065608921 2604.2057625068 162 166 165
-1128.14952896141 275.332976709006 2602.23490787888 179 183 182
-1135.89333897969 275.702442349988 2596.22863716648 181 185 188
-1143.66936690471 276.246404126144 2589.21019922223 184 188 191
-1151.48565909258 276.96417027183 2581.17859173021 186 190 193
-1159.43170924454 279.089219164826 2565.06510785934 186 190 193
-1167.37169146984 280.152021076245 2555.00154147735 179 183 186
-1175.34223304101 281.03537453001 2545.94256140773 175 179 182
-1183.35480324717 281.915570237083 2536.87810446 192 196 199
-1191.63343181853 284.547880830468 2517.69847934963 188 192 195
-1199.75720905791 285.419976733999 2508.62016575215 174 178 181
-1207.8396496954 285.763273556097 2502.57194512382 177 181 184
-1215.82603081046 285.404464963588 2500.56830951839 176 180 183
-1223.88316776535 285.394783519204 2496.53955039214 170 174 175
-1231.95534958077 285.383548912821 2492.50915811519 174 178 177
-1240.50504179824 287.464585673954 2476.32021891888 188 192 191
-1249.25816812693 290.062726372192 2457.08146927879 183 187 188
-1258.23887522481 293.176487441251 2434.7894192042 182 186 187
-1267.23813738487 295.934478693953 2414.51160493983 177 181 182
-1276.83160116191 300.422724669418 2384.0777297429 158 162 163
-1286.00806951753 302.991265770477 2364.78598720137 143 147 148
-902.272953307286 284.631232302143 2617.29758917533 188 190 187
-910.578795824831 282.873195040364 2623.31998908616 173 177 178
-919.351959544965 279.8636459758 2636.34165611029 172 176 179
-927.840526552392 277.395064827552 2646.37435320732 175 179 182
-936.068713625324 275.466023284468 2653.41458149043 170 174 177
-943.868540154933 274.610361262592 2654.45907707224 164 169 172
-951.779894834672 273.398259554079 2657.50596746787 164 170 170
-959.434306149069 272.899700460684 2656.55205512587 165 171 171
-967.144202913768 272.222730246293 2656.59937546524 158 162 161
-974.475004567913 272.790337438034 2649.63643685808 157 161 160
-981.938857877214 273.000016831838 2644.6734512462 154 158 157
-989.280042751396 273.74028615523 2636.7010750768 166 170 169
-996.613190180681 274.65480666381 2627.72131568177 145 150 146
-1003.69146586037 276.80593361916 2611.71605625917 83 88 84
-1011.16846155356 277.535639903761 2603.72675951985 112 117 113
-1018.97944073088 276.848348217042 2603.76149255294 84 89 85
-1026.74993856537 276.337496526289 2602.79312567165 97 102 96
-1034.45631569552 276.17898689244 2599.81621832979 109 114 108
-1042.23076812211 275.666927716398 2598.84736111866 101 106 100
-1050.10969099412 274.450086274147 2601.89855156282 126 131 125
-1057.98984409038 273.058407020688 2605.95749574087 148 153 147
-1065.69589583337 272.898009509605 2602.98087424581 139 144 138
-1073.37546905656 273.087493806148 2597.99078097833 143 148 144
-1081.07581297786 273.275060171976 2592.99834097005 141 146 142
-1088.87383172413 272.409898043324 2594.04308717073 134 139 135
-1096.66013668249 271.545061590957 2595.08905405649 145 150 146
-1104.45710180122 270.156056616543 2599.15861282846 154 158 157
-1112.22146235262 268.943166504977 2602.22384929852 164 168 167
-1119.95727652148 268.25463131928 2602.267965755 163 167 166
-1127.68947490384 268.263084776528 2598.27994955272 180 184 183
-1135.44027287439 268.44432887196 2593.28098955811 180 184 187
-1143.22382077527 268.971567146203 2586.26165720608 186 190 193
-1151.08250700888 270.364814738779 2574.19199166992 188 192 195
-1159.04539066552 272.448120427995 2558.07651700643 189 193 196
-1166.97493016574 273.138722353818 2550.0306081866 178 182 185
-1174.92433469314 273.653247114006 2542.99085165744 174 178 181
-1182.90505404603 274.165296658657 2535.94695347284 185 189 192
-1191.117165706 276.230453146456 2519.80018415449 183 187 190
-1199.25950477013 277.253849616372 2509.71170887691 171 175 178
-1207.44924784363 278.273805619589 2499.61708665082 171 175 178
-1215.47427550232 278.084246123615 2496.60049537555 171 175 178
-1223.54200508124 278.06576765014 2492.57043751911 169 173 172
-1231.62479436047 278.045971454168 2488.53850377128 170 175 171
-1239.95287176305 279.055206160406 2478.42688674164 187 191 190
-1248.61592665987 281.26203219083 2461.21578219339 185 189 190
-1257.5827620844 284.319701993696 2438.92561093598 184 188 189
-1266.89372082851 288.225588283314 2411.55158561509 176 180 181
-1276.58922308149 292.97687717287 2379.08866944033 152 156 157
-1285.93196701845 296.008392228791 2356.75189616926 146 150 151
-894.574400196838 276.090301368965 2625.33510555258 226 228 225
-902.571124788174 275.058506925462 2627.36318035699 188 190 189
-910.776581512861 273.49774674172 2632.38990120094 168 172 173
-919.166358052806 271.409513796433 2640.41807039695 170 174 177
-927.367729411368 269.676110830833 2646.45368308599 174 178 181
-935.597802744659 267.768747722307 2653.49361888556 168 172 175
-943.462780455372 266.742837979169 2655.53811942465 161 166 169
-951.372630407434 265.541761291626 2658.5851685674 161 167 167
-959.024879821411 265.04345936808 2657.63152534055 162 168 168
-966.620424881204 264.719943440783 2655.67681109097 161 165 164
-973.900009544053 265.446280115702 2647.7121589549 167 171 170
-981.216786072957 266.16959051118 2639.74287346342 159 163 162
-988.667007477619 266.540559440497 2633.77323691546 155 160 156
-996.007499401522 267.432935410721 2624.79285955653 164 169 165
-1003.1771940553 269.194085711282 2610.79259277244 97 102 98
-1010.61630863499 270.078981904568 2601.7996873181 83 88 84
-1018.32156627568 269.916305816861 2598.82317092286 105 110 106
-1026.10608727017 269.404620492524 2597.85305622945 98 103 99
-1033.92172306962 268.718823818016 2597.88720420657 97 102 98
-1041.76043093825 267.859428161766 2598.92661719079 108 113 109
-1049.6669645015 266.480224984603 2602.98247665596 138 143 139
-1057.42685480426 265.968197666543 2602.01543662789 145 150 146
-1065.16491228428 265.628734828037 2600.04297966642 139 144 140
-1072.8524060461 265.806964546207 2595.05192760107 138 143 139
-1080.60772921487 265.465446229159 2593.07732139675 137 142 138
-1088.39352815147 264.778265613485 2593.11519648251 142 147 143
-1096.17303658581 264.090950743067 2593.15409720807 152 156 155
-1103.99183520494 262.371167358203 2599.23717657782 156 160 159
-1111.76701920682 260.825336078218 2604.31755359909 162 166 165
-1119.49145524185 260.655164882647 2601.33842332298 165 169 168
-1127.22682787474 260.827121947441 2596.34165304513 179 183 184
-1134.98279410848 260.997169859744 2591.34231783532 177 181 182
-1142.75936878288 261.165544059057 2586.34017495288 184 188 191
-1150.63389448742 262.87122425226 2572.25233576787 187 191 194
-1158.58878536555 264.742774151748 2557.14586303667 187 191 194
-1166.53429682802 265.584961077447 2548.09011498723 176 180 183
-1174.48857243003 266.083048026431 2541.0495535964 171 175 178
-1182.55158647699 267.259914899524 2529.96264608623 186 190 193
-1190.66744989947 268.432758019959 2518.86915388283 184 188 191
-1198.76185373292 269.091897155948 2510.80299409376 172 176 179
-1206.81060340809 269.238993084799 2505.76718168462 171 175 178
-1214.90988640339 269.553981128488 2499.71669351103 170 174 177
-1222.9366053255 269.358759725449 2496.69990608651 169 173 172
-1231.04401114907 269.50086475496 2491.65678688018 169 173 172
-1239.24822627544 269.979386068021 2484.58508603974 186 190 191
-1248.0974648688 272.988351384949 2462.30995870191 185 189 190
-1257.32017087422 277.001516852203 2433.93897718698 184 188 189
-1266.73330563407 281.17312479249 2404.53588666975 176 180 181
-1276.39401023546 285.671069431087 2373.08566730745 152 156 157
-1285.90487548717 289.149074473495 2347.70343611141 148 152 153
-894.41774142514 267.605419831145 2629.40798893617 193 197 198
-902.482666652105 266.408558395927 2632.43567450069 172 176 177
-910.450362884774 265.386317388275 2634.46734671402 169 173 176
-918.909357199744 263.149199593833 2643.4951973908 168 172 175
-927.104334990702 261.435491699392 2649.53131582427 173 177 180
-935.19387872114 259.896926942327 2654.57244347376 171 175 178
-943.057177225102 258.879246392443 2656.61713189663 162 166 167
-950.903788736045 257.86221084444 2658.66390105899 157 161 160
-958.61559891805 257.191210397995 2658.71096689401 156 160 159
-966.152486106584 257.037767419624 2655.75543782074 158 159 161
-973.485060887764 257.572772780414 2648.79236379358 148 150 149
-980.645711861568 258.794105922352 2637.81794875988 153 155 154
-987.81161229132 260.183471304221 2625.83474901999 132 134 131
-995.081817387271 261.396571053769 2614.84668396187 107 109 104
-1002.31978076975 262.949112546549 2601.84613410611 102 104 99
-1009.94294483702 263.12475405383 2596.86335709103 55 57 52
-1017.58700135424 263.298524588521 2591.87773748011 102 104 101
-1025.42565243494 262.614489210773 2591.90924891662 103 105 104
-1033.2901916135 261.759479893242 2592.9454267548 100 102 101
-1041.23122215658 260.392233220034 2596.99694971381 131 132 134
-1049.17108693931 258.855678874778 2602.05675111673 146 150 149
-1056.98203071628 258.002710281511 2603.09961197 140 144 143
-1064.71771496951 257.660830576907 2601.12745753794 135 139 138
-1072.40232321376 257.828436906198 2596.13703381318 140 144 143
-1080.17104526272 257.314533066986 2595.16889657715 145 149 148
-1087.95206764576 256.630583132609 2595.20735924068 153 157 158
-1095.72682903167 255.946494559953 2595.24660360473 155 159 160
-1103.52630242519 254.584861724663 2599.31577727528 156 160 161
-1111.3029279447 253.055481658984 2604.39593107999 155 159 160
-1119.02985990601 252.711051467723 2602.42463533009 161 165 166
-1126.76223266566 252.872449647056 2597.42826722513 180 184 185
-1134.52743544441 253.706594113902 2588.39504181296 181 182 184
-1142.31189743998 253.863658632679 2583.39218469185 189 190 192
-1150.20124778724 255.702057469992 2568.29397833358 190 191 193
-1158.12056745798 256.862636845668 2557.22504592458 188 189 191
-1166.09285456276 258.019184947683 2546.14951410918 179 183 184
-1174.0849242203 258.83630863801 2537.08802187537 178 182 183
-1182.21510592991 260.488194035768 2522.96817973029 188 192 193
-1190.34859394927 261.632919937334 2511.8725621271 183 187 188
-1198.41193801217 261.937536392528 2505.82658623302 173 177 178
-1206.41921610234 261.738957377147 2502.81247402029 167 173 173
-1214.49620332285 261.87320330284 2497.77293130371 165 171 171
-1222.59364029289 262.005611466278 2492.73108168771 163 169 169
-1230.8175684889 262.635835278467 2484.64883417141 168 174 174
-1239.07810206272 263.263368784845 2476.56202560518 189 194 197
-1247.82352039299 265.715681155821 2457.32462191144 186 190 193
-1256.66473558346 268.161290991178 2438.07504071804 185 189 192
-1266.20131088747 272.755243412471 2405.63237202694 170 174 175
-1275.95247536851 277.503531094944 2372.15459007183 148 152 151
-1285.8230780946 282.07446960488 2339.67005707078 150 154 153
-894.34312026963 258.969343691905 2634.4789600428 183 187 188
-902.395738415546 257.784195449565 2637.508150612 171 175 176
-910.2001309021 257.11326919818 2637.54366252737 169 173 176
-918.362331599953 255.587514655422 2642.57568928162 167 171 174
-926.561703336887 253.892578220729 2648.61120994264 171 175 178
-934.588186771619 252.540790475164 2652.65202817543 173 177 180
-942.457933728134 251.531000506563 2654.69589108998 163 167 168
-950.249052262673 250.692015721971 2655.74118919044 160 164 163
-957.969666239744 250.023201644094 2655.78715060616 154 158 157
-965.514856060039 249.863914465319 2652.83060080402 158 159 161
-972.908845788458 250.21248652152 2646.86804061819 151 153 152
-980.073788080543 251.406432406575 2635.8931621767 149 151 148
-987.050180624479 253.442993018737 2619.9009188735 143 145 142
-994.106967105799 255.473892072059 2603.89841752296 119 121 116
-1001.45916421123 256.653997640627 2592.90020723579 104 106 101
-1009.06621151103 256.986013100991 2586.91134259458 57 59 54
-1016.88755599056 256.472758297812 2585.9366366811 96 98 95
-1024.81285459993 255.453576595254 2587.97359181059 103 105 104
-1032.8177873692 253.930253699862 2593.02499800018 106 108 107
-1040.7896230225 252.408623729256 2598.08077032466 146 147 149
-1048.75504403588 250.720707969007 2604.14546816418 148 152 151
-1056.53727827553 250.041222222908 2604.18400810763 134 138 137
-1064.24919363742 249.864622280814 2601.20645726737 125 129 128
-1071.93360589796 250.021491100788 2596.21608627707 142 146 145
-1079.71884644787 249.340557165546 2596.25401459579 147 151 150
-1087.4977669714 248.659488352526 2596.29273197163 153 157 158
-1095.31285169599 247.311074867602 2600.35992262766 156 160 161
-1103.07635182366 246.463997876207 2601.4089289213 156 160 161
-1110.83858163609 245.284389321638 2604.47434364919 155 159 160
-1118.55821116729 245.436267378503 2599.47959089471 160 164 165
-1126.2981086361 245.254122317488 2596.49856265582 178 182 183
-1134.05939877985 245.73476189604 2589.4821306563 186 187 189
-1141.86876037177 246.710150417316 2579.43509515719 188 189 191
-1149.775338717 248.675627861193 2563.32695736018 189 190 192
-1157.69599217369 249.642851452478 2553.26605479635 187 188 190
-1165.63679551898 250.276061950171 2545.21913172227 180 184 185
-1173.6633309761 251.401622190164 2534.13691163864 178 182 183
-1181.87612735884 253.677394830173 2515.97412802441 187 191 192
-1190.07076761769 255.123243315948 2502.85447152253 182 186 187
-1198.06013346539 254.754810976353 2500.85072905264 173 177 178
-1206.08092722177 254.550112878658 2497.83470601032 170 176 176
-1214.02190627305 253.851971399583 2497.85324440023 168 174 174
-1222.18402512355 254.301703395597 2490.78711301054 168 173 176
-1230.30698429327 254.421434538981 2485.74187149064 168 173 176
-1238.82935115341 256.175613283895 2470.56513047327 175 180 183
-1247.46653570518 258.087917755858 2454.36595737011 170 174 177
-1256.4430857578 260.974103489145 2432.07502538174 172 176 179
-1265.99119470981 265.483172581991 2399.63114089678 174 178 179
-1275.99700055132 270.958228718292 2361.08099152676 154 158 157
-893.865010433539 251.202651779596 2634.5590786305 179 183 184
-901.762265066431 250.365595095356 2635.59112649577 173 177 178
-909.572777336688 249.696939120068 2635.62610898836 168 172 175
-918.033486091434 247.514357911877 2644.65360209304 161 165 168
-926.439714327686 245.334709925667 2653.6878863198 164 168 171
-934.386537030733 244.165200066881 2656.73023835169 185 189 192
-942.052164455095 243.667359775522 2655.77492441254 164 168 169
-949.655223888744 243.33652694847 2653.81929168233 159 163 162
-957.322570126248 242.837502159388 2652.86376636479 156 160 159
-964.705999696936 243.173787242528 2646.90255638151 158 159 161
-972.008006488442 243.841810111049 2638.93525966368 153 155 154
-979.244685151659 244.840453356141 2628.95963036792 147 149 148
-986.092356513549 247.335068695877 2609.95894287311 140 142 139
-993.174183329959 249.323492695547 2593.95342849333 132 134 129
-1000.55229493005 250.474893208985 2582.95205982417 44 46 41
-1008.42875681322 249.795135447753 2582.97860116238 58 60 55
-1016.41245951089 248.617485572883 2586.01661249415 101 103 100
-1024.33875007919 247.606601783761 2588.05342198077 117 119 118
-1032.28045679801 246.430728957002 2591.0964292139 123 125 124
-1040.22947056964 245.090503133054 2595.14664448599 148 149 151
-1048.09680883161 244.082001333773 2597.19080459903 143 147 146
-1055.92286100488 243.239181080594 2598.23199355722 120 124 123
-1063.65108108272 243.056047992829 2595.25242518961 127 131 130
-1071.40813543072 242.707133282274 2593.27762242249 141 145 144
-1079.23436650658 241.69945858091 2595.32691029121 144 148 147
-1087.05697132222 240.528157258245 2598.38476869883 151 155 156
-1094.87872848485 239.029674947586 2603.45920897315 155 159 160
-1102.65105300183 237.860830241119 2606.52333559538 159 163 164
-1110.37937454351 237.348156396769 2605.56023686467 158 162 163
-1118.09606508688 237.489501550519 2600.56587861652 161 165 166
-1125.83350402411 238.282830306458 2591.53598518562 176 180 181
-1133.60771904223 238.746464286122 2584.51822529057 186 187 189
-1141.42413132799 239.533686987042 2575.47849253274 188 189 191
-1149.31510999077 240.969198529766 2562.39675842479 189 190 192
-1157.22658481843 241.749352427788 2553.34542130791 188 189 191
-1165.19362199113 242.688716955984 2543.2788036964 181 185 186
-1173.22437869229 243.786954125418 2532.1961287808 178 182 183
-1181.44018628644 246.016489123758 2514.03309115037 184 188 189
-1189.66016102277 247.591584781587 2499.90224558945 179 183 184
-1197.65783793855 247.220054924989 2497.8974741046 168 174 174
-1205.74074951518 247.332903727414 2492.85748868071 167 173 173
-1213.6956863762 246.636679998785 2492.87428016816 165 171 171
-1221.87064525053 247.069466515794 2485.80635077598 169 174 177
-1230.00671954268 247.17761465989 2480.7597433385 169 174 177
-1238.50286153742 248.732250213105 2466.59448761737 178 183 186
-1247.18915879469 250.764042881108 2449.38094350407 172 176 179
-1256.21923879006 253.753133752477 2426.0753732001 171 175 178
-1265.91627210864 258.658435257871 2390.58855880735 171 175 176
-1275.94064820305 264.031736190741 2352.03635994826 156 160 159
-885.81292657471 243.60170923486 2637.59932210069 183 188 184
-893.711413895841 242.770518883321 2638.63144095372 178 182 183
-901.441823271144 242.27123910853 2637.66804640091 173 177 178
-909.323372485514 241.440110030449 2638.70203859942 173 177 180
-917.632068073175 239.616099720392 2645.73218356858 161 165 168
-925.967438842933 237.629100467513 2653.76711595648 157 161 164
-933.847813928573 236.635654250878 2655.80960950266 189 193 196
-941.51667877304 236.137697300565 2654.85389185983 166 170 171
-948.998312823133 236.133623154273 2650.89693732715 157 161 160
-956.61473932142 235.798800849504 2648.9394067037 155 159 158
-963.951872157511 236.285292669686 2641.97613188566 152 153 155
-971.320863983536 236.769244746837 2635.00864767359 146 148 147
-978.618803440709 237.578747148041 2626.03355858679 142 144 141
-985.569557296508 239.696259459667 2609.03637428994 140 142 139
-992.560115396831 241.971420732533 2591.02612039757 127 129 124
-999.858509218665 243.422290012484 2578.01853719913 38 40 35
-1007.7085513801 242.907834085281 2577.04025314773 67 69 64
-1015.82334104433 241.250446414591 2583.08623026804 106 108 105
-1023.86443840424 239.758206836566 2588.13328174245 123 125 124
-1031.9373757179 237.941927070325 2595.19258732356 159 160 162
-1039.8470686819 236.77869439261 2598.23955639664 144 145 147
-1047.62586903942 236.266507533894 2597.27015692568 129 133 132
-1055.35505755771 236.07847775723 2594.29072086643 117 121 120
-1063.09422368257 235.889361929434 2591.3098022522 131 135 134
-1070.90038878169 235.213246366113 2591.34510662187 141 145 144
-1078.71666955666 234.375288882737 2592.38750218686 144 148 147
-1086.53489230252 233.376037548429 2594.43776726517 158 162 163
-1094.39065237266 231.570368220679 2601.52414734012 156 160 161
-1102.18593374444 230.089697561758 2606.60184473027 153 157 158
-1109.93681445528 228.932879360132 2609.66861574136 156 160 161
-1117.63968463641 229.225136897663 2603.66789767213 164 168 169
-1125.36841895993 229.676018540347 2596.65560681297 180 184 185
-1133.12601445007 229.963921285929 2590.64783054816 177 178 180
-1140.94113167806 231.21171399307 2578.58398521658 188 189 191
-1148.81450502673 232.455228090143 2566.51288113312 192 193 195
-1156.74622674281 233.694514918808 2554.43426638198 192 193 195
-1164.69622993093 234.450087266913 2545.37818588814 182 186 187
-1172.68828941251 235.202470245227 2536.31662514785 178 182 183
-1180.87218661364 237.227302453713 2519.16603619026 185 189 190
-1189.03416214988 238.449711071409 2507.05873157178 178 182 183
-1197.13379028243 238.872425763151 2500.00022953462 167 173 173
-1205.21092389858 238.974832938023 2494.96099266368 166 172 172
-1213.24951817838 238.758133909721 2491.94302009404 162 168 168
-1221.36217236238 238.857559050362 2486.89911805058 155 160 163
-1229.49528372054 238.955265400138 2481.85290786783 157 162 165
-1237.98697024442 240.475068143379 2467.68829989409 185 190 193
-1246.82938780944 243.095905615749 2446.42273299933 184 188 191
-1256.03620515803 246.656363986684 2419.06261358105 179 183 186
-1265.83819793109 251.783672343578 2381.54650175663 168 172 173
-1275.97788998697 257.370198140866 2340.96373616207 155 159 158
-886.00663536295 234.529740028626 2645.66125668888 184 189 185
-893.721689983636 234.032035661753 2644.69977416989 169 173 174
-901.20052749363 234.023272312447 2640.74318097772 172 176 177
-908.998905881612 233.36103057838 2640.77942054667 175 179 182
-917.304064462961 231.559163640479 2647.80994859952 171 175 178
-925.63604499154 229.597013265835 2655.8449983621 151 155 158
-933.579852762723 228.449703103355 2658.88766817755 196 200 203
-941.110905035157 228.276833935899 2655.93291842549 178 182 183
-948.465049783781 228.589005476655 2649.97542651703 157 161 160
-955.905409116372 228.737025353317 2645.01553519269 154 158 157
-963.252865808379 229.206612544446 2638.05077626746 149 150 152
-970.577881241689 229.835216177258 2630.0807120163 150 152 151
-977.682147355775 231.26766571626 2617.09740331585 146 148 147
-984.508409877043 233.823882049476 2597.09129792682 137 139 136
-991.575273873364 235.889832917587 2580.07975955609 125 127 122
-999.032422057779 236.823786569798 2570.07678732523 48 50 45
-1007.02694425565 235.826024775498 2572.10504735156 65 67 62
-1015.19498828982 234.026410459457 2579.15244028834 100 102 99
-1023.38989934127 231.908542348161 2588.21317322411 117 119 118
-1031.49732259011 229.953889231136 2596.27622666387 141 142 144
-1039.37546240262 228.961779858073 2598.31899563839 131 132 134
-1047.07287951908 228.929028543933 2594.33518817502 120 124 123
-1054.71194195204 229.373648501161 2587.33410432759 123 127 126
-1062.49205095259 229.018576884828 2585.35644069013 134 138 137
-1070.35343128986 228.025713659664 2587.40130313332 139 143 142
-1078.19775570128 227.033518939521 2589.44829229474 142 146 145
-1086.0525591605 225.724228868444 2593.51018298865 158 162 163
-1093.90170089802 224.098936436055 2599.5894671468 155 159 160
-1101.72898292379 222.158755618912 2607.68744244273 154 158 159
-1109.45543965943 221.646588767659 2606.72457509364 159 163 164
-1117.17801612426 221.29219619444 2604.75408938827 166 170 171
-1124.90319062402 221.885094903184 2596.73418167899 174 178 179
-1132.66039356139 222.159585163376 2590.72648972374 175 176 178
-1140.47410291687 223.377696047241 2578.66289825236 188 189 191
-1148.35390745964 224.749061144765 2565.5827275359 192 193 195
-1156.25546533969 225.486637803177 2556.53274012111 187 188 190
-1164.18599241153 226.063916181315 2548.48724676045 181 185 186
-1172.13728732128 226.481478474685 2541.44726940121 179 183 184
-1180.24980938591 227.993783408255 2527.32999865561 184 188 189
-1188.43136040997 229.5011234401 2513.20412657885 178 182 183
-1196.58606716477 230.377977503077 2503.11425353206 168 174 174
-1204.68149865353 230.626503724988 2497.0646612973 168 174 174
-1212.80273315725 230.873025309712 2491.01161400922 164 170 170
-1220.91782002495 230.961577844818 2485.96767728258 158 163 166
-1229.12268308592 231.359791254349 2478.89610707174 155 160 163
-1237.50844526268 232.377541733194 2467.76934153039 180 185 188
-1246.38811444215 235.099693590127 2445.49117194836 181 185 188
-1255.63650466441 238.744767453742 2417.11795455114 178 182 185
-1265.39298597639 243.619414090832 2380.61587476184 169 173 174
-1275.91486715959 250.338245618156 2331.92045501381 154 158 157
-876.422736872143 229.858184918556 2630.74537802044 203 208 204
-884.771359481156 228.232842390335 2636.76208978191 183 188 184
-893.244817545965 226.288257964077 2644.77967799381 174 178 179
-900.881254317368 225.950488668682 2642.81965796738 166 170 171
-908.903221611972 224.810624015849 2645.85279459763 175 179 182
-916.976545944904 223.511660120996 2649.88738798477 163 167 170
-925.234467218848 221.734183015512 2656.92374674456 147 151 154
-933.0407947072 220.917401543863 2657.96708838587 179 183 186
-940.57474472239 220.738972776261 2655.01199165365 196 200 201
-947.931267580832 221.037495602325 2649.05423891455 151 155 154
-955.434042423076 221.015352452409 2645.09469372007 153 157 156
-962.723867483532 221.627773617634 2637.12906363536 150 151 153
-970.050930538143 222.237195425891 2629.15879436783 149 151 150
-976.794067613744 224.747704574906 2609.16318291123 124 126 125
-983.639328734144 227.251050892024 2589.15484584065 129 131 128
-990.772035959932 229.113924971765 2573.14355278657 45 47 42
-998.465379965596 229.23158452993 2568.15217042348 58 60 55
-1006.42535300874 228.399669818406 2569.17637786074 58 60 55
-1014.64157330953 226.463589584723 2577.22604542933 148 150 147
-1022.91513279829 224.057369435634 2588.2930970663 148 150 149
-1031.02450986502 222.127376558978 2596.35584173927 137 138 140
-1038.87348509552 221.300743883298 2597.39412740603 127 128 130
-1046.51867494946 221.573979051778 2591.40041732662 126 130 129
-1054.19008280629 221.844979126061 2585.40368155023 130 134 133
-1062.0420311201 221.016840655792 2586.44135989048 137 141 140
-1069.90165855602 220.032450207419 2588.48641877264 138 142 141
-1077.74423192226 219.048758006914 2590.53360406307 145 149 148
-1085.5557520798 218.221883657891 2591.57656453793 151 155 156
-1093.411840815 216.615316981701 2597.65469216948 155 159 160
-1101.2378152753 214.855142368587 2604.74466950373 164 168 169
-1108.97281287503 214.34261058185 2603.78073726634 163 167 168
-1116.6942668955 214.451551596437 2598.78586989956 160 164 165
-1124.4376721585 214.092845999618 2596.81279624151 163 167 168
-1132.19665556338 214.50898325757 2589.79682197392 182 183 185
-1140.00678588225 215.542382577857 2578.74185067467 187 188 190
-1147.91558718888 217.500379873265 2561.62552779699 189 190 192
-1155.82704628159 218.215706334012 2552.57436336449 187 188 190
-1163.71550401841 218.15594367113 2548.56678629455 183 187 188
-1171.65052279933 218.403279660592 2542.53697548307 181 185 186
-1179.75858196845 219.880632812795 2528.42035372471 183 187 188
-1187.93573469475 221.353106531316 2514.29512234871 175 179 180
-1196.11043749192 222.359607577495 2503.19472539515 167 173 173
-1204.17895755293 222.441272523731 2498.15661806889 166 172 172
-1212.29696425304 222.674534887608 2492.10424877805 162 168 168
-1220.44092339739 222.90581295589 2486.04840573242 161 166 169
-1228.71432055804 223.593811747667 2476.95214553524 162 167 170
-1237.10416011803 224.584308042905 2465.82494293349 174 179 182
-1245.9461854656 227.096774722853 2444.55971037577 179 183 186
-1255.19324146743 230.668711672388 2416.1866118161 177 181 184
-1265.17380354214 236.209663957884 2374.61613762045 173 177 178
-1275.9447295856 243.560361067703 2320.84905852224 152 156 155
-875.854891224733 222.227712482977 2629.82864927955 171 176 172
-884.207918870701 220.621200430138 2635.84476172906 168 173 169
-892.604453731436 218.858838938824 2642.86354225752 176 180 181
-900.799414443436 217.414070964555 2647.89126748044 179 183 184
-908.809047035019 216.286068065871 2650.92567190247 165 169 172
-916.575970330782 215.630936449148 2650.96581815672 157 161 164
-924.478793660161 214.66138236006 2653.00544737573 143 147 150
-932.364928094376 213.692324088552 2655.04715796447 165 169 172
-940.038059750532 213.194364067711 2654.09090785686 190 194 195
-947.4596968603 213.322524584655 2649.13340525416 143 147 146
-954.902458834206 213.448742104587 2644.17327151012 163 167 166
-962.136967036512 214.198352833983 2635.20625599151 151 152 154
-969.250290571774 215.413065671804 2623.23007747848 144 146 145
-975.747372596638 218.650737053313 2598.22458152199 126 128 127
-982.570491610097 221.256404393989 2577.21105109849 117 119 116
-989.96627774858 222.298581769928 2566.20776438667 51 53 48
-997.941314831389 221.471828917325 2567.23007832727 49 51 46
-1006.06926539285 220.02425279446 2572.26617341598 74 76 71
-1014.20252943196 218.423349976672 2578.30969629268 148 150 147
-1022.40440304073 216.35983091801 2587.36917694742 138 140 139
-1030.45241009238 214.763583071146 2593.42332713342 133 134 136
-1038.34060236084 213.787495790581 2595.46479942725 128 129 131
-1045.99083769548 214.04685509923 2589.47073651201 130 134 133
-1053.64237601998 214.458251120174 2582.46818324113 135 139 138
-1061.48098304486 213.789176454305 2582.4994205083 138 142 141
-1069.35237156614 212.812338142015 2584.54299178826 144 148 147
-1077.27392961266 211.22163749044 2590.6129074542 151 155 154
-1085.11445763227 210.093478362363 2593.66841553849 153 157 158
-1092.93246581726 208.966278603351 2596.72697170729 154 158 159
-1100.72802617102 207.840237646272 2599.78808591231 162 166 167
-1108.45887396186 207.785737866151 2595.80016377223 155 159 160
-1116.21492644344 207.271566151636 2594.83360832875 149 153 154
-1123.96753439831 207.367384292945 2589.83488769375 175 179 180
-1131.73861378584 207.308947918788 2585.84195525513 183 184 186
-1139.55830935234 208.314713585911 2574.78586304177 187 188 190
-1147.460718972 209.924592118574 2559.68686903233 189 190 192
-1155.35632249044 210.314407844467 2552.65391469908 186 187 189
-1163.2703734954 210.55006016369 2546.62675131062 181 185 186
-1171.21036582662 210.783554736797 2540.59659654908 180 184 185
-1179.37685467393 212.67947824093 2523.44827925888 184 188 189
-1187.62857972305 214.569464071171 2506.28934063125 176 180 181
-1195.75267425214 215.094695833485 2498.2198282592 168 174 174
-1203.80802220327 215.014088811233 2494.19147917003 167 173 173
-1211.93638523372 215.233341003573 2488.13761409693 163 169 169
-1220.05891079088 215.30006896774 2483.09280654004 158 163 166
-1228.20180868117 215.365140764208 2478.04546099788 159 164 167
-1236.66182889652 216.629070606468 2464.89316572261 173 178 181
-1245.54344644373 219.237148398388 2442.61505340579 179 183 186
-1255.13176726049 223.933278058031 2406.13442917024 178 182 185
-1265.17822204429 229.513609739485 2363.54794115162 175 179 180
-1276.01856818801 236.870942796521 2308.76449426158 158 162 161
-875.722792221231 213.812903116563 2633.89828321669 160 165 161
-883.474930390116 213.313523120044 2632.93217730283 162 167 163
-891.79957951749 211.727452265695 2638.95177739252 173 177 178
-900.16514329647 209.988384632675 2645.97436158534 173 177 178
-908.48710275237 208.251679293838 2653.00262138762 162 166 169
-916.470480561687 207.135770498017 2656.04027040186 161 165 168
-924.218734919599 206.484187226377 2656.08273708475 148 152 155
-931.961154395807 205.832410813251 2656.12617270375 130 134 137
-939.369625874039 205.951165196628 2651.17009759601 154 158 159
-946.862132836993 205.914058816282 2647.21187317729 166 170 169
-954.18975188878 206.336656751502 2640.24995388555 143 147 146
-961.434246135302 207.063952156783 2631.28175093428 152 153 155
-968.447457083682 208.554974285868 2617.30172376443 144 146 145
-974.957319636486 211.726555118271 2592.29480692071 164 166 165
-981.942012680534 213.81775748252 2574.28576940193 61 63 60
-989.484825290516 214.373749409086 2566.28871657108 46 48 43
-997.548635674964 213.247102710526 2569.31635635335 73 75 70
-1005.63139630626 211.968888353037 2573.34971750307 110 112 107
-1013.68642405899 210.691905743238 2577.38677657705 124 126 123
-1021.74960712984 209.264162617811 2582.4309020362 127 129 128
-1029.74638562522 207.990141788729 2586.47498220465 134 135 137
-1037.65444260023 207.021120258164 2588.51395689315 130 131 133
-1045.43436451323 206.659252230466 2586.53633450121 126 130 129
-1053.16871342444 206.599602328022 2582.54798900467 132 136 135
-1060.98555061917 206.084633971315 2581.57385008627 131 135 134
-1068.82120710108 205.418136159656 2581.60544877771 149 153 152
-1076.75242935659 203.846020527309 2587.67410946452 156 160 159
-1084.61641673997 202.577535370666 2591.73498686944 159 163 164
-1092.42937648412 201.611705414278 2593.78582072524 158 162 163
-1100.21631685095 200.796935402038 2594.83157646759 147 151 152
-1107.97294672358 200.433147046035 2592.8568658417 156 160 161
-1115.74098241986 199.768538317736 2592.89689823259 171 175 176
-1123.50189739022 199.253937390395 2591.92973710957 172 176 177
-1131.27131860696 199.487279577995 2585.92086901602 176 177 179
-1139.08519329603 200.316568856715 2575.87365505622 184 185 187
-1146.99036062697 202.038171034979 2559.76633558229 186 187 189
-1154.89538390861 202.560992508523 2551.72392808544 186 187 189
-1162.83706418217 203.081003447644 2543.67719368291 184 188 189
-1170.83081522168 203.747012461199 2534.6158895777 185 189 190
-1179.04750785397 205.895873414578 2515.44502658503 183 187 188
-1187.23535487711 207.147403103433 2502.32696983918 175 179 180
-1195.29903201448 207.208443943318 2497.28952119402 165 171 171
-1203.35692437733 207.119701914771 2493.26087600056 163 169 169
-1211.45869171123 207.177626881425 2488.21844186086 160 166 166
-1219.51777200165 206.938301954038 2485.1979723427 163 168 171
-1227.62066637771 206.845618039507 2481.16372154486 159 164 167
-1236.10794718015 208.225025828656 2467.00003310423 172 177 180
-1245.29824521775 211.954143943462 2436.61822947555 178 182 185
-1254.85506341191 216.407471938379 2401.15010335754 178 182 185
-1265.35885142658 223.343923523168 2348.42513950505 175 179 180
-1276.08823431633 230.115137865453 2296.68038525919 153 157 156
-1285.72472373234 232.914270741637 2272.291951794 153 157 156
-874.979992464358 206.487964044503 2630.98696863798 174 179 175
-883.503152248482 204.614507740621 2638.99816705577 168 173 169
-891.731261517719 203.201040075678 2644.02143283773 172 176 177
-900.005879490969 201.636852043054 2650.04745916078 171 175 176
-908.012471302397 200.530990765168 2653.08218474502 161 165 168
-915.997026548732 199.425995843224 2656.11965808079 161 165 168
-923.817149475575 198.625388712739 2657.16147580712 153 157 160
-931.557518779372 197.976607068703 2657.20491912016 138 142 145
-938.897355991299 198.236149136314 2651.24935130554 134 138 139
-946.326796919068 198.342163210573 2646.29093315436 173 177 176
-953.475506820694 199.201584254469 2636.32664847669 136 140 139
-960.614672837208 200.208270942146 2625.35547990244 141 142 144
-967.477544778661 202.115068055792 2608.36981765992 139 141 140
-974.165045496145 204.76844317448 2586.36539886306 153 155 154
-981.163644269202 206.812534687183 2568.35475005626 42 44 41
-988.862567208495 206.898036767886 2563.36275616081 50 52 47
-996.84734658453 206.081861186335 2564.38382646594 86 88 83
-1005.02782683546 204.516769849822 2570.42136273028 113 115 110
-1013.05352480791 203.402616823929 2573.45396608334 119 121 118
-1021.16499587338 201.841145380099 2579.50010475319 131 133 132
-1029.10448004791 200.878811335524 2581.53513990173 132 133 135
-1036.99636864135 200.066283986654 2582.56779281987 130 131 133
-1044.79279378748 199.700826415117 2580.58812037494 123 127 126
-1052.61902424208 199.185856875767 2579.61280923636 130 134 133
-1060.44442995935 198.670491960476 2578.63760206132 131 135 134
-1068.30864238748 197.857968441397 2579.67394905993 150 154 153
-1076.24684673326 196.304668416825 2585.74168887291 156 160 159
-1084.16081519799 194.605538047144 2592.82052431779 154 158 159
-1091.97195929922 193.648125142353 2594.87156258909 149 153 154
-1099.72981320113 193.282108809739 2592.89670507888 153 157 158
-1107.48574540677 193.062989484227 2589.91377317004 164 168 169
-1115.27342620783 191.958831044702 2592.97581306982 172 176 177
-1123.0356595888 191.297162515344 2593.01680208118 167 171 172
-1130.80025500452 191.370445743635 2588.01640455809 175 176 178
-1138.6120677582 192.322545562811 2576.96143740026 185 186 188
-1146.50537247576 193.857276390228 2561.86377752759 187 188 190
-1154.38452337246 194.068817063759 2555.8412732322 185 186 188
-1162.28967831802 194.278250709802 2549.8152890653 183 187 188
-1170.31202792528 195.362013128485 2537.72601432586 184 188 189
-1178.60765616195 198.192249223644 2513.50483049955 183 187 188
-1186.84061781227 199.702535011992 2498.36484782484 174 178 179
-1194.82147430928 199.170100326773 2497.37028626414 163 169 169
-1202.93125695439 199.364168848423 2491.31880623359 161 167 167
-1211.03805240299 199.411026004596 2486.27601403032 159 165 165
-1219.16533824322 199.456219472067 2481.23066912858 164 169 172
-1227.24482762938 199.210127283668 2478.20743022854 163 168 171
-1235.73839257276 200.553958365741 2464.04305125426 173 178 181
-1244.97182225783 204.348511429968 2432.64800563217 179 183 186
-1255.08236137097 210.584595285689 2384.00519024146 178 182 185
-1265.62404071619 217.379898322665 2331.27586948461 171 175 176
-1276.05863276593 223.005365633491 2286.62521090165 155 159 158
-1285.41718719441 224.878151936811 2268.32050470714 153 157 156
-874.673951004786 198.395017335252 2633.06184748633 168 173 169
-882.769353407554 197.295863310663 2636.08571263924 164 169 165
-891.089272819823 195.748435413733 2642.10580120456 158 162 163
-899.291498364422 194.352535158727 2647.13249112793 160 164 165
-907.537669591502 192.808879750481 2653.16177309605 151 155 158
-915.671500143337 191.416351232885 2658.19698943082 170 174 177
-923.558395129655 190.472653798756 2660.23829805155 177 181 184
-931.0853974479 190.273705149846 2657.28412238921 180 184 187
-938.490855642937 190.371004705856 2652.32872009066 161 165 166
-945.917414746476 190.466449870367 2647.37044913821 151 155 154
-953.062422236025 191.301682906421 2637.40693046668 166 170 169
-959.908550697655 193.022218219386 2621.43153532347 144 145 147
-966.55960167972 195.476970279144 2600.43987540305 135 137 136
-973.265709622405 198.071916289527 2578.43328840547 113 115 114
-980.532232129621 199.330447576592 2565.42994880519 58 60 57
-988.239071895226 199.404635593224 2560.4369967318 61 63 58
-996.321414881462 198.298845750503 2563.46226882914 96 98 93
-1004.58945304991 196.458543538182 2571.50521760619 116 118 113
-1012.73030242279 194.914849128807 2577.54764322177 136 138 135
-1020.86882968044 193.22652625703 2584.5984265957 137 139 138
-1028.69525995657 192.7130967649 2583.62308646491 127 128 130
-1036.42847780556 192.638409202973 2579.63492171939 129 130 132
-1044.23328595017 192.269819670957 2577.65421137371 131 135 134
-1052.11891557931 191.46241161111 2578.68787216087 133 137 136
-1059.99286093517 190.655327347299 2579.72274995481 142 146 145
-1067.85515340751 189.848599748685 2580.7593212892 152 156 155
-1075.77492359425 188.460122693063 2585.82124042264 152 156 155
-1083.7052262645 186.63754130727 2593.90604965728 148 152 153
-1091.56221354073 185.108051104032 2599.98410244681 149 153 154
-1099.30684210453 184.740456048687 2598.01065926939 165 169 170
-1107.03634467213 184.806481568135 2593.01490050793 160 164 165
-1114.80176275512 184.292340294076 2592.0471762126 158 162 163
-1122.57060631799 183.200191611534 2595.11153526108 172 176 177
-1130.33269158532 183.551601434325 2588.0953443568 178 179 181
-1138.15184396582 184.764926063402 2575.02339913431 189 190 192
-1146.04863339961 186.261481441223 2559.92540492334 190 191 193
-1153.9230960351 186.31564189202 2554.9113469799 182 183 185
-1161.79335365014 186.08094050094 2551.91442923941 178 182 183
-1169.88426472014 187.852201030469 2534.77587190451 178 182 183
-1178.11356445479 190.046971393873 2514.59562762101 183 187 188
-1186.40332199428 191.948698296223 2496.42422474555 175 179 180
-1194.38988966353 191.416138665323 2495.42895079336 162 168 168
-1202.53040796281 191.739110273075 2488.36560857499 160 166 166
-1210.64504468697 191.774867205867 2483.32186705893 158 164 164
-1218.71755935718 191.52432212714 2480.29951028873 162 167 170
-1226.90149190121 191.699097163636 2474.23906786661 160 165 168
-1235.36744582831 192.865331682137 2461.08628937634 173 178 181
-1244.64375788355 196.719900856687 2428.67804713949 180 184 187
-1254.92583633932 203.394201751526 2375.98144169374 180 184 187
-1266.10683573538 212.029226984684 2309.05891228158 172 176 177
-1275.97802556853 215.698763609496 2277.58460718976 154 158 157
-1285.20815129023 217.101091012375 2262.32046863868 155 159 158
-866.436241681491 191.105127982055 2634.10906257318 194 196 191
-874.543941340825 190.016657212556 2637.13136496721 174 179 175
-882.544650686008 189.076372065747 2639.15870151142 166 171 167
-890.611118034471 187.989569972134 2642.18590479094 156 160 159
-898.735226909856 186.756887442228 2646.21398601779 148 152 153
-906.90883309486 185.378756230015 2651.2442006739 164 168 169
-914.975386233628 184.148757418581 2655.27969771768 165 169 170
-922.871385952409 183.212664404963 2657.3200903644 175 179 180
-930.406650333306 183.007931358438 2654.36465860975 167 171 172
-937.820036399648 183.093856424557 2649.40829691405 168 172 173
-945.254539997456 183.177958405181 2644.4493046763 129 133 132
-952.345947258767 184.133964983858 2633.48398930787 153 157 156
-959.084894950358 186.103969333952 2615.5059385269 124 126 125
-965.472872096298 189.229694238148 2589.50666592315 115 117 116
-972.258328056835 191.62073048484 2568.49840084934 103 105 104
-979.650178550449 192.555210721463 2557.49588889932 62 64 61
-987.61438733497 191.893602550421 2557.51143214669 53 55 50
-995.794934582648 190.509176377837 2562.54079717676 109 111 106
-1004.23474860785 188.115736298379 2574.5947546728 122 124 121
-1012.3691380147 186.59174369401 2580.63793456995 138 140 137
-1020.50131333152 184.925803244067 2587.68945168524 137 139 138
-1028.32009384282 184.413010391342 2586.71506452331 132 133 135
-1036.1071241656 184.043492992978 2584.7365751882 128 129 131
-1043.78563961225 184.247238497082 2578.7388892704 133 137 138
-1051.64379178415 183.588895496603 2578.76789942605 133 137 138
-1059.49563505714 182.930593572153 2578.79745651808 144 148 147
-1067.42189611187 181.700364815151 2582.85046179011 150 154 153
-1075.35514947482 180.185960732792 2588.9187170254 147 151 152
-1083.26447526327 178.53114138392 2595.99801515733 152 156 157
