ply
format ascii 1.0
comment KinectMotionCapture
element vertex 753
property float x
property float y
property float z
property uchar red
property uchar green
property uchar blue
end_header
-1149.50632709132 284.054636377227 2391.57731839226 128 133 129
-1158.67632008937 282.47598095103 2383.48861785646 113 118 114
-1163.85780953459 281.580005365527 2375.56616514699 132 137 133
-1168.04221457792 280.854323878141 2367.69723657518 139 144 140
-1170.23247734965 280.469656197841 2359.89747714585 138 143 139
-1171.42621438678 280.255223911101 2352.12934416879 150 155 151
-1172.61957376289 280.040415151358 2344.36624247691 159 164 160
-1170.82351492472 280.336973004956 2336.65521625076 155 160 154
-1168.03145627787 280.803599361424 2328.94575748782 141 146 140
-1162.25119171445 281.781386485901 2321.25009716396 148 153 147
-1161.45244655572 281.905725475362 2313.48384396124 169 174 168
-1155.67326042455 282.882298330502 2305.73540619208 170 175 169
-1148.89890543323 284.028658447316 2297.95575756369 171 176 169
-1143.12144940658 285.003840404132 2290.13820787656 153 158 151
-898.280791099444 318.631898570977 2704.38643266048 154 158 157
-932.475762912528 312.873837952591 2691.51666517838 144 148 147
-972.662402896573 306.105589864351 2678.06403327592 166 170 169
-998.853191272834 301.695663142248 2666.57973567879 184 188 187
-1010.05262277815 299.811854544974 2657.07154643886 186 190 189
-1013.25729541164 299.275141223285 2648.57936724455 184 188 189
-1021.45680168137 297.896316728179 2639.51772642432 172 176 177
-1025.65926796277 297.190857904045 2630.95529085152 183 185 184
-1036.85392215556 295.30658061089 2621.63331228518 193 195 192
-1042.05361792153 294.432346423496 2613.02263772905 170 172 169
-1044.25648292689 294.062926439951 2604.75603594356 171 173 170
-1047.45773834928 293.524812143709 2596.39590893852 173 175 172
-1054.65315549799 292.313228175537 2587.64895746775 165 167 164
-1068.83766971951 289.923381657091 2578.25453579682 187 189 186
-1087.01449707696 286.860374421659 2568.55519549728 190 192 189
-1094.20579428715 285.648386822134 2559.96883210795 180 182 179
-1096.40414908216 285.277619910623 2551.86773395133 179 181 178
-1097.60424673981 285.074638417473 2543.86330087056 175 177 174
-1103.79503651928 284.030231341837 2535.44268224066 172 177 173
-1111.98166927443 282.649129197706 2526.89106219031 166 171 167
-1116.17463084036 281.940649037258 2518.69685974589 159 164 160
-1120.36705048079 281.231923028984 2510.52357365527 157 162 158
-1121.5652730539 281.027430098549 2502.59080250883 154 159 155
-1130.74612577271 279.477216584615 2494.0988804119 157 162 158
-1136.93250205742 278.431250504863 2485.8584072961 157 162 158
-1139.12711377188 278.057695772531 2477.90993313489 162 167 163
-1132.34228964383 279.196939928351 2470.53181406629 135 140 136
-1129.54883379252 279.663128003243 2462.8764923008 128 133 129
-1128.75074063175 279.792635107675 2455.09030588313 123 128 124
-1132.94049248073 279.081165110791 2447.02766482838 125 130 126
-1132.14234429321 279.209756569646 2439.24264589692 122 127 123
-1131.34458263701 279.33794189234 2431.45140869323 124 129 125
-1129.54953939793 279.633659183591 2423.69978680546 119 124 120
-1129.74925706107 279.592882591801 2415.85034590581 81 86 82
-1134.93469713424 278.711427044704 2407.79840425715 87 92 88
-1137.12827228239 278.33376688523 2399.88603460693 97 102 98
-1143.30920933587 277.28373026637 2391.84445007035 104 109 105
-1152.48030869541 275.729448124491 2383.7386792505 129 134 130
-1161.65015598309 274.174959148328 2375.6816216533 140 145 141
-1168.82511320152 272.95624820503 2367.7266627383 137 142 138
-1168.02557384558 273.080735478061 2360.00093351764 148 153 149
-1168.22273517049 273.036828246632 2352.24804173212 153 158 154
-1169.41638547067 272.824492844215 2344.4762254203 150 155 151
-1165.62755127672 273.451251007878 2336.78798340672 147 152 146
-1163.83197691792 273.741677974358 2329.05143917428 141 146 140
-1161.04039469212 274.199384703273 2321.31378301701 151 156 150
-1164.22697783264 273.649421585583 2313.51437726299 170 175 169
-1159.44352037931 274.441710451601 2305.76903005703 168 173 167
-1148.68359997418 276.240228753998 2298.00802480091 170 175 168
-1137.92544365531 278.037854137807 2290.18643898381 165 170 163
-879.055302682243 313.343445166567 2706.99576285448 122 126 125
-914.253820118718 307.511825268718 2693.94246028949 151 155 154
-963.439372611716 299.361059178837 2679.28881849302 169 173 172
-992.631071361731 294.524601065811 2667.40370634327 189 193 192
-1006.82938678748 292.173513741851 2657.51150243938 189 193 192
-1015.03044617591 290.816332762937 2648.41239950057 181 185 186
-1025.22880138581 289.127744862067 2639.12186611139 171 175 176
-1030.43053064185 288.267190681136 2630.45572904494 189 191 190
-1040.62649650506 286.578398625661 2621.25836039607 192 194 191
-1043.82856427791 286.04880083027 2612.87562828339 175 177 174
-1045.03240599491 285.850077364059 2604.72011154608 178 180 177
-1048.23381829348 285.31990383646 2596.36237946217 170 172 169
-1058.4259028151 283.630404552144 2587.31594772066 162 164 161
-1070.61402507143 281.609653227224 2578.12742221755 191 193 190
-1085.79604761818 279.092220206544 2568.71808893144 193 195 192
-1092.98794609162 277.899098572236 2560.12848291187 178 180 177
-1099.18050846746 276.871261855701 2551.66570183866 175 177 174
-1102.37709329868 276.339852737222 2543.49531721979 169 171 168
-1107.56998891232 275.477058866018 2535.1720246927 163 168 164
-1113.76013629354 274.448607825024 2526.79364557293 159 164 160
-1117.95350211349 273.750820334231 2518.60444923409 155 160 156
-1123.14411736453 272.887346286166 2510.3602260672 157 162 158
-1126.33813065236 272.354491109471 2502.28879360644 155 160 156
-1133.5235375538 271.159526582936 2493.95092195286 152 157 153
-1134.72082006238 270.95690443876 2486.0569004909 155 160 156
-1134.9199860867 270.919365689959 2478.23249609406 162 167 163
-1130.1302791427 271.708489950056 2470.71867793412 147 152 148
-1127.33674102753 272.166237239988 2463.05750826052 136 141 137
-1126.53895251154 272.292719170619 2455.26549185915 128 133 129
-1126.7387863094 272.253442146217 2447.41312213244 121 126 122
-1126.93862616901 272.213653346087 2439.55996598617 125 130 126
-1127.13847620556 272.173501722271 2431.7060225176 113 118 114
-1128.33559571984 271.967595049866 2423.80551997629 122 127 123
-1126.54100012896 272.257158114697 2416.03911929945 58 63 59
-1131.72679702132 271.389205022108 2407.97840502851 72 77 73
-1130.92933679502 271.512628609745 2400.17027411582 93 98 94
-1138.10837566336 270.313477568018 2392.07679209837 116 121 117
-1148.27742688525 268.618346669917 2383.92453470864 132 137 133
-1156.45115596431 267.253467044338 2375.8853287238 132 137 133
-1162.63022222591 266.218870091493 2367.94276392725 142 147 143
-1163.82444538344 266.009983321103 2360.15226124155 141 146 142
-1167.01204129111 265.470313928639 2352.32432564808 142 147 143
-1168.20608526421 265.260631460273 2344.54929653951 142 147 143
-1164.41678863179 265.876322320818 2336.85792021748 150 155 151
-1161.62495034429 266.32620158039 2329.13119209293 150 155 149
-1158.83329009271 266.775586434148 2321.38765006531 156 161 155
-1162.02024926916 266.233715805211 2313.58223661547 174 179 173
-1157.23632517874 267.012267638209 2305.83105264681 166 171 165
-1149.46464584969 268.285355017388 2298.05820217957 165 170 164
-1143.68623439409 269.227630811884 2290.24266186294 170 175 169
-1159.82252894744 266.53830117634 2282.46999007441 143 148 141
-865.824790116452 306.97223407462 2708.80570791889 127 131 130
-912.022029440461 299.443005463671 2694.27924558046 155 159 158
-961.211422629674 291.425599522372 2679.61868792751 174 178 177
-992.404403748715 286.341990233454 2667.47680456973 192 196 195
-1005.6044867293 284.19166535692 2657.70638409085 190 194 193
-1015.80489308033 282.530110137028 2648.36471061164 180 184 185
-1024.00539870081 281.194383349376 2639.31028670097 170 174 175
-1027.20917768938 280.673002732277 2630.86949732329 184 188 187
-1032.41058031069 279.825562779766 2622.22088253344 186 191 187
-1036.61260820746 279.140774055174 2613.70709929981 173 178 174
-1040.81386376053 278.455863980966 2605.21404684962 172 177 173
-1046.01338427201 277.607844756766 2596.63836945454 161 166 162
-1055.20763081852 276.108139452811 2587.68652678653 161 166 162
-1065.39930764783 274.445547213269 2578.68491978524 186 191 187
-1083.57906764487 271.48019046645 2568.9758113453 188 193 189
-1094.76596357388 269.654609752119 2560.01075168088 174 179 175
-1101.95729688207 268.480184467094 2551.46330897704 173 178 174
-1106.15228371288 267.793882333633 2543.21376522263 176 181 177
-1111.34528105388 266.944565665786 2534.90096762081 174 179 175
-1114.54087129587 266.420503583072 2526.77734367557 169 174 170
-1114.74129747402 266.384429916935 2518.90526119424 153 158 154
-1122.92705664343 265.04611698737 2510.42440287606 150 155 151
-1126.12129952004 264.52121323068 2502.35253491281 154 159 155
-1131.31130760147 263.67056171255 2494.15513467093 156 161 157
-1131.51067373461 263.633119736707 2486.32301323499 151 156 152
-1132.70787871964 263.432652043034 2478.42501015685 158 163 159
-1129.9136896953 263.882470051867 2470.78076641726 150 155 151
-1126.12224184273 264.494469140658 2463.17882807889 139 144 140
-1126.32206998457 264.455373679198 2455.32687435734 130 135 131
-1124.52657357391 264.741158426875 2447.58229918442 122 127 123
-1123.72907970828 264.863750703569 2439.7745904155 123 128 124
-1122.93173450158 264.985943288728 2431.96064238237 109 114 110
-1125.12655520826 264.619988480777 2424.00283550656 117 122 118
-1123.33202269243 264.903832943561 2416.2278294443 73 78 74
-1125.52657541855 264.537049193922 2408.27960612328 56 61 57
-1127.72109202158 264.169791773605 2400.34161081514 81 86 82
-1133.90381536001 263.152106879504 2392.27427365337 107 112 108
-1142.07968626807 261.809044143453 2384.17478286719 129 134 130
-1149.25752648105 260.628367980284 2376.14798535517 133 138 134
-1155.43754080816 259.609903825858 2368.18568903062 136 141 137
-1159.62291876441 258.916106657508 2360.30364578984 127 132 128
-1163.80774066298 258.222007384664 2352.44301083247 134 139 135
-1166.9953618028 257.689983703463 2344.62229845539 142 147 143
-1164.20265235699 258.132205520478 2336.91207145552 148 153 149
-1163.40360229024 258.248970121076 2329.1589271075 151 156 152
-1162.60468977719 258.365277967619 2321.39991625678 161 166 162
-1158.81658498174 258.968254458301 2313.65763189447 170 175 169
-1152.0399124537 260.057673301136 2305.90742147493 163 168 162
-1145.26397397056 261.146449712742 2298.11850745661 166 171 165
-1145.46280189158 261.098197547799 2290.29581406651 169 174 168
-1150.64252514976 260.23792021816 2282.49004489052 162 167 161
-859.590256114598 299.407124002309 2709.68244107693 151 155 154
-908.790342194384 291.522274284294 2694.74629688163 147 151 150
-964.9806381855 282.516604072077 2679.18086575767 178 182 181
-987.180070767371 278.959303967742 2668.17541680446 188 192 191
-1001.38084695171 276.683875740906 2658.26827484163 186 190 189
-1013.58111124485 274.72885374781 2648.6757715718 185 189 190
-1024.78026871429 272.934009453865 2639.264490832 181 185 186
-1024.98650091559 272.901011525932 2631.16879134401 183 187 186
-1028.1902490055 272.38723154466 2622.73737057012 187 192 188
-1035.38990433569 271.232617691618 2613.8859464073 170 175 171
-1043.58779276796 269.917720929682 2604.96550174396 168 173 169
-1049.78659593545 268.922823718689 2596.29417681809 165 170 166
-1052.98792673431 268.408186812856 2587.95631205298 169 174 170
-1061.18278474975 267.092749540792 2579.14440143087 191 196 192
-1083.35909406551 263.535873688734 2569.04314535038 186 191 187
-1097.54285809939 261.259812942244 2559.80021800971 172 177 173
-1101.7386868669 260.58445020443 2551.52951433291 165 170 166
-1104.9355179687 260.068880569757 2543.3665118242 149 154 150
-1112.12574398721 258.912815810572 2534.88205995542 147 152 148
-1119.31501256793 257.756585815231 2526.43485065467 155 160 156
-1122.51008237183 257.240284707198 2518.3399003696 176 181 177
-1128.69952979064 256.243646919777 2510.03236161524 179 184 180
-1129.89712350133 256.046736898273 2502.12298574605 163 168 164
-1131.09482891693 255.849433888169 2494.21814688938 155 160 156
-1131.29419912633 255.81178076044 2486.38563942085 141 146 142
-1131.49358147081 255.773794297236 2478.55229976143 141 146 142
-1131.69297492841 255.735354732534 2470.71803925723 159 164 160
-1125.9053252786 256.656112387063 2463.24045505194 150 155 151
-1125.1074642305 256.776671741933 2455.44491425104 133 138 134
-1119.32115725779 257.69632169949 2447.91366421325 127 132 128
-1119.52149583129 257.65607002276 2440.04051959932 127 132 128
-1119.72184413706 257.615425631203 2432.16657294764 127 132 128
-1122.91468205771 257.094797151969 2424.1542059938 109 114 110
-1121.11990645919 257.37303766541 2416.37335856754 119 124 120
-1118.32813935836 257.810567193732 2408.62126324322 53 58 54
-1120.5233021044 257.448569475711 2400.66366189083 81 86 82
-1125.70959870056 256.606801700833 2392.61153324157 118 123 119
-1132.88957344097 255.445153485292 2384.52174174814 102 107 103
-1141.06580971136 254.123447154209 2376.44022698745 105 110 106
-1151.2347878561 252.482082769909 2368.34855604792 129 134 130
-1160.40551832305 251.000341830146 2360.33509198394 136 140 139
-1166.58415636894 249.997642102355 2352.43418733636 146 150 149
-1168.77508547191 249.633470452891 2344.63971722099 146 150 149
-1166.97866564138 249.907677288518 2336.91880102519 149 154 150
-1163.18936618019 250.500708575799 2329.21252994496 153 158 154
-1161.39387748057 250.773824115912 2321.46337496689 175 180 176
-1154.61575508717 251.844696079414 2313.74059130915 164 169 165
-1147.83884216163 252.914852789055 2305.97909426157 158 163 157
-1142.05920012099 253.824685799433 2298.17681490852 159 164 158
-1144.25094678786 253.457175500635 2290.34680677949 172 177 171
-1149.43112771251 252.610490679907 2282.537745002 173 178 172
-852.35507395823 291.965574801154 2710.6924788431 140 144 143
-894.561339171347 285.316633138511 2696.6503223796 152 156 155
-970.749831793352 273.313329624257 2678.4866473814 181 185 184
-991.950999535854 269.973305830143 2667.621979245 191 195 194
-1003.15392765988 268.208217443373 2658.0952778635 191 195 194
-1013.35598124339 266.600600941916 2648.74714007431 174 178 179
-1023.5566686211 264.992868010929 2639.45227332762 169 173 174
-1021.76426769825 265.274437575377 2631.58218982843 183 187 186
-1024.96844949573 264.768464643309 2623.14220086888 187 192 188
-1032.16884292508 263.632620306818 2614.282082495 171 176 172
-1044.3638683791 261.709482718786 2604.92856622462 167 172 168
-1046.56700927602 261.360395761793 2596.67301367922 165 170 166
-1046.77188702453 261.325747789585 2588.62847920734 169 174 170
-1053.96895399592 260.189138527015 2579.8975490156 190 195 191
-1082.14011524882 255.747814041317 2569.20535500513 184 189 185
-1096.32524382891 253.509589003345 2559.95904632963 177 182 178
-1100.52144828083 252.844899666985 2551.68511988101 171 176 172
-1101.72126758305 252.651868548848 2543.69292505255 154 159 155
-1108.91223410354 251.514632685568 2535.19974881958 152 157 153
-1116.10224160646 250.377201997187 2526.74384512722 150 155 151
-1120.29631353763 249.711456748929 2518.5614560084 150 155 151
-1124.48960371278 249.045442609257 2510.40000712001 152 157 153
-1125.68755418324 248.850988417742 2502.47932472407 157 162 158
-1125.88726160262 248.813455581792 2494.63376708157 158 163 159
-1131.07769771668 247.989278548001 2486.44806410382 151 156 152
-1134.27125356362 247.479322384268 2478.419097214 149 154 150
-1138.46231374682 246.811891293763 2470.34328272309 159 164 160
-1128.68213469192 248.34491476252 2463.12301022659 152 157 153
-1125.88821629612 248.77689508376 2455.44903665053 136 141 137
-1120.10139079711 249.679997792094 2447.92028525552 132 137 133
-1119.30403490353 249.796671469877 2440.10082912505 131 136 132
-1119.50438773022 249.755845817573 2432.22651115625 131 136 132
-1120.70223870671 249.557486866463 2424.30552469962 123 128 124
-1119.90511543829 249.672868222299 2416.47558917622 128 133 129
-1115.11825777462 250.416279655021 2408.80132835758 71 76 72
-1114.32170411506 250.530729117129 2400.94812995117 81 86 82
-1118.51159033822 249.859379225226 2392.91399017855 115 120 116
-1125.69258886367 248.716604525673 2384.80445054679 95 100 96
-1137.85845212699 246.788386666163 2376.58523890821 99 104 100
-1146.03416011933 245.488250913584 2368.53820712139 128 133 129
-1157.20002988524 243.716850247295 2360.46242190068 136 140 139
-1163.37933751919 242.730357456546 2352.55274919299 140 144 143
-1165.57063453348 242.371459563525 2344.74956238227 145 149 148
-1164.77124236035 242.48306357577 2337.00424769445 153 158 154
-1160.98178858628 243.065032421425 2329.29212969823 154 159 155
-1161.17946670508 243.018736890409 2321.51647544504 169 174 170
-1154.40082404615 244.070391220029 2313.79339115171 158 163 159
-1146.6269453374 245.278163220621 2306.03636943861 153 158 152
-1140.84692957152 246.171530469707 2298.23101689611 158 163 157
-1143.03890510017 245.809330946297 2290.39776635768 170 175 169
-1147.22306910275 245.133082434086 2282.58201102685 175 180 174
-848.118429228396 284.02034440264 2711.30228274579 175 179 178
-885.329049622052 278.259527543311 2697.90137286244 126 130 129
-963.523459544507 266.153715201659 2679.45508329376 191 195 194
-990.724442834913 261.942055805559 2667.8192397704 189 193 192
-1007.92583453267 259.278199890974 2657.55439545174 183 187 186
-1016.12940145196 258.006985698264 2648.45891882302 163 167 168
-1028.32962583735 256.116794902906 2638.93758603306 168 172 173
-1027.53602960192 256.237932521459 2630.96665768581 187 191 190
-1029.74078142068 255.894508624722 2622.65422529173 190 195 191
-1038.93992774421 254.468132548399 2613.58961764135 168 173 169
-1048.13760513256 253.041640517785 2604.57297177522 162 167 163
-1051.33964213521 252.542990734171 2596.22467186002 156 161 157
-1052.54336981519 252.353417388063 2588.09276156709 160 165 161
-1055.7445170754 251.854287385899 2579.769395459 188 193 189
-1076.92568180193 248.571505441458 2569.74797637067 183 188 184
-1092.11073066323 246.21669860076 2560.39497969526 180 185 181
-1100.302711904 244.944067416682 2551.75079006182 177 182 178
-1102.50121867278 244.598888179445 2543.67122631751 165 170 166
-1107.69556466327 243.789695311424 2535.3488006675 158 163 159
-1111.89051944828 243.134791672213 2527.13422265895 157 162 158
-1118.08197766251 242.170569011851 2518.78289992063 155 160 156
-1119.2804778321 241.978849389149 2510.84366954809 154 159 155
-1122.47561675337 241.47771469956 2502.76230244902 150 155 151
-1122.67553463797 241.439825736533 2494.90813671466 148 153 149
-1128.86468344232 240.474567382948 2486.64596166707 145 150 146
-1133.05666357195 239.818084929205 2478.54594828593 145 150 146
-1135.25213099378 239.470260622011 2470.59165746535 159 164 160
-1127.46723543775 240.666744241479 2463.24376692599 161 166 162
-1122.67747570138 241.399221438661 2455.68051361003 132 137 133
-1118.88619773354 241.976754374574 2448.03492848763 127 132 128
-1118.08860252094 242.090553967758 2440.2124150144 134 139 135
-1120.28453852419 241.74062428223 2432.23754981562 133 138 134
-1121.48239961079 241.544783439586 2424.31887197156 129 134 130
-1121.68263282327 241.502939298628 2416.44813536578 127 132 128
-1113.90298367751 242.695562258085 2408.90037644762 115 120 116
-1109.11652559051 243.424492749836 2401.19495026915 45 50 46
-1111.31249447687 243.072483652689 2393.21656717229 89 94 90
-1119.49173440738 241.794304864936 2385.0550707041 96 101 97
-1132.65607792374 239.74436369137 2376.78925658441 106 111 107
-1140.83298309866 238.46578302288 2368.72790373241 134 139 135
-1149.00853821168 237.187084762178 2360.70986492709 131 135 134
-1157.18321729515 235.908166447319 2352.73515290197 122 126 125
-1162.36569944953 235.091841938428 2344.85942487078 133 137 136
-1162.56324913435 235.046360847831 2337.08966474577 145 149 148
-1158.77363857829 235.617177880634 2329.3717003752 157 162 158
-1157.9748052974 235.724971937856 2321.60045140599 172 177 173
-1156.17927932782 235.986426830497 2313.83090797353 154 159 155
-1148.40466520609 237.172277599316 2306.07909141713 151 156 152
-1146.61010826736 237.43263424168 2298.27049568564 157 162 158
-1142.82306141897 238.000668075818 2290.44934435349 167 172 168
-1147.00753737075 237.335289990338 2282.63306879448 175 180 174
-1148.20248571271 237.131881955366 2274.82010603306 138 139 131
-850.880712859614 274.987653735265 2710.97787214299 157 161 160
-881.094850153067 270.391850967911 2698.4988788226 132 136 135
-955.296277214114 259.106751283319 2680.55143777204 192 196 195
-991.497508124066 253.600113203452 2667.76572137329 189 193 192
-1009.69970267812 250.830270822641 2657.38039620737 177 181 180
-1015.90445402084 249.884596163299 2648.52944737289 170 174 175
-1025.10698941961 248.482855924146 2639.35883498618 176 180 181
-1024.31352394728 248.600807729754 2631.3793752831 186 192 190
-1033.51429752928 247.198786298248 2622.27731887639 188 194 190
-1042.713841874 245.796611972292 2613.22314115433 166 172 168
-1049.91357323012 244.698305756681 2604.42920443932 161 167 163
-1052.11659598527 244.359483500281 2596.18929072838 155 161 157
-1053.32008927184 244.172346444093 2588.05983245387 159 165 161
-1057.52059668628 243.529198737264 2579.64086106656 188 194 190
-1075.70628717407 240.759185625542 2569.90971345401 184 190 186
-1088.89465049267 238.748797414529 2560.73826639018 175 181 177
-1100.08395106229 237.042101317689 2551.81619897514 171 177 173
-1102.28260936382 236.702103395406 2543.73627610328 165 171 167
-1107.47733391305 235.906254011302 2535.41338227174 165 170 166
-1106.67962133758 236.021192066953 2527.60600292773 161 166 162
-1110.87468842525 235.376671834617 2519.39818464474 153 158 154
-1112.07375250032 235.187262865247 2511.43939589414 152 157 153
-1117.26652205557 234.390403470421 2503.19182552816 154 159 155
-1118.46505936713 234.200414511894 2495.25300177234 154 159 155
-1123.65674424832 233.403033631005 2487.04726429448 141 146 142
-1131.84213263493 232.150106483322 2478.67257812914 137 142 138
-1135.03588276422 231.655763567947 2470.6527823158 153 158 154
-1130.24459389191 232.374936647163 2463.12568320392 162 167 163
-1124.45632941503 233.245288801901 2455.62733181467 136 141 137
-1120.66437597887 233.811721120731 2447.98690255846 129 134 130
-1117.87100822202 234.225969264793 2440.2723686589 131 136 132
-1117.07372769853 234.336320876743 2432.44317865673 127 132 128
-1119.26975857327 233.99128749576 2424.46986282593 128 133 129
-1116.4771816642 234.404154722177 2416.72293713259 125 130 126
-1110.692285667 235.271392522226 2409.08026514632 123 128 124
-1104.90823149544 236.138046090038 2401.40406439426 35 40 36
-1110.0969628166 235.336469949794 2393.30925772744 78 83 79
-1113.29017878346 234.837857843543 2385.30575490415 99 104 100
-1125.45846849972 232.974808015961 2377.05235670414 103 108 104
-1129.64738193999 232.324093573759 2369.07839341342 130 135 131
-1141.81312824149 230.460787445024 2360.93345026497 103 107 106
-1149.98890765259 229.203513154131 2352.93897331065 108 112 111
-1159.16027977539 227.794587686459 2344.96928997106 138 142 141
-1158.36117025251 227.900384629963 2337.20669314896 144 148 147
-1158.5590044668 227.854227599033 2329.42508685404 159 163 162
-1159.75357470499 227.656261921424 2321.63274528164 170 174 173
-1161.94490579989 227.306357812561 2313.83788331588 150 155 151
-1155.1658752457 228.318979855562 2306.09737423784 151 156 152
-1151.37763356002 228.876648398628 2298.31179183494 160 165 161
-1147.58970808019 229.433815760636 2290.50398809457 163 168 164
-1148.78498474297 229.233468182121 2282.69080428853 169 174 170
-1152.96906978023 228.578697502825 2274.90119643902 158 159 151
-845.643400807521 267.164848948971 2711.72051084209 162 166 165
-873.860162224922 262.949179874827 2699.48839583658 112 116 115
-949.067473843574 251.716451520492 2681.39189585321 191 195 194
-988.271285165891 245.859754984758 2668.21287996727 188 192 191
-1007.47471269169 242.989423409853 2657.6961661 181 185 184
-1010.68102546606 242.507550980322 2649.19876844466 173 177 178
-1020.88411325009 240.980714871234 2639.89694628053 174 178 179
-1019.09162794796 241.244778202195 2632.02068855907 186 192 190
-1029.29281681407 239.71763738193 2622.7927555098 184 190 186
-1038.49331880293 238.339695875936 2613.72716907311 162 168 164
-1043.69511781525 237.558531461301 2605.13422351789 162 168 164
-1047.89706627201 236.926403727349 2596.67076360253 158 164 160
-1051.09936993808 236.443227884095 2588.32865628275 159 165 161
-1057.29863621425 235.512247705915 2579.7078606526 188 194 190
-1072.488536827 233.238612229265 2570.26172107039 185 191 187
-1088.67503546968 230.815968855404 2560.80392193434 173 179 175
-1097.86726593136 229.437288531923 2552.06082214886 168 174 170
-1099.06769236656 229.251504995008 2544.06200514317 165 171 167
-1100.26775805407 229.06546052038 2536.06768244388 160 165 161
-1101.46770269179 228.879118167879 2528.07777095138 157 162 158
-1109.65810934869 227.64876946967 2519.54052118697 152 157 153
-1111.85580436065 227.312809202585 2511.50258233172 153 158 154
-1116.05030245413 226.678403614865 2503.32786263904 156 161 157
-1116.25064311417 226.639951954115 2495.45656919431 157 162 158
-1119.44605938677 226.153988264211 2487.38065169533 146 151 147
-1129.62898160462 224.624568278686 2478.86419534756 136 141 137
-1131.82496568933 224.287139764267 2470.90087375324 146 151 147
-1130.02794560725 224.545421298746 2463.18631810547 157 162 158
-1123.24099669325 225.548117615098 2455.74462847869 146 151 147
-1118.45112479784 226.252295680974 2448.1553732988 137 142 138
-1116.65552952568 226.509117547619 2440.38356386465 128 133 129
-1115.85824824598 226.616558437008 2432.55127810817 126 131 127
-1118.05426607097 226.276813341852 2424.57482567269 133 138 134
-1116.25942248867 226.532291590049 2416.78151970905 130 135 131
-1110.47407676148 227.38293381581 2409.13860567913 123 128 124
-1105.68708260491 228.084128176174 2401.42435003516 35 40 36
-1103.89358279587 228.338138321276 2393.57694842111 63 68 64
-1103.09773558264 228.442826668916 2385.68565891187 103 108 104
-1111.27820130629 227.207595274639 2377.52236780511 99 104 100
-1123.4469484468 225.376890838055 2369.29514665877 115 120 116
-1136.61118720169 223.397379899714 2361.1090495425 109 113 112
-1143.79059811257 222.310515479348 2353.12159153989 120 124 123
-1152.96307672947 220.926023279739 2345.13489713922 149 153 152
-1157.14954608794 220.285049272341 2337.27624034883 145 149 148
-1160.3383394905 219.792566150123 2329.45216748982 159 163 162
-1162.52966529399 219.448548452087 2321.6545079168 164 168 167
-1163.72396769345 219.252814766541 2313.87503095097 148 153 149
-1157.94118532643 220.097459731741 2306.1348173174 150 155 151
-1155.14904441085 220.495536226748 2298.3549703398 161 166 162
-1149.36748067046 221.339019627452 2290.55655656941 163 168 164
-1151.5591664478 220.992772282605 2282.75175873651 168 173 169
-1151.75754246339 220.943380027714 2274.9455032352 167 168 160
-834.185380569839 260.228319921266 2721.86464431946 198 202 201
-833.404460065199 260.339897802208 2713.39736477979 174 178 177
-861.62416658875 256.200118992379 2701.13162994452 129 133 132
-948.837503779362 243.412761186601 2681.46405946924 194 198 197
-987.044210988479 237.808836440893 2668.40924672465 184 188 187
-1000.25045315401 235.869279229253 2658.62441004724 180 184 183
-1004.45738620067 235.248605377824 2649.98775817617 167 171 172
-1011.662597781 234.188212666863 2641.02034391557 172 176 177
-1015.86802138785 233.567253587483 2632.43305513756 188 194 192
-1030.06826491207 231.481057184509 2622.74991393561 184 190 186
-1035.27155920629 230.71329592932 2614.12224365221 159 165 161
-1040.47394645848 229.945449185045 2605.52060713401 160 166 162
-1042.67789342363 229.616764173154 2597.25545668649 154 160 156
-1050.87693539591 228.409117577531 2588.39575986391 152 158 154
-1057.07665368015 227.494222205229 2579.77456881801 186 192 188
-1075.26506581186 224.821975774221 2570.04202426505 181 187 183
-1087.45641862156 223.028379887341 2560.96181477105 176 182 178
-1095.65049328793 221.820402070776 2552.30522661978 175 181 177
-1096.85089501085 221.637029010222 2544.30063885104 168 174 170
-1099.05018312733 221.307003497314 2536.2161330224 160 165 161
-1100.25027326393 221.123113199415 2528.2231677572 157 162 158
-1106.4438603249 220.207029237917 2519.84032994112 150 155 151
-1110.63927224464 219.583543906796 2511.64162008299 150 155 151
-1114.83414361972 218.959752341178 2503.46370777161 152 157 153
-1115.03455550626 218.92098162266 2495.58928796896 153 158 154
-1119.22862081735 218.2966544161 2487.44230430078 149 154 150
-1125.41894136217 217.379519484582 2479.18600480088 146 151 147
-1129.61177979985 216.754738658997 2471.08648453438 144 149 145
-1127.81498775367 217.007194519825 2463.36608608231 145 150 146
-1123.02379564672 217.69804285564 2455.80479211709 154 159 155
-1117.23530899985 218.534576540346 2448.26948744418 137 142 138
-1115.43987303357 218.785651050277 2440.49460550365 134 139 135
-1112.64662706689 219.182551274628 2432.75668476229 144 149 145
-1113.84521525475 218.994169285712 2424.81759802465 131 136 132
-1112.05050405479 219.243940489811 2417.01299031613 127 132 128
-1111.25349418033 219.347140934762 2409.15621925208 120 125 121
-1104.47088887022 220.32674389766 2401.51997067416 52 57 53
-1096.6917515605 221.451889218567 2393.87975513899 35 40 36
-1091.90606811353 222.13802996367 2386.09810900993 73 78 74
-1102.08289860979 220.632138720757 2377.84500159643 99 104 100
-1113.25588227653 218.980022592005 2369.6192590368 89 94 90
-1129.4135133974 216.597564889112 2361.3328509344 108 112 111
-1136.59418641037 215.529597431248 2353.3256805009 120 124 123
-1146.76517384993 214.023401185783 2345.30061249653 144 148 147
-1150.95213431097 213.393223035144 2337.42502868769 142 146 145
-1159.12660127847 212.178704747643 2329.51842989084 160 164 163
-1164.30929198063 211.40202418318 2321.68644249257 147 151 150
-1163.50966579322 211.500909574482 2313.92729282969 159 164 160
-1160.71691843919 211.891161851835 2306.1720713133 158 163 159
-1155.93075738579 212.572928320672 2298.40439493742 160 165 161
-1153.13874012144 212.962119086442 2290.61017442957 166 171 167
-1151.34391471858 213.20492847537 2282.8025551052 167 172 168
-1153.53523897006 212.863762095359 2275.00801771561 172 175 166
-852.951344828666 248.879722533085 2719.35152631202 193 197 196
-831.165350097726 252.009572983671 2713.73942930565 153 157 156
-866.388207505329 246.938846646702 2700.55182525448 136 140 139
-948.607513299164 235.108055964189 2681.53593130354 185 189 188
-991.81700328016 228.888303115484 2667.85326729637 186 190 189
-1003.02400295954 227.271608206904 2658.32676891502 178 182 181
-1008.23077458774 226.517715882086 2649.57808376281 173 177 178
-1012.43696027656 225.907537400804 2640.9725855569 176 180 181
-1016.64261318697 225.297140646002 2632.38767581187 192 196 195
-1025.84590804719 223.967671218537 2623.26497987236 184 189 185
-1030.05015039719 223.356959775993 2614.73486182731 160 165 161
-1035.25349719223 222.602328715371 2606.11923782143 160 165 161
-1040.45593302897 221.847553189236 2597.52973731794 163 168 164
-1048.65595573894 220.661339244342 2588.6640473865 157 162 158
-1060.85165311777 218.900227386613 2579.44891592916 186 191 187
-1081.03939228241 215.989486062276 2569.53599113776 186 191 187
-1094.23052545697 214.084741066254 2560.37904484394 171 176 172
-1099.42753013831 213.329427704337 2552.0105600092 176 181 177
-1100.6277292633 213.148599371663 2544.01662280262 171 176 172
-1103.82573281178 212.680102637682 2535.85834027148 165 170 166
-1104.02677688546 212.642333984417 2527.96028834587 158 163 159
-1107.22418865778 212.173304579026 2519.82456253577 154 159 155
-1107.42505791473 212.134892247881 2511.9326519214 155 160 156
-1109.62331078578 211.808893537345 2503.89293074095 151 156 152
-1110.82256761181 211.626185395219 2495.93380344693 151 156 152
-1117.01430523614 210.72532848297 2487.63959765441 152 157 153
-1123.20522087773 209.824270272572 2479.37730165614 149 154 150
-1125.40169236529 209.497248476064 2471.39677981417 140 145 141
-1126.59968068607 209.31340757943 2463.48601383539 147 152 148
-1121.80842034802 209.990286506555 2455.92171209079 154 159 155
-1119.01402355687 210.379690636731 2448.22072082766 149 154 150
-1117.21806235993 210.625116275039 2440.45097660921 135 140 136
-1116.42056779594 210.726672060905 2432.6207077712 133 138 134
-1113.62724500302 211.114679909776 2424.87624171718 138 143 139
-1110.8343494128 211.502243920361 2417.11460254256 129 134 130
-1110.03757652189 211.602467214379 2409.2546974932 129 134 130
-1103.25451613835 212.5627151493 2401.61545282296 72 77 73
-1091.48401279594 214.239380514304 2394.11253145487 28 33 29
-1084.70326459608 215.198322661063 2386.38151658172 59 64 60
-1094.88134527926 213.719527288309 2378.10864099093 93 98 94
-1106.05541660172 212.097254292644 2369.86310754772 103 108 104
-1120.22036732994 210.0449084636 2361.60500200201 105 107 106
-1133.38588985276 208.135938246836 2353.44447198169 116 117 119
-1147.5467742367 206.083687815326 2345.33607089929 143 144 146
-1153.72841577144 205.177746302564 2337.43099581028 147 149 148
-1163.89758840251 203.698501611472 2329.50579531182 165 167 166
-1167.08615341537 203.221984341133 2321.70779161522 152 154 153
-1164.29246401595 203.604538029036 2313.97179755556 158 160 157
-1158.50848411927 204.416254392721 2306.23370654522 158 160 157
-1156.7125893132 204.654550098557 2298.45371196927 166 168 163
-1153.92028586513 205.035534425785 2290.66186507093 166 168 163
-1148.13855282853 205.845449095109 2282.8433492523 168 170 165
-1144.35050232625 206.368498902641 2275.00379901988 175 178 171
-1148.53575473518 205.745944625184 2267.21248252072 159 162 153
-837.928174858499 242.396994506325 2712.87934605536 162 166 165
-876.153728696405 236.998205817278 2699.31752585627 141 145 144
-954.378172996322 225.955557441138 2680.8389323558 190 194 193
-995.590330492902 220.135222857879 2667.42215705647 181 185 184
-1002.7980704335 219.112569216966 2658.39644702464 171 175 174
-1010.0048620834 218.089777914205 2649.40765166795 169 173 174
-1010.2119530084 218.054420693337 2641.27585705566 177 181 182
-1017.4175739947 217.031367738291 2632.34185913379 191 195 194
-1028.62070662311 215.444061349486 2622.9980536297 177 182 178
-1034.82436873994 214.561906741428 2614.257878455 163 168 164
-1041.0272195346 213.679578006602 2605.54922559759 165 170 166
-1043.23115613279 213.361162147392 2597.28618176428 156 161 157
-1051.43157336552 212.196540055609 2588.42825618585 154 159 155
-1059.63066268049 211.031884504783 2579.61286951961 187 192 188
-1083.81701095858 207.611601891916 2569.31531463985 185 190 186
-1099.00741119168 205.460182233955 2559.98087409706 167 172 168
-1106.20256278359 204.436378541009 2551.44592550332 171 176 172
-1105.40437222067 204.53992019307 2543.64499098429 169 174 170
-1107.6030960422 204.220311304234 2535.5843995375 169 174 170
-1106.80501223326 204.32316432581 2527.77855330519 161 166 162
-1106.00708351547 204.42561594341 2519.9662145764 152 157 153
-1104.21036486905 204.668692426732 2512.22355176579 153 158 154
-1107.40761857276 204.206937399134 2504.10181449105 147 152 148
-1111.60304301389 203.604185315972 2495.92487701862 144 149 145
-1118.79366890304 202.578645560479 2487.56494451621 148 153 149
-1122.98803723973 201.975391259453 2479.43806880931 148 153 149
-1123.18793708799 201.935166355292 2471.58209984365 140 145 141
-1123.38785007382 201.894547829716 2463.72519477608 140 145 141
-1121.59109193734 202.135174045398 2455.98144446514 159 164 160
-1117.79831744408 202.656897559368 2448.33442488151 154 159 155
-1114.00587258865 203.178116316301 2440.66465515184 142 147 143
-1111.21248592455 203.558065472099 2432.9233573894 120 125 121
-1109.41723372831 203.796940335026 2425.11886924923 117 122 118
-1106.62439233178 204.175967212719 2417.34594548169 135 140 136
-1105.82782678602 204.273224381671 2409.47475186914 148 153 149
-1097.04881173344 205.495440259946 2401.89996253856 130 135 131
-1087.27339203171 206.857612829864 2394.31023149601 71 76 72
-1084.4830203402 207.234661782717 2386.43865935759 30 35 31
-1090.67151925015 206.345500546784 2378.28359165848 80 85 81
-1098.85410085561 205.174976560586 2370.1070823919 102 107 103
-1114.01799060818 203.020051394308 2361.80499932082 113 114 116
-1131.17442789236 200.584112163033 2353.54184859681 144 145 147
-1147.33124982575 198.288864365443 2345.39003041192 145 147 146
-1153.51335069987 197.39915575438 2337.48443238829 161 163 162
-1163.68328782839 195.947196256853 2329.55864942025 152 154 153
-1167.86912402933 195.338234054902 2321.74978564255 159 161 160
-1168.06628934523 195.290994703725 2313.99316010168 157 159 156
-1162.28158402228 196.086248910366 2306.26574546644 156 158 155
-1156.49771314683 196.880920849041 2298.50509253772 164 166 161
-1154.70218735514 197.113113272548 2290.71344715555 174 176 171
-1144.93270439016 198.468303599764 2282.88419087977 176 178 173
-1143.13804793661 198.699487468358 2275.04816105466 174 177 170
-1144.33355315996 198.508955309394 2267.22725856329 177 180 173
-840.690814339116 233.37525260677 2712.55278356897 161 165 164
-875.918258917813 228.495035887062 2699.39045153511 134 138 137
-959.149376609028 216.973210448517 2680.26934846199 192 196 195
-995.363854429972 211.956372239064 2667.49180626974 178 182 181
-1004.57229475988 210.675738875814 2658.22044395411 168 172 171
-1009.77943591335 209.948459785041 2649.47656692734 167 171 172
-1013.98631826113 209.359309431939 2640.87574404888 177 181 182
-1019.19219042941 208.631707971594 2632.18111722353 193 197 196
-1029.39632174739 207.21247828505 2622.95404962636 175 180 176
-1036.59998595257 206.208045159447 2614.10719724017 163 168 164
-1042.80314862723 205.34177851753 2605.40360127001 163 168 164
-1047.0062968246 204.751944903438 2596.93866350446 152 157 153
-1049.21008809135 204.438456152823 2588.69591486504 153 158 154
-1056.41057475483 203.433488541114 2579.97267792602 185 190 186
-1078.60040077815 200.354877093541 2569.85666557208 184 189 185
-1099.78774406703 197.414812670179 2559.95242575416 168 173 169
-1106.9833538335 196.409883027207 2551.41983561279 172 177 173
-1105.18595192217 196.648486803499 2543.70839950184 174 179 175
-1106.38583181458 196.472244888312 2535.73186355209 170 175 171
-1108.58475550717 196.157531224392 2527.67804135543 161 166 162
-1108.78546814793 196.118830484166 2519.79194217339 149 154 150
-1107.98717432202 196.218021372461 2511.98104722638 150 155 151
-1107.18927383802 196.31680431142 2504.16366587884 150 155 151
-1113.38253320984 195.448402696133 2495.84483292077 148 153 149
-1118.57615789466 194.717999940449 2487.62587236158 144 149 145
-1124.76784538949 193.849266565432 2479.3681175834 145 150 146
-1124.96760684943 193.808778408934 2471.51727465276 143 148 144
-1126.16575198061 193.629937365045 2463.60574843727 139 144 140
-1123.37057375825 194.002831093957 2455.9268954038 154 159 155
-1116.58219686454 194.92752583614 2448.44793930007 154 159 155
-1111.79160029108 195.575508935188 2440.82666922109 146 151 147
-1108.99789173152 195.947084238056 2433.07963626162 122 127 123
-1107.20263014348 196.180169763099 2425.26929904065 115 120 116
-1104.40970585897 196.55081604104 2417.49061638 125 130 126
-1100.61932760347 197.058907484169 2409.73530645578 134 139 135
-1093.83584416286 197.980375705024 2402.07095765109 127 132 128
-1088.05108427938 198.76328051309 2394.3324155971 94 99 95
-1085.26041950778 199.131914796737 2386.46326302007 46 51 47
-1087.45866342592 198.810599955558 2378.42892092814 66 71 67
-1095.6420636557 197.661704962187 2370.24364053391 97 102 98
-1115.79485340666 194.858339292788 2361.81195160911 120 122 121
-1129.96026511548 192.882304996778 2353.61776679176 138 139 141
-1147.11569627692 190.492848291908 2345.44384818628 155 157 156
-1155.29276600132 189.343898106795 2337.50592661194 157 159 158
-1166.4607469932 187.781341834816 2329.57186839267 127 129 128
-1168.65221840138 187.458832211339 2321.79161179785 143 145 144
-1166.85523239621 187.687001985109 2314.05271740526 150 152 149
-1163.06409938602 188.190255900561 2306.31238695612 148 150 147
-1156.28280696299 189.106129219573 2298.55639821942 168 170 165
-1155.4839732837 189.195077401406 2290.76492957173 177 179 174
-1146.71043825916 190.385164606114 2282.94146446648 175 177 172
-1143.91880386007 190.748505270139 2275.10452440954 170 172 167
-1142.12444554355 190.973634735493 2267.25966639274 179 182 175
-1173.21886266062 186.65618396293 2259.78332289579 134 137 130
-820.22483302801 227.52622616764 2723.93481135659 195 199 198
-823.446013495926 227.08225882182 2714.89703229249 158 162 161
-960.92076932217 208.424148103226 2680.08350856384 192 196 195
-992.13678190142 204.183469799305 2667.93722553904 175 179 178
-997.34568980473 203.469431566912 2659.14783961004 168 172 171
-1003.55390307859 202.61970598843 2650.26460924719 167 171 172
-1008.76116848982 201.905477969432 2641.5298890319 176 180 181
-1017.96758241934 200.648731501782 2632.36337337246 182 186 185
-1025.17299954052 199.663157833907 2623.46826078974 168 172 171
-1033.37716392276 198.541865347418 2614.50108283207 158 162 161
-1041.5804783359 197.42049591637 2605.57636678294 157 161 160
-1047.78334904563 196.570122023296 2596.90124622344 155 159 158
-1047.9880050916 196.532802207876 2588.86250783561 163 167 166
-1050.19151959532 196.22416178915 2580.62645703147 186 190 189
-1073.3827757576 193.069856542339 2570.39797338386 186 190 189
-1093.57277381666 190.322245802308 2560.5719202308 169 173 172
-1103.76719709088 188.929608292974 2551.75282924641 168 172 171
-1101.96985200181 189.162405103313 2544.03293725185 173 177 176
-1102.17094456107 189.123963332263 2536.13226759944 175 180 176
-1103.37105769435 188.949789997968 2528.14883687139 170 175 171
-1103.57211865821 188.910756448024 2520.24876667057 150 155 151
-1107.76888226174 188.329794870882 2512.04288705916 146 151 147
-1109.96752086838 188.019358438402 2504.00479957099 147 152 148
-1116.161025793 187.167156612311 2495.69376364496 147 152 148
-1118.35862324444 186.856250262138 2487.6865387589 145 150 146
-1122.55359979495 186.274320856906 2479.55878897948 143 148 144
-1124.75052986331 185.962931973559 2471.57712962916 146 151 147
-1126.94743277623 185.65118707019 2463.60547412929 145 150 146
-1124.15172177588 186.015703070055 2455.92912375681 145 150 146
-1115.3661386318 187.191532283725 2448.56123176775 153 158 154
-1107.58029325765 188.231465870429 2441.09169683106 151 156 152
-1104.78663889178 188.594504040405 2433.33337927868 131 136 132
-1103.98960259218 188.686607996373 2425.46572644519 126 131 127
-1103.19295433736 188.778305413251 2417.59179575539 132 137 133
-1099.40234583053 189.27523459363 2409.83349967247 131 136 132
-1094.61418001922 189.906938727579 2402.09042310132 101 106 102
-1090.82477250113 190.402887961036 2394.28413602641 98 103 99
-1087.03592826493 190.898297109007 2386.4552540421 78 83 79
-1085.24300407584 191.122987885056 2378.54454953797 64 69 65
-1091.43193762906 190.266031192724 2370.40707323293 97 102 98
-1109.59145053022 187.787447583319 2362.01195094482 141 143 142
-1129.74339245443 185.038804926224 2353.67215538248 146 148 147
-1145.90271707667 182.830818748756 2345.51621825474 139 141 140
-1154.08046745437 181.70359430733 2337.57502182162 133 135 134
-1163.25460130072 180.441157182725 2329.66401344762 179 181 180
-1164.44924942685 180.258985788601 2321.88558643009 176 178 177
-1163.6495179553 180.346492454902 2314.12765882539 148 150 147
-1159.85853591035 180.838599519725 2306.37878429037 151 153 150
-1157.06508990052 181.195190190651 2298.60540063414 183 185 182
-1156.26588227992 181.281420166268 2290.8163035194 177 179 176
-1152.47628511753 181.771988164482 2283.01165044524 166 168 165
-1148.68724238343 182.262078453336 2275.18481546505 162 164 159
-1144.89875176941 182.751631628292 2267.33582500794 168 170 165
-1151.07784655673 181.891592485756 2259.57957206011 138 141 134
-805.977682740157 220.732878276717 2725.91706058975 191 195 194
-812.201487346627 219.897667766106 2716.440052099 157 161 160
-971.695257088869 198.688766868218 2678.74385393503 191 195 194
-993.910661215759 195.728605557311 2667.75534332046 175 179 178
-999.119563935561 195.027866059599 2658.97111434974 171 175 174
-1005.32808908942 194.194202574024 2650.09294087414 169 173 174
-1010.53582644276 193.493200013782 2641.36330079403 175 179 180
-1020.74268992093 192.12786028324 2632.08731379648 177 181 180
-1024.94865853716 191.559572870168 2623.53527894216 168 172 171
-1036.1529798784 190.06128836695 2614.24059926723 158 162 161
-1042.3570441001 189.227101965561 2605.53621300721 156 160 159
-1050.55980165205 188.127157539758 2596.65626554287 156 160 159
-1048.76487966994 188.355111051902 2588.82714498542 162 166 165
-1049.9689793769 188.184377806934 2580.69159885042 182 186 185
-1068.16461048709 185.756347599286 2570.93913218225 184 188 187
-1089.35582524031 182.930339008832 2561.00604649573 167 171 170
-1098.55199642896 181.697386136562 2552.26540036206 165 169 168
-1101.75116282338 181.260660001712 2544.09578260601 170 174 173
-1101.95225478589 181.221948303815 2536.19484645023 170 175 171
-1105.15083338672 180.784778465852 2528.0477252895 170 175 171
-1104.35250922626 180.878125572769 2520.23174131962 153 158 154
-1108.54974360995 180.307808944608 2512.02821650346 146 151 147
-1108.7504898553 180.267868867375 2504.13947323297 145 150 146
-1112.94668459726 179.697081918593 2495.96675143484 144 149 145
-1114.14591407782 179.523924085439 2488.01894728319 148 153 149
-1117.34257528341 179.085284084028 2479.94518602209 145 150 146
-1122.53625023265 178.381153154806 2471.76179440742 139 144 140
-1125.73172681599 177.942051421191 2463.72451172705 142 147 143
-1123.93454846321 178.165500888954 2455.98806664407 145 150 146
-1113.15128706773 179.58160988349 2448.72870648605 150 155 151
-1106.36328793967 180.466828422134 2441.20192427303 151 156 152
-1103.56947815267 180.821385264648 2433.44057452068 134 139 135
-1101.77450636102 181.043016892537 2425.61593752852 129 134 130
-1099.97958421629 181.264218304938 2417.77957344226 134 139 135
-1095.19085455322 181.882445092815 2410.05338800275 133 138 134
-1091.40055404524 182.367711733915 2402.26120713316 111 116 112
-1086.61316378661 182.984891715151 2394.48154914826 104 109 105
-1081.82623988858 183.601590558904 2386.67382277845 77 82 78
-1075.0445130412 184.48261843787 2378.89739850073 57 62 58
-1079.23923595277 183.906518387268 2370.78582092183 70 75 71
-1102.38925857914 180.814927101561 2362.23622411951 128 130 129
-1133.5169079712 176.664754851628 2353.64065898747 147 149 148
-1150.67464358398 174.36810428635 2345.47632252591 142 144 143
-1159.85029966484 173.130379871698 2337.53235455843 156 158 157
-1165.03488741894 172.42188919514 2329.69011606017 187 189 186
-1162.24017845751 172.771553794767 2321.95865624574 171 173 170
-1160.44332120414 172.988435719415 2314.20260976365 148 150 147
-1157.64937936841 173.337205869285 2306.44020762825 160 162 159
-1158.84431489649 173.156428427289 2298.65204466537 185 187 184
-1162.03332091485 172.710883616235 2290.87006078756 178 180 177
-1159.23992796177 173.058337266463 2283.0847928607 167 169 166
-1151.46247689848 174.066356628891 2275.25291214006 165 167 164
-1142.68911884129 175.205830670885 2267.36818602191 166 168 163
-1139.89773255889 175.551639735861 2259.50272462434 148 151 144
-802.735087642587 212.429608743703 2726.39968829208 182 186 185
-812.961680660838 211.089506125138 2716.37970018831 144 148 147
-967.46541735443 190.965235725586 2679.3257386302 193 197 196
-993.684058288082 187.544086903826 2667.82386494842 183 187 186
-999.89376892245 186.726402981469 2658.91651641223 172 176 175
-1004.10218082599 186.169018762762 2650.28069643652 170 174 175
-1008.31006600496 185.611414658828 2641.66522658544 180 184 185
