ply
format ascii 1.0
comment KinectMotionCapture
element vertex 763
property float x
property float y
property float z
property uchar red
property uchar green
property uchar blue
end_header
-1154.58231573751 36.3546347361389 2568.44655744265 145 149 148
-1134.2418817877 35.4760534656779 2578.09737419504 137 141 140
-1116.93992310246 34.6899709619213 2587.39796278346 124 128 127
-1103.70728737452 34.0251501286319 2596.29656863527 127 132 128
-1096.60187599104 33.5397941057958 2604.67881093289 125 130 126
-1092.56001138175 33.1442971531163 2612.80224410164 125 130 126
-1087.48302737332 32.7203940619274 2620.96086805479 128 133 129
-1084.44975847701 32.356320215217 2628.95160892376 128 133 129
-1082.43644382756 32.0222837627806 2636.85281268226 122 126 125
-1082.47432043384 31.7472479217242 2644.6124386345 122 126 125
-1082.50876143052 31.4725734058236 2652.36046598594 126 130 129
-1080.48037106154 31.1404032055062 2660.20594578399 127 131 130
-1079.47650000544 30.8377206806365 2667.97756158071 125 129 128
-1076.40528618322 30.4779415675 2675.83106086926 127 131 130
-1073.32685169478 30.1189469311439 2683.65731749442 131 133 130
-1069.20806731708 29.7320861851362 2691.50061508772 125 127 124
-1064.0470629348 29.3175249883175 2699.35318584335 125 127 124
-1061.97826154937 28.9896530423481 2707.0513411504 124 126 123
-1059.90345555246 28.6624177932945 2714.72760448904 124 126 123
-1063.0004470774 28.4778331011593 2722.21326953149 119 121 118
-1046.40886569694 27.7548264615328 2730.29485223669 117 119 116
-1003.86616518548 26.3281106724062 2738.99524353628 137 139 136
-961.261862324589 24.9077974227712 2747.47095961441 139 141 138
-935.211041639545 23.9434838535579 2755.34863368278 134 136 133
-924.708623309777 23.4035712938585 2762.77390101808 133 135 132
-922.507935134169 23.0891041893347 2769.99084963747 129 134 130
-928.625832557688 22.9982415193106 2777.06182720297 131 136 132
-931.625581605365 22.8232642002168 2784.19158655625 137 142 138
-927.332328903707 22.453895450012 2791.39816098799 136 141 137
-927.201118773973 22.1960397753453 2798.54177670969 131 135 134
-927.067120571428 21.938369276297 2805.67422875117 125 129 128
-936.327213760719 21.9284717100644 2812.77279029402 128 132 131
-952.910977087335 22.1096136680002 2819.9072152761 122 126 127
-1001.92718023447 23.1369189637725 2827.19593382352 126 130 131
-1055.19237254906 24.266634672509 2834.73876238443 115 119 120
-1080.25833845765 24.6539598698459 2842.32369527127 173 177 178
-1095.92641235369 24.793518447173 2849.92841168255 163 167 166
-1109.51618091026 24.8767933184995 2857.57389388819 154 158 157
-1122.07216292134 24.9313563470894 2865.26025151939 161 165 164
-1148.29020389576 25.3341748600662 2873.23514558677 165 169 168
-1176.64183733993 25.7869983790442 2881.37058009602 158 162 161
-1522.80780488444 40.556797722342 2465.33271129661 110 111 106
-1455.04032801635 38.3946870000675 2481.22592421421 95 99 98
-1215.79185808265 30.4431392808639 2546.48754703031 159 163 162
-1174.06423432894 29.0442161861793 2558.23170543299 158 162 161
-1149.65567832382 28.1131279182316 2568.33144271437 145 149 148
-1131.34840215462 27.3483953855553 2577.80928416004 127 131 130
-1116.08368041558 26.6678047307667 2586.94676648195 123 127 126
-1099.76955037587 25.9629662214384 2596.06994204273 130 135 131
-1092.65688334253 25.5024512879445 2604.44092889783 126 131 127
-1091.68720570528 25.2040240885521 2612.34125572426 126 131 127
-1088.65911806338 24.852832320099 2620.36029566773 126 131 127
-1085.62382111884 24.5024525973713 2628.35215254409 125 130 126
-1081.55271037395 24.1264260474184 2636.37929313648 128 133 129
-1078.50143701146 23.7779158233708 2644.31394203041 124 129 125
-1078.53164472412 23.5094280348955 2652.04922898131 118 123 119
-1079.58866426756 23.2675561558802 2659.71827954033 115 120 116
-1076.52021347784 22.921068607353 2667.58950000259 107 112 108
-1072.41246014228 22.5491355400629 2675.4831782482 106 111 107
-1066.23112691217 22.1260044689907 2683.43837778516 107 111 110
-1065.20361734565 21.8341720344527 2691.12907860473 98 102 101
-1064.171499045 21.5428726230368 2698.80300462072 99 103 102
-1064.16928347535 21.2779543128795 2706.42109288343 102 106 105
-1061.05833574481 20.9359196166801 2714.13734183143 103 107 106
-1058.97564749217 20.6203622855156 2721.79264174794 107 111 110
-1037.18989131436 19.8179189643912 2730.02165024283 101 105 104
-989.435862937187 18.379430723111 2738.84850100331 138 142 141
-955.108578542163 17.2794934556803 2747.08501189786 134 138 137
-935.275020745344 16.5407917274953 2754.80882367473 134 138 137
-926.846258736981 16.084164702003 2762.19218284104 136 140 139
-922.564028866169 15.7299845289717 2769.44927215579 142 147 143
-925.55982590696 15.553233135943 2776.56416744717 141 146 142
-927.515239453398 15.3511106119096 2783.69662511399 133 138 134
-924.258583789372 15.0235304606656 2790.88101490592 130 135 131
-923.080671694778 14.7466377580019 2798.02273278149 128 132 131
-925.029802216984 14.5448375323401 2805.13206629308 125 129 128
-938.468616345719 14.6161896883003 2812.21048593862 117 121 120
-967.601787487983 15.0573770326802 2819.34302086543 136 140 139
-1028.15074749271 16.2354717584492 2826.68349452398 107 111 112
-1063.65916557331 16.8142174939316 2834.19313863469 78 82 83
-1081.40724495561 16.9706975308666 2841.7385503017 100 104 105
-1091.84008022139 16.9535403829596 2849.28944059675 148 152 153
-1103.33272837777 16.9592979398847 2856.89428422021 162 166 167
-1119.03638095466 17.0608905574807 2864.60712758078 150 154 155
-1137.9091399953 17.2331151228239 2872.44094525222 156 160 161
-1162.05945824592 17.5236056884232 2880.46051289172 159 163 164
-1919.6409971386 44.387480376855 2331.81862292217 175 174 169
-1457.03980549034 29.8110021105457 2471.5404127353 98 100 97
-1152.79370088758 20.3730155986494 2559.50939317981 160 164 163
-1138.58703617737 19.758065926778 2568.72035577226 149 153 152
-1126.40429002129 19.1944327543084 2577.68456003917 132 136 135
-1112.15255189497 18.5844649825834 2586.73131918266 128 132 131
-1100.95249803191 18.0496980650009 2595.46597158899 133 135 132
-1095.88756749991 17.6619779691092 2603.69219178671 128 130 127
-1096.97068053562 17.419954820987 2611.45709784249 127 129 126
-1093.94339258666 17.0822167837191 2619.48760087062 124 126 123
-1087.82533694433 16.6735163913132 2627.68684846398 122 124 121
-1082.72401003949 16.290005717749 2635.78059367175 113 115 112
-1079.67068842566 15.9552208374723 2643.71630327341 108 110 107
-1081.75981394196 15.7398289792157 2651.33682971453 103 105 102
-1078.69535991859 15.406367637967 2659.23111345223 103 105 102
-1075.623181638 15.0737347421969 2667.0981705964 99 101 98
-1069.44747073674 14.6713847533153 2675.08736482581 97 102 98
-1064.29273429036 14.2937334448511 2682.98651017019 107 111 110
-1066.36246208671 14.0805850298038 2690.53643307157 100 106 104
-1066.36322695547 13.8210120069796 2698.16896185256 102 108 106
-1065.32602692777 13.5384453844003 2705.82953383769 103 109 107
-1061.1771956419 13.1870045299412 2713.58363541525 101 107 105
-1053.91058569849 12.7673497917104 2721.40793038297 96 102 100
-1025.88867109398 11.8893041982008 2729.81535392697 94 100 98
-974.993174716692 10.5115760464697 2738.70772965155 137 143 141
-941.67982768132 9.52955582079794 2746.88598847653 129 135 133
-931.180850406437 9.05319268536135 2754.36415355381 128 134 132
-924.824491685547 8.6693093306041 2761.69429670099 127 131 130
-922.619140151733 8.37698619854364 2768.90791173032 136 138 135
-922.490428032705 8.13036601229637 2776.06789557537 140 142 139
-925.484975070718 7.95130411653865 2783.17669112097 144 146 143
-926.395321847744 7.72721154221583 2790.31147034513 142 144 141
-923.129783857506 7.41393781019754 2797.47284314738 135 137 136
-927.166740278581 7.25698714260768 2804.56861089076 136 138 137
-945.835459316419 7.41006282108318 2811.63277841782 117 119 118
-985.43978750274 8.00266204377985 2818.77226978156 125 127 126
-1040.79056598761 8.92012991886364 2826.13182808955 64 66 65
-1070.03711238036 9.28113806439949 2833.63468215175 93 95 94
-1081.50822473708 9.26622915672902 2841.14559082561 89 90 92
-1085.6525337224 9.09720922720202 2848.63231769936 133 137 138
-1099.24231904171 9.12322852516582 2856.24264299262 157 161 164
-1112.84763074388 9.14748100259154 2863.90949922434 151 155 156
-1132.77240059285 9.29930958411528 2871.74002949784 155 159 160
-1152.72156632163 9.44835268053039 2879.65844925967 155 159 160
-1187.42337048573 9.89473483762358 2887.98697596313 165 169 170
-1144.68921006168 12.3713698382226 2551.64328767348 132 137 133
-1128.43802555532 11.7550640669763 2561.05513357615 115 120 116
-1125.46226431296 11.4247107459841 2569.28160749021 110 115 111
-1118.38332490276 11.0084722179648 2577.80577220412 101 106 102
-1108.21745997253 10.5288276140001 2586.51771735889 104 109 105
-1101.10990285013 10.1158122177562 2594.937665033 99 101 98
-1096.04136459171 9.74734121827013 2603.1626433214 104 106 103
-1099.17670341771 9.55124508580461 2610.78341665604 107 109 106
-1096.14829327657 9.22716130919408 2618.81744476745 106 108 105
-1092.0839909696 8.8826965106799 2626.88979019297 104 106 103
-1083.895077992 8.45450756597359 2635.18161611682 104 106 103
-1082.89908307448 8.17566702666205 2642.99752705397 107 109 106
-1078.80733102218 7.83429027872116 2650.96990658854 106 108 105
-1075.73771764413 7.5148203092331 2658.85479709571 108 110 107
-1072.66087034055 7.19622299962529 2666.71245138442 109 111 108
-1070.60898250858 6.89923511236144 2674.49290197842 100 102 99
-1064.41803983916 6.51989764991805 2682.44100156494 99 103 102
-1063.38513843402 6.24515223107079 2690.12247139173 104 108 107
-1061.31310601729 5.95032086647761 2697.82949060622 104 108 107
-1060.27031730002 5.67666119827241 2705.47493626705 106 110 109
-1056.11476711882 5.34205647547718 2713.21472135527 112 116 115
-1045.72986928477 4.8860400123054 2721.1283578386 103 107 106
-1007.31493533427 3.88347622317418 2729.83591416737 114 118 117
-959.500141789408 2.7045055532877 2738.60193060105 138 142 141
-934.473079040038 1.97608039693491 2746.53322444419 134 138 137
-926.042902032243 1.57290652273644 2753.94507751635 124 128 127
-921.759883657073 1.25120274572187 2761.21881414275 128 132 131
-920.590982326603 0.990193456959929 2768.40401517547 120 122 119
-919.417656614024 0.729522570904181 2775.57300299433 116 118 115
-922.409736436624 0.54840648192904 2782.6713413426 101 103 100
-923.316795815947 0.327611314528006 2789.79599691351 105 107 104
-926.309921130247 0.146143243634531 2796.89799474459 117 119 116
-934.52753554243 0.0623042723987693 2803.97567456035 128 130 127
-964.705564069093 0.386990951079288 2811.01768736326 138 140 137
-1006.42854263311 0.921343228024382 2818.19296847189 131 133 130
-1050.29896599081 1.48855926021051 2825.56939889785 20 22 19
-1069.08684857557 1.58701223785061 2833.04151140542 84 86 85
-1080.55983961122 1.54857017407005 2840.54546666564 103 105 104
-1079.45893732306 1.2789454932554 2847.97769550749 123 127 128
-1091.99889275548 1.25732681291128 2855.55552342794 150 154 157
-1109.80416014474 1.32897707211914 2863.25970587544 150 154 155
-1131.83507668559 1.47374168785268 2871.11191641315 155 159 160
-1149.6857640961 1.5401677779152 2878.98143623059 158 162 163
-1182.29234291891 1.86683155240917 2887.24785874395 176 180 181
-1127.58852464456 3.71301918507592 2560.6173468511 130 135 131
-1125.63303873978 3.41562648288261 2568.75546332751 130 135 131
-1118.54972508642 3.02383802873189 2577.27882383055 133 138 134
-1113.50331477883 2.67158189962689 2585.59619608372 138 143 139
-1105.36924659074 2.26388237160567 2594.10458590677 136 138 135
-1102.35278623116 1.951811209686 2602.19149437356 140 142 139
-1099.32905153981 1.64067514722298 2610.25105602259 135 137 134
-1093.21385781762 1.27441263801957 2618.48865144481 127 129 126
-1087.08712573893 0.909491734440535 2626.68332520786 134 136 133
-1081.97790406957 0.564355637095879 2634.77198640075 125 127 124
-1083.03866212613 0.33104119186915 2642.45939101949 131 133 130
-1083.0667446211 0.0795731961728413 2650.19846188232 130 132 129
-1077.93439342069 -0.262945621764446 2658.20290007292 131 133 130
-1075.88829601214 -0.549656468535734 2666.01133775949 138 140 137
-1072.80311690334 -0.853895496630966 2673.84805177821 135 137 134
-1067.64342139292 -1.19351175730266 2681.7527984278 129 133 132
-1060.40467345755 -1.56804554024582 2689.70995560215 130 134 133
-1056.25792697235 -1.88734944782599 2697.49208722186 135 139 138
-1054.17395272065 -2.1701128964466 2705.16238779403 122 126 125
-1041.71930151438 -2.63006201447293 2713.18252258558 124 128 127
-1019.90966805098 -3.2474041819034 2721.43974257717 128 132 131
-975.233153283746 -4.24932446155542 2730.27946319867 134 138 137
-943.9941210407 -5.01629064856242 2738.50237938618 142 146 145
-928.29920922662 -5.51634455361001 2746.15663172701 136 140 139
-919.860034681684 -5.89196304231195 2753.5524757351 126 130 129
-918.691605462674 -6.14476633861379 2760.74461045919 126 130 129
-919.601685091411 -6.36264701161966 2767.88231968341 139 141 138
-920.510140932302 -6.58045541824 2775.01404572682 147 149 146
-922.459791654325 -6.78107383011319 2782.12605677374 132 134 131
-923.365482997025 -6.99885847774286 2789.24846279988 119 121 118
-930.535752945523 -7.11468649088727 2796.31368207376 109 111 108
-947.117960365639 -7.07925361558522 2803.35033719315 108 110 107
-991.955084652094 -6.59156187546985 2810.3684818177 122 124 121
-1030.57145938934 -6.21057810399746 2817.60354214769 131 133 130
-1057.71909989166 -6.01845511741846 2824.99958553354 33 35 32
-1071.27818307244 -6.04590039579762 2832.46216506928 4 6 3
-1081.70702431492 -6.12478827641384 2839.96018180814 156 158 155
-1079.5557297594 -6.40262523217745 2847.38364561635 134 138 137
-1092.09869652346 -6.45056531975303 2854.95696508487 139 143 144
-1110.96016670729 -6.40233045284401 2862.67058883885 163 167 168
-1131.94730760336 -6.32422310308718 2870.50170145806 151 155 156
-1145.5947787333 -6.36220860448013 2878.28579358044 142 146 147
-1170.83948042612 -6.2250827275553 2886.37544562759 151 155 154
-1134.92373579232 -4.18524553358841 2559.48521696588 149 151 148
-1128.87458300922 -4.5377146746818 2567.9767178618 148 150 147
-1116.66545488762 -4.98695191437089 2576.91519466469 147 149 146
-1108.53766553588 -5.36874731300908 2585.4632510877 147 149 146
-1101.4213308845 -5.73277255299455 2593.88153933704 139 141 136
-1098.39943948202 -6.03069111414602 2601.95628959473 138 140 135
-1095.36980361921 -6.32775001003073 2610.00375795922 132 134 129
-1092.33296539753 -6.62393989687866 2618.02410500117 125 127 122
-1085.17234460107 -6.98295875575562 2626.28112824063 132 134 129
-1077.99850873259 -7.3404203423439 2634.49006968797 135 137 132
-1079.05523757466 -7.57035158583132 2642.16465059946 135 137 132
-1075.98536304457 -7.86281444523886 2650.06562237576 128 130 125
-1076.00391789418 -8.1075411605684 2657.77264602772 130 132 127
-1070.85625152356 -8.42968792332417 2665.73308384217 139 141 136
-1073.96458765172 -8.62690688894403 2673.25289255404 139 141 136
-1066.73391220976 -8.97828570929017 2681.25464014547 142 144 141
-1056.38611117924 -9.37426972208046 2689.34391113598 142 144 141
-1048.09164413398 -9.7378855743744 2697.28460356473 144 146 143
-1042.8908454877 -10.0544721250514 2705.05221110264 134 136 133
-1019.01649795721 -10.6420093923593 2713.45501045822 113 115 112
-981.617369874232 -11.4213979414853 2722.17863565948 132 134 131
-949.355388850049 -12.1204082359492 2730.54276769241 131 133 130
-936.787334463324 -12.531657610256 2738.17260517006 121 123 120
-924.199098877128 -12.940919526405 2745.72876858653 122 124 121
-917.833052737451 -13.2596555708048 2753.06500387019 142 144 141
-916.661262175013 -13.5039250492301 2760.2500463908 142 144 141
-916.527020477507 -13.7332618532383 2767.39948279497 136 138 137
-917.432173137357 -13.9477710275153 2774.52102773717 137 139 138
-918.335522186752 -14.1622520414777 2781.63682302869 145 147 144
-921.325597493123 -14.3479815382735 2788.72387731439 143 145 142
-932.674239923038 -14.4194393918834 2795.74530613191 136 138 135
-952.399040104861 -14.3785013562425 2802.76337773883 118 120 117
-1007.71672379371 -13.8587618616227 2809.74802765502 119 121 118
-1039.02916576393 -13.6706382086256 2817.01935610535 121 123 118
-1064.09617007295 -13.5708715527755 2824.42566593778 53 55 50
-1070.3253085911 -13.7253475892245 2831.86949773562 0 1 0
-1079.70703332443 -13.8390814291927 2839.35409657499 156 158 155
-1080.70109667929 -14.0643068174428 2846.79898384524 152 156 155
-1097.44966668771 -14.0838431219111 2854.41860598639 125 129 128
-1121.57615734371 -14.010224610392 2862.21278477562 167 171 170
-1144.68048725913 -13.9535206691227 2870.09845150575 160 164 163
-1154.13004119859 -14.0753592443818 2877.82976998774 141 145 144
-1154.65490709394 -12.1980940312241 2565.33852448009 124 126 123
-1120.92939248182 -12.8986236176816 2576.06145373537 150 152 149
-1114.85146245674 -13.2263838237208 2584.46078127757 148 150 147
-1103.62879401832 -13.6204446850524 2593.2003046358 144 145 140
-1100.60533049821 -13.9048156395246 2601.27870020099 143 144 139
-1099.63040406417 -14.1614266034563 2609.18686887814 144 145 140
-1097.62223620576 -14.4307751443896 2617.14709320139 146 147 142
-1087.37250485633 -14.80535499668 2625.61492018558 146 147 142
-1077.10556640878 -15.1780242746514 2634.01913780099 145 146 141
-1078.16014941098 -15.4048261583398 2641.6886563661 144 145 140
-1081.27644595118 -15.6052693041246 2649.23505592661 148 149 144
-1079.23210532027 -15.8705569530754 2657.06447069237 152 153 148
-1075.11616667364 -16.1609232067396 2664.9783264758 135 136 131
-1070.99110347266 -16.4503279467651 2672.85984064917 121 122 117
-1066.85718771595 -16.7388243772888 2680.70906047721 101 102 97
-1054.43346060718 -17.1276003063196 2688.8889454074 64 65 60
-1046.13280987836 -17.4640150925374 2696.8238523602 55 56 51
-1032.63468167782 -17.8614108448357 2704.90650391511 58 59 54
-992.146117898204 -18.5800351210092 2713.88698442136 66 67 62
-956.788590810137 -19.2308678559723 2722.47826759386 138 139 134
-940.075857252616 -19.6551898457563 2730.29860986238 129 130 125
-933.731566425575 -19.9547146990949 2737.72681827575 121 122 117
-925.295301515272 -20.2773802020356 2745.16689693004 117 118 113
-918.926029568476 -20.5744562491098 2752.50483041252 121 122 117
-920.877689811189 -20.7744116929636 2759.6247209792 122 122 120
-919.702303051045 -21.0102357242321 2766.80174353577 139 139 139
-919.565620535664 -21.233860194315 2773.94572413016 137 137 137
-916.294561343607 -21.4925704418754 2781.12104631983 121 121 119
-923.460415506641 -21.633593793222 2788.1539636302 112 112 110
-934.813611363065 -21.7289376431396 2795.17628903777 113 113 111
-960.820904235204 -21.6638248242972 2802.15550701072 141 142 137
-1013.02408008446 -21.315024943038 2809.15949662017 103 104 99
-1050.63405038907 -21.1332042357787 2816.42855379354 73 74 69
-1070.47728170324 -21.1493387778977 2823.84937532266 43 44 39
-1087.1983526428 -21.2019719738521 2831.34600316617 16 17 12
-1085.05037730557 -21.4583571164186 2838.79533413317 12 14 9
-1089.19703968236 -21.6476724204081 2846.27891427373 117 122 118
-1109.10862936266 -21.6717200860955 2853.94947010897 165 170 166
-1889.80110799451 -7.05706164919047 2332.72364577515 118 123 116
-1935.06819430143 -6.82490899999451 2337.28050072278 0 5 0
-1148.78263201683 -20.5720798883609 2573.31869229271 12 14 11
-1121.16873283474 -21.1097019920454 2583.45592270137 10 12 9
-1111.99840545421 -21.4473574312147 2592.05742779932 8 9 4
-1116.17150623037 -21.642936503089 2599.63521391981 4 5 0
-1115.20530911653 -21.8922098124062 2607.58042546297 3 4 0
-1110.1181630557 -22.1835479456661 2615.78501428181 4 5 0
-1093.69273393974 -22.5899388492958 2624.68245335829 2 3 0
-1079.30218635863 -22.9725431406682 2633.35738560094 2 3 0
-1075.20090713529 -23.24849514267 2641.33569837627 2 3 0
-1079.34654037739 -23.4406592543847 2648.81272993088 13 14 9
-1092.78862741828 -23.5405297407683 2655.795200245 19 20 15
-1065.94419346859 -24.0399257725438 2664.91618878436 11 12 7
-1065.94589733609 -24.2717062263973 2672.56975065672 2 3 0
-1059.73572221083 -24.563462373336 2680.50080913936 0 1 0
-1055.58478293612 -24.8340464239023 2688.29813292062 3 4 0
-1041.06260235471 -25.2028708611298 2696.49303751105 14 15 10
-1017.18462779978 -25.6578840362569 2704.96696823236 6 7 2
-968.36677290311 -26.3436698035182 2714.21650597467 127 128 123
-943.36152799715 -26.7993614294793 2722.40099486751 147 148 143
-931.827433553111 -27.1261166775696 2730.02581872292 138 139 134
-930.672414108088 -27.3555735649016 2737.28248101001 134 135 130
-923.269693294472 -27.6414190264247 2744.6868321885 130 131 126
-917.936493908844 -27.9072459497281 2751.99397967995 123 124 119
-916.760841863144 -28.1348075880856 2759.17523372559 124 125 120
-920.793863030226 -28.3157165629098 2766.24219364373 112 112 112
-919.61304404775 -28.5428467813462 2773.40360721926 115 115 115
-918.427541943879 -28.7696735760388 2780.54875387129 134 134 132
-924.551142033197 -28.9329127674479 2787.59520957056 127 127 125
-936.953350415278 -29.0430490928579 2794.60665330614 118 118 116
-964.016691322662 -29.0303396350569 2801.57736553109 100 101 96
-1019.38152643383 -28.7831363660129 2808.56501433154 1 2 0
-1054.91324217533 -28.7097176627915 2815.84305007948 0 1 0
-1074.76542016035 -28.7712226403759 2823.26844432621 6 7 2
-1107.23015004767 -28.7323005355309 2830.82747353948 20 21 16
-1098.79469286543 -29.0302199063355 2838.28617454212 5 8 1
-1110.30438905099 -29.1663082279808 2845.86383107208 3 5 0
-1194.2216420105 -28.4816676674885 2577.27084691894 10 12 7
-1162.59105696465 -29.2114367205483 2595.75244976772 14 15 10
-1159.5973629219 -29.4717249764855 2603.95657812277 14 15 10
-1117.47523524891 -30.0339109404573 2614.76429281444 12 13 8
-1110.31861537502 -30.3212422984527 2623.08143043042 13 14 9
-1085.62325106636 -30.7400959012441 2632.4387738229 13 14 9
-1090.80767793934 -30.93025194939 2639.8785189554 13 14 9
-1130.06422332719 -30.8675264626862 2645.39222641436 12 13 8
-1112.5529859022 -31.22812343371 2654.18350432802 9 10 5
-1106.38563642314 -31.5030040202415 2662.28514940929 8 9 4
-1028.82624154559 -32.291288781107 2673.86267283197 16 17 11
-1074.3471147016 -32.1894057410933 2679.27954319789 12 13 7
-1055.69983219422 -32.5469944581788 2687.75298606274 25 25 17
-1044.28044427989 -32.8509769958923 2695.81899930075 20 20 12
-1006.90851502367 -33.3322523373471 2704.83089246534 31 27 18
-962.215380742187 -33.8575840180751 2713.90980117939 113 106 98
-937.194768136555 -34.2430451145314 2722.08157269505 108 99 92
-926.689875398969 -34.5273080097151 2729.65812783133 110 101 94
-928.649993603011 -34.7274040463163 2736.80933238781 133 126 118
-924.36433071521 -34.9683982872219 2744.12513525553 148 141 133
-919.028307721941 -35.2152401005584 2751.43378544978 137 134 125
-914.724409404774 -35.454500804536 2758.68297820677 137 134 127
-920.842258198387 -35.6270395330337 2765.70220923143 138 137 135
-920.70324021238 -35.8393605127956 2772.84465511317 122 121 119
-920.560939402106 -36.0515111369742 2779.97594908792 101 100 98
-925.641692408036 -36.2315759385009 2787.03621553391 95 95 93
-938.047889950707 -36.3681396248873 2794.04578538867 143 143 141
-966.167384405731 -36.4130735899259 2801.00507531177 78 79 74
-1013.17470474992 -36.3510924118937 2808.01839139813 8 9 4
-1066.53094164446 -36.2590578731286 2815.24504209518 9 10 5
-1126.24977260825 -36.1385015526433 2822.73205532362 12 13 7
-1126.22703361089 -36.3639819463085 2830.29791413508 17 18 12
-1166.10785350693 -36.366936459287 2838.08889259754 14 15 7
-1212.00207633074 -36.7634325756169 2583.50431138027 11 14 7
-1205.95979366491 -37.0303932857117 2592.075305222 11 14 7
-1187.55568090578 -37.360585156062 2601.46795761439 12 15 8
-1139.32392376906 -38.0690023969289 2620.67191390816 12 15 8
-1080.60332201912 -38.5901325315709 2632.22443932666 12 15 8
-1083.72066173572 -38.7977220799884 2639.77112915468 13 16 9
-1131.2477102838 -38.7901573815497 2644.78434711987 12 15 8
-1129.23082131717 -39.0257437366941 2652.73350735423 10 13 6
-1077.56680919293 -39.4938252081331 2663.24315841295 13 16 9
-1101.37616297124 -39.6048601756112 2669.74328959254 16 19 12
-1098.28897014355 -39.8414529238989 2677.61523538745 19 22 11
-1064.10486391933 -40.2165972925679 2686.84000603842 25 25 13
-1019.49985311893 -40.6321978577175 2696.3153784479 35 29 15
-987.283522280777 -40.9873766150418 2705.06607790711 15 6 0
-955.019859752956 -41.3377166563693 2713.64409899131 115 97 83
-934.139774276358 -41.6354600186428 2721.65800604155 125 103 90
-924.667038597653 -41.8828579873485 2729.19371224059 120 98 85
-926.625010896248 -42.0825036568824 2736.33723380892 108 89 75
-922.334759863476 -42.3069081980471 2743.64647566155 96 80 67
-920.119939067784 -42.5224333018045 2750.87341943209 141 133 120
-913.728021484723 -42.7533761164386 2758.16902716637 164 158 146
-920.889684179437 -42.9323293563222 2765.16243543041 144 139 133
-921.793251385741 -43.1351596523388 2772.28546732667 128 125 118
-924.784777744267 -43.3303356140472 2779.37287410371 118 115 110
-927.777604651881 -43.5258064067422 2786.46492342376 98 97 93
-941.23474040831 -43.6853281634047 2793.46560597995 100 99 97
-968.318928488878 -43.800433492167 2800.43209508544 19 18 16
-1011.15303835966 -43.8670794999985 2807.45702972167 18 17 13
-1063.47835961039 -43.9088699418652 2814.66792298456 16 17 12
-1111.67558921705 -43.9712116125506 2822.12432762403 15 16 10
-1095.89300905359 -44.2389060499206 2829.60071319237 15 16 8
-1195.85994839469 -45.2115697348566 2592.27370402393 14 17 10
-1202.14987308001 -45.4224084966523 2599.90763847254 15 18 11
-1146.69891471978 -46.0137845052676 2619.6590390126 15 18 11
-1060.10790842965 -46.659930047005 2640.65600996428 14 17 10
-1091.10476760516 -46.8052147788329 2646.54514475038 13 16 9
-1078.71890749948 -47.0494484491863 2654.95687885652 15 18 11
-1112.89831420882 -47.4110414132669 2668.62837377261 17 20 11
-1110.85240331365 -47.6326711038902 2676.47859278177 18 21 10
-1062.14777655497 -47.9423800666774 2686.38595961481 19 20 6
-998.848603683956 -48.2715293399069 2696.6474940839 38 29 14
-964.527930449055 -48.5403591103788 2705.43233966227 112 99 82
-942.623288384985 -48.7830736009782 2713.57333164391 136 109 92
-932.120932113731 -49.0040650703412 2721.20017947101 132 100 85
-926.802771492788 -49.2151935338254 2728.59769669226 140 107 92
-928.761409843759 -49.4146274036678 2735.74382490176 139 110 94
-924.469467856056 -49.6228350859868 2743.0570144189 126 100 85
-923.296088236406 -49.8261088238226 2750.26203964598 92 76 60
-920.032093367242 -50.0316462622723 2757.49623178752 76 63 47
-923.023667108805 -50.2289939438844 2764.58244337823 61 48 39
-923.927538574229 -50.4289999924274 2771.70838801097 97 87 77
-925.875038320761 -50.6278965901635 2778.81349997078 148 139 134
-932.006260967284 -50.8227490906184 2785.86829774262 146 138 135
-949.656964964621 -51.0078082254173 2792.83561471456 90 85 82
-999.798755136975 -51.1678845423447 2799.65744630326 22 21 17
-1025.89891576544 -51.3534161825447 2806.82322026382 19 18 14
-1074.05734043983 -51.5270408619444 2814.06622055187 15 16 10
-1076.09798522419 -51.7364501998098 2821.51052458743 15 16 8
-1105.44547244537 -51.9307270270201 2829.03757429949 17 18 10
-1072.822004824 -52.1593607050649 2836.35654861761 19 22 13
-1948.87579229564 -47.0468238653988 2312.49551337216 141 143 138
-1147.745318772 -53.5544129760268 2603.19623452736 16 19 12
-1141.63507052698 -53.7715169580975 2611.5463624225 17 20 13
-1138.6075912187 -53.9877141144142 2619.651960498 16 19 12
-1129.37958543466 -54.2019022441301 2628.11819680642 16 19 12
-1071.59229112611 -54.4019260620215 2639.44139014302 14 17 10
-1033.35924185157 -54.5998417531761 2649.33226131039 14 17 10
-1036.44096307564 -54.808395287784 2656.74609804627 16 19 12
-1042.6288095201 -55.0185193389897 2664.00148722421 17 20 13
-1085.07159053971 -55.2485873129377 2669.47031846028 16 19 10
-1057.09367124634 -55.4415282945001 2678.47362715798 20 22 9
-990.700536941097 -55.6043127978102 2689.04188438095 25 23 10
-970.915787257455 -55.7923401594434 2697.2945780828 77 68 53
-946.946394136785 -55.9738565731845 2705.60176112448 131 115 99
-936.451809616577 -56.1637082811996 2713.27619493261 133 106 89
-930.099485447435 -56.3557610595698 2720.74335838566 143 110 93
-926.857867348021 -56.5499358987859 2728.06780483787 135 102 85
-923.608632950726 -56.7433814281531 2735.36536293937 136 104 89
-923.478680022637 -56.9397675069666 2742.55152606671 125 102 86
-921.259640435784 -57.133322724509 2749.77760595105 117 98 81
-923.209094780959 -57.331809950995 2756.89023340811 106 89 73
-922.025768276627 -57.5260699151292 2764.06308960423 99 82 72
-920.837790217571 -57.720030106363 2771.21979377277 78 61 51
-924.873609763178 -57.9215098491479 2778.28415621591 66 55 49
-938.329971639795 -58.1381814632958 2785.24495505735 133 124 119
-980.073430920093 -58.4029480258856 2791.99268427305 77 69 66
-1037.58822664824 -58.7002004904472 2798.82633384742 22 18 15
-1075.25654704649 -58.9699801351076 2806.02598763901 17 16 12
-1056.31362643399 -59.1404114141501 2813.51994557163 14 15 9
-1047.84193730512 -59.3282545769998 2820.91362081285 16 17 9
-1055.11597395705 -59.5459682386154 2828.29978025418 17 20 11
-1066.60250163663 -59.7732473989569 2835.73384354069 17 20 11
-1954.46199873375 -57.2857109659424 2311.18549514783 137 139 134
-1150.75555292005 -60.9064707888033 2578.55851839238 11 12 6
-1157.1810152083 -61.5608206498502 2602.00187826548 16 19 12
-1136.63792711545 -61.718839099493 2611.35520554702 17 20 13
-1127.4131544695 -61.9041931079656 2619.85072119571 16 19 12
-1111.97719304386 -62.0706719941754 2628.67700737992 14 17 10
-1069.6523076511 -62.1582235855838 2639.03158169293 14 17 10
-1050.01258080309 -62.3056109028453 2647.84930377873 15 18 11
-1015.85750726956 -62.406805467223 2657.35482468499 16 19 12
-1029.27955229293 -62.6478497197589 2664.17375319078 14 17 10
-1045.82531980993 -62.9001248656083 2670.89347030908 13 16 7
-1010.55032833639 -62.9894246740623 2680.14571453493 21 23 10
-987.674074776424 -63.1139717494977 2688.65022856704 13 9 0
-945.036751997888 -63.1695764601879 2697.86495369078 120 104 91
-938.70118171963 -63.341955140878 2705.40581322982 124 102 88
-930.274549154902 -63.5060972396581 2712.98173827393 138 107 89
-927.035181029187 -63.6870798665564 2720.32379633224 138 103 84
-920.665374810374 -63.8561055368534 2727.7396614493 136 101 82
-917.409135565977 -64.035454649774 2735.02011166581 137 102 83
-918.315822053407 -64.2296341485885 2742.160186502 133 102 84
-917.134321345533 -64.4158229345554 2749.3458462644 136 107 89
-920.124060505664 -64.6177819316571 2756.42233507062 134 107 88
-916.847320504939 -64.7953883229904 2763.6268412376 122 96 83
-915.653811841635 -64.9806215768928 2770.7685210879 120 93 82
-919.686208376158 -65.1868755237146 2777.81716037929 93 79 70
-949.891393830813 -65.50127278674 2784.5555883664 78 65 57
-1007.36981299013 -65.9337950805347 2791.16877658157 17 8 3
-1064.92357104923 -66.3741353153014 2798.05674752698 23 20 15
-1072.20403686373 -66.6049039209126 2805.45946400316 19 18 13
-1071.09444188245 -66.7996977953231 2812.9066628329 17 18 12
-1068.93021630129 -66.9896784526043 2820.33758414486 21 24 15
-1067.81110902743 -67.1839209636158 2827.74981379859 21 24 15
-1089.82691699551 -67.4842031493842 2835.26494991482 15 20 13
-1142.39192834587 -67.9293915624911 2843.11015215628 19 24 18
-1836.5515291833 -67.6365896568492 2346.15380969728 133 138 131
-1200.63896207317 -69.784429975723 2598.39954798449 17 20 13
-1172.89584656747 -69.848644570876 2608.35590822697 18 21 14
-1133.75675791042 -69.8484605006522 2618.90422294893 17 20 13
-1102.82348773972 -69.8865401906326 2628.72255455984 13 16 9
-1104.92079528456 -70.0994123576511 2636.37505007043 15 18 11
-1039.7846854689 -69.9429530755171 2647.91562628236 17 20 13
-1072.88698456528 -70.3233972924449 2653.6798096605 16 19 12
-1035.59883128103 -70.3121407039628 2663.31370546553 13 16 9
-1004.47491991499 -70.3306846255918 2672.43655754424 13 16 7
-1005.45867384208 -70.5295315287294 2679.85982192434 20 22 9
-965.961492405089 -70.4926762212047 2689.10268966063 17 13 2
-930.56195246895 -70.4744159285448 2697.9594886502 118 100 88
-923.17295023139 -70.6179808047548 2705.5046027259 130 104 91
-919.93108939691 -70.7852733337539 2712.84604905626 136 103 86
-919.804429333614 -70.9708624513647 2720.05125458126 138 103 84
-917.591373824825 -71.143360709647 2727.31284643634 137 100 81
-914.330535006311 -71.3088266845032 2734.58405539972 135 98 79
-913.148029091849 -71.486783034786 2741.77118055599 129 94 75
-913.00461292262 -71.6709901428573 2748.91597549476 135 100 81
-915.991435252268 -71.8750019622844 2755.97940961403 132 99 82
-913.753820883659 -72.0453819456905 2763.15115660387 130 101 85
-914.647955166158 -72.2359145962869 2770.24692999237 141 112 98
-920.772739313264 -72.4608697071411 2777.25881766547 126 106 95
-962.507718299182 -72.9240001739854 2783.84889560306 45 28 20
-1035.73380412307 -73.604454515623 2790.32410149301 27 14 8
-1062.91733139149 -73.9812711954056 2797.49511570927 29 24 20
-1064.95115839193 -74.188967760182 2804.91518800467 24 23 18
-1045.98407935799 -74.2514341376483 2812.3866848177 22 23 17
-1054.30797416718 -74.5021478411602 2819.75360694719 26 29 22
-1083.6695931139 -74.9023210463277 2827.20313279217 24 29 22
-1121.48547851905 -75.3665172913803 2834.82885109132 16 21 14
-1151.97950080648 -75.7829247082469 2842.57619877972 18 23 17
-1095.56344504092 -76.6812093446052 2589.68499978224 14 17 10
-1170.8269463516 -77.456516514331 2591.97495476674 17 20 13
-1160.60330159837 -77.5790170107259 2600.69878587856 20 23 16
-1171.00035950883 -77.8608522486803 2607.94973797551 16 19 12
-1165.91920848364 -78.0216673711383 2616.25899058273 15 18 11
-1159.79428644354 -78.1731557392572 2624.59606381635 11 14 7
-1126.7728439372 -78.1082424610757 2634.51908595258 15 18 11
-1050.24286846772 -77.6875832297197 2646.78558544012 19 22 15
-1094.75352406339 -78.2411882702902 2651.93512454964 16 19 12
-1056.4281117036 -78.1211622533706 2661.68380143421 13 16 9
-993.161339994023 -77.7897959676957 2672.48172098822 14 17 8
-998.28647515591 -78.0194450283394 2679.67546477517 23 23 11
-936.963192367543 -77.692042984246 2689.89310517455 28 19 10
-920.230872831629 -77.7335058632386 2697.88244574367 123 101 90
-915.949651797225 -77.8785150635524 2705.27534027221 134 106 94
-913.740674429891 -78.040588876718 2712.55772589364 131 96 77
-918.813972079309 -78.2651380492284 2719.56222695905 127 92 73
-919.723806306313 -78.4538471939365 2726.71744243055 137 100 81
-920.631792096867 -78.642436344387 2733.86679980039 140 103 84
-914.235203442287 -78.7663972061143 2741.21167854362 135 98 79
-910.958888026382 -78.9172273493066 2748.43559525464 137 98 81
-910.809713276829 -79.0954179201865 2755.56187921742 133 96 78
-911.702903039141 -79.2828663629542 2762.65609299495 123 90 73
-916.778826519245 -79.5082751437128 2769.67072956592 128 96 81
-926.04685932912 -79.7726205380528 2776.63719530321 117 95 84
-976.180455208618 -80.4144451420889 2783.12445243994 41 23 13
-1040.00742263908 -81.1895948725164 2789.71245872696 32 19 11
-1079.79070574154 -81.7480726374695 2796.79057389227 28 23 17
-1035.55947590136 -81.7082153788163 2811.83759435858 18 21 14
-1034.41778421759 -81.8838663446852 2819.17678123057 19 24 17
-1099.53886601251 -82.6948483536185 2826.65063750423 20 25 18
-1130.01030090107 -83.1794939086468 2834.27104061949 14 20 10
-1946.95250593741 -88.6834954949551 2341.41328457878 101 102 94
-1479.43362306627 -85.3590786038858 2435.213276914 93 79 66
-1091.58506881166 -84.4777551777498 2589.47426864261 14 17 10
-1096.77425223292 -84.7222347213058 2596.89644787297 17 20 13
-1152.51490966565 -85.4893093877501 2600.74276891961 20 23 16
-1154.65013824037 -85.7057008153723 2608.53383590493 15 18 11
-1144.38884659407 -85.7923645751613 2617.14051692076 13 16 9
-1135.14402083541 -85.8880854346847 2625.61816897014 13 16 9
-1132.08960371549 -86.0477692032506 2633.66036084767 16 19 12
-1120.74662681451 -86.1184323278136 2642.15737886517 17 20 13
-1111.45663231147 -86.2093624443835 2650.47035284379 15 18 11
-1058.61428168724 -85.8297798562222 2661.03655509581 13 16 9
-1076.23173896518 -86.2065113433456 2667.76035064822 14 17 8
-1012.9060038783 -85.7033159407565 2678.44783464787 23 23 11
-951.567655027654 -85.2137252687276 2688.71193511987 25 16 7
-920.285392595443 -85.0475012308791 2697.36351354274 125 101 91
-916.001046218291 -85.1762632110216 2704.75506193048 119 87 76
-913.789739067617 -85.3273807900002 2712.03571471569 120 84 68
-917.821759546286 -85.5479461932828 2719.07392228099 116 81 62
-922.898857309266 -85.7806466816639 2726.08738610915 115 83 62
-924.85101185039 -85.978319754594 2733.21055287848 111 79 58
-915.322228787903 -86.0453298307463 2740.65205359845 123 86 68
-908.910864087521 -86.1467281003114 2747.95631661917 125 83 67
-908.758532064061 -86.3191883790007 2755.07542507175 124 82 66
-912.78674171635 -86.5398835680696 2762.09847282316 120 87 70
-918.910641048414 -86.7853589487187 2769.09411992733 120 91 75
-931.323751314478 -87.104975102846 2776.01378562398 89 67 54
-984.622561220912 -87.9066965104445 2782.46202143127 27 10 0
-1083.08515417586 -89.2486022476697 2788.69963391434 32 19 11
-1066.24313914382 -89.2328115207083 2796.31784353561 25 22 15
-1066.17764440144 -89.4151922948801 2803.75216948922 21 22 14
-1018.82111995682 -89.0299551290064 2811.31088782972 19 22 15
-1070.24362978849 -89.8304213241045 2818.58622244821 17 22 15
-1114.3669377578 -90.5486695729563 2826.08998902086 17 22 15
-1113.26929166606 -90.7213344732975 2833.59552281132 15 21 11
-1937.28061827578 -98.7379102410843 2342.01794150851 134 135 127
-1493.67108985646 -94.2249426175055 2424.02730735763 104 94 85
-1489.95305747834 -94.3992433509854 2433.49271784436 89 76 67
-1110.22520523144 -92.3489309020706 2579.67633207481 16 17 11
-1108.25805702614 -92.6973090698176 2595.5325289523 17 20 13
-1142.35481811739 -93.323858787375 2600.93725629454 19 22 15
-1165.13598924439 -93.807212804048 2607.28213345839 13 16 9
-1128.00789015747 -93.5119157883153 2617.68960738444 12 15 8
-1049.46012294182 -92.6692506135711 2630.52444384627 16 19 12
-1103.25975998925 -93.5583173296267 2634.88068702918 17 20 13
-1103.28208233981 -93.742593994756 2642.63986367086 16 19 12
-1083.61191237214 -93.6649262876959 2651.48664438067 13 16 9
-1107.4649123035 -94.1653578610377 2657.90298054037 12 15 8
-1010.92118791821 -93.2319988588824 2678.01527591372 23 23 11
-939.165198176381 -92.4387159269756 2688.75844386338 21 12 3
-925.53794363382 -92.4259110138757 2696.62065384431 125 98 89
-923.335274222569 -92.5672252746702 2703.93956616493 118 86 75
-918.002829243522 -92.6650970053243 2711.35555273624 117 81 65
-918.911804876391 -92.8479951132688 2718.5121782229 117 84 65
-918.776793918618 -93.0164149343744 2725.69721830843 112 84 63
-919.682088144059 -93.1991689640776 2732.8393373918 104 76 55
-913.276720890687 -93.2798077896026 2740.1799032065 119 82 66
-909.994534824309 -93.4033504007098 2747.39832223967 123 81 67
-914.023494052122 -93.6291362121726 2754.42186808811 115 73 59
-917.008945347022 -93.84053511621 2761.47647702807 112 81 63
-921.042802986658 -94.0670247323987 2768.51683635159 112 85 68
-933.460646125867 -94.4132697943646 2775.43726218023 61 41 30
-984.682856074346 -95.3157283396105 2781.90545898214 27 13 2
-1040.16847729954 -96.285335351361 2788.57333264005 29 20 11
-1084.1785565955 -97.0961139920972 2795.5982844954 25 25 17
-1058.91093343469 -96.9092231230698 2803.21430730045 22 23 17
-1065.14323792063 -97.1771719212436 2810.59825295479 20 23 16
-1109.25151596459 -97.9985496375164 2817.98017679106 17 22 15
-1118.63530297244 -98.4972440964874 2833.02295826065 16 19 10
-1932.35289186379 -109.041183682105 2352.28698220724 121 118 111
-1486.84962461648 -103.076566532821 2424.28544208225 97 88 79
-1481.08162078836 -103.204311060231 2433.96174427838 87 77 68
-1120.72962352002 -100.558380220488 2586.21806110585 14 17 10
-1133.16130335398 -100.931873844773 2593.17265655442 16 19 12
-1153.86583224443 -101.434509492179 2599.5887644836 19 22 15
-1179.76135322924 -102.020032277514 2605.74221808629 16 19 12
-1175.70923148472 -102.140609740713 2614.00020927323 15 18 11
-1050.60892227385 -100.363042925392 2629.93225291695 22 25 18
-1086.82949328347 -101.108455599931 2635.35365659118 20 23 16
-1077.51522565287 -101.13872536329 2643.61480697599 13 16 9
-1102.3948165575 -101.709469241126 2649.90196232063 11 14 7
-1150.12766417378 -102.646473688697 2655.0829203806 11 14 7
-932.989310160998 -99.6936897606312 2688.52427216235 26 18 7
-921.431642901958 -99.6737847151527 2696.28136695977 122 93 85
-921.305520507915 -99.8375785733864 2703.50325815361 115 83 72
-919.093136607833 -99.9671980547058 2710.79348595273 105 72 57
-916.874824488948 -100.096276323896 2718.06204513033 118 89 71
-914.65036392243 -100.22479504745 2725.30905861726 106 84 63
-911.376544710712 -100.335701341032 2732.56652005129 92 69 51
-911.228686778233 -100.49758792282 2739.70891560546 119 85 73
-910.03266605219 -100.641978634712 2746.86705450206 128 88 78
-918.24562200693 -100.942278295516 2753.79077643083 98 60 49
-920.187081133525 -101.139060988701 2760.87479536141 108 85 69
-928.412546329934 -101.440865172187 2767.8440117759 110 88 74
-948.175180349656 -101.937255570693 2774.66331196389 25 13 1
-1005.7181235385 -103.071823526297 2781.07283037606 32 24 13
-1025.55457620973 -103.576029340653 2788.1612705046 25 22 13
-1087.42373335166 -104.79491614277 2794.99279932207 25 26 18
-1084.21649404814 -104.91407865313 2802.49317538537 17 22 15
-1054.71129372621 -104.583995596468 2810.05251934433 16 21 14
-1100.9323104709 -105.547253734326 2817.39641125175 16 21 14
-1068.23357170037 -105.159970465181 2824.82477626256 18 21 14
-1060.77817009398 -105.204065120785 2832.18616278568 16 19 10
-1069.12726680061 -105.520687803554 2839.6050431418 19 24 17
-1469.81558399601 -111.709844645507 2425.72920002632 113 106 100
-1466.07390075233 -111.849696287296 2435.12854883772 93 86 78
-1182.35528871052 -108.824625827829 2548.73115672774 12 17 10
-1122.00817609181 -108.813580167144 2601.33938569371 19 22 15
-1172.69363400527 -109.907641782704 2605.6937592421 17 20 13
-1084.87504271054 -108.660206436685 2627.22570492093 21 24 17
-1086.95564326358 -108.870164327928 2634.81801056659 19 22 15
-1087.99967731121 -109.061050314969 2642.47010932532 12 15 8
-1095.26421259119 -109.366372532293 2649.76660960161 11 14 7
-1111.87561560333 -109.844855673528 2656.587202563 14 17 10
-925.767588463316 -106.89106552458 2688.34073878945 41 31 21
-919.40228675782 -106.933063963815 2695.85352662532 115 86 78
-920.314463795807 -107.11064234033 2703.02539690166 109 77 66
-920.183277288225 -107.268499979925 2710.23130482965 106 74 59
-915.877736955687 -107.347384562826 2717.57565419245 118 91 74
-908.432972282153 -107.366194657468 2724.9924969106 100 82 62
-906.196286310254 -107.48292324683 2732.20063451447 87 66 47
-912.312836757437 -107.758222648067 2739.15016732413 118 86 75
-914.252497840229 -107.954393023737 2746.2278970557 126 88 79
-921.423767415372 -108.250769983999 2753.18283859404 82 45 36
-921.27244591145 -108.407259193267 2760.31578220475 103 84 69
-935.786955698556 -108.846150282528 2767.16865871896 107 89 75
-975.481651339037 -109.772947398651 2773.68439942154 22 12 2
-1021.52238947272 -110.827053876721 2780.30252431636 29 25 14
-1049.77493594103 -111.5406778808 2787.33270538053 20 20 10
-1050.74711165611 -111.725852580514 2794.72161404219 16 21 14
-1087.46258997426 -112.609607776284 2801.8931693282 14 21 13
-1119.97718916772 -113.585189759182 2816.78948949849 18 21 14
-1085.17041417087 -113.069458976288 2824.26579399173 18 21 12
-1053.47652734413 -112.611413948422 2831.5724031875 17 18 10
-1075.53564249912 -113.215190927571 2839.05764869888 21 24 17
-1482.37618641532 -120.828474281788 2423.74491831761 102 97 91
-1468.4225541972 -120.751157266503 2434.33240190577 90 85 79
-1180.95707075482 -117.723557064085 2588.57740926899 14 17 10
-1180.01067328655 -117.876975195929 2596.65665095648 17 20 13
-1118.06021000378 -116.766815733715 2608.93713456688 15 18 11
-1071.54002089039 -115.969751329696 2619.86007921118 16 19 12
-1097.424608386 -116.674510302707 2625.89765942459 16 19 12
-1100.57661392135 -117.240812368375 2648.9327948982 10 13 6
-1083.97509028932 -117.057895835592 2657.54848741483 14 17 10
-921.783332193918 -113.957928616926 2680.77621892795 18 16 3
-919.579851660811 -114.067030951713 2688.11245663586 92 74 62
-916.329181874494 -114.153355990519 2695.47231568916 95 68 57
-919.321939586929 -114.372293683023 2702.54836330654 89 59 48
-919.188242922216 -114.524495872715 2709.74945109059 118 89 73
-914.878887199922 -114.587082311259 2717.08992445414 109 83 66
-910.560771097892 -114.648857750509 2724.39838426722 89 71 51
-906.234162194964 -114.709846000237 2731.67487994286 75 56 39
-914.442066169467 -115.040704598344 2738.56148056845 113 87 74
-914.290576538432 -115.191535002285 2745.69644360708 117 84 77
-918.322683196854 -115.432992924539 2752.72178069817 56 26 18
-919.215325381243 -115.606485219147 2759.82277260753 91 73 59
-936.877002913413 -116.145592873346 2766.60730446308 100 86 73
-980.781477567183 -117.259995575262 2773.0484746426 28 22 10
-1044.68494977928 -118.817283314741 2779.42672719585 25 25 13
-1043.55409188987 -118.953180259535 2786.83216545316 16 18 7
-1048.72488947662 -119.227622622004 2794.16716472824 16 23 15
-1052.84798959115 -119.479517742398 2801.52375318711 15 22 15
-1083.2849829537 -120.314049762631 2808.79445264682 14 21 13
-1083.21890022671 -120.475400469058 2816.24080183512 18 21 12
-1125.30433074219 -121.573882976915 2823.73090959771 18 21 12
-1107.33329131833 -121.33865117081 2831.19213692868 17 18 10
-1090.3902638758 -121.124390215224 2838.56061098002 15 18 11
-1125.16555030318 -122.066538692406 2846.28438835041 11 16 9
-1474.51725005136 -129.549078791145 2424.12923625344 103 102 97
-1457.48425815467 -129.359602562186 2435.04436252435 78 77 72
-1139.55249325834 -124.116339010077 2559.40212315268 11 14 7
-1171.82949549112 -125.52806349785 2588.72714538991 14 17 10
-1128.49828761015 -124.688371808206 2599.82717478814 16 19 12
-1059.24663986464 -123.240314965624 2612.48922293325 14 17 10
-1079.94121667603 -123.883153974346 2618.77986368082 14 17 10
-1083.05434695943 -124.116793202307 2626.29354928195 15 18 11
-1141.0991313526 -125.637967025228 2630.42590263776 14 17 10
-1125.58366885061 -125.436926265614 2639.18904957179 10 13 6
-1088.24849717376 -124.720196842395 2649.09470293886 10 13 6
-1085.13191974534 -124.806743983636 2656.95135138926 15 18 11
-925.996393579701 -121.353523430485 2680.05940853948 25 19 5
-922.75279946814 -121.427286748882 2687.4525399765 87 71 56
-921.584506525857 -121.549900351563 2694.72737562641 81 62 47
-923.538195191827 -121.746739941779 2701.85676451796 67 44 28
-919.234474506522 -121.793890159446 2709.22790529118 110 81 63
-909.704105948043 -121.715239335899 2716.75641106442 108 81 62
-907.467955651022 -121.810569662932 2723.98004726674 79 53 36
-907.316023370249 -121.955774415085 2731.11691857568 96 73 57
-915.526338645855 -122.302566585301 2738.00241226636 108 86 72
-917.466740277928 -122.498504894022 2745.08303802719 104 80 70
-919.406963245279 -122.694595838461 2752.16290407473 44 22 11
-923.44282062884 -122.941708272517 2759.1976678879 82 64 54
-940.063871545558 -123.495392643911 2766.00660350818 91 74 64
-997.626249117217 -125.04925277287 2772.22355884665 29 21 10
-1029.01465526293 -125.969317651977 2779.07634614476 24 22 9
-1019.46580749366 -125.890197703794 2786.53560938836 19 19 7
-1039.34040231354 -126.532139688216 2793.67870443201 16 22 10
-1029.7796464465 -126.452111777263 2801.0952575052 15 23 10
-1027.5732067254 -126.552466856681 2808.42603088721 17 25 12
-1091.73409168756 -128.291884533795 2815.64501922187 17 23 11
-1142.2737034031 -129.700956078749 2823.15533402828 18 22 8
-1125.36096587012 -129.44224505746 2830.66340299907 16 19 8
-1141.77098215301 -132.09817468988 2558.70237500593 14 17 10
