ply
format ascii 1.0
comment KinectMotionCapture
element vertex 752
property float x
property float y
property float z
property uchar red
property uchar green
property uchar blue
end_header
-769.629715558197 278.156653628832 2369.9646075491 175 179 178
-772.846172817713 277.659116334034 2361.05390854594 177 182 178
-775.064955379291 277.310039579981 2352.17771172663 171 176 172
-781.271738411169 276.36547455102 2343.24854887727 165 170 166
-788.47456691909 275.271925557039 2334.33867267885 162 167 163
-789.695073956114 275.070475851283 2325.52889027707 160 165 161
-800.883807039766 273.381426388205 2316.64794977577 160 165 161
-803.100005532928 273.030546796159 2307.87081155325 160 165 161
-805.316159456063 272.679225791772 2299.10426611545 160 165 161
-797.565988451819 273.81400496307 2290.34229110404 156 161 157
-800.778735042581 273.313074163298 2281.57297420601 152 157 153
-798.012220832168 273.703457823896 2272.78328684148 135 140 136
-795.246117696133 274.093251892402 2263.97690020759 133 138 134
-789.491424263593 274.928201214353 2255.11913848589 129 134 130
-792.703930756061 274.425353706955 2246.35714744789 130 135 131
-796.912124298268 273.773587648294 2237.62852183864 128 133 129
-799.127658407723 273.418470398699 2228.88212475087 113 118 114
-797.358526726474 273.657053351668 2220.05644296818 64 68 67
-804.553525988283 272.558626516095 2211.4473233792 74 78 77
-811.747536433642 271.459952769681 2202.87658504862 123 127 126
-819.936561563326 270.212566349057 2194.37503635961 119 123 122
-831.111547861696 268.519707435076 2186.01795276538 148 152 151
-837.306613424581 267.568868948612 2177.54001324039 164 169 165
-848.478851609153 265.875781355942 2169.29008991584 146 151 147
-849.693950886374 265.666498406633 2160.68325076706 147 152 148
-853.895621328147 265.011604304673 2152.2155366563 138 143 139
-852.123911948145 265.246492123812 2143.48663272038 175 180 176
-848.361903657647 265.777460332867 2134.64708959416 165 167 166
-841.614564751198 266.75265595659 2125.62777553003 150 152 149
-834.868179590712 267.727117513602 2116.57039758539 153 155 152
-834.093407462766 267.811313484862 2107.82409281143 157 159 154
-535.874148178617 303.740127785784 2498.76407068275 153 158 154
-577.039126660062 297.6952152002 2486.95940495772 154 158 157
-632.171385351762 289.603740570084 2474.61916769184 187 191 190
-657.35564465414 285.899984802771 2464.12358324129 181 185 184
-673.55519389854 283.512336062614 2454.20262071104 162 166 165
-673.786644873173 283.463681341213 2445.10447313924 171 175 174
-682.99833060053 282.099027568105 2435.61605480373 184 188 187
-694.204077517012 280.441913246236 2426.0951194831 177 181 180
-705.408536164347 278.784598591551 2416.6336438698 168 172 171
-710.625670416436 278.004002975997 2407.4419547527 167 171 170
-710.854653746273 277.953634459419 2398.43841114667 172 176 175
-727.042828896692 275.56523262666 2388.96117899839 183 187 186
-754.199849133726 271.569942404314 2379.27588445186 184 188 187
-767.390862331396 269.620004995963 2370.07510313869 181 185 184
-771.604859392596 268.984459513961 2361.13707230866 173 178 174
-777.81273130059 268.056529967073 2352.18321430808 176 181 177
-788.008110594648 266.54423003962 2343.19827446798 171 176 172
-792.21987948154 265.907747275273 2334.34632202716 165 170 166
-791.446418584585 266.000953995927 2325.56776964064 164 169 165
-797.651291282349 265.071812286003 2316.72982963837 163 168 164
-799.86809606045 264.726169862803 2307.94394375696 162 167 163
-801.087704481664 264.526159775132 2299.17082812505 157 162 158
-794.333824672471 265.492953553986 2290.39813394514 148 153 149
-796.550240653267 265.146007327316 2281.61671889724 149 154 150
-797.770140641952 264.944506033151 2272.83993144409 145 150 146
-796.000219584741 265.18014814038 2264.04194355485 133 138 134
-793.234241812323 265.561146052337 2255.2212126411 130 135 131
-791.464930668772 265.795635468881 2246.39814954272 136 141 137
-795.673745704643 265.154744320698 2237.66623523768 122 127 123
-794.9006761703 265.242508289386 2228.85721824845 136 141 137
-791.139580749353 265.767021494993 2219.97506613224 75 80 76
-795.347357020799 265.124879544985 2211.27308253651 100 104 103
-805.530509418534 263.608002279361 2202.76109736789 99 103 102
-820.69193889596 261.362353105897 2194.45775792073 171 175 174
-830.871926773624 259.845298001734 2186.06926220959 166 170 169
-843.042150282941 258.036797685794 2177.80818053073 134 139 135
-850.23204586119 256.956624958381 2169.41813043084 140 145 139
-854.434020428216 256.313146672831 2160.94146268788 153 155 152
-853.657714945401 256.397507655315 2152.2645886986 142 147 143
-850.890443870001 256.772577890687 2143.48803986305 176 178 175
-849.118925679063 257.001472923983 2134.74522900434 145 147 146
-846.352380931205 257.375389485506 2125.93905404617 151 153 150
-840.600350752757 258.185412087065 2116.95043873595 150 152 149
-834.849369917257 258.994642026471 2107.92928515679 165 167 164
-531.619322478599 294.855277920331 2499.07555886581 153 158 154
-566.798324963482 289.783202878123 2487.60050898062 151 155 154
-629.920542608994 280.693784391777 2474.79742620821 185 189 190
-650.116558458997 277.77549788288 2464.55291844268 181 185 186
-668.313924464675 275.144291457927 2454.51449107475 169 173 174
-669.543597209834 274.951865218232 2445.3561697502 170 174 175
-676.760411342035 273.89846677805 2435.94279747836 182 186 187
-683.976259068793 272.844785451055 2426.56689193699 169 173 174
-699.173128703841 270.643568195762 2416.92613593023 169 173 174
-706.386482257027 269.589530564915 2407.64732876072 169 173 174
-710.6060690549 268.965401031522 2398.50308922397 172 176 177
-723.802871887108 267.050683925347 2389.11384578454 185 189 190
-755.949529710242 262.412245440764 2379.28512509027 183 187 188
-772.133565118272 260.067739307334 2370.01682023662 174 178 177
-781.333967838921 258.726468994194 2360.98516345992 173 178 174
-782.55550695905 258.531403497728 2352.15122333557 171 176 172
-787.765316377024 257.762841161733 2343.25873451909 169 174 170
-784.997694496392 258.140075448639 2334.49821995918 163 168 164
-788.212741686246 257.657258107277 2325.6584365155 161 166 162
-795.415179598606 256.601174959091 2316.80405408435 161 166 162
-800.622991855382 255.831220579387 2307.99745136502 161 166 162
-803.836360334552 255.347439710924 2299.22224318904 159 164 160
-802.065410080351 255.57918449576 2290.46029523889 150 155 151
-796.308038947795 256.383036601568 2281.67379751416 146 151 147
-795.534696868572 256.470479870359 2272.88441296835 146 151 147
-793.764775624139 256.700600274903 2264.08050361731 137 142 138
-795.981220319145 256.357634535187 2255.31156504724 131 136 132
-792.218889810801 256.872873508331 2246.46772646858 135 140 136
-795.431445218372 256.386008054959 2237.72098395762 125 130 126
-792.665918012011 256.757072898861 2228.87197799805 123 128 124
-787.908308008886 257.413682693717 2219.96141637208 128 133 129
-787.136086528873 257.497556588926 2211.12440240875 77 82 78
-794.332363162726 256.436841757772 2202.50585094107 95 100 96
-808.499550094414 254.375050913247 2194.1408806988 165 170 166
-824.656706030567 252.027377583695 2185.91971803051 125 130 126
-837.824044417353 250.108650989162 2177.67774210889 141 146 142
-846.01077606315 248.904608722264 2169.31237032924 149 151 146
-850.213345644973 248.272075550948 2160.82419936746 147 147 145
-845.454503977717 248.92526205927 2151.95809978105 137 139 136
-842.687575818551 249.291988381313 2143.15918953965 163 163 163
-841.912145608352 249.372485188841 2134.44395781096 142 142 142
-846.113874133367 248.738315340256 2125.98690092482 150 150 150
-843.347514417829 249.103539897821 2117.16416145819 161 161 159
-835.605206063969 250.182118634957 2108.03454313427 162 162 160
-517.380219566792 287.355073922427 2499.98432111785 144 149 145
-564.542239492206 280.688973534566 2487.78581315625 151 155 154
-622.678361598877 272.475351320979 2475.24684535845 185 189 190
-650.86152705157 268.48538524498 2464.57011953298 176 180 181
-666.065909656685 266.325381538694 2454.67998256433 168 172 173
-668.293984247364 265.994714475914 2445.46971275525 170 174 175
-678.505263028323 264.53802064466 2435.92307143169 182 186 187
-686.719310127857 263.36263076288 2426.51155703022 170 174 175
-699.921402433557 261.48362723028 2416.95392912774 170 174 175
-707.135222684272 260.448551408922 2407.6772415327 169 173 174
-709.359856160475 260.116459725822 2398.59993275042 171 175 176
-722.557717978444 258.237051983691 2389.20721295461 183 187 188
-750.716572040726 254.248486682009 2379.4821645293 181 185 186
-772.886968329811 251.103865390239 2370.05465721101 174 178 177
-780.093355684184 250.068247617344 2361.06789104822 173 177 176
-782.312294988904 249.735211103719 2352.21211572695 171 176 172
-785.528133814601 249.261215873275 2343.35086491538 170 175 171
-787.746209644112 248.92742206229 2334.51869928072 165 170 166
-789.964244441502 248.593245916123 2325.69705158961 163 168 164
-793.17896826544 248.118197102271 2316.87824765266 160 165 161
-794.399235600449 247.923743412198 2308.08534541884 161 166 162
-799.607154540445 247.167024840263 2299.28878474067 160 165 161
-797.83633976182 247.393091767018 2290.51544548898 152 157 153
-795.069111442428 247.759117752616 2281.7275145817 148 153 149
-795.292394192754 247.703364701869 2272.94098787273 143 148 144
-791.529229232939 248.208652600898 2264.11907785124 140 145 141
-789.759577044946 248.43263945099 2255.29806710414 132 137 133
-784.004313345636 249.217534659507 2246.40884913129 134 139 135
-788.214242585797 248.59831385045 2237.65665580395 130 135 131
-788.438041694617 248.540082587458 2228.84728710287 125 130 126
-782.684141348099 249.323204385008 2219.90288042789 124 129 125
-780.915832721493 249.544492797904 2211.02646127338 36 41 37
-787.11700637214 248.643104375544 2202.36289218933 90 95 91
-799.29376467824 246.899965607767 2193.91658821082 94 99 95
-816.448692590643 244.455695442548 2185.70348384921 109 114 110
-833.601236563366 242.01157979752 2177.58371802055 149 154 150
-843.780432786813 240.549022684262 2169.28467864406 164 165 160
-849.975123557657 239.647079465124 2160.87388726261 130 130 128
-847.20744376 240.006293446898 2152.09628748487 175 175 173
-843.444589788034 240.505106523369 2143.25527081515 138 138 138
-842.668790186657 240.582973941881 2134.54232814967 165 165 165
-846.871002206035 239.959805771689 2126.0875121721 156 156 156
-845.099726029134 240.176842630788 2117.32251017225 159 159 159
-837.3566885248 241.233678526039 2108.19804378569 164 164 162
-507.13268261838 279.224824881603 2500.6543363339 153 158 154
-554.298956229494 272.686753035488 2488.42704678728 155 159 158
-624.4198666114 262.975021487429 2475.20772257222 179 183 184
-647.613980986858 259.751473567766 2464.79318260291 172 176 177
-660.823056198987 257.9082460659 2454.99172728525 167 171 172
-670.038249768659 256.616811940659 2445.44482793897 171 175 176
-685.240377604999 254.497441223819 2435.68644371961 183 187 188
-695.450546134098 253.067871488209 2426.21231864975 170 174 175
-702.665658981349 252.052017750917 2416.90575109775 170 174 175
-705.888601609098 251.58759492461 2407.7771372034 170 174 175
-711.106475567536 250.84704515068 2398.59953594019 172 176 177
-727.298231184589 248.589371889809 2389.12273302461 183 187 188
-755.459099292526 244.677271696733 2379.41039585078 182 186 187
-775.63565507256 241.868479119803 2370.04402118426 176 180 181
-782.842369573676 240.851890318314 2361.0649008374 172 176 175
-784.063696736623 240.662046024395 2352.2355260709 171 176 172
-784.287633115718 240.609630073449 2343.42703640613 169 174 170
-788.500542782274 240.005553982918 2334.56529413458 165 170 166
-789.721552542183 239.814470636358 2325.7563189673 164 169 165
-793.933554978649 239.209735790556 2316.92932706983 156 161 157
-796.151049511353 238.880174897391 2308.13375029749 157 162 158
-801.358977429206 238.13708139475 2299.34214349536 158 163 159
-800.584955288472 238.219934200855 2290.57440922398 154 159 155
-799.811067541904 238.302271075015 2281.80086839505 151 156 152
-799.037077717447 238.38421812715 2273.02157377451 145 150 146
-793.279852510596 239.153940563423 2264.19272695714 144 149 145
-785.530343057576 240.198244951401 2255.30775137799 132 137 133
-781.768125811417 240.691336751289 2246.4357061918 131 136 132
-783.985197042283 240.358200516872 2237.64350980737 131 136 132
-787.198565172519 239.887083760692 2228.88191301736 127 132 128
-785.429879335598 240.103487881342 2220.02431696007 123 128 124
-779.676152155193 240.869548176689 2211.05482302649 22 27 23
-782.889208141071 240.397164093613 2202.30406516134 53 58 54
-790.086344007676 239.374332606505 2193.69260811831 108 113 109
-810.231431317836 236.563954669609 2185.55442802987 127 132 128
-824.397666472294 234.578761445881 2177.3089011648 148 153 149
-834.578257182497 233.143411833683 2168.98457373429 161 163 158
-841.769831804665 232.120350365202 2160.5902224528 142 142 140
-843.981573312446 231.784158500296 2152.01237399727 162 162 160
-845.197129914459 231.58501705553 2143.39855017788 153 153 153
-846.412766561504 231.385461041399 2134.79047757687 153 153 153
-846.632495361362 231.322881686531 2126.13552200419 160 160 160
-843.865639983297 231.671883012653 2117.31473548974 162 162 162
-838.112824532462 232.432208836638 2108.30345077243 168 168 166
-842.31456623219 231.818982128749 2099.86836610437 178 179 174
-496.883600362682 271.038449301184 2501.32448315644 147 152 148
-556.035574356575 263.004876196452 2488.38398922099 145 149 148
-625.163104705666 253.619678708049 2475.22251842906 182 186 187
-649.357127345309 250.323543012735 2464.75832231296 165 169 170
-657.576223569653 249.191880080931 2455.20574604217 162 166 167
-669.786597589361 247.519080152868 2445.51182316516 171 175 176
-686.985917099288 245.170065664917 2435.66601960119 183 187 188
-701.189007090006 243.226733901071 2426.03435046265 169 173 174
-704.412452100605 242.770700031143 2416.89510912147 169 173 174
-709.631120945215 242.043953083887 2407.70126136525 165 169 170
-711.85585835319 241.722397083855 2398.63120297432 168 172 173
-730.044116061349 239.238084533667 2389.09715796743 181 185 186
-759.204506731622 235.26730363107 2379.36517154778 181 185 186
-775.391913502442 233.053641757971 2370.10559264673 175 179 180
-780.603988931952 232.326249403479 2361.16874540488 172 176 175
-779.830740257312 232.409106357572 2352.37078585291 170 174 173
-783.047186732168 231.951214515969 2343.50307658591 168 172 171
-788.257735119232 231.222878275026 2334.62489798028 164 168 167
-793.467824757997 230.494270906835 2325.77368252002 162 166 165
-792.694022159587 230.575564788295 2316.99569392086 158 162 161
-786.93462895558 231.33136980672 2308.2366364913 158 162 161
-788.155411271338 231.141670566628 2299.42871198805 157 161 160
-790.373198834127 230.816563098732 2290.6264643299 155 159 158
-796.578305331238 229.951219413143 2281.84788804421 151 155 154
-795.804457716385 230.030277700196 2273.05993364623 143 147 146
-793.037339901563 230.37868868491 2264.24877020625 148 153 149
-783.293733884244 231.670872021235 2255.34050111937 134 139 135
-777.538238223232 232.422665324582 2246.43413152528 126 131 127
-777.762764846134 232.364630500458 2237.59653997449 131 136 132
-783.966058031434 231.497071848141 2228.87713114713 129 134 130
-786.183091002914 231.168564130972 2220.10072460562 122 127 123
-780.42885288299 231.918255214423 2211.13362395942 112 117 113
-783.64207614849 231.454049206494 2202.38510921436 31 36 32
-791.835829317363 230.315692185518 2193.80651495896 69 74 70
-809.990152053532 227.829607526448 2185.60618824891 127 132 128
-821.169203319664 226.286914406413 2177.25146809691 165 170 166
-836.330924453918 224.20533968523 2169.11290020089 118 120 115
-845.514871162266 222.932127506813 2160.80680176332 177 179 176
-852.705715529608 221.92813644393 2152.46146770297 152 154 151
-850.933317099087 222.135959059578 2143.73043371732 166 168 167
-853.144282176347 221.80471540746 2135.18824386603 164 166 165
-849.380711751718 222.28082509202 2126.34152670638 157 159 158
-848.604707542228 222.352561885684 2117.63932303023 168 170 169
-844.842239080802 222.827534794311 2108.75764153702 169 171 168
-849.043809386498 222.225487250022 2100.34125886635 176 178 173
-488.630016612572 262.530931535749 2501.87514155529 153 158 154
-541.796077910226 255.453730767277 2489.25343518066 146 150 149
-628.901843815046 243.870877837175 2475.07410298141 176 180 181
-649.103926777069 241.170345715316 2464.8262793505 164 168 169
-659.320112218269 239.795231898452 2455.17546308349 167 171 172
-668.536746312532 238.55259987541 2445.62466298462 172 176 177
-683.740983278466 236.514806852395 2435.86211373087 183 187 188
-692.954712426181 235.271987904005 2426.42464830038 168 172 173
-703.165156903221 233.896511895125 2416.99781990665 168 172 173
-712.376324216137 232.653384665751 2407.66014884639 163 167 168
-718.592538172835 231.807410944638 2398.46825253772 167 171 172
-732.790424338761 229.901929294726 2389.07128264811 182 186 187
-761.952806206879 226.010353585491 2379.3465177552 181 185 186
-778.141220398863 223.840357452241 2370.09445025364 174 178 179
-785.348797294821 222.861771191059 2361.12242872973 173 177 176
-780.584757552361 223.471267268958 2352.41257651015 171 175 174
-779.811510976882 223.550792606962 2343.61095768291 169 173 172
-780.035742025286 223.497577978069 2334.79009376185 164 168 167
-787.241304371701 222.517757485353 2325.89548259013 162 166 165
-789.459676417255 222.199216545024 2317.07744195235 160 164 163
-789.683278541467 222.144848934567 2308.27992058467 158 162 161
-789.906877145399 222.090002108914 2299.48202225732 157 161 160
-794.118658376404 221.505852669136 2290.68577885912 154 158 157
-797.332961072868 221.053603172008 2281.9079141931 151 155 154
-795.562130708309 221.26208866676 2273.11630650609 143 147 146
-791.798016864907 221.734348622808 2264.29601928086 145 150 146
-786.040802177374 222.470427581449 2255.43063755694 136 141 137
-780.28441596834 223.205835832668 2246.53215586935 128 133 129
-777.519038592068 223.544177279953 2237.65148295605 131 136 132
-782.726297442733 222.825119474104 2228.91183329746 127 132 128
-783.946895012456 222.634148999581 2220.10976435563 119 124 120
-777.195993348106 223.499407937404 2211.11165366601 115 120 116
-776.424267935606 223.571596098349 2202.24270442436 39 44 40
-790.596921279859 221.662808962415 2193.82837144071 93 98 94
-810.744987488343 218.961982980011 2185.69139413766 136 141 137
-823.917212337058 217.18546101695 2177.41112673729 145 150 146
-837.087610196361 215.408975307594 2169.20230333857 118 120 115
-847.268120189725 214.028474585981 2160.94002311616 154 156 153
-853.463496664256 213.175714480995 2152.55524109928 133 135 132
-853.682732692784 213.114316649239 2143.9208133657 155 157 156
-852.906215848263 213.18432933041 2135.23679402318 159 161 160
-850.138259158523 213.517748818521 2126.44232000657 160 162 161
-848.366291335188 213.718704651244 2117.68708337772 175 177 176
-847.590343038624 213.787305568737 2108.97932736844 168 170 167
-847.809967292608 213.723673704069 2100.32732770665 170 172 167
-857.984123685911 212.34153343437 2092.31160776425 182 184 179
-458.158425950268 256.886253774075 2513.42086509899 171 176 172
-480.375431777298 253.978272741654 2502.4257816586 153 158 154
-540.535982343424 246.13691888956 2489.38117346143 161 165 164
-630.644249645239 234.402298333563 2475.03386417898 185 189 190
-654.841492745903 231.23707708245 2464.58436713741 167 171 172
-661.06451657525 230.408316418048 2455.1447994695 167 171 172
-670.281694002767 229.190027516315 2445.59890179369 177 181 182
-682.492160515504 227.582353641908 2435.97129130927 180 184 185
-690.708535367264 226.49363861806 2426.5711898623 168 172 173
-698.923566835088 225.404744205081 2417.21407511075 168 172 173
-710.131635210099 223.926558830642 2407.79452927198 166 170 171
-717.346346074276 222.967079971331 2398.56420361321 170 174 175
-727.554050525694 221.618348557805 2389.2825059877 181 185 186
-757.716740848349 217.676285579072 2379.51617394406 181 185 186
-778.895335593375 214.901592014266 2370.13142001806 174 178 179
-787.100998225479 213.812400966183 2361.140153318 178 182 181
-782.33668417501 214.408042517981 2352.43547087081 170 174 173
-779.568030844603 214.743928195532 2343.67087198901 168 172 171
-778.794855921343 214.82007339092 2334.86282340806 163 167 166
-783.008764620781 214.247991568364 2325.99638845151 161 165 164
-784.230065080514 214.064306336146 2317.1746704652 158 162 161
-786.448664113641 213.750656536827 2308.35301009727 157 161 160
-787.669612851031 213.566194666893 2299.54420474481 155 159 158
-792.87914363654 212.863334205836 2290.7424762517 154 158 157
-796.093751803659 212.419195983946 2281.96138199689 152 156 155
-794.32284793371 212.622089266821 2273.16664266875 146 150 149
-791.555362711813 212.95385275102 2264.35196396612 142 147 143
-785.797702939012 213.67342492739 2255.48625400483 138 143 139
-781.037824033511 214.262934145821 2246.60164630081 129 134 130
-777.275278574416 214.722472648243 2237.70640186655 131 136 132
-777.499816319716 214.663924701102 2228.86782466199 126 131 127
-776.727602034057 214.734325539699 2220.00673839958 117 122 118
-772.966211197639 215.192236229623 2211.06461949156 116 121 117
-768.208763412444 215.778910654628 2202.07262661301 79 84 80
-783.379577032175 213.778971933497 2193.66634733591 147 152 148
-807.51479678391 210.615678433955 2185.64300750239 140 145 141
-828.658188726301 207.840600626225 2177.64301327043 119 124 120
-841.82923479931 206.099893754419 2169.44727199472 168 170 165
-849.021876194843 205.13458670111 2161.07323975756 129 131 128
-853.225446856276 204.556764463004 2152.60468752315 140 142 139
-853.444694207501 204.495393626348 2143.96984624458 154 156 155
-852.668115908215 204.562781830361 2135.28541080573 146 148 147
-853.883135556646 204.371465776221 2126.7009752942 165 167 166
-852.110751703191 204.567130653571 2117.95631754327 182 184 183
-849.343027359162 204.891425408209 2109.14296521535 168 170 167
-844.584640234499 205.473335186221 2100.19189385453 164 166 161
-843.809003965769 205.538371928169 2091.46811577932 189 191 186
-457.890780721753 247.211795394621 2513.49367949532 174 179 175
-469.123356925109 245.761923261632 2503.15600819127 155 160 156
-632.386694058193 224.943524807951 2474.99332154436 167 171 172
-651.593069834714 222.479064257541 2464.80649766083 168 172 173
-662.808957868914 221.031147334827 2455.11383238442 166 170 171
-670.030033959873 220.091307507725 2445.66514328111 174 178 179
-692.224656358664 217.246006717682 2435.60285818532 178 182 183
-694.451368304134 216.941150506705 2426.47355897625 171 175 176
-702.6667302377 215.873985038735 2417.1268593464 171 175 176
-705.890527541925 215.441504883612 2407.99913931476 164 168 169
-713.106051374922 214.500925656043 2398.75733298717 168 172 173
-722.316654664069 213.306293929998 2389.49377666622 179 183 184
-747.492555989813 210.080651199933 2379.84753664089 180 184 185
-774.660509451798 206.601645027283 2370.28927983831 173 177 178
-785.860386304916 205.153429288875 2361.22206613908 168 172 171
-787.081762138713 204.973955332907 2352.40192401737 171 175 174
-783.314982308625 205.428379164269 2343.66668173032 174 178 177
-781.543974410963 205.628596149787 2334.88245935184 168 172 171
-783.762911359949 205.321011475475 2326.04477953739 161 165 164
-785.981808922893 205.013104046799 2317.21761730539 159 163 162
-789.197703923151 204.578046224035 2308.39597898689 156 160 159
-790.418527268757 204.396288584652 2299.59497797423 154 158 157
-789.644932457517 204.467624004132 2290.79817570315 151 155 154
-792.859984577286 204.031560189632 2282.00839991762 146 150 149
-794.08037985453 203.848656114196 2273.22289834473 144 148 147
-796.297796787494 203.538622071287 2264.45132086693 144 149 145
-791.536202742019 204.115116767518 2255.61044799485 143 148 144
-784.781720311876 204.944357272773 2246.71361221805 135 140 136
-779.024924493896 205.64623389646 2237.79513578784 128 133 129
-774.265845049825 206.220855617972 2228.86329731405 127 132 128
-768.510635463126 206.921529694111 2219.88153426745 124 129 125
-764.749511570466 207.368385830002 2210.91711274391 104 109 105
-758.995811874587 208.067757644498 2201.87493966523 93 98 94
-777.157512962095 205.729099207129 2193.53521155909 45 50 46
-809.266101283307 201.619000378334 2185.76166931115 105 110 106
-836.388584815016 198.142436528173 2177.98315727814 167 172 168
-843.58261833684 197.196505118424 2169.5755199967 161 163 158
-850.775662392361 196.250477018468 2161.20645066764 187 189 186
-849.999055672067 196.316012198436 2152.52113638575 181 183 180
-854.202575873352 195.748886785019 2144.06604173522 138 140 139
-851.433858381958 196.066453724513 2135.28428123698 149 151 150
-858.624634282215 195.119495850999 2127.01218574197 185 187 186
-853.864292258187 195.689025118551 2118.1149005936 181 183 182
-846.117603316261 196.63705828937 2109.01632105163 164 166 163
-831.402058704103 198.468856548235 2099.44857409496 164 166 161
-825.649113023348 199.162655917542 2090.37094823073 167 169 164
-454.626422353054 237.909270874932 2513.75396818057 164 169 165
-469.855266504689 235.991653805973 2503.16804533769 146 151 147
-557.990703699212 224.995908094602 2488.4934693149 150 154 153
-636.126869716958 215.245837830984 2474.84364293287 179 183 184
-649.342702653431 213.579064671503 2464.97686020888 163 167 168
-653.570051080683 213.031160485923 2455.62043900429 161 165 166
-660.79204878513 212.110104472968 2446.14657387793 174 178 179
-679.993981337037 209.69748291294 2436.18906731986 178 182 183
-691.206489761058 208.27921486321 2426.66032359323 170 174 175
-700.421096630942 207.109415489779 2417.26695653558 169 173 174
-704.643385187147 206.560700835373 2408.09809761267 169 173 174
-706.868785507238 206.260098189878 2399.01530362989 174 178 179
-722.068849772667 204.344561374062 2389.55643205459 184 188 189
-750.240619260932 200.814641143136 2379.82838658202 185 189 190
-772.420732261208 198.03031129322 2370.39864494326 177 181 182
-781.626043897315 196.860285718328 2361.36832494442 174 178 179
-786.838822941605 196.186753195385 2352.4618085385 172 176 177
-786.064880107748 196.257701115997 2343.67819213047 174 178 179
-785.291078677565 196.328221267106 2334.88858987106 169 173 174
-782.522196040947 196.646522392025 2326.11407213209 165 169 170
-784.741320952201 196.343926141664 2317.28372707474 159 163 164
-786.959928651645 196.041020580216 2308.46393954402 156 160 161
-789.178495451581 195.73779266733 2299.65472917981 155 159 160
-787.40745071233 195.930310148582 2290.85435477533 155 159 160
-789.625733839251 195.626347500361 2282.05544243305 149 153 154
-791.843495715211 195.322046606866 2273.26721441407 140 144 143
-796.055458699709 194.769445673272 2264.50706660416 143 148 144
-790.296560063723 195.456127126532 2255.65446018248 145 150 146
-784.538490918457 196.142167612413 2246.76874616856 139 144 140
-778.781251727593 196.827627026517 2237.84997075137 128 133 129
-774.021803315166 197.388512587059 2228.91780400734 126 131 127
-766.272599234308 198.320473179983 2219.89094252326 125 130 126
-762.511322343777 198.756326543205 2210.92068675665 103 108 104
-756.757319045817 199.439243937153 2201.87271200951 87 92 88
-773.924084505912 197.2736417255 2193.49616746286 47 52 48
-803.045945791436 193.62260666891 2185.61336133585 120 125 121
-833.160060549809 189.84850509189 2177.9258746367 180 185 181
-842.34755839832 188.674219196813 2169.58720476376 169 174 168
-849.541211408211 187.747325100199 2161.21488000752 175 180 176
-849.760709646292 187.68645765129 2152.57077370052 150 155 151
-852.968515644314 187.254063513035 2144.06814167057 155 159 158
-854.183730179456 187.068787508002 2135.48257465079 163 167 166
-859.382819814233 186.388423036073 2127.11307695896 182 186 185
-858.605798855009 186.449777136213 2118.43946324796 174 178 177
-844.882954413369 188.117907102315 2109.00598217072 166 171 167
-827.179315948482 190.279518746898 2099.25293695761 167 172 166
-817.443526412843 191.451293557814 2089.90988728776 167 172 166
-456.356522825061 227.980860424039 2513.70093434791 182 187 183
-474.583067799865 225.739061785377 2502.94020787481 163 168 164
-565.721079939551 214.619113891174 2488.10572832491 151 155 154
-632.876604343796 206.420010708587 2475.07429427129 155 159 160
-644.096167823308 205.031734517452 2465.30201748384 157 161 162
-653.317126963893 203.886562341873 2455.68682447008 161 165 166
-659.54094390914 203.105969016404 2446.2586526759 177 181 182
-674.75053060018 201.231260822966 2436.47145035039 179 183 184
-687.961130922431 199.599701468538 2426.84698618876 165 169 170
-701.169930050472 197.968201509921 2417.29298271117 160 164 165
-705.392455118669 197.430227318153 2408.12641236187 165 169 170
-705.621689980393 197.377871227054 2399.11090391387 169 173 174
-723.817368890906 195.138768260558 2389.55942456437 177 181 182
-753.987095663292 191.44244056624 2379.78193531223 175 179 180
-775.170682762107 188.839632870844 2370.38662071412 167 171 172
-783.378624715526 187.815552726184 2361.38550610272 165 169 170
-790.587440606457 186.912770773221 2352.44645319108 169 173 174
-792.806271222753 186.616768074673 2343.62536506007 174 178 179
-790.036399171911 186.927290057219 2334.88116441253 168 172 173
-785.27180930219 187.479941372132 2326.14110233177 161 165 166
-785.49564871852 187.425450568711 2317.33417449098 161 165 166
-787.714345350587 187.127923045298 2308.51668568831 157 161 162
-790.930359367544 186.708768594471 2299.70747160088 154 158 159
-788.161743098535 187.017065652105 2290.911801696 156 160 161
-786.390997754292 187.203498385683 2282.10251735228 152 156 157
-790.603665978947 186.662056432674 2273.3174631796 144 148 147
-794.815771780017 186.120344079483 2264.5541001341 138 142 141
-793.045015280023 186.305669430629 2255.74406277379 139 144 140
-784.295231195493 187.338845664705 2246.82384973983 138 143 139
-779.534417839932 187.886653480206 2237.92166303828 125 130 126
-774.774531284459 188.433851305574 2228.99192360645 126 131 127
-765.031198155255 189.586147616149 2219.92278919214 131 136 132
-757.282573734366 190.495476753159 2210.84897267402 98 103 99
-748.5386993128 191.525185931447 2201.70339166997 84 89 85
-761.720990893107 189.890329731343 2193.18179131141 139 144 140
-791.842347044335 186.197486691695 2185.29853505304 180 185 181
-820.963125009601 182.626385324107 2177.54389547353 172 177 173
-839.119448049729 180.387319831005 2169.52129532281 163 168 162
-848.306578031324 179.237619644653 2161.22340120382 173 178 174
-851.514917807767 178.813816171054 2152.7091312581 182 187 183
-855.718926576175 178.268737725853 2144.25861404839 183 187 186
-857.930292722357 177.965386184238 2135.73069743433 181 185 184
-861.137089203108 177.540796334167 2127.26657569182 178 182 181
-857.371940333721 177.962255632697 2118.43219503413 171 175 174
-845.640247317124 179.35033713703 2109.11189735159 153 158 154
-828.930710857499 181.341968529954 2099.42222737629 153 158 152
-821.185649660396 182.244794138057 2090.21148952869 164 169 163
-457.087694092849 218.181108108149 2513.71017085217 164 169 165
-589.435090247167 202.382823096228 2486.80282699864 168 172 171
-633.620897710154 197.101208672444 2475.08708107491 173 177 178
-643.842536092382 195.86160659783 2465.36864705458 164 168 169
-648.070602645839 195.334971171996 2455.99767095815 167 171 172
-656.292800680537 194.332783805871 2446.46288608404 174 178 179
-669.506536009162 192.736461272114 2436.75372959722 174 178 179
-686.712352128343 190.66504585699 2426.95208054265 167 171 172
-695.928367793663 189.543970139668 2417.54664380017 164 168 169
-701.150055912163 188.897832080773 2408.33066876527 170 174 175
-699.382931971389 189.082703638479 2399.36884637009 173 177 178
-715.583894955663 187.130056703607 2389.85970142398 180 184 185
-754.739726740578 182.447142174315 2379.81620878718 179 183 184
-770.934640243921 180.49517548816 2370.54422891115 170 174 175
-778.145310538746 179.611436040631 2361.55314584708 163 167 168
-787.350953045331 178.490207894194 2352.56228920413 163 167 168
-793.561757300469 177.724869525036 2343.66840280329 168 172 173
-792.787020736526 177.789789913345 2334.90001142849 169 173 174
-784.031037230636 178.803156664431 2326.21014814832 168 172 173
-782.25956567282 178.985674567137 2317.41571851459 159 163 164
-784.478866764302 178.693414708101 2308.58958614459 155 159 160
-788.69275854866 178.163770856622 2299.76937891286 153 157 158
-788.916393255505 178.108044143133 2290.96912480282 153 157 158
-790.137320919661 177.933400998041 2282.17168565585 149 153 154
-794.350020535045 177.402904164409 2273.39715665097 144 148 147
-793.576141276146 177.464592225977 2264.60111298991 143 147 146
-789.810900893722 177.881304373469 2255.76521185352 141 146 142
-782.057669588283 178.771273460364 2246.85066101198 142 147 143
-778.293809492377 179.18680787914 2237.9595489425 125 130 126
-774.530500703248 179.601865419592 2229.04637785912 123 128 124
-765.783228279723 180.608384729717 2219.99937826032 128 133 129
-754.046988303268 181.969317763402 2210.82764158365 105 110 106
-743.308839323659 183.211035011356 2201.61788350889 90 95 91
-751.509244767679 182.203425890833 2192.92900710989 97 102 98
-777.647226207475 179.065884119217 2184.88410127579 141 146 142
-803.781332507231 175.928927012568 2176.98195231864 136 141 137
-824.929857290178 173.38403618852 2169.02850595131 125 130 124
-837.107613037329 171.903968587302 2160.81635929065 174 179 175
-845.298680903706 170.8969247861 2152.49303476945 184 189 185
-848.507244309664 170.481074319031 2143.9785639335 184 188 187
-853.707591328925 169.828467145887 2135.58040216167 194 198 197
-851.934700374147 170.003017149335 2126.84221694999 154 158 157
-848.169652671805 170.41352918264 2117.98280321519 160 164 163
-842.413576452237 171.059753491988 2108.98577200551 165 170 166
-834.666174745699 171.941628497392 2099.83468944277 155 160 154
-831.899154390936 172.232275210111 2090.95769409963 157 162 156
-850.043742484943 170.042545426239 2083.4560339685 134 137 128
-449.826168775833 209.31505786298 2514.22027108419 169 174 168
-636.363226089814 187.554515837504 2474.99069489129 164 168 169
-647.584178489858 186.225948944471 2465.22824552361 160 164 165
-651.81227105114 185.710050004426 2455.86778096279 165 169 170
-663.030911795396 184.381255137979 2446.20475911926 172 176 177
-673.249239516373 183.168582722967 2436.64463220385 172 176 177
-686.461883404636 181.60772192454 2427.0162090676 165 169 170
-692.683096104999 180.859181876388 2417.72423652557 161 165 166
-697.90537335271 180.226421270132 2408.49959995864 166 170 171
-697.136825072776 180.289510968705 2399.49670814192 170 174 175
-716.333765308911 178.032500606517 2389.89207710981 179 183 184
-749.503420231922 174.152049871119 2380.01244140397 179 183 184
-765.699659548529 172.24363728553 2370.72608440321 170 174 175
-775.905446286568 171.031032598883 2361.65617526687 169 173 174
-785.111913583955 169.934222689369 2352.6593013644 162 166 167
-793.319272900506 168.953301307993 2343.72729877623 162 166 167
-794.540282193345 168.783557993059 2334.93193035782 157 161 162
-788.776641208862 169.424537088428 2326.21559967177 156 160 161
-784.01172566848 169.949066153003 2317.45807042215 158 162 163
-781.242669263091 170.241425291799 2308.66248966196 157 161 160
-787.452100166575 169.490950283602 2299.82891294531 158 162 163
-788.673489771365 169.319272002523 2291.02592778904 153 157 156
-792.8868506068 168.799912724075 2282.23751466293 147 151 150
-792.112906885678 168.859157166303 2273.4413666386 142 146 145
-792.336330678019 168.802256213748 2264.64809499055 144 149 145
-786.576303251246 169.439392362858 2255.78640769142 142 147 143
-780.817106138231 170.075917334996 2246.8916126195 149 154 150
-777.053022384584 170.48046779277 2237.99744813797 127 132 128
-772.292298379142 171.000192915215 2229.06161629128 118 123 119
-766.535379792854 171.635000926286 2220.07592496106 119 124 120
-752.804305603647 173.194313518571 2210.85657600119 136 141 137
-744.05913018027 174.174676423087 2201.69953363834 102 107 103
-745.282887062344 173.998196581506 2192.79887153919 108 113 109
-772.419869998435 170.816247309069 2184.77000699737 113 118 114
-792.576857827993 168.443841127044 2176.6369737242 77 82 78
-812.731045539267 166.07185031142 2168.61382476217 82 87 83
-826.903584662138 164.393416685867 2160.45129180412 94 99 95
-836.092292506408 163.292692105081 2152.1443155791 94 99 95
-842.290724809743 162.538419968446 2143.74584998171 116 120 119
-843.506897781766 162.361381495705 2135.13166875614 114 118 117
-843.726798882392 162.299506507584 2126.4707353673 109 113 112
-841.954586216201 162.468084093058 2117.69962756548 96 100 99
-841.178372160221 162.520823840981 2108.97590306424 145 150 146
-834.426593863231 163.265497817271 2099.88257937043 156 161 155
-829.667683653853 163.778795034434 2090.87828108884 156 161 155
-822.917672494438 164.522218300773 2081.71454862092 156 159 152
-446.56027663817 199.955803541376 2514.47959268168 177 182 176
-608.900844270754 181.47659910276 2485.79474407383 184 189 185
-643.101867297616 177.56962550004 2474.67602886662 163 167 166
-651.32640520568 176.61108237712 2465.08733067436 164 168 169
-651.559199399973 176.55933918568 2455.93336926382 165 169 170
-658.783393299329 175.713802637557 2446.45475621739 175 179 180
-670.001628687258 174.414855127391 2436.83962489581 176 180 181
-681.218104621151 173.115899016846 2427.28392511037 164 168 169
-689.437583572932 172.156839006249 2417.90171824892 161 165 166
-695.658636178686 171.424246627883 2408.63312613839 165 169 170
-700.880747364227 170.804734422932 2399.42920496928 170 174 175
-713.090630792687 169.392364585425 2390.04341065961 179 183 184
-743.267880102106 165.941762803347 2380.23575616018 180 184 185
-762.4604228412 163.737239467101 2370.8593510723 168 172 173
-774.663564585569 162.325314029145 2361.73752229342 166 170 169
-779.878533584654 161.70575265838 2352.81268972243 158 162 161
-787.088678349568 160.859665027633 2343.88257380884 159 163 162
-789.308051099273 160.579242988641 2335.05702653842 162 166 165
-790.529590095534 160.411606230648 2326.25254212214 158 162 161
-785.763924512123 160.922383684357 2317.50023694346 154 158 157
-783.99240074484 161.093298665405 2308.70471430123 154 159 155
-785.213915349296 160.924621203123 2299.89074098478 156 160 159
-788.43055911722 160.529426752455 2291.08264045086 158 163 159
-793.641676403483 159.907893000073 2282.29690358032 152 157 153
-791.87021699185 160.077350390633 2273.49730064791 145 150 146
-790.098795847868 160.246410604716 2264.68645083739 141 146 142
-782.34398554567 161.092953014745 2255.79630922636 142 147 143
-776.584622052044 161.712957024551 2246.89027794814 140 145 141
-770.826088351923 162.332349995891 2237.95115937916 139 143 142
-767.062677430339 162.725227678696 2229.01816496299 126 130 129
-763.299817200688 163.117628646867 2220.06313573895 110 114 113
-756.54636326556 163.848257260607 2211.01089617155 127 131 130
-749.794113042575 164.578232171868 2201.92023425654 132 136 135
-751.017537749064 164.40463165067 2193.03564632246 89 93 92
-767.191724609138 162.538071476585 2184.65611361309 113 117 116
-787.350823553758 160.220407674233 2176.50867358941 74 78 77
-802.523706916441 158.467259565761 2168.27716155226 90 92 89
-815.701542190542 156.939823478313 2160.04506852157 98 100 97
-825.888108857513 155.750821588705 2151.75168921019 106 108 105
-832.087703978329 155.012895163125 2143.32532744304 149 151 148
-835.297422056241 154.613002451863 2134.78286223632 94 96 93
-837.510276070513 154.325643133139 2126.20464101208 94 96 93
-836.734465112384 154.376051724842 2117.47198382267 112 114 111
-836.954825471574 154.313334240431 2108.79219641052 122 124 121
-833.190996249674 154.700921572254 2099.86987024836 144 146 143
-830.423617778198 154.975398463493 2090.98950943799 139 141 138
-832.636330659358 154.686303021187 2082.42426485712 156 158 153
-604.647871721669 172.653438746068 2486.09071735388 183 188 184
-639.850971724281 168.728514384968 2474.90557504846 154 158 157
-648.076323517355 167.791511488041 2465.30819564629 165 169 170
-653.304038060229 167.186322529379 2455.90065506022 170 174 175
-656.53327685695 166.802149485907 2446.6121311075 174 178 179
-667.752247754893 165.533018821937 2436.99094375142 174 178 179
-676.972422755362 164.485076199843 2427.51079525596 165 169 170
-686.191355342052 163.437014200785 2418.07907641721 164 168 169
-696.407543198123 162.27841846109 2408.66064620431 170 174 175
-707.620776131471 161.009254911304 2399.26368307176 175 179 180
-720.829441846572 159.519135331932 2389.86669719654 181 185 186
-745.018197907118 156.813608756083 2380.24248782141 181 185 186
-762.215603180714 154.881876170131 2370.91954441306 167 171 172
-775.417808981331 153.392246013321 2361.77555987854 165 169 168
-778.63669199987 153.007108791653 2352.8907403513 162 166 165
-783.851420086603 152.400845758965 2343.98960220082 161 165 164
-788.067277521626 151.904859443874 2335.12870940207 162 166 165
-791.284709077269 151.519058309572 2326.2999052147 162 167 163
-789.512241399605 151.684856016799 2317.52645453725 157 162 158
-787.74029293688 151.850242273231 2308.7415941454 152 157 153
-789.959270911557 151.573886591835 2299.93584219224 148 153 149
-793.175800163761 151.18691522873 2291.14104664745 152 157 153
-794.396863518573 151.020245366715 2282.35619012514 152 157 153
-789.632356945493 151.515079296569 2273.54146787972 150 155 149
-788.858550609405 151.56822523902 2264.73340227294 147 152 148
-784.095152448248 152.06207385901 2255.87430149999 142 147 143
-780.329926425373 152.445081487442 2247.00164982592 141 146 142
-771.578908220109 153.378714581668 2238.02278874843 144 148 147
-767.815133834509 153.76064552388 2229.09224599818 134 138 137
-766.045978939023 153.921750064591 2220.18428115636 121 125 124
-762.28316478772 154.302735146041 2211.2151935309 112 116 115
-754.533079702269 155.123741863491 2202.11295582036 108 112 111
-749.774576942896 155.613796397672 2193.05845198996 112 116 117
-762.959787314935 154.121368583596 2184.57570377075 110 114 115
-785.114061021259 151.638308190224 2176.48865597967 119 123 122
-808.261871726956 149.045673955982 2168.56125035363 160 162 161
-822.436831022607 147.444020585061 2160.38656938343 119 121 118
-830.630723860846 146.502665783448 2152.02336696418 80 82 79
-836.830198028264 145.781369961495 2143.61026434793 98 100 97
-840.039805961138 145.389879231343 2135.08112539108 133 135 132
-843.248980190943 144.998203870045 2126.56873880986 148 150 147
-843.468883788048 144.936088141093 2117.90744936101 158 160 157
-841.696514472477 145.093573897458 2109.13055440781 134 136 133
-834.943631039317 145.800129900943 2100.03949512048 134 136 133
-830.183682345612 146.28633804102 2091.03737345098 149 151 148
-825.424408618095 146.772006371596 2082.00829215882 166 168 163
-521.215670810687 172.386979829116 2500.41349740572 173 178 172
-609.387407249497 162.835921817195 2485.87141555454 174 179 175
-634.601239194043 160.085798139537 2475.24396649461 171 175 174
-641.828791886308 159.278196574726 2465.68413663748 168 172 173
-648.055986955356 158.578419832085 2456.21071068505 169 173 174
-652.284892546611 158.09423143923 2446.86184322794 173 177 178
-661.507171998276 157.070609583523 2437.31623446711 171 175 176
-673.724825447424 155.723422490048 2427.69674904251 162 166 167
-684.941938714683 154.4841356953 2418.18020837702 162 166 167
-694.160380341674 153.460422090047 2408.79382137408 168 172 173
-704.376084917991 152.328963585327 2399.42341728104 174 178 179
-718.584380107764 150.76636046153 2389.98778323441 182 186 187
-740.778366746224 148.341869300187 2380.41150361277 181 185 186
-760.972466306639 146.133278047745 2371.0039071904 169 173 174
-771.180814201862 145.002187596082 2361.92142286649 165 169 168
-779.391462678257 144.086501529473 2352.93091317408 163 167 166
-781.611770243806 143.816904130483 2344.08045272684 161 165 164
-785.82807355989 143.331662557074 2335.21367022773 159 163 162
-792.03995403072 142.630918260883 2326.3470777301 160 165 161
-794.259254972009 142.360595404325 2317.54450549387 160 165 161
-792.486572363965 142.520448427212 2308.77307209599 155 160 156
-788.718695887171 142.895128814995 2299.99506819314 151 156 152
-789.939953416341 142.731411345982 2291.19646792821 147 152 148
-792.158906616023 142.459800630003 2282.40610383437 146 151 147
-791.384756205161 142.510577393931 2273.60894202026 150 155 149
-790.610504255675 142.560994201792 2264.80603740599 146 151 147
-788.839237632464 142.718546504366 2255.98611686759 144 149 145
-781.08361478138 143.520624191164 2247.0706648984 142 147 143
-771.334602990735 144.537018709818 2238.07755136773 143 147 146
-765.575936702688 145.122896331322 2229.10762859278 138 142 141
-762.809905126387 145.3858479623 2220.17157630452 131 135 134
-760.044046505519 145.648396568604 2211.21900679362 111 115 114
-755.284416919868 146.125276819456 2202.19439770694 105 109 108
-750.525712179992 146.601607619517 2193.14237727379 136 140 141
-755.736482567607 146.003783717297 2184.39565621514 118 122 123
-777.892919484978 143.580916702924 2176.288693657 162 166 165
-807.023596963208 140.407266785395 2168.57389957353 174 176 175
-826.183045344872 138.307494559074 2160.60341029343 170 172 169
-838.363724512185 136.959077557048 2152.42768730785 148 150 147
-840.577173281768 136.683470543526 2143.84816449412 140 142 139
-842.790091294404 136.407677863117 2135.27986135754 129 131 128
-843.010024452743 136.346004406993 2126.61789143175 161 163 160
-843.229941501315 136.284065154025 2117.95626573925 146 148 145
-839.464783401039 136.650489441942 2109.06315350088 132 134 131
-834.704029241465 137.123614665272 2100.0877895877 136 138 135
-826.955281614667 137.917710019166 2090.89505922203 140 142 139
-821.199856648184 138.496902860854 2081.79127677005 169 171 166
-540.939735592202 160.777001622861 2499.28200319057 117 122 116
-620.123163472103 152.413670745651 2485.30801591268 190 195 191
-631.349480899671 151.204250664226 2475.47313814211 167 171 170
-637.578228503287 150.520715878861 2465.95647312328 164 168 169
-646.803627228932 149.521558477622 2456.32454516487 166 170 171
-656.027786766643 148.522370869179 2446.74101652949 174 178 179
-661.254794968391 147.943661437466 2437.38018908995 172 176 177
-669.477965064794 147.049459636127 2427.92335925972 166 170 171
-679.697470584967 145.945018107974 2418.43340986228 168 172 173
-691.912893945342 144.630508044683 2408.92684532243 177 181 182
-705.125475619798 143.21103867979 2399.452668949 182 186 187
-723.32928162913 141.266446208624 2389.8997771114 182 186 187
-742.529028868689 139.217161574443 2380.41780333803 179 183 184
-758.730784549386 137.483163064222 2371.11244490838 168 172 173
-770.936634853701 136.169311020832 2361.98073509338 166 170 169
-783.14105742386 134.855535850379 2352.91423340358 164 168 167
-784.363078268766 134.696221627022 2344.09052798148 161 165 164
-787.581387566449 134.32676707516 2335.24497029579 157 161 160
-788.802999963303 134.166961401806 2326.43670075736 157 161 160
-794.01676123024 133.587199093335 2317.60180371043 163 168 164
-793.242053443478 133.63656375131 2308.82490986673 161 166 162
-793.465300873144 133.580760084879 2300.0397092643 155 160 156
-789.697097184816 133.943977053989 2291.25286059738 149 154 150
-788.922947981667 133.99221769156 2282.45292848448 142 147 143
-785.155886737768 134.354542188441 2273.62979565192 142 147 143
-786.377290685547 134.192451267243 2264.82721930233 141 146 142
-787.598551415966 134.030053365049 2256.02991077073 144 149 145
-782.83506095902 134.495879520776 2247.15365366129 142 147 143
-776.07737300241 135.170629124244 2238.21622053145 141 145 144
-771.315167940025 135.635440992335 2229.27931189752 141 145 144
-765.556465948408 136.204387742501 2220.2926054761 140 144 143
-759.798829698964 136.772732526484 2211.27292460196 110 114 113
-753.044737326602 137.445219468783 2202.19253411268 107 111 110
