ply
format ascii 1.0
comment KinectMotionCapture
element vertex 760
property float x
property float y
property float z
property uchar red
property uchar green
property uchar blue
end_header
-607.835141409839 98.6074266959131 2317.93957626496 155 159 160
-617.327474616351 97.5463591862561 2321.79669951085 160 164 165
-626.170022395128 96.8966700516549 2321.70259985606 159 163 164
-634.08916916675 96.8609510756794 2315.67575546143 163 167 168
-641.434324072007 97.2317819898934 2305.6882422934 166 170 171
-649.123933208134 97.3950952443012 2297.67390422924 173 177 178
-656.561907626137 97.7592366343287 2287.67482535139 173 177 178
-664.760158942413 97.611485677146 2282.62113249005 171 175 176
-672.28268139903 97.9694644833622 2272.61151874577 170 174 175
-680.264684040483 98.0198991734978 2265.56867606063 171 175 176
-687.608847210805 98.5735926372175 2253.56543089686 178 182 183
-695.406980556095 98.8201203613174 2244.52940314371 181 185 186
-703.506045112354 98.8618458734691 2237.47221502772 180 184 185
-711.511686373806 99.0017388432075 2229.41825943043 179 183 184
-718.938971191415 99.6410439579924 2216.39672862306 181 185 186
-726.551851287988 100.175466108436 2204.3597596571 185 189 190
-734.342225171053 100.605586136074 2193.30884255878 173 177 178
-742.417070743893 100.831860430554 2184.23857636097 159 163 164
-750.422739527837 101.154760044923 2174.16876119117 158 162 163
-758.586827071868 101.374453280763 2165.08737545393 152 156 157
-766.794103579141 101.591004433629 2156.00036799522 151 155 156
-774.627309229332 102.201314646556 2142.92825702476 178 182 181
-782.220464521852 103.104291699414 2126.86179036002 185 189 188
-786.106556677105 116.741312557348 1975.17703960218 144 148 147
-794.922080736742 116.91666624029 1966.01423493693 91 95 94
-804.597571460328 116.203283309318 1965.81635666229 96 100 99
-814.267284521289 115.489793174966 1965.61943995685 116 118 115
-823.931135069083 114.776255957116 1965.42301471364 122 124 121
-833.341133468394 114.35620761418 1962.23419426198 130 132 129
-842.041980875491 114.8142752879 1950.0618947532 133 135 132
-850.183965835103 116.048183588699 1929.89507723347 139 141 138
-322.151837951961 116.713915184538 2251.75987582159 140 152 166
-333.495062135751 115.111548038511 2260.42612006889 147 154 164
-345.022702126564 113.407242236389 2270.07730586375 127 130 135
-353.67950425128 112.962457753379 2267.99047236299 119 123 124
-362.342961822856 112.517007887549 2265.90256978532 115 117 114
-370.09711859551 112.488186528816 2259.89629700252 113 115 112
-379.916088811746 111.519640523312 2262.70448686163 103 105 104
-387.255167701323 111.696266515219 2254.73385784131 104 106 105
-393.528790129068 112.389415440395 2241.85591521531 102 106 105
-398.122950498838 113.907549606648 2221.12340963298 117 122 116
-401.748945762839 115.936190358864 2195.47170517149 119 127 116
-478.31581472339 105.225106563067 2252.45697369732 116 122 118
-491.878532565782 102.217167681556 2274.95852023033 149 153 154
-504.165406940044 99.8288969874191 2291.57104948471 154 158 161
-514.848234696033 98.2608967213012 2300.31961679802 152 156 159
-524.7348617851 97.1025562196292 2305.13547776156 150 154 157
-533.49162298551 96.5547933233728 2304.04412824728 146 150 153
-542.068850917547 96.1079115100725 2301.96723065857 146 150 151
-551.8955148703 94.9521368382971 2306.79056791 145 149 150
-561.865285197686 93.6969954361687 2312.60399510886 144 148 149
-571.970030620049 92.3430053128701 2319.4085256266 149 153 154
-581.354160487803 91.3938323913436 2322.27117024087 152 156 157
-589.549683695073 91.1489579787289 2318.22576070077 150 154 155
-598.58242452236 90.4011128369544 2319.11587166648 149 153 154
-607.766268341448 89.5533641772096 2320.99531633142 151 155 156
-617.251735358722 88.5062014375658 2324.85325981942 159 163 164
-625.462893341684 88.2587782230073 2320.80590586392 160 164 165
-633.077793829977 88.4083369674667 2312.80092721936 165 169 170
-640.58045257911 88.654577017661 2303.80177370656 164 168 169
-648.866005385161 88.4011602598553 2299.74515150074 170 174 175
-656.877931160208 88.3445703197113 2293.70678379793 172 176 177
-665.059668478574 88.1868227934101 2288.65517811151 174 178 179
-672.425118151645 88.6199150274502 2277.65728121528 177 181 182
-680.255939387027 88.7534464338781 2269.62515887667 179 183 184
-687.990672545884 88.9824260451222 2260.59732957304 182 186 187
-695.768926740018 89.2083046445784 2251.56407726791 186 190 191
-703.977252933951 89.1366920345749 2245.50099924685 182 186 187
-711.834334828623 89.3566828852981 2236.45792521589 181 185 186
-719.364453731002 89.8667551914553 2224.43134848214 184 188 189
-726.47128192866 90.7627929832782 2208.42583110673 184 188 189
-733.77739206089 91.5559126963764 2193.40316238457 186 190 191
-741.620650732447 91.9548032567795 2182.345727819 168 172 173
-749.630666204446 92.252763200663 2172.2756761547 161 165 166
-757.689330857123 92.5472630754803 2162.19932220349 153 157 158
-765.796620661856 92.8381576103999 2152.11690961531 145 149 150
-774.370489567961 92.7394082541348 2146.00852575723 154 158 157
-782.258760407626 93.3130024556773 2132.92939939823 184 188 187
-785.027877848538 107.599568790732 1970.29681077129 195 199 198
-794.13703064441 107.464747946153 1964.12172164131 115 119 118
-803.909521614816 106.658190369268 1964.91967077963 106 110 109
-813.40608956732 106.138318410805 1962.7282372084 114 116 113
-822.993157738696 105.522371313846 1961.53344985353 118 120 117
-832.331297721119 105.191447328077 1957.34567510346 132 134 131
-840.964167591201 105.713694494262 1944.17376240809 139 141 138
-848.655225083128 107.463629267131 1918.01549617523 147 149 144
-320.843412109697 108.000904205278 2248.92280347235 158 165 181
-333.156648370956 106.015548935884 2261.49999319414 152 159 169
-344.446474190206 104.443070364411 2270.17282253115 126 131 134
-353.807091384463 103.689270668207 2271.0222724145 124 130 128
-363.158127268573 102.9357802416 2271.87267690552 107 109 106
-370.207993828161 103.198864096256 2262.93022509228 104 106 103
-377.981685612178 103.15449227625 2256.9213151384 113 115 114
-384.888497868867 103.51326412528 2246.98853629857 124 126 125
-391.182015138026 104.171942599874 2234.10844195943 129 131 130
-396.886391502274 105.129163105142 2218.27754089038 121 123 118
-477.940853606508 96.1531447534082 2253.53534441468 129 135 133
-491.699411783138 93.1109536829542 2277.02046880063 131 135 136
-502.836433088651 91.3674408202457 2287.72819184669 134 138 139
-513.909409335935 89.6275625827705 2298.44413803447 144 148 149
-523.988760624345 88.3859846786318 2304.24385445824 145 149 150
-533.664531665766 87.3439258289997 2308.07779541943 150 154 155
-542.772628143705 86.5989569053761 2308.95873513976 149 153 154
-552.759522547963 85.3620447304609 2314.76997734904 151 155 156
-562.884322441042 84.0288468761999 2321.57219070044 153 157 158
-572.276967879363 83.0902970100163 2324.43350437766 150 154 155
-580.630568726442 82.7402347528634 2321.3763317893 151 155 156
-588.995669058495 82.38902436106 2318.3179674255 154 158 159
-598.357648339824 81.4512336612362 2321.18310605858 152 156 157
-607.21387844732 80.8066451029923 2321.08728549788 153 157 158
-616.224068144402 80.0647182659473 2321.98043539442 157 161 162
-624.287131032608 79.9054532087423 2316.94364357166 159 163 164
-632.525702890722 79.6475342718344 2312.89289616673 166 170 171
-640.479522245107 79.5815942412875 2306.86156415608 170 174 175
-648.75682068388 79.3204318104263 2302.80599244445 171 175 176
-656.324284779634 79.5397320145494 2293.79906282139 171 175 176
-664.220536870769 79.5634093841781 2286.76699176243 172 176 177
-672.009731514065 79.6806632123783 2278.74034731158 173 177 178
-680.248591696072 79.5074814988457 2273.68165367488 175 179 180
-688.105942682687 79.6196144844153 2265.64627693214 185 189 190
-696.001435650361 79.7289319165187 2257.60638797905 188 192 193
-703.805978754727 79.9307399394196 2248.56991836235 183 187 188
-711.401304686744 80.3197745567397 2237.54345029217 181 185 186
-718.803640934112 80.8949422621848 2224.52496155372 186 190 191
-726.633788049954 81.1810368327267 2214.47714737519 190 194 195
-734.039934819195 81.8423025193027 2200.45050954071 189 193 194
-742.093924484769 82.0261564450686 2191.38271748061 171 175 176
-749.288931252695 82.9614055577347 2174.35816531239 169 173 174
-756.900775915782 83.6083104379718 2160.30565514676 161 165 166
-765.119771332541 83.7803411660168 2151.21754274913 147 151 152
-773.905235327382 83.4802362315377 2147.09865753405 140 144 143
-782.095051157745 83.7404615921772 2137.00602695194 176 180 179
-785.105736040224 97.3098461772744 1977.36848237235 191 195 194
-793.538763603401 97.8144582145087 1964.22179552564 105 109 108
-803.038686151313 97.2921901851609 1962.02970936196 97 101 100
-812.455271785928 96.8619601229853 1958.84033394421 113 115 112
-822.310728698914 95.9676334953166 1960.63608792699 118 120 117
-831.651514492112 95.6284187380705 1956.44800482883 129 131 126
-840.36577719529 96.0256980566298 1944.27395098564 138 140 135
-848.053095109399 97.7076384574297 1918.11633049075 152 154 149
-322.691239370008 97.9736619011039 2258.79620372836 131 140 147
-332.338557960477 97.1230830583032 2260.61781693505 149 156 162
-343.395690127262 95.6766384265456 2268.3114257914 122 127 130
-352.997041266895 94.8283011689764 2270.13876956107 127 133 131
-362.815531004874 93.8814947895766 2272.94696213049 129 134 128
-370.778929733577 93.7269066899585 2267.92259548903 130 132 129
-377.405327276607 94.1630655306902 2257.01691985359 136 136 136
-383.639125620289 94.7926116545633 2244.1443548023 117 117 117
-389.053981231112 95.8114055167578 2227.34173496221 108 108 108
-390.185779613537 98.7892230406172 2190.91327274768 90 92 87
-458.681429362265 92.494202815243 2206.56817055066 149 155 151
-476.384999716293 87.6668223798414 2248.71293818155 134 140 138
-489.96761646206 84.7882904844977 2271.21190092911 131 135 136
-501.506279011932 82.8830369350891 2283.88554192582 130 134 135
-512.592523546804 81.1748620263164 2294.59974882016 142 146 147
-523.056348072382 79.7590179723493 2302.36731837699 140 144 145
-532.555466749964 78.8260202863221 2305.21557047069 150 154 153
-542.033663076104 77.8939349149293 2308.06619087887 150 154 155
-552.024822276856 76.675742705134 2313.87685156839 149 153 154
-562.504554133601 75.1728182872701 2322.65059267431 151 155 156
-571.550477757717 74.4358413792445 2323.53927015255 148 152 153
-580.246509837831 73.8895285277118 2322.45549545482 151 155 156
-588.775998529008 73.4378618669756 2320.38432777312 160 164 165
-598.298055974214 72.4162583708449 2324.23763768267 160 164 165
-606.98501555909 71.8693887676767 2323.15499664489 162 166 167
-615.990460983596 71.133106800342 2324.0484834643 160 164 165
-623.7352254627 71.151775505992 2317.03557062261 157 161 162
-631.820045441566 70.9796850935374 2311.99585714994 163 167 168
-639.474349578917 71.0878245911521 2303.98607023904 163 167 168
-647.7596580199 70.8177907702635 2299.92952228898 166 170 171
-655.479716757313 70.9209649339652 2291.91154266875 169 173 174
-663.380745728225 70.9278845249724 2284.87891961446 180 184 185
-671.45465236593 70.8389780068298 2278.83290217097 184 188 189
-680.105245303156 70.3752988166045 2276.74689329863 187 191 192
-688.626831934113 70.0039043506666 2273.66881325517 186 190 191
-696.763678066911 69.9098509999132 2267.61471462005 185 189 190
-704.023324570538 70.4620106865397 2254.61433357757 185 189 190
-711.474570253113 70.9172361717553 2242.59774419251 184 188 189
-718.985536775203 71.3682116841799 2230.57395346063 183 187 188
-727.040480023269 71.446528173185 2222.5142476951 185 189 190
-734.896611244545 71.7059438085278 2212.46326111186 194 198 199
-742.454520162426 72.2371316351844 2199.42571391204 189 193 194
-749.512572774995 73.2217537619784 2181.41019542373 178 182 183
-757.103654940528 73.8343570447991 2167.36036662709 182 186 187
-764.980142581147 74.2596280153271 2155.29102871256 189 193 194
-773.649849311598 74.043082939638 2150.17868216962 182 186 185
-781.421964502655 74.6429290747768 2136.10629511714 139 143 142
-786.878425378958 77.4153644311062 2098.13099435895 167 171 170
-792.470341170854 88.6147277520457 1959.34043946306 121 125 124
-801.801537657719 88.269405142022 1955.15356913845 108 112 111
-811.325736656138 87.7425173744326 1952.95870585193 109 111 108
-821.19840381543 86.8554554622126 1954.75229296634 117 119 116
-830.638512016999 86.4174236823476 1951.55976234811 127 129 124
-839.204032432029 86.9629927140589 1937.38850595106 136 138 133
-846.984254138966 88.486354886202 1912.22739632038 153 155 150
-320.168543532517 89.7462819293296 2251.07047017542 152 162 154
-330.318950682895 88.7083586609701 2254.84540873406 142 148 146
-341.39405735745 87.2849862988606 2262.5367137181 132 136 137
-350.777532016303 86.5399130847514 2263.38328814412 129 130 132
-359.222602880466 86.1805299142838 2260.31472518468 114 114 114
-366.761651226735 86.2048386442454 2253.3274696474 98 98 98
-373.200256162572 86.7068675269461 2241.43712858577 101 101 101
-379.475441554896 87.3006611026853 2228.55949282855 98 98 98
-385.373838120827 88.0814547449893 2213.71253089743 103 105 102
-389.161980081758 89.8122832491538 2189.04906286291 123 126 119
-454.905018687632 84.8984786820406 2190.93525243132 163 170 163
-477.192618682322 78.022016140199 2255.69208185669 142 148 144
-490.760735709638 75.2098012567602 2278.19243917117 134 138 139
-501.324910443479 73.8127397264991 2285.94767642091 128 132 133
-511.463337071232 72.6056504483218 2291.739929767 141 145 146
-521.937191193485 71.213534105919 2299.50618520338 137 141 142
-531.812521621442 70.1039896311525 2304.32332742084 148 152 153
-541.837021330278 68.9029637077339 2310.12978220526 151 155 156
-551.289916540531 67.9828246057816 2312.98376885179 146 150 151
-561.248166681505 66.7852427715674 2318.79848212072 146 150 151
-570.132875410439 66.1454392639316 2318.69909499517 142 146 147
-578.842782985455 65.5980632971604 2317.61359151738 146 150 151
-587.553332365646 65.0502881105624 2316.52800899742 154 158 159
-596.922835109065 64.1335778344241 2319.39215323237 157 161 162
-606.433134177704 63.1258324355642 2323.24689402299 165 169 170
-615.598501756644 62.3030003897761 2325.12857879646 162 166 167
-623.652771814397 62.1221360491256 2320.09270087916 158 162 163
-631.575433527741 62.0309202622662 2314.06556398945 164 168 169
-639.525587968411 61.937592193844 2308.03476146379 169 173 174
-647.354901380921 61.9332566004662 2301.01135799607 169 173 174
-655.362682854317 61.8355406930097 2294.97337551263 171 175 176
-663.254943301525 61.8264758420507 2287.94188881271 179 183 184
-671.320250326121 61.7242914811148 2281.89697951682 182 186 187
-679.412869323947 61.6200660758817 2275.84842695442 183 187 188
-687.667621888929 61.4234761042494 2270.78781168709 183 187 188
-696.472599575713 60.8647582117024 2269.69047388995 182 186 187
-703.854544519049 61.2945996817077 2257.68283994409 184 188 189
-711.549533778867 61.5407803022001 2247.65199777892 184 188 189
-719.169425994589 61.8730666006189 2236.62261342645 181 185 186
-727.692326179393 61.5757134948044 2232.53648737576 182 186 187
-735.401694557851 61.901493398525 2221.49595406152 185 189 190
-742.238534062834 62.935752574748 2202.50022384565 190 194 195
-749.286006238259 63.8745575133381 2184.48638666002 189 193 194
-757.198409758822 64.1861786082721 2173.42055304709 189 193 194
-765.057167788924 64.5824193496632 2161.35350413321 189 193 194
-773.080370763888 64.8862054949337 2150.27386403648 197 201 200
-780.952970217693 65.3624654641681 2137.19694970003 171 175 174
-788.093716026953 66.5381856681306 2116.14754704509 186 190 189
-790.646774602518 80.0878121097284 1946.48957176736 127 131 130
-799.92165893784 79.819574864978 1941.3018387666 104 108 107
-809.927760198171 78.851111698593 1944.08667555956 104 106 103
-819.911762197819 77.8835786044112 1946.87426776029 113 115 112
-829.7069503352 77.0910157783053 1947.66958784042 129 131 126
-838.03968439545 77.8609469847694 1930.50348939111 138 140 135
-845.835252454719 79.3177864002018 1905.34063981169 154 156 151
-319.345787353232 80.8141890024841 2250.18898053312 173 183 174
-329.499997750464 79.7892494071662 2253.96317000827 136 141 137
-340.104123249267 78.5776977071009 2259.69755890881 124 125 127
-347.85059953786 78.4937020522229 2253.69214963581 113 114 116
-356.322609480448 78.1267797941024 2250.62024469257 98 98 100
-364.117578126263 78.0392196241038 2244.60903351584 104 104 106
-372.167835140739 77.8562544146365 2239.57390220392 102 102 102
-379.119427290757 78.1372520372818 2229.6357399138 110 112 109
-385.234540280254 78.7866990286726 2215.77000631789 108 110 107
-387.043473481147 81.2872316653294 2182.28160015727 115 120 113
-462.320695436309 72.0841343735321 2230.35393308632 160 167 160
-480.172536253548 67.4084612978393 2273.48772529097 153 159 155
-490.583737110936 66.1247703816052 2280.25382685171 151 157 153
-500.952600918032 64.8433311659085 2287.025446165 148 152 151
-510.522441472562 63.927982519856 2289.8645858397 147 151 152
-520.444344994691 62.8320738411346 2294.67588010096 149 153 154
-529.967122344875 61.9189768639087 2297.52088705564 143 147 150
-540.374131239819 60.5547117159594 2305.29565130481 142 146 149
-549.841610804808 59.6443909976218 2308.14755178499 151 155 158
-560.166137087205 58.2846040769906 2315.93259758332 148 152 155
-569.232357910514 57.5568725839267 2316.81847747489 152 156 159
-578.798967308219 56.5602016921156 2320.66616190503 157 161 164
-587.501728447313 56.0127434945985 2319.58155047674 166 170 173
-596.699397619576 55.1966029530889 2321.45918658049 164 168 171
-606.043398203711 54.2919388334101 2324.32648161102 153 157 160
-615.047582267747 53.5663105538919 2325.22033805339 152 156 159
-623.258188733014 53.2854780465188 2321.17314090623 158 162 165
-631.02368910944 53.2693788249534 2314.15749163851 162 166 169
-638.82212767131 53.2508229187775 2307.13773834957 166 167 169
-646.802001590684 53.1414498933165 2301.10350953122 169 170 172
-654.663483119279 53.1181611220264 2294.07590131657 172 173 175
-662.700888139351 53.0044038650641 2288.03426423396 177 178 180
-670.906096425725 52.8006382090736 2282.97985069661 176 177 179
-678.995548367406 52.682821240973 2276.93196942572 174 175 177
-687.517217432484 52.300343056847 2273.85390828355 177 178 180
-695.785398427398 52.0914309562463 2268.79164967744 182 183 185
-703.427639403704 52.3167247350889 2258.76744519096 192 193 195
-711.245630436559 52.4514441365628 2249.72947402778 194 195 197
-719.355312258606 52.409447055743 2242.67094115152 181 185 186
-727.618968778034 52.2782304479265 2236.60111519795 178 182 183
-735.197477354001 52.6638670633961 2224.56906768472 182 188 188
-742.255540629598 53.476959078188 2207.56192695111 194 200 200
-749.513536703964 54.1979634933465 2191.53776539381 195 199 200
-757.626853895715 54.3115696191116 2182.46299487301 185 189 190
-765.243997624656 54.8510251666493 2168.41010637928 190 194 195
-773.141765965945 55.2143522703743 2156.33827588608 187 188 190
-780.279273644587 56.2571183337655 2136.29731455889 195 196 198
-787.619234751788 57.2076660800351 2117.23901819256 176 177 179
-789.290307387224 71.0640978809513 1938.62063716371 125 129 130
-798.403344391285 70.9531646522635 1931.4370730334 94 98 97
-808.34872369697 70.0784913837862 1933.22155347676 101 106 100
-818.622244046942 68.8669166914159 1938.99695973717 110 115 109
-828.272842452294 68.2469223539289 1937.79425484295 133 138 132
-836.388015215393 69.2237923476291 1917.63146022807 131 136 130
-844.293263783228 70.5292562849506 1893.46300890973 156 161 155
-314.872604886467 73.2492365716387 2234.64293437798 158 168 160
-326.515062375692 71.6863244945783 2244.27941927249 128 134 130
-337.385661467086 70.4004836533491 2250.98843658005 115 116 118
-344.920561351986 70.3920277879104 2244.00154476187 117 118 120
-352.489181605923 70.3811848526613 2237.01045112725 107 108 110
-359.63180237065 70.5494035267507 2228.05667396165 95 95 97
-367.954695514997 70.2617461855229 2223.99548207372 90 92 91
-376.519413893385 69.8823185657111 2220.9120405982 108 110 107
-384.652759264343 69.6822650180928 2215.86658535213 94 99 93
-461.745420781312 63.0421733388536 2230.44953564484 137 144 137
-478.815719157134 58.8436678468255 2269.64861446038 163 168 164
-491.770748742064 56.4296465916816 2289.20113127106 162 167 163
-501.348859478836 55.5247898320237 2292.0392112459 154 158 159
-510.148962724619 54.9737880211831 2290.94246143016 152 156 159
-520.442754891232 53.7180042060387 2297.72338167778 151 155 158
-530.326219825922 52.6402810836068 2302.53942495649 142 146 149
-540.54036463082 51.3888222312384 2309.33003306561 146 150 153
-549.998005206441 50.4898783075972 2312.1831314331 146 150 153
-559.434780622695 49.5918182018065 2315.03907159037 149 153 156
-568.850493539017 48.6947987832979 2317.89739721376 155 159 162
-578.074886040156 47.8857051135278 2319.77167984636 156 160 163
-586.780690806151 47.3378738529317 2318.68668957388 158 162 165
-595.487091249222 46.7896164500376 2317.60162608665 156 160 163
-605.16741879635 45.7219353148622 2322.44275299644 145 149 152
-614.337195785121 44.9149174951708 2324.32384585542 146 150 153
-623.334456888239 44.1946871899529 2325.21855202701 152 156 159
-631.24252588784 44.0767770249107 2319.19306625167 161 165 168
-639.329548361632 43.8708953494462 2314.15340717748 163 164 166
-646.69520843925 44.0915649062114 2304.16397079849 163 164 166
-654.98584190022 43.7958696414755 2300.10682589592 167 168 170
-663.149745886879 43.584072391234 2295.05734777316 175 176 178
-671.476215351252 43.2853476400023 2290.99573872727 174 175 177
-679.129947766943 43.4100764072864 2281.9782923784 172 173 175
-686.827265769661 43.5316701893697 2272.95541506182 186 187 189
-694.96539096894 43.3962673198992 2266.90126569925 185 186 188
-702.741627118221 43.5121168967991 2257.8685549917 182 183 185
-711.196386740276 43.2033977993551 2253.79096241233 178 179 181
-719.170281122471 43.2297532894032 2245.74150790354 174 178 179
-727.546918955442 43.0014772847737 2240.66552525064 182 186 185
-735.113091845709 43.3577699082338 2228.63509443441 187 193 191
-742.274138630401 44.0443095977497 2212.62312233693 193 199 197
-749.062590165716 45.0589095144659 2192.62603559611 191 195 194
-756.729176708447 45.4838833041835 2179.57496551336 182 186 185
-764.352622875512 45.9873727847588 2165.52138522797 178 182 181
-772.362373801097 46.2373402357809 2154.44356559709 179 183 182
-779.502462452806 47.2279835691215 2134.40241944307 164 168 167
-784.946746021283 49.6975670644766 2096.42943589051 181 185 184
-788.875927678607 61.1735469012785 1940.71376991191 104 110 108
-797.432227813801 61.5388572230377 1927.55206622311 98 104 102
-807.389349781196 60.6717969865284 1929.33506120307 83 89 85
-817.416152830423 59.7236941531603 1932.11726091695 83 89 85
-826.667830788269 59.5102147799062 1925.92435236506 120 125 121
-835.298432444439 59.9453023997396 1911.74526516274 143 148 144
-843.685947847799 60.7001375543121 1893.56468298239 168 173 169
-312.586062017279 64.7964634427494 2227.89625126251 143 152 147
-324.249578551906 63.2618917131769 2237.53003347935 129 135 133
-337.045806184667 61.2880333364169 2252.06253292186 116 120 119
-344.577211337256 61.2629883083669 2245.07612091258 111 115 114
-352.607852897588 61.0591456436822 2240.04349247341 101 102 104
-357.900828385831 61.9097922519427 2223.25652536188 94 96 95
-365.327657271668 61.9640711796189 2215.27526785744 90 92 91
-374.14128515652 61.4895876721665 2213.16894164028 91 93 90
-381.629976515984 61.5394478276832 2205.17997570153 99 104 98
-461.170376306968 53.999152501982 2230.54511226912 105 112 105
-475.679318747618 51.0299786056742 2256.95970241033 144 149 145
-489.453025440061 48.3273857852088 2280.44180176242 152 156 155
-500.593951856385 46.74639948338 2291.14884973456 151 155 156
-510.344496674976 45.7674538903621 2294.97353343265 141 145 148
-520.068812077799 44.7898482857237 2298.8012466092 137 141 144
-529.398708382841 43.9838278576478 2300.66235489754 143 147 150
-539.257302269544 42.9235155446619 2305.48145608526 143 147 148
-548.726763879474 42.0345088257018 2308.33305308828 141 145 146
-559.055062849762 40.7233044553593 2316.11750013705 147 151 152
-568.642333772381 39.7526377048914 2319.96229738131 157 161 162
-577.862136163717 38.951898947413 2321.83713083012 162 166 167
-586.730701212297 38.3200243019623 2321.7399777288 162 166 167
-595.759510356569 37.6041421150435 2322.630495172 164 168 169
-605.265292708698 36.6372656865787 2326.48569199517 169 173 174
-614.265387557601 35.922555820962 2327.37978972542 169 173 174
-622.941191917926 35.3749933981038 2326.29854261823 169 173 174
-630.846077247909 35.2434628674717 2320.27373028351 171 175 176
-638.930049916062 35.0266970154688 2315.23448047013 174 175 177
-646.142914187926 35.3057814252703 2304.25603090401 166 168 167
-654.287197900169 35.0845438267053 2299.20902613633 166 168 167
-662.166620680858 35.0266975281243 2292.1792699655 175 177 176
-670.641814952011 34.6367311753523 2289.10726859142 175 177 176
-678.852033935933 34.4102206259818 2284.0522896465 173 175 174
-687.084128656284 34.1819854907028 2278.9943450119 178 180 179
-694.542498500637 34.4433992319534 2267.98530433682 190 192 191
-702.055217535947 34.7009624235605 2256.96949134432 198 199 201
-710.003806928124 34.7100577739581 2248.92324020264 190 191 193
-718.114883548608 34.6350350474494 2241.86462023564 190 191 193
-726.623828576425 34.3139056998317 2237.78029831993 186 190 189
-734.672838086006 34.3155585740382 2229.72153494077 191 197 195
-742.410726516229 34.5569855170918 2218.6776646332 191 197 195
-748.952777551853 35.6821982203438 2196.69542145808 190 194 193
-756.606857538335 36.0751215437397 2183.64599652337 191 195 194
-763.676569247424 36.9455709193546 2164.62187688917 189 193 192
-771.582180096858 37.2483153810136 2152.54898697081 178 182 181
-778.519269055766 38.3468091242858 2130.51751576173 192 196 195
-784.468922674983 40.3157499946825 2097.52145919878 185 189 188
-784.846420218191 46.9726019801319 2005.75080596288 122 126 125
-789.219416298157 50.6569218406665 1950.7761915088 72 78 76
-797.379141178006 51.3085761786754 1933.63199506031 89 95 93
-806.696159708439 51.0046880937536 1928.43909784631 92 98 94
-816.553672745758 50.2253249440864 1929.22660538651 88 94 90
-825.645363083541 50.1553870955778 1921.03791013588 122 127 123
-834.531103529233 50.3184337243827 1909.85100109458 149 154 150
-843.627294416245 50.3208386474064 1900.65362632297 173 178 174
-311.27230356037 55.9600179382206 2225.06016945247 164 170 166
-321.982035711205 54.7982929004734 2230.7810077817 117 123 121
-334.085195528338 53.1238067463145 2242.37590804081 112 116 115
-342.349683925525 52.8233270754353 2238.3220384872 114 118 117
-350.165862969753 52.6924608412714 2232.30829442312 113 114 116
-355.708134555104 53.4124598644789 2216.49824778646 94 96 95
-362.697819771311 53.6163182776795 2206.55553485024 83 85 82
-369.512577924135 53.9018025361038 2195.62674972043 75 80 76
-382.379543438637 51.8942263016996 2211.1584376552 83 88 82
-444.915041567562 48.2753825286121 2199.3326783608 135 142 134
-460.194669856244 45.1219333019728 2228.67487831026 90 97 90
-475.505182499612 41.8953751293652 2259.02086343411 139 144 140
-489.668252603083 39.0947436240677 2284.47048544965 149 153 152
-500.800724532253 37.5468420124797 2295.17826109571 151 155 156
-510.92085163925 36.4164073697998 2300.97259624656 141 145 148
-520.069295890837 35.7009388786596 2301.84842311494 138 142 145
-529.576164280015 34.8208963496967 2304.69532836618 148 152 155
-538.699109474383 34.106365489639 2305.57433489693 144 148 149
-548.169591621411 33.2280138901165 2308.42577648308 149 153 154
-557.795292219408 32.2686972790612 2312.2659883096 153 157 158
-568.781844035583 30.6568649118894 2324.0000696494 160 164 165
-578.333023628079 29.7016362685855 2327.84933022258 162 166 167
-587.521807233622 28.9104881653018 2329.72800937583 164 168 169
-595.868484610126 28.5261683792666 2326.67179101164 165 169 170
-604.876882618568 27.8165459446911 2327.56507942784 167 171 172
-613.39537661927 27.3499051372642 2325.49556352114 166 170 171
-622.076928907161 26.8018570940461 2324.41360038543 163 167 168
-630.295575692087 26.495070718268 2320.3654682025 167 171 170
-638.530914716619 26.1868924789667 2316.31525659216 170 172 171
-645.739691681161 26.4387053430783 2305.33738891648 159 161 160
-654.173582049696 26.0465302845019 2302.27030757307 157 159 158
-662.475024235343 25.7331554782751 2298.211860364 164 166 165
-670.933948263399 25.3386416083943 2295.1419013958 167 169 168
-678.436586450296 25.4997886450386 2285.13528744027 165 167 166
-686.25921517183 25.4987230055523 2277.10478220423 171 173 172
-694.385488883797 25.3365730743149 2271.05218227464 183 185 184
-701.88872500358 25.5672980347304 2260.03762337145 197 199 198
-709.700996231989 25.6365978258178 2251.00053828627 192 194 193
-717.681346911958 25.6241406430292 2242.95038028148 184 186 185
-726.675156016369 24.9810298690352 2242.83738678363 181 185 184
-734.352100530733 25.199344858414 2231.80118278096 190 194 193
-741.617168932011 25.7263616652093 2216.78457686547 196 200 199
-748.047600944434 26.8719209030227 2193.80828213575 195 199 198
-755.708130143665 27.2315861688174 2180.75813996133 179 185 183
-763.000062992111 27.8972284477554 2163.72244226002 175 181 179
-770.484183198648 28.4795754369193 2147.67042689725 161 167 165
-777.740489259564 29.2881477025924 2128.6229440735 164 170 168
-784.191812005235 30.7840369860847 2100.60444396237 183 189 187
-786.497091781668 35.6548133055791 2028.75310204368 191 197 195
-789.755804118948 40.0401694130746 1962.83041857277 105 111 109
-797.327907689536 41.109772621778 1939.71185000958 89 95 93
-806.628401269036 40.7961872764692 1934.52104054915 92 98 96
-815.950110158698 40.4808024776988 1929.32758828223 97 103 101
-824.789006113705 40.6200479661964 1918.14658783588 151 157 155
-833.681568710932 40.75542666513 1906.9589002929 162 168 166
-302.654440376363 47.0819301235887 2230.18999661933 162 167 161
-311.909043514839 46.4390195738363 2230.04469730928 143 149 145
-320.19481439939 46.1291514515071 2225.98819655122 122 128 126
-330.406021252614 45.1533454116673 2229.75514381415 107 111 110
-340.120047748429 44.3446522859438 2231.56832196408 94 98 97
-349.819154508476 43.5366707442498 2233.38336013491 137 141 140
-356.047565547229 43.9678319717838 2220.51174955824 156 158 157
-362.342078222323 44.3946054830124 2207.63214171179 150 155 151
-368.027730526807 45.063664796925 2191.80433615694 114 119 113
-462.428817232392 34.9414914724006 2242.53146020673 164 169 163
-475.331990879558 32.7706875848268 2261.0821207294 151 156 152
-488.908887075531 30.2848028372102 2283.58052307672 156 161 157
-500.624050461176 28.5285026556777 2297.23967291613 153 157 156
-510.930088637641 27.337182690561 2304.01865490212 149 150 152
-519.883935338815 26.7072209440234 2303.91085411718 148 149 151
-528.833129672503 26.0772544651474 2303.80339366392 152 153 155
-538.504485625896 25.1292108626908 2307.63763801619 144 146 145
-548.149577099398 24.182424906887 2311.47539697705 146 148 147
-557.944604999835 23.1578745961369 2316.3023366461 145 147 146
-568.402125133619 21.8189588608934 2325.0784177327 170 172 171
-577.780901681601 20.9561244295061 2327.94126277154 175 177 176
-586.970481596714 20.1729880926854 2329.81982145136 172 174 173
-595.48263645762 19.7044816815408 2327.75110154483 174 176 175
-604.326198786836 19.078646652248 2327.65681246121 185 187 186
-612.52473022081 18.7654077158792 2323.61120754774 183 185 184
-620.897346568857 18.3728361662403 2320.55177388398 178 180 179
-628.972028471686 18.1348038669501 2315.51373950762 180 182 179
-636.613083920604 18.1279860512943 2307.5059086907 170 172 171
-644.5908816161 17.963502265384 2301.47208410505 159 161 158
-652.889101770292 17.6423000861965 2297.41405959957 155 157 154
-661.347677014644 17.2426698234187 2294.3439173626 163 165 162
-669.958496312817 16.7649813950247 2292.26290889811 169 171 168
-677.606403711232 16.8241454452151 2283.24612187057 178 180 177
-685.704908207493 16.6502997219325 2277.19725844413 181 183 180
-693.165963032647 16.8566278587268 2266.1880277653 185 187 184
-701.07208466597 16.8303557515454 2258.14716948781 207 209 206
-707.996044946841 17.4101062177096 2242.16506560998 213 215 212
-716.499185998716 17.0732514858604 2238.08150940839 196 198 195
-725.629182550963 16.3562109982031 2238.95964258038 201 203 200
-733.554380354034 16.3953808926476 2229.90830400357 190 192 189
-740.356095866817 17.1854664074486 2210.91784034565 197 199 196
-747.027354468938 18.1194791107361 2189.92766344669 197 202 198
-755.142091562661 18.1454992650697 2180.85270611631 193 199 195
-762.10598826537 18.9922112852279 2160.83416698263 198 204 200
-769.596041706559 19.5331212861231 2144.78152031009 177 183 179
-775.929582022832 20.9630258288075 2116.77789251829 180 186 182
-781.806628272389 22.829430531855 2082.78347985298 198 204 200
-785.321597983658 26.6131302948487 2022.87700454398 195 201 197
-789.155971134817 30.3760641702016 1962.9307242602 148 153 149
-796.724736702017 31.3857696423843 1939.81272999866 102 106 105
-806.024932806789 31.0613636700306 1934.62198615705 131 137 137
-815.259480460081 30.8086656196162 1928.43155891562 106 110 111
-824.183916291296 30.8472547521496 1918.24783577155 132 136 135
-833.156619444207 30.8823509239214 1908.05809834967 133 137 136
-310.839406312554 37.5091346051324 2228.1860837776 136 141 137
-318.406217128189 37.431786836039 2221.1953910883 110 115 111
-327.200061517699 36.9503518493509 2219.09155204087 111 115 114
-336.708533102462 36.2277415667188 2219.92222816544 105 109 108
-346.440826526754 35.4254395901298 2221.73310987983 92 94 93
-353.391490807759 35.5818884731255 2211.79563164569 85 87 86
-360.392053176062 35.734976891112 2201.85169500617 101 103 100
-366.766984035989 36.1232400930644 2188.96191259247 86 91 85
-447.621221730166 28.5200844644293 2218.19448442768 162 168 158
-463.262310741629 25.3822437031901 2249.50690930792 150 155 148
-475.555974170346 23.5002931089841 2265.10957085429 147 152 146
-488.540272556747 21.3131159022917 2284.65807797459 159 164 158
-500.062853428522 19.67508358946 2297.33302215204 154 156 153
-510.180573939262 18.5825317557247 2303.12755786884 158 160 159
-519.137542768401 17.9548769399032 2303.01912111683 150 152 151
-528.828256379843 17.0193088905362 2306.85115716263 144 145 147
-538.12893674097 16.2387100906095 2308.71584448109 152 154 153
-547.951597605989 15.2288976570274 2313.53929690785 148 150 147
-556.68376728635 14.6795211750009 2312.4510205192 155 157 154
-567.327881556623 13.2906654854042 2322.21163437399 181 183 180
-576.031603501336 12.7424592738439 2321.12690501271 184 186 183
-585.745980217649 11.7382014126914 2325.96385603329 164 166 163
-593.772185169779 11.4934181422155 2320.93188907222 158 160 157
-602.798111570985 10.7933070947508 2321.82272473198 120 122 119
-611.012682841792 10.4707150828992 2317.7751427727 97 99 96
-619.874057065391 9.84564401719656 2317.67886912683 83 85 82
-628.111255662057 9.52096850125445 2313.62846889789 83 85 82
-635.452656355088 9.64444530183486 2303.6420756316 73 75 72
-643.29135223311 9.54022134305968 2296.61752407137 66 68 63
-652.482916337931 8.76240825200894 2298.49582111746 61 63 58
-661.946460478833 7.83651949579703 2302.3561810801 35 37 32
-670.676987749687 7.28314174396569 2301.26812019166 17 19 14
-677.74533727699 7.61812256270358 2288.29194354497 0 1 0
-684.471463071235 8.17029811627809 2272.33460085904 2 4 0
-692.610282833679 7.97984936397786 2266.28075004921 2 4 0
-701.689155147513 7.27251327660297 2267.16499739897 18 20 15
-708.58653275423 7.81284098620566 2251.1865549689 26 28 23
-715.940223549193 8.12806129042048 2238.17482145754 34 36 31
-723.970404911413 8.07369976550507 2230.11855523179 22 23 18
-733.234201364751 7.28806006090454 2231.98785871893 10 12 7
-739.326629102118 8.46544392896922 2207.03828691906 8 10 5
-746.918815560473 8.7641568023821 2193.99683403062 15 20 14
-753.684481760555 9.63703161639748 2172.99503662601 21 28 21
-760.340963008359 10.6470437535686 2149.99088924657 25 32 25
-768.176696844392 10.9291687656426 2136.91932703751 18 25 18
-773.49460166227 13.0022426785902 2098.96291873101 0 5 0
-777.101466465195 16.4233107839393 2042.06923199873 8 13 7
-781.305217064356 19.6102291225727 1988.12497563622 48 50 45
-787.318692616361 21.6377395254704 1950.08212447289 94 95 90
-795.474116898599 22.15851790206 1932.93880937075 72 72 70
-805.151974469689 21.5382501929751 1931.73270341371 71 73 72
-814.133026249534 21.4838510073679 1922.55008718232 63 65 64
-823.241259690795 21.3557648524347 1914.35948058168 91 91 89
-832.223658206499 21.3657871362269 1904.16859926703 118 120 117
-300.750317205752 29.1283839042601 2227.4515983956 0 1 0
-308.548393349564 28.9571938662379 2221.44021965777 165 167 162
-317.340932423382 28.4728857871349 2219.33655107221 163 165 162
-326.140159242927 27.9879550592332 2217.23180926651 136 138 135
-335.654666653545 27.2699495667926 2218.06196029789 110 112 109
-345.159569735951 26.5523593241693 2218.89306853036 97 97 97
-352.809246186697 26.451982620766 2211.89233561431 102 102 100
-360.492558165428 26.3492814707187 2204.88717103582 109 109 107
-368.209534268184 26.2442416256355 2197.87781153255 106 108 103
-450.303709262095 18.2284529742767 2234.0110234024 121 127 115
-461.686626845661 16.7633496858685 2244.68756713372 112 118 106
-473.997005042491 14.9265443112509 2260.28802388751 133 136 129
-486.411950375678 13.02023986319 2276.8833014024 74 77 70
-497.573160120173 11.5681707065851 2287.58747863639 70 72 67
-507.529250425146 10.5673267931088 2292.39425623959 57 59 56
-517.828645895515 9.41937026271949 2299.17395299997 40 42 39
-527.346555890188 8.57072499844622 2302.01939764055 3 5 2
-537.571814992266 7.42685187053418 2308.80857569664 0 2 0
-546.678404843099 6.72872396979629 2309.68933981223 0 2 0
-554.185259128358 6.69451770931215 2301.69832863364 0 1 0
-563.643871921979 5.84842571213343 2304.55116649041 5 7 4
-569.314744022716 6.61786360024472 2285.70187977963 0 1 0
-580.644535670923 4.96470821517173 2299.40885010543 3 5 2
-589.406662145568 4.41198998080236 2298.31684408635 2 4 1
-599.963333757128 3.05734168161279 2308.08828018404 0 1 0
-608.21562057384 2.7239709355612 2304.03601993301 0 1 0
-617.11533622778 2.09909750380935 2303.93472071411 0 1 0
-625.545250772529 1.69129212877733 2300.86841696062 6 8 3
-633.681890907555 1.42686961687122 2295.82247979212 6 8 3
-639.298385975254 2.38498211919178 2273.95618058239 4 6 1
-660.386097283735 -0.451788194696268 2295.51820165181 7 9 4
-672.38846194361 -2.65100827582812 2317.20465420692 9 11 6
-677.469826436808 -1.34750375461123 2290.3653105232 15 17 12
-686.09226470504 -1.83220320826913 2288.28287054322 18 20 15
-695.120175782061 -2.5305420074824 2289.17369412877 18 20 15
-706.226598104438 -4.36154852561205 2305.93206928509 24 26 21
-710.970178811323 -2.72523653521253 2274.09532682462 25 27 22
-712.377489310049 0.873189626646814 2214.45236283642 17 19 14
-721.328959441431 0.303482033770092 2213.33677258924 28 29 24
-727.167317140582 1.55662667473208 2186.40309324967 31 32 27
-737.827611098175 0.00249225055498625 2199.18542479412 31 33 28
-746.697251367583 -0.500508513079645 2197.07218366169 36 41 35
-752.335661038197 1.01439248232252 2166.13177866645 30 37 30
-756.61199575933 3.49068728704222 2121.25000005763 31 38 31
-763.781321106311 4.21990300093733 2101.20613406596 34 41 34
-776.982654596451 12.621517737425 1950.38805771273 85 86 81
-785.000100967925 13.1702368619174 1932.25420075897 65 61 58
-793.665111157013 13.3023817607387 1920.08699156042 70 66 63
-803.468478532203 12.6117884487114 1919.87309502001 97 96 94
-813.178772586069 11.9892154607399 1918.66294725256 126 125 123
-822.381534692797 11.7735791982886 1911.46870196033 144 143 141
-831.616277606271 11.5555745989528 1904.27023162069 170 169 165
-293.496787796256 22.0606771917144 2201.16593473644 0 1 0
-306.255271621207 20.3662395707838 2214.69472144021 154 155 150
-314.825027653384 19.9526285405098 2211.61074131608 110 110 108
-324.840968236449 19.0886496111461 2214.39407506421 93 95 92
-332.946248960524 18.8234950872933 2209.35229356126 96 98 95
-342.008862804419 18.2585021350032 2208.22282082 100 100 100
-349.687334443054 18.1394916424084 2201.21830323741 118 118 116
-358.768777506765 17.572806452662 2200.08648517728 151 152 147
-367.174980601778 17.2279282738215 2196.01504738907 114 115 110
-459.103639099983 8.47888375843017 2234.95413379192 132 138 124
-482.323597657429 5.4046925716062 2259.27398981312 9 12 5
-492.570590334801 4.3420977008565 2265.05231423718 2 4 0
-498.022023108375 5.07782445915597 2246.23026076544 9 11 6
-512.765935417988 2.29473935739347 2275.63833956124 11 13 10
-523.829160471592 0.880547715422592 2286.35440468754 7 9 4
-528.814988162809 1.82437070993022 2264.56684666885 8 10 5
-538.403082325994 0.981436945087705 2267.40351769909 9 11 6
-548.147109377957 0.0685113993928732 2271.22884091447 10 12 7
-558.561121456794 -1.12632011572375 2279.00228501026 16 18 13
-567.898699865849 -1.89447586383407 2280.8620946334 15 17 12
-570.64223206456 0.0870443069209137 2244.23536154943 11 13 8
-586.02914684305 -3.217738776116 2281.62630836584 10 12 7
-596.470806108336 -4.47534759553134 2290.4041546762 9 11 6
-607.019403053993 -5.79984185037016 2300.1767593036 10 12 7
-614.983345529466 -6.00401178221488 2294.14452801081 9 11 6
-623.285138755526 -6.34950963006228 2290.08612158886 3 5 0
-630.231815260214 -6.07121528300192 2277.12551856662 11 14 7
-639.339924039904 -6.76743925478548 2278.00608811493 24 27 20
-645.938494201694 -6.28828270015971 2262.06509617951 30 33 26
-658.823411305733 -8.77921274810053 2288.6808553747 29 32 25
-672.548023874527 -11.7422901535142 2322.24759941694 24 27 20
-671.362222675601 -7.42191961082586 2250.8331329702 21 24 17
-683.905881301705 -9.83234552413889 2276.48382037171 21 24 17
-697.104105962948 -12.6433532111523 2308.10023957753 16 19 12
-705.939720304154 -13.2645461461795 2308.00693013104 12 15 8
-714.129875295535 -13.5461861146458 2302.95460023513 16 19 12
-712.064999313605 -8.27480164679054 2216.53082484636 16 19 12
-716.351959646199 -6.2766542504463 2177.6958228036 17 18 12
-726.840213843043 -7.66169464956282 2188.48380439362 23 24 18
-734.802278250651 -7.63122398242608 2178.42020089342 23 26 19
-741.782700341595 -7.00071129571223 2159.40761567168 23 28 21
-751.990328488352 -8.24929362562268 2168.21464391111 17 22 15
-759.198866877961 -7.6937444809598 2150.18171590466 20 25 18
-765.731257829724 4.19438164795602 1941.73676628644 140 137 132
-774.513324358119 4.17025444711064 1931.57097515092 91 86 82
-783.630372087469 3.94517549159187 1924.38721110451 111 100 98
-792.68680048222 3.78336185625772 1916.20315828752 121 110 108
-802.591617940903 3.02935318476855 1916.98469574548 153 144 139
-812.135593758009 2.53707599334396 1913.77934591625 95 86 81
-821.435889739793 2.23918760818678 1907.58059241052 164 160 157
-301.514328962092 12.461335536192 2198.17529832635 144 143 138
-311.581141214834 11.6048508535547 2200.95226385503 115 116 111
-320.910135650978 10.965977809554 2200.79743004946 115 115 113
-329.762138553967 10.4711030744283 2198.68636855648 99 99 97
-339.322240635274 9.76007445870891 2199.51057100041 76 75 73
-347.486351476923 9.47942177739483 2194.46148866044 81 80 78
-356.586895888652 8.91113152790055 2193.32729109186 100 99 95
-364.334687051269 8.770445270219 2186.31417992486 75 74 69
-375.460778653963 7.56008143757228 2193.99880160964 123 122 117
-465.908821847792 -0.56467821229067 2226.06648552363 168 172 158
-471.371845142275 0.121265816811295 2207.24335699319 7 10 1
-475.194169694566 1.42440553705048 2179.55320764449 13 16 7
-511.075639569983 -6.20289598140122 2269.82505358372 17 18 13
-519.195856793951 -6.48511210738131 2264.78145302501 17 18 13
-528.43289810077 -7.18068107558595 2265.64593083125 7 8 3
-537.300501958373 -7.73905875571096 2264.5407767623 14 15 9
-549.35447324016 -9.52661497633023 2281.18102925427 11 12 6
-559.743218206377 -10.6954253852756 2288.95755801067 7 8 2
-565.280191375728 -9.95946463240521 2269.11714188884 8 9 3
-574.297755848788 -10.5854852968387 2269.00113885523 11 12 6
-581.316846272466 -10.4004715268822 2257.03943175328 13 14 8
-594.443161614837 -12.7139323989346 2281.60922432031 15 16 10
-605.661160843381 -14.2791046208453 2295.3296737099 15 16 10
-615.060230870716 -15.1016502869888 2298.18988014346 15 16 10
-624.74870550421 -16.056943129998 2303.02993464321 17 18 12
-633.33694865482 -16.543361031449 2300.95176653723 11 14 7
-637.284491265756 -14.9671142156172 2268.20659573757 12 15 8
-647.88166087492 -16.323200114065 2278.98090907738 18 21 14
-654.513467891871 -15.8876554348215 2263.03564396051 30 33 26
-662.786255564813 -16.1840703384776 2257.97304090374 32 35 28
-671.498134006777 -16.6798127807384 2255.87946840016 31 34 27
-677.761569652376 -15.993565883095 2235.94852497576 33 36 29
-687.201628962036 -16.8213207171378 2238.80362990738 31 34 27
-701.725959991188 -20.1968867428736 2280.33363741077 9 12 5
-703.965877165486 -17.4307090169798 2228.65117832018 13 16 9
-711.627699527097 -17.3478361467664 2217.61721815478 14 17 10
-715.660188967333 -15.3235763742151 2176.79828934384 23 24 16
-725.312942416432 -16.2233887334405 2180.6347281634 27 28 20
-735.525422783039 -17.4442704694412 2189.44107792595 22 25 16
-740.524158402648 -15.7675450446361 2153.54139855199 21 27 17
-751.197833908303 -17.2464458773063 2166.32186203336 19 25 15
-761.467787994288 -18.5288994849421 2176.12888866104 24 30 20
-766.990863002696 -17.0005473790367 2142.17953976345 33 33 25
-763.205036669262 -4.33376287924683 1922.92698583938 132 125 119
-771.938995978941 -4.32240135384762 1911.75941764385 78 69 64
-781.300952519063 -4.69345811840216 1906.56108931824 52 37 34
-790.963124265269 -5.25502761612801 1904.34885891283 45 30 27
-801.08166941417 -6.13104991356764 1907.11966020227 134 119 112
-811.002946075322 -6.88080929004559 1907.89889218995 155 142 136
-820.234136673842 -7.13080770924687 1900.7009494128 152 141 135
-298.236453796689 4.0442182276583 2187.52100479217 153 153 145
-308.3337624178 3.1963615793533 2190.29414183274 100 101 96
-318.171557898326 2.41894648651261 2192.09179197551 99 98 96
-327.521223527293 1.78083441895788 2191.93461679202 104 103 101
-336.398929588831 1.28093050681496 2189.82012067223 122 118 117
-343.664548456705 1.26295316866318 2180.85148441108 110 106 105
-350.746134211939 1.31078553767683 2170.89771371994 92 88 87
-358.555246618643 1.14941082878095 2163.87700450649 59 58 53
-369.298917972137 0.0961142385242364 2169.59332188142 76 75 70
-479.64145895178 -9.49063793841048 2205.22874331871 16 19 8
-497.074880152265 -12.9806019671406 2247.40394219709 20 21 13
-512.203215764693 -15.7274591710592 2278.77932602889 21 22 14
-522.521843684273 -16.8120065762883 2285.55645570763 4 5 0
-530.972422230333 -17.2353123874604 2282.48761402879 15 16 10
-542.671922216741 -18.8424413354101 2297.15577256014 18 19 13
-547.022469743968 -17.7571652149293 2271.41613257689 15 16 10
-557.09121891651 -18.7726313582615 2277.21657662476 19 20 14
-565.748879173164 -19.2644420134017 2275.12975987596 24 25 19
-575.088690159865 -20.0170006879774 2276.98949008101 15 16 10
-585.410737452925 -21.1579743102912 2284.77402873679 18 19 13
-593.39416572044 -21.3905865536049 2278.73968090291 23 24 18
-605.105827020697 -23.1090829830315 2295.42222952161 24 25 19
-616.878664759848 -24.8860700830204 2313.10522508244 31 32 26
-625.905900415786 -25.5659116966305 2313.99608424486 34 35 29
-635.839318707569 -26.629353063763 2320.82123022582 26 29 20
-644.379291300778 -27.1158909909502 2318.74908631611 28 31 22
-651.746249228385 -27.0937933244917 2308.75977063638 32 35 26
-658.149849775516 -26.6306514838877 2291.83522456346 37 40 31
-666.201705021151 -26.8698027784522 2285.79235466761 36 39 30
-670.522009930972 -25.4060950297997 2253.00096170443 34 37 28
-679.247786733339 -25.9057985702864 2250.90566519905 32 35 26
