ply
format ascii 1.0
comment KinectMotionCapture
element vertex 751
property float x
property float y
property float z
property uchar red
property uchar green
property uchar blue
end_header
-621.105376719677 191.716244713673 2213.306573075 127 131 130
-623.975213938789 191.592952428767 2219.98755551819 131 135 134
-627.819415483335 191.562953091949 2226.44781260822 134 138 137
-630.692593159551 191.439736597655 2233.14124536415 135 139 138
-631.618538616086 191.130468608304 2240.28016413001 135 139 138
-630.592687734815 190.6356409667 2247.84886277604 137 141 140
-631.513751979178 190.327349183226 2254.97120390559 139 143 142
-635.362967477375 190.297925285526 2261.45044012495 140 145 141
-636.283192091848 189.990243202459 2268.56911978369 139 144 140
-634.267712646762 189.404956676496 2276.30365993696 136 141 137
-634.203929753467 189.005753936554 2283.60745161227 139 144 140
-630.219331886652 188.237106021715 2291.70791698905 151 155 154
-616.424780874973 186.545587194493 2301.76928756644 152 156 155
-576.12453808696 182.363997255231 2317.05620156445 161 165 166
-546.559022816472 179.204386014725 2329.9819674404 171 175 178
-530.699137378686 177.340561452162 2340.05901203574 171 175 176
-524.64278026443 176.400690325975 2348.15290979959 169 173 174
-519.55854205909 175.554386283111 2356.01791849345 170 174 175
-518.401679271698 175.077137011484 2363.11129367226 163 167 168
-518.225582925409 174.692440251287 2370.00724582565 144 148 149
-518.046118676947 174.308299167926 2376.89197346613 144 148 149
-518.850301328408 174.016377456545 2383.58976233343 136 140 139
-518.665319536498 173.633192219819 2390.45460788804 135 139 138
-521.441565029102 173.525164993486 2396.79681113053 140 144 143
-526.196146824404 173.600046913739 2402.80795683529 140 144 143
-528.97620966893 173.491953673156 2409.16429147935 140 144 143
-532.747337321105 173.475193170754 2415.36252685859 142 146 145
-541.475811856281 173.914320261009 2420.77078319452 142 146 145
-550.214323535653 174.352553591237 2426.21481218382 134 138 137
-554.000461289178 174.334649201184 2432.46805493669 126 130 129
-681.09895143777 196.709006949772 2076.81931791824 201 205 206
-670.571807653752 195.285287782467 2087.49111564802 169 173 174
-658.102310739425 193.680216875547 2098.63041069234 177 181 182
-649.461105746131 192.445096127972 2108.62983089607 170 174 175
-642.730185524066 191.395476538433 2118.04623900128 173 177 178
-637.91411392545 190.530837411681 2126.89532193457 161 165 166
-633.087881105081 189.667618988163 2135.70757520069 155 159 160
-628.251474751518 188.805851574954 2144.48297222396 156 160 161
-624.370893902294 188.036842384264 2152.96940430961 162 166 167
-619.514852894126 187.177807948101 2161.67362716725 166 170 171
-620.453740206743 186.867433091614 2168.85989769025 164 168 169
-619.454540822067 186.375213061222 2176.52919442879 149 153 154
-620.388699074092 186.065782371923 2183.69943199691 125 129 130
-619.382317643884 185.574934457186 2191.34200046753 123 127 128
-618.371266698802 185.084821640495 2198.96862506955 127 131 132
-619.297884214068 184.776999596608 2206.11188097453 125 129 130
-620.223166505996 184.469627947004 2213.24953478982 129 133 134
-623.091883620727 184.34390904478 2219.92482646584 131 135 136
-626.935366786427 184.308837141295 2226.37921380297 138 142 143
-628.833475299432 184.092762952354 2233.29010076129 141 145 146
-627.807197832855 183.605826435615 2240.86219762282 144 148 149
-626.776438290133 183.119624917354 2248.41811745365 148 152 151
-629.645857823956 182.995023429552 2255.09672255106 147 151 150
-632.516795683336 182.870498984054 2261.78008451165 150 155 151
-630.500514126424 182.29583315185 2269.51835193096 156 161 157
-626.52195177729 181.542177912588 2277.64976256995 165 170 166
-626.450546661944 181.149236299991 2284.93013639923 162 167 163
-623.43688832975 180.487491490298 2292.80575358646 143 147 146
-606.688461189873 178.570661603552 2303.44760161132 116 120 119
-567.343987346544 174.595448485908 2318.51707351227 158 162 163
-538.740381548664 171.612440082983 2331.22846911049 162 166 169
-526.797067851886 170.155868705112 2340.5188137568 164 168 169
-519.750692469167 169.148776806032 2348.78991941295 164 168 169
-516.627315895874 168.500624142658 2356.26768466731 158 162 163
-516.451030490727 168.121256619359 2363.16722850591 158 162 163
-518.242856179388 167.920709488091 2369.69331113967 166 170 171
-518.062007698875 167.542295650675 2376.57558625861 168 172 173
-519.851908603104 167.342404378305 2383.09493661999 155 159 158
-518.678360641855 166.875995296836 2390.13320694705 152 156 155
-521.453975891553 166.765607635588 2396.47250898863 147 151 150
-525.220095151139 166.744046799515 2402.64818948592 145 149 148
-529.97864472548 166.81108286478 2408.66818429198 147 151 150
-533.750494068406 166.789213218857 2414.86587352178 147 151 150
-539.507923076585 166.944324073662 2420.75286829522 153 157 156
-546.262572117867 167.187427413096 2426.50250808832 154 158 157
-549.053130538542 167.076495710581 2432.89694771578 148 152 151
-687.002519719631 189.840472742501 2074.91914601089 177 181 182
-675.512323306262 188.362003881077 2085.87707237465 168 172 173
-656.304655766291 186.172678311584 2098.90609345848 164 168 169
-646.693973054154 184.878323104822 2109.16495575231 167 171 172
-636.102181031939 183.497159472663 2119.62359458145 163 167 168
-634.170361956225 182.918812182746 2127.67220133708 160 164 165
-631.267524349272 182.252561626448 2135.95735848683 160 164 165
-625.460373490379 181.321106130724 2144.98089439974 166 170 171
-618.674961460283 180.30258501611 2154.21461905089 168 172 173
-615.745205258738 179.640198692878 2162.40227240929 154 158 159
-618.615936325459 179.509964849263 2169.08126197419 150 154 155
-618.581849183213 179.11455575131 2176.49863228239 132 136 137
-618.545009039794 178.719775462328 2183.90524921136 116 120 121
-618.50495981402 178.325532481877 2191.3012196975 121 125 126
-619.432874258323 178.020123741713 2198.44988545693 131 135 136
-620.359004815836 177.715101920693 2205.59310129734 129 133 134
-620.311623283209 177.322508383148 2212.96196071463 136 140 141
-622.207033088231 177.106370831697 2219.86278789536 139 143 144
-624.102310862124 176.890479615886 2226.76328039382 142 146 147
-624.048512157358 176.499343199235 2234.11016308103 142 146 147
-623.99168170741 176.108759601443 2241.44613851349 144 148 147
-623.932029953683 175.718827153757 2248.77112107755 149 153 152
-622.892585503708 175.241934007708 2256.30067236886 156 160 159
-623.803349347491 174.940675059985 2263.38828127169 168 173 169
-620.800190950839 174.290374025379 2271.31103668467 169 174 170
-618.768539307651 173.728454130971 2278.99935608145 166 171 167
-618.689736932982 173.341826972709 2286.25625195259 157 162 158
-616.647593625803 172.781582622812 2293.90667570837 99 103 102
-597.923930782539 170.742652465103 2304.9304137517 70 74 73
-559.536783623019 166.968278175614 2319.78473073649 179 183 184
-532.878641926616 164.24332938864 2332.08953780629 170 174 177
-521.907793573586 162.911955453322 2341.17224938021 167 171 172
-515.837097961182 162.016468032355 2349.24000363616 174 178 179
-513.692683513863 161.469077204198 2356.51882973394 174 178 179
-515.483204393476 161.268724305411 2363.04019049566 170 174 175
-516.28760098528 160.982135683911 2369.74214071529 163 167 168
-517.090071640269 160.695950410351 2376.43812398427 156 160 161
-516.903762985298 160.323886942507 2383.30413583652 149 153 152
-518.690436979874 160.124802126322 2389.81201446903 147 151 150
-519.487837386976 159.839795357807 2396.48991694774 144 148 147
-524.242010204636 159.899452503904 2402.4890030508 143 147 146
-528.010029377703 159.87286288095 2408.6685626417 148 152 151
-531.780409525628 159.846195244784 2414.85776783855 150 154 153
-535.55364413786 159.819421236602 2421.05657492169 157 161 160
-542.306854460106 160.049816202016 2426.79192060843 149 153 152
-547.080320603385 160.108231311889 2432.86278391397 149 153 152
-693.818295920507 183.435624306659 2065.00775104303 185 189 190
-683.29930448969 182.079299924465 2075.75236640159 173 177 178
-673.723263268198 180.811994998209 2086.15785291414 167 171 172
-659.317276660577 179.114525915054 2097.84164666607 164 168 169
-644.886692656516 177.420190475643 2109.4360935246 167 171 172
-635.251316885512 176.160585499159 2119.62614382925 168 172 173
-632.351724264914 175.506935336752 2127.93037518391 162 166 167
-631.375577609666 175.02672180742 2135.69284246482 167 171 172
-623.631995412655 173.944741255798 2145.22532450034 156 160 161
-616.840703214052 172.950699966852 2154.4526725187 146 150 151
-613.906915836879 172.302058835567 2162.6331078842 132 136 137
-616.775566450966 172.16945898185 2169.30380838382 129 133 134
-617.707630975812 171.86549099678 2176.46879219626 131 135 136
-617.668233011128 171.476270579105 2183.87035167038 144 148 149
-617.625845520586 171.087670305405 2191.26120314736 147 151 152
-618.551833488636 170.785184950817 2198.40456195066 148 152 153
-619.476264505542 170.483139614184 2205.54241790381 149 153 154
-619.426314102215 170.096179433863 2212.90622523701 155 159 160
-619.373345053215 169.709813882171 2220.25920034786 158 162 163
-618.343551188082 169.238917001442 2227.82743907473 166 170 171
-619.258554041874 168.938936970629 2234.9325230546 168 172 173
-618.221015551088 168.469390788646 2242.47378928731 168 172 171
-618.155425945524 168.085517357937 2249.78055111742 169 173 172
-615.155547760573 167.447747739782 2257.72339699385 161 165 164
-613.126166393929 166.895818811693 2265.42645325559 137 142 138
-612.069182739511 166.429489147136 2272.8975541476 126 131 127
-614.924276515108 166.302240908395 2279.5212994925 83 88 84
-616.800802864726 166.090612420293 2286.35486289093 81 86 82
-613.774263975104 165.457132035569 2294.20050177122 84 88 87
-588.169691418786 162.884761805433 2306.61701429315 79 83 82
-547.794023071623 159.053179071499 2321.84486419938 161 165 166
-525.045952730769 156.744192424718 2333.34247699656 149 153 156
-518.980579359327 155.869210381971 2341.44386673491 154 158 159
-516.84044850627 155.331880943458 2348.74494921332 147 151 152
-517.649126763372 155.047295522569 2355.46406113302 138 142 143
-516.484752629467 154.595350160843 2362.54552371844 139 143 144
-515.315811583985 154.144149609235 2369.61050049038 141 145 146
-512.168047602237 153.526242067575 2377.01681526345 144 148 149
-514.939958000882 153.411177701945 2383.33848027038 142 146 145
-519.689992393537 153.463211740644 2389.31738838157 143 147 146
-525.43327775718 153.59846214253 2395.14026074715 140 144 143
-526.232320265629 153.316435303986 2401.8252123756 140 144 143
-528.020287848993 153.118081815321 2408.33835557166 141 145 144
-530.799316465472 153.003197967098 2414.68749211802 144 148 147
-535.563881138355 153.054649067815 2420.71998027531 144 148 147
-543.311068823038 153.355048972314 2426.29364616398 141 145 144
-550.07288167983 153.571704384443 2432.05318596327 162 166 165
-689.158929094987 175.582734755042 2066.13031222258 181 185 186
-679.591705327815 174.345791640324 2076.58770507319 172 176 177
-670.969509500111 173.195049772549 2086.71097499047 171 175 176
-659.442540116698 171.795034823391 2097.58190221685 170 174 175
-646.931483368804 170.313913708855 2108.6451491547 170 174 175
-637.292134196088 169.08651804733 2118.83985325036 170 174 175
-629.565491925389 168.028472095244 2128.45034096529 173 177 178
-624.721645701454 167.22276823533 2137.23443982313 179 183 184
-616.968164779595 166.168360646471 2146.74757795861 157 161 162
-612.102028320234 165.365834006238 2155.44999444876 144 148 149
-614.001703759152 165.147267938681 2162.36512585417 151 155 154
-614.932642145218 164.845870827381 2169.52755164915 152 156 155
-619.739803947578 164.877072820973 2175.70541037319 156 160 159
-617.760032918219 164.327320205699 2183.59403410388 159 163 162
-620.628734855673 164.192909216331 2190.26378170086 157 161 160
-617.669034045493 163.561800655941 2198.36000373843 158 162 161
-617.619264649711 163.17998232902 2205.72680039173 165 169 168
-614.647039872636 162.550856567117 2213.77777523001 169 173 172
-612.64142325584 162.005378425428 2221.57313803899 172 176 175
-612.578751472765 161.625781708528 2228.89436228784 171 175 174
-614.463598269153 161.411587901729 2235.75719826642 169 173 172
-615.372416822364 161.115362988975 2242.84076291277 159 163 162
-614.32619737016 160.655124722848 2250.35567496796 153 157 156
-610.343279547928 159.949218989995 2258.50199015011 142 146 145
-608.307865469702 159.408660116642 2266.18982659346 118 123 119
-609.203014612379 159.115041493013 2273.22428487213 105 110 106
-614.014737071463 159.149427514763 2279.42108664942 75 80 76
-615.889727383958 158.938164417812 2286.24917773191 89 94 90
-607.954501725537 157.909773308779 2295.10395872491 72 76 75
-573.498152833132 154.678490688186 2309.30829932647 90 94 93
-537.023208022839 151.290328880303 2323.71251340386 160 164 165
-519.172025774093 149.457169164412 2334.20919319356 163 167 170
-516.049964134113 148.848723235097 2341.7169092908 159 163 164
-516.859082864268 148.566700800681 2348.4392747361 153 157 158
-517.666316851895 148.285091391478 2355.15583228678 143 147 148
-515.513932277661 147.760356954493 2362.41937092474 139 143 144
-512.368841367803 147.155462549861 2369.8428970808 134 138 139
-510.20348930552 146.632596212155 2377.06039841979 135 139 140
-512.973559562233 146.515304037935 2383.37382481866 142 146 145
-516.733443642735 146.478918034112 2389.51792450577 142 146 145
-520.496193077164 146.442482165229 2395.67170218573 140 144 143
-523.27102415837 146.325267671163 2402.00378265853 140 144 143
-529.020569709326 146.450009784193 2407.84233446668 142 146 145
-532.791654893854 146.413238137461 2414.02777818294 142 146 145
-538.550518553266 146.537299792409 2419.90142571838 142 146 145
-547.294634533035 146.902106603932 2425.32083373916 134 138 137
-556.048809122119 147.266031614478 2430.77610165942 138 142 141
-688.339276564937 168.088386935095 2066.1491339376 177 181 182
-671.070546738144 166.233614672082 2078.79470038161 176 180 181
-661.474047997481 165.032052632665 2089.16480972961 179 183 184
-650.896675338812 163.75168447251 2099.74062181379 177 181 182
-640.300488150049 162.473781138719 2110.24813539762 169 173 174
-633.544607070698 161.522131883455 2119.63372207218 173 177 178
-625.810233376486 160.491393793308 2129.23274528137 177 181 182
-621.926260250456 159.785785631903 2137.74661059892 168 172 173
-618.033569195478 159.08140236651 2146.22888129017 167 171 172
-616.067599897287 158.539570525688 2154.17374890595 167 171 172
-616.032687812058 158.159745367474 2161.59696622375 169 173 172
-614.056224410692 157.619625541003 2169.50488118998 166 170 169
-614.983706477681 157.321559814825 2176.65657761181 165 169 168
-612.027162219186 156.702838115199 2184.77233972254 166 170 169
-611.006212913659 156.245648747738 2192.38207077203 165 169 168
-610.95254616863 155.869299708046 2199.73877937557 168 172 171
-610.895867721715 155.493602260296 2207.08471750132 164 168 167
-608.889389965397 154.958621664824 2214.88351066917 160 164 163
-607.851123077217 154.504453378759 2222.43178130356 158 162 161
-609.7331356626 154.290414063435 2229.28419195 139 143 142
-612.590797063405 154.156406166812 2235.91227366745 131 135 134
-612.520436337914 153.783619770015 2243.20925005968 123 127 126
-611.470024393129 153.331924798723 2250.71399000074 118 122 121
-612.370808941797 153.039892860053 2257.77037318717 116 120 119
-610.334157866243 152.510214464063 2265.46141528819 113 118 114
-610.250366977305 152.140057148125 2272.70925895729 105 110 106
-614.083077227208 152.087319996289 2279.11342467899 99 104 100
-617.918706650893 152.034613404451 2285.52751899227 90 95 91
-605.073176080064 150.637933980348 2295.40131322091 83 87 86
-561.759694315982 146.795893085559 2311.40492514591 166 170 169
-529.190894783456 143.829353768483 2324.99187086491 153 157 158
-516.242776732831 142.444921884978 2334.49343936615 142 146 149
-512.131726962652 141.771764413114 2342.18377225385 141 145 146
-513.921692107922 141.571677970162 2348.70323790914 142 146 147
-515.711432021023 141.371877525214 2355.2220478857 151 155 156
-512.568560311763 140.779890059987 2362.66289128698 151 155 156
-510.405578638382 140.267356845535 2369.89478818595 146 150 151
-507.248534749887 139.677412828396 2377.28430318955 147 151 152
-510.016020364048 139.558022275598 2383.58680851083 144 148 147
-511.795198998957 139.360540856738 2390.06787064308 142 146 145
-516.544084387053 139.397522526166 2396.03393847008 139 143 142
-521.297264782991 139.434332308714 2402.01491527653 140 144 143
-529.029025689038 139.704687113486 2407.5123356566 141 145 144
-534.784614939811 139.818628427829 2413.36743650128 140 144 143
-540.545942111665 139.932187650372 2419.24267086707 137 141 140
-546.3125107172 140.045335720251 2425.13803509105 133 137 136
-553.078870199369 140.235672597002 2430.89783947381 108 112 111
-706.689130448896 162.567717127096 2052.86110120892 204 208 209
-688.479635973218 160.684327352087 2065.8920456818 174 178 179
-668.315077563323 158.647585122408 2079.36097202831 171 175 176
-656.784607319827 157.321583894248 2090.26562963612 159 163 164
-642.342598146008 155.762977792744 2101.90334947704 151 155 156
-633.662669994759 154.677495385813 2111.85440102193 139 143 144
-626.897520643488 153.750739385959 2121.22036369517 125 129 130
-619.153241328864 152.747589497682 2130.80002702362 134 138 139
-616.227561331084 152.136851471162 2139.03542255841 149 153 154
-616.196723739159 151.761241459994 2146.47735791695 158 162 163
-616.163157836456 151.386300727025 2153.90865711702 161 165 166
-616.126403112377 151.0119527257 2161.32942009055 166 170 169
-611.239126294124 150.24944811363 2169.97861438493 163 167 166
-612.163221452338 149.954503562542 2177.11970642485 164 168 167
-608.230777069335 149.272019003466 2185.46820649735 163 167 166
-608.176319383066 148.900859324453 2192.82525478175 159 163 162
-606.17415107283 148.375503880768 2200.64612489522 152 156 155
-605.139169135668 147.928407538684 2208.21105676412 157 161 160
-603.125928925448 147.404866954694 2215.99196489039 148 152 151
-604.030576423584 147.113832406501 2223.06332015121 145 149 148
-607.859371645529 147.054500546994 2229.44878658824 127 131 130
-610.715176806942 146.918165612342 2236.06850728264 120 124 123
-609.665063285272 146.474220148676 2243.57924784365 118 122 121
-608.610463267682 146.031039077853 2251.07381352227 117 121 120
-611.464117728547 145.895725591738 2257.6871229987 117 121 120
-612.361341983209 145.607181479397 2264.73248954224 112 117 113
-613.256710852128 145.319061438609 2271.77216416125 103 108 104
-616.11150475032 145.184475362263 2278.3892343711 93 98 94
-617.005051266675 144.897129308005 2285.42263160679 88 93 89
-597.279277433203 143.006596500496 2296.71573865436 79 83 82
-553.940651907579 139.289076310753 2312.70461257522 169 173 172
-527.250699426104 136.874733899093 2325.08741303971 158 162 163
-516.262317629719 135.683305062543 2334.19338038406 164 168 171
-510.178549117984 134.874477254161 2342.26730986971 160 164 165
-510.980667012283 134.598889587853 2348.96867418182 156 160 161
-511.781356719175 134.323777509186 2355.66410715263 152 156 157
-510.606573260651 133.897456781405 2362.72310000833 150 154 155
-510.414732639863 133.547587282979 2369.58351388865 145 149 150
-509.231792713203 133.122679159702 2376.61218619881 146 150 151
-508.044030133631 132.698538287248 2383.62436636842 144 148 147
-507.841364817157 132.350599474094 2390.44580920886 142 146 145
-512.587991303927 132.380224369641 2396.39791647357 139 143 142
-520.312247001978 132.635590313735 2401.85800830538 138 142 141
-528.044877176098 132.890262098216 2407.34875466945 137 141 140
-533.800548341333 132.993911520403 2413.19766188455 134 138 137
-539.561712261808 133.097156743588 2419.06670743321 126 130 129
-545.328344788579 133.200029443917 2424.95582165381 153 157 156
-552.095407665635 133.37743908367 2430.70914700072 151 155 154
-693.380156071562 154.048462438705 2056.51739826621 179 183 184
-679.961089134893 152.602652251978 2068.12799519382 159 163 164
-661.705445662585 150.780358851889 2081.02617053987 160 164 165
-652.090190251659 149.644256505527 2091.36889689323 155 159 160
-641.493480263073 148.434765723228 2101.91766152735 159 163 164
-633.772614522102 147.45472951684 2111.59884763457 170 174 175
-623.140437050519 146.24991839007 2122.01888294527 165 169 170
-616.354678491643 145.349555189756 2131.32591972442 167 171 172
-613.424237689579 144.752617857183 2139.55142333918 162 166 167
-613.38961638599 144.382759959525 2146.98294210124 149 153 154
-612.383613213202 143.938319783682 2154.65714340689 129 133 134
-613.311728829109 143.644975395206 2161.81417287714 105 109 108
-610.358381247682 143.051821095338 2169.95794554103 108 113 109
-606.427361162811 142.384833639217 2178.32058879035 121 126 122
-603.458659740598 141.794032751684 2186.40884147403 124 129 125
-603.399200363224 141.428845396639 2193.75016104986 125 130 126
-604.309265727855 141.139011191111 2200.84331864313 129 134 130
-603.270814096645 140.700331223805 2208.4006818765 129 134 130
-603.202339304209 140.337038600876 2215.70972521784 118 123 119
-603.130616009657 139.974345611965 2223.00801510755 119 124 120
-606.958908424842 139.909966715659 2229.3874992643 113 118 114
-607.860379977967 139.622556145639 2236.45027987637 115 120 116
-607.783391084275 139.261389107355 2243.72905401134 117 121 120
-605.747503418321 138.752512108142 2251.43513439303 122 126 125
-608.598577105313 138.614984263228 2258.03746393167 118 122 121
-610.471669003218 138.403608570636 2264.85843548587 111 116 112
-615.284740507285 138.414298762564 2271.04528569631 103 108 104
-621.082653781658 138.498635516626 2277.03883657579 86 91 87
-618.052677365514 137.918777295102 2284.90649584303 94 99 95
-591.442467336424 135.571817647539 2297.62697733135 101 105 104
-547.097043195125 131.905041388054 2313.80709178722 170 174 175
-526.291498243367 130.010582358527 2324.98599089771 170 174 175
-517.265176642968 129.001316543146 2333.6981416006 165 169 172
-511.178085414212 128.214174381802 2341.77342567146 155 159 160
-510.993954721685 127.868236685656 2348.66494733844 150 154 155
-509.820248828677 127.449705328179 2355.73285878433 147 151 152
-507.654809837929 126.95880099777 2362.96928749063 147 151 152
-507.459175766269 126.614872480027 2369.81936785556 146 150 151
-506.271794075539 126.198615993612 2376.83793997938 147 151 152
-508.048141965832 126.001678588488 2383.30883557348 142 146 145
-509.824237003118 125.805030375856 2389.77897495493 141 145 144
-514.572683582846 125.8268051628 2395.73288372045 140 144 143
-520.3167085472 125.920984768799 2401.53257212808 138 142 141
-525.073999311554 125.942242137569 2407.51899094696 136 140 139
-530.828540282335 126.035746991108 2413.35636819949 137 141 140
-536.588328368578 126.128854476457 2419.21390510836 124 128 127
-542.353592952786 126.221588526238 2425.09153941313 142 146 145
-716.534983213906 148.778526891236 2041.74413001644 192 196 197
-688.713810924125 146.271173005018 2057.66178026094 182 186 187
-670.472008479511 144.502344637129 2070.64509965244 167 171 172
-657.978364289126 143.176651983363 2081.87112539691 164 168 169
-654.137642316957 142.512023660516 2090.57144629649 169 173 174
-648.35924363794 141.702610350675 2099.77878446518 171 175 176
-639.67337835137 140.675963616895 2109.74400933171 168 172 173
-624.209326413481 139.141284583551 2121.49944040957 165 169 168
-615.486528473704 138.119530284351 2131.33063040042 166 170 169
-611.584927867555 137.463473689099 2139.81033260399 165 169 168
-609.611036610993 136.954011864502 2147.74622427466 160 164 163
-609.568948855462 136.590635281238 2155.15411352665 159 163 162
-611.4632321524 136.372822816224 2162.04970075092 156 160 159
-610.446385362241 135.938171743783 2169.68982215798 149 153 152
-608.454115970514 135.432062978218 2177.55959636073 128 132 131
-605.484032476075 134.854650438735 2185.65117038318 119 123 122
-608.341945329956 134.711240862692 2192.27424996841 112 116 115
-607.308083177761 134.279756354566 2199.85319587409 105 109 108
-604.321768125935 133.705145338098 2207.88627404023 111 115 114
-601.328342885739 133.131667061064 2215.89273960038 114 118 117
-602.228871351508 132.846531803628 2222.95345522719 111 115 114
-605.08038897291 132.705306028045 2229.55416930495 114 118 117
-606.956194436272 132.492605586138 2236.38437941848 120 124 123
-606.876628306271 132.137101755798 2243.65808925568 121 126 122
-604.837588387558 131.639261671871 2251.35943407122 120 125 121
-607.6875193202 131.499367595615 2257.95602687234 117 122 118
-612.498270480857 131.502282176322 2264.12935298861 104 108 107
-618.293561990837 131.576206484229 2270.10659589735 94 98 97
-624.094673336533 131.649796992894 2276.10430694956 93 97 96
-615.172594817739 130.657004406559 2285.2148211403 91 95 94
-577.738778907845 127.607532779992 2300.16908639258 144 148 147
-537.297007120812 124.35211765871 2315.51526925036 166 170 171
-520.41033736188 122.803824531114 2325.87652434208 163 167 168
-514.328793022691 122.037140020119 2333.9853188162 161 165 166
-511.191781379078 121.484001464919 2341.47244666071 153 157 158
-510.019871667313 121.073147483049 2348.55187406855 142 146 145
-506.869680034939 120.522031410804 2355.99041506536 144 148 147
-505.687221207619 120.112874059604 2363.0317468385 145 149 148
-505.488528084153 119.774772702424 2369.87414850775 141 145 144
-508.254281432975 119.64813062979 2376.16564403733 142 146 145
-510.031248499575 119.451381562612 2382.63895741843 138 142 141
-514.779611863957 119.465251977688 2388.58756681508 134 138 137
-519.531811945115 119.478873702628 2394.55119320172 133 137 136
-521.31232756748 119.282479631986 2401.0379058011 134 138 137
-524.085461185503 119.156211530249 2407.35703892938 125 129 128
-530.833180045691 119.309177632154 2413.02404038533 131 136 132
-539.576217874701 119.60106353051 2418.39340699654 129 134 130
-544.349629685436 119.613582218713 2424.43416295556 124 129 125
-716.687254233601 141.30458603074 2041.48807688145 183 187 188
-685.966734146689 138.668445931581 2058.24866929188 175 179 180
-663.862098860448 136.673875717021 2072.33466543488 173 177 178
-655.210793887521 135.671277495184 2082.44338894381 175 179 180
-650.40049978177 134.952653491449 2091.40610888044 172 176 177
-647.509866013348 134.376190196632 2099.79326346725 169 173 174
-639.783645257108 133.449542926494 2109.48827443173 166 170 171
-626.244424137791 132.103729983186 2120.71589545332 161 165 164
-620.419241864287 131.321794192697 2129.76688317227 157 161 160
-614.582447820384 130.541504635033 2138.77579800879 155 159 158
-611.639557986293 129.972702474307 2146.97377290469 156 160 159
-608.689372517309 129.405061805374 2155.14539384325 157 161 160
-612.522259720954 129.327024085529 2161.53331408286 143 147 146
-612.474783444227 128.970191767162 2168.92532851804 143 147 146
-610.481536626609 128.4747672961 2176.79821923424 143 147 146
-605.56581288117 127.771788298953 2185.37937702048 142 146 145
-606.477401073878 127.486926316978 2192.48039875509 136 140 139
-606.413630299309 127.13319163298 2199.81387059759 122 126 125
-606.347091489719 126.780101938292 2207.13654345856 113 117 116
-603.352034393289 126.220091527413 2215.1463821845 108 112 111
-604.253023899537 125.937668430769 2222.20959285808 109 113 112
-606.128878057573 125.724760174696 2229.03985256241 108 112 111
-608.004588898075 125.512186209185 2235.86979121038 114 118 117
-606.946213616025 125.093313729358 2243.36568724377 125 130 126
-606.86196906064 124.744040972208 2250.62596097788 125 130 126
-607.754249378314 124.464112621403 2257.65841119317 111 116 112
-612.565392873778 124.459183363282 2263.82824178247 95 99 98
-617.38068659304 124.454062943024 2270.01336064956 90 94 93
-621.218382321201 124.380314333434 2276.42277094043 92 96 95
-612.289126094465 123.417545493093 2285.52466210732 108 112 111
-572.870051077306 120.339450856308 2300.88354811535 132 136 135
-532.406509337911 117.200223362852 2316.22225819252 133 137 138
-518.461167349337 115.908066786989 2325.97590784556 137 141 142
-513.359232522164 115.231389759216 2333.88230606824 133 137 138
-511.204735169633 114.76003031755 2341.17169855231 138 142 141
-507.070893072375 114.153824636125 2348.82060687476 134 138 137
-504.902971827249 113.684508749052 2356.06144927002 139 143 142
-501.740821060515 113.14835821784 2363.46596582653 144 148 147
-504.504227310396 113.019301461547 2369.74722253291 143 147 146
-506.279160536539 112.822773176578 2376.21312405334 144 148 147
-512.014727853344 112.896514060756 2381.9685069343 143 147 146
-516.76493025179 112.902459968602 2387.91894118498 138 142 141
-520.527357565176 112.840882510875 2394.05657883212 120 124 123
-522.307774696001 112.644730896851 2400.54307882613 115 119 118
-526.074234536608 112.583257416619 2406.69482507994 119 123 122
-531.830820974999 112.655910403078 2412.52756099804 131 136 132
-538.587612024362 112.795241323899 2418.21870815227 143 148 144
-750.407888172647 136.592314381278 2023.43334692276 194 198 199
-719.724119050559 134.041230696384 2040.3840886298 176 180 181
-683.216297668316 131.088159745694 2058.83725241334 169 173 174
-661.098582593748 129.161071497271 2072.91729044654 171 175 176
-649.548062878519 127.984808931133 2083.84204544768 174 178 179
-645.694379484203 127.353292321258 2092.51514812936 176 180 181
-641.832002150069 126.723098924124 2101.1568073237 175 179 180
-635.062622322216 125.891475301441 2110.56805369175 173 177 178
-625.37995593062 124.859213140751 2120.7251265207 166 170 169
-620.517475580376 124.166380844021 2129.51037269334 158 162 161
-616.613020370514 123.542353707296 2137.99969803617 154 158 157
-614.63789092427 123.054177586152 2145.94443123006 146 150 149
-612.656670572896 122.567045369924 2153.86813817641 143 147 146
-613.581139425456 122.282137835174 2161.01695451686 144 148 147
-614.504079479515 121.997724828782 2168.16040694744 140 144 143
-611.537806944737 121.44612635938 2176.28242796864 134 138 137
-607.591686869769 120.828853146669 2184.62132390747 132 136 135
-608.503495869409 120.546680647842 2191.7248634538 120 124 123
-607.465578695197 120.131637531532 2199.29913409157 115 119 118
-609.347515053232 119.917202667516 2206.15101199207 125 129 128
-603.425545802284 119.171040375586 2214.86523414773 115 119 118
-605.301448891965 118.957909836342 2221.69553518771 117 121 120
-607.177200535473 118.745128969376 2228.52549470249 117 121 120
-611.007961250843 118.66522157804 2234.90526831772 121 125 124
-610.928256113629 118.320572160731 2242.18438593404 128 133 129
-610.845272406604 117.976554738118 2249.4526588941 119 124 120
-611.739205670561 117.699222444385 2256.49288518949 107 112 108
-614.592459066996 117.554250588988 2263.09860780356 101 105 104
-617.446974336743 117.409421623614 2269.7091057192 103 107 106
-617.357006851336 117.06747546601 2276.9518279447 120 124 123
-607.436743262748 116.069097540814 2286.24907070394 125 129 128
-567.99630491248 113.10448625013 2301.60028628703 155 159 158
-530.463449289075 110.278038483455 2316.32764208399 173 177 178
-516.509389675358 109.029290678539 2326.07633092898 180 184 185
-509.431336854286 108.241100021832 2334.36802724994 165 169 170
-507.271290655743 107.781061977972 2341.6448947167 156 160 159
-503.131555340532 107.191618513155 2349.28157643948 146 150 149
-500.958079093672 106.733639177427 2356.5098805296 143 147 146
-499.767475079376 106.341677793487 2363.53089843091 142 146 145
-503.517897049423 106.275365575799 2369.62097331165 144 148 147
-504.30144476405 106.014338113953 2376.26165371465 144 148 147
-511.026916322811 106.142625930479 2381.8304747233 135 139 138
-516.768293373603 106.205708440595 2387.59976984596 128 132 131
-522.514932849252 106.268420695111 2393.38929858321 136 140 139
-524.295961264717 106.072458331744 2399.87818764024 134 138 137
-529.05729275559 106.07027178663 2405.8648076248 133 137 136
-535.810983161169 106.196725670842 2411.53724183207 125 130 126
-536.602093276107 105.936614337874 2418.20657834105 139 144 140
-743.844229445952 128.573188855798 2025.1733335815 187 191 192
-715.06503416023 126.24489072162 2041.54339902187 172 176 177
-683.350933787763 123.726332315492 2058.58650690074 167 171 172
-656.404392199806 121.540271193412 2074.05708754278 152 156 157
-645.808056227306 120.467224704463 2084.69338460919 164 168 169
-637.123108834922 119.526875897206 2094.71650142998 172 176 177
-632.285293212715 118.848636452812 2103.60253606669 174 178 179
-629.370176389306 118.301750586566 2111.91746350888 172 176 177
-622.579195128988 117.49677876769 2121.26440552313 166 170 169
-618.67878495412 116.887794079564 2129.77824630265 161 165 164
-613.801050852422 116.215528917013 2138.51984329761 157 161 160
-614.729271795771 115.932173237796 2145.68449919862 147 151 150
-612.745859936676 115.455872867757 2153.60597914445 141 145 144
-610.756588252322 114.980596814151 2161.50634940736 140 144 143
-609.732940492512 114.570618712224 2169.136797369 130 134 133
-609.677070115441 114.225718386976 2176.50517939061 108 112 111
-606.699424662852 113.68904637545 2184.5934697586 106 110 109
-605.661751105441 113.281672455795 2192.17348682708 114 118 117
-605.594015710248 112.939039758286 2199.49924802333 116 120 119
-605.523490655102 112.597170083908 2206.81420446928 122 126 125
-602.522035615229 112.064457727326 2214.81752344758 124 128 127
-604.396390279189 111.851607362443 2221.64225237377 124 128 127
-606.270588840232 111.63915053321 2228.46665017821 138 142 141
-610.100849669639 111.554138000873 2234.84041567357 141 145 144
-609.039861132538 111.151626814903 2242.33693886755 130 135 131
-610.912878533537 110.940230855052 2249.15762103365 112 117 113
-611.805588941699 110.665783894471 2256.19512875345 106 111 107
-611.715577770547 110.328586938286 2263.44161620201 103 107 106
-610.640904904796 109.928871507579 2270.88909725928 100 104 103
-611.526578535255 109.656162647812 2277.90157614851 113 117 116
-600.613271187961 108.627805010637 2287.38923482655 119 123 122
-566.06927014562 106.091480413726 2301.70690028938 149 153 152
-530.48697274459 103.498573373276 2316.03110108701 165 169 170
-516.525639680974 102.293067313225 2325.78008561206 162 166 167
-508.45698516942 101.466621165961 2334.26696890164 154 158 159
-504.320497143 100.892478575204 2341.92629636462 143 147 146
-501.162711064886 100.382200742401 2349.36242379934 142 146 145
-499.973669903495 99.9978932578009 2356.39500556104 141 145 144
-498.78007934981 99.6143429987252 2363.41117439337 142 146 145
-501.540238359495 99.480758962933 2369.67844546858 144 148 147
-503.311370794107 99.2850890648557 2376.13077733553 143 147 146
-511.028500727958 99.4625002177665 2381.51519602732 137 141 140
-514.787055966201 99.391066420393 2387.63130561899 136 140 139
-521.525456160083 99.5054680839225 2393.23936112584 123 127 126
-523.304929597321 99.3099455103331 2399.72275451372 116 120 119
-531.047677919073 99.4855924214127 2405.20117540877 129 133 132
-532.830958920803 99.290120498329 2411.69873751543 125 130 126
-527.646487679185 98.6633534877993 2419.33020478005 140 145 141
-734.308515938117 120.770057844648 2019.91228038046 195 199 200
-728.617319588472 120.032746288541 2029.48890497964 188 192 193
-711.363468531807 118.544449087171 2042.4220155722 176 180 181
-682.52163480863 116.308261372737 2058.61674144558 172 176 177
-656.525386162321 114.265436299116 2073.80968488583 164 168 169
-642.064101086866 112.977514431861 2085.54673293696 169 173 174
-629.509006084056 111.817540951043 2096.64923026921 172 176 177
-627.560324260116 111.345773305438 2104.70251775358 174 178 179
-624.638765040409 110.812803272602 2113.00231156971 170 174 175
-619.774835545005 110.156733588087 2121.8053873392 173 177 176
-612.964185345533 109.37812516706 2131.09594690664 168 172 171
-608.078242668864 108.725258593405 2139.82024334757 165 169 168
-609.970860950597 108.507089914963 2146.70942380221 153 157 156
-609.922520906303 108.165687169007 2154.10704363947 143 147 146
-606.957258960112 107.639764515429 2162.249027144 138 142 141
-606.900809190899 107.299964013214 2169.61754873492 141 145 144
-606.841145484194 106.960816913841 2176.9754791527 147 151 150
-605.805158456823 106.560901985922 2184.56646719357 147 151 150
-603.790676401107 106.100441515101 2192.38259007207 146 150 149
-604.694870800924 105.824868555903 2199.46202470551 145 149 148
-606.572990903724 105.611033918454 2206.30011254993 142 146 145
-605.522090971507 105.214143486366 2213.83764140629 147 151 150
-606.420611156746 104.940172786889 2220.89794939853 147 151 150
-606.340108332986 104.605753628366 2228.18056421087 148 152 151
-607.234960590576 104.332907476844 2235.22703486485 139 143 142
-608.127976480681 104.060526522115 2242.26791016968 105 110 106
-609.999449164824 103.849424749276 2249.08304283913 100 105 101
-612.851539935001 103.699294427714 2255.68026304178 104 109 105
-611.779339883869 103.307062583794 2263.14164992001 107 111 110
-610.702632896736 102.915640821512 2270.58681487133 113 117 116
-610.604114099766 102.585464403045 2277.80614757266 120 124 123
-598.700585290202 101.532028499973 2287.49779531945 110 114 113
-560.202301077791 98.8544652879071 2302.63195130462 159 163 162
-524.599778061374 96.3643314559646 2316.94501495753 166 170 171
-512.598265662604 95.3227477419936 2326.28035169359 155 159 160
-504.521875806851 94.5237398845046 2334.755838266 140 144 145
-502.353338950936 94.0861584849858 2342.01535953568 133 137 136
-500.179038698051 93.6495973865457 2349.25319758419 145 149 148
-499.975961792534 93.33348483012 2356.09227668505 146 150 149
-498.780330013865 92.9583012690298 2363.10614914419 147 151 150
-500.550151643523 92.7627107640994 2369.55366437393 144 148 147
-503.310373819581 92.6269531829817 2375.81979771078 139 143 142
-510.037491975542 92.7291278924857 2381.37824576336 143 147 146
-515.779712960525 92.7714613111248 2387.13757435814 132 136 135
-522.520004195138 92.8727190354291 2392.74435253345 131 135 134
-525.292913473005 92.7366205723179 2399.05737537766 135 139 138
-530.055709259315 92.7189710210023 2405.03966947157 115 119 118
-528.852293265011 92.346796216758 2412.02654023528 118 123 119
-553.534005120277 93.508688750863 2414.7765849945 162 167 163
-715.237277995118 112.058279259567 2025.43265303234 194 198 199
-714.33870471958 111.644811283837 2033.52527471653 189 193 194
-690.32436614498 109.791247837858 2048.40351092443 181 185 186
-669.16234201469 108.1225134417 2062.29770381396 177 181 182
-648.92998091887 106.518008195029 2075.78778387977 179 183 184
-637.350672367539 105.455813381127 2086.67766798216 176 180 181
-626.716901946617 104.456040565764 2097.22123944012 171 175 176
-622.830369327967 103.876095941575 2105.80493924204 164 168 169
-620.869826219735 103.416617961435 2113.82194715399 155 159 160
-618.903465561365 102.958130525202 2121.81798102005 151 155 154
-613.05609503744 102.263193807785 2130.84244379675 154 158 157
-608.166740236161 101.629243130096 2139.56508517172 158 162 161
-605.207688813053 101.115202409704 2147.7366997393 162 166 165
-601.270264216233 100.543223287235 2156.13647660163 158 162 161
-600.239029149702 100.149690738728 2163.74913724197 154 158 157
-602.120474036454 99.9338829975406 2170.59832364316 156 160 159
-604.001832307745 99.7183741058392 2177.44737713603 156 160 159
-602.961645331488 99.3269166855221 2185.0281112174 155 159 158
-599.967873624419 98.8188773429822 2193.07553415393 159 163 162
-602.818536989059 98.6637420156341 2199.66429478095 162 166 165
-604.694384368629 98.4502857627702 2206.49418334167 166 170 169
-606.570115026465 98.2371029581361 2213.32381117837 160 164 163
-604.536086863386 97.790831852871 2221.07632161376 159 163 162
-603.474209962796 97.403847038085 2228.57934902618 138 142 141
-602.407853273104 97.01769804846 2236.06627155592 120 124 123
-604.275774552334 96.8067759477579 2242.86833199057 105 110 106
-608.103993588242 96.7122876675921 2249.22946323822 112 117 113
-610.954213834666 96.5598608432569 2255.81828866116 112 117 113
-611.841885114722 96.2918239518661 2262.84206309057 113 117 116
-612.728158589191 96.0243313423007 2269.86006235034 127 131 130
-611.646326151201 95.6419073745095 2277.2918782436 132 136 135
-593.83354649733 94.2803301860588 2288.22887186154 131 135 134
-552.360622668957 91.5408449543349 2303.96864079739 163 167 166
-520.677309287051 89.3835882613214 2317.45784134118 148 152 153
-511.624697556515 88.5523663249726 2326.1847895281 144 148 149
-505.516409888272 87.8952093966658 2334.26344124486 136 140 141
-505.321283396884 87.5830514584649 2341.13546443657 133 137 136
-501.170134999511 87.0429247109363 2348.76183663822 140 144 143
-500.966147311831 86.7324052985583 2355.60106540176 139 143 142
-498.779355115717 86.308474057758 2362.80142616685 142 146 145
-499.558014289342 86.0562870162061 2369.42953775381 142 146 145
-502.317088580366 85.9182360051298 2375.68996126689 140 144 143
-508.053147439977 85.9506242044414 2381.42013220706 140 144 143
-513.794466040617 85.9826857833468 2387.17055434626 137 141 140
-519.541291758013 86.0144281518633 2392.94122179789 132 136 135
-524.299696900067 85.9892857547577 2398.90248369965 137 141 140
-531.051466438834 86.0768395056851 2404.54322659722 118 122 121
-526.860631328663 85.54388046638 2412.02584610587 119 124 120
-707.748142202295 103.803302458869 2035.27843978266 164 168 169
-681.790412321622 101.908208065658 2050.70766526805 160 164 165
-663.503688992745 100.476515170649 2063.73705190886 154 158 159
-648.081091796211 99.2202774619502 2075.82126056975 154 158 159
-637.460064383388 98.2529108448111 2086.43260389629 155 159 160
-625.853804278608 97.2310853005193 2097.24883822907 155 159 160
-621.963539381299 96.667436345533 2105.82804002178 155 159 160
-619.031980020267 96.1619643551908 2114.10806609764 155 159 160
-617.061743146759 95.7144675897187 2122.09664727076 151 155 154
-612.178191278498 95.0979844219206 2130.85186186998 149 153 152
-611.163923469131 94.7093926095892 2138.53063793286 144 148 147
-607.233436407877 94.1521502867769 2146.96547654885 132 136 135
-603.294212742476 93.5962361110492 2155.3687163885 132 136 135
-602.262391598487 93.2107142246631 2162.98425855082 136 140 139
-605.11738387913 93.051150121684 2169.58629549742 136 140 139
-604.079601536124 92.667010874484 2177.18057782215 143 147 146
-602.063013732943 92.2276115922748 2185.00310842746 149 153 152
-599.065910998811 91.7332509076007 2193.04587087936 159 163 162
-600.939617058029 91.5197245939587 2199.86776490459 161 165 164
-603.789497906946 91.3624486251903 2206.45319773768 164 168 167
-606.640697369826 91.2053378673039 2213.04363063147 159 163 162
-603.626484413827 90.7142846923474 2221.02495437157 157 161 160
-599.626203690173 90.168811404519 2229.20809315082 154 158 157
-599.534346718233 89.8467676746239 2236.45636543411 159 163 162
-603.359094687645 89.7471930330966 2242.80139802988 164 169 165
-606.205938082077 89.5922613017457 2249.37703341857 163 168 164
-610.035643716969 89.4928136152413 2255.73962398484 158 163 159
-610.92157852209 89.22784412947 2262.75795879998 156 160 159
-616.720138608917 89.2389016121658 2268.70764647161 154 158 157
-611.704837109341 88.6442701995979 2276.98749656629 150 154 153
-587.97723508306 87.0069387349682 2289.16959752565 152 156 155
-544.511273085095 84.2765129325649 2305.3088958031 160 164 163
-514.779259803041 82.321047874849 2318.37672205679 166 170 171
-507.68987114746 81.6295190037907 2326.68828685963 155 159 160
-503.54913704132 81.1037052056197 2334.36143270791 149 153 154
-504.338778815079 80.8518871767054 2341.0314825344 144 148 147
-501.172467702652 80.3827573929455 2348.46193691162 144 148 147
-501.956132684775 80.132244294047 2355.10969092418 146 150 149
-499.767633199212 79.7192550593009 2362.31062106797 150 154 153
-499.555043659638 79.41573819916 2369.12233388624 143 147 146
-502.313700044917 79.2753093323734 2375.37970454358 135 139 138
-505.07354333266 79.135032026364 2381.64157762468 137 141 140
-511.806610511391 79.2109497672663 2387.20460693492 138 142 141
-517.55278169411 79.2323987680554 2392.96634553407 131 135 134
-526.287683630404 79.4150651074625 2398.23654965841 145 149 148
-529.061621260873 79.2743708146105 2404.55048900798 133 137 136
-718.423554838281 97.3342533941109 2024.07037495449 183 187 188
-706.929570886889 96.3343983579666 2035.31641064544 166 170 171
-682.886005913484 94.6266092550874 2050.17816925164 159 163 164
-663.62628172335 93.1966429936441 2063.49240488789 157 161 162
-649.1607526742 92.0432877663279 2075.29865422828 154 158 159
-638.534380817164 91.1107947331925 2085.91217203622 152 156 157
-629.822392895739 90.2895610826282 2095.91102476917 154 158 159
-622.06204006354 89.5247369155627 2105.58147666105 150 154 155
-618.159601931843 88.9786055431345 2114.12747032744 147 151 152
-614.248675677703 88.4338962494894 2122.64191806243 147 151 150
-611.298286414379 87.9445237326426 2130.86219676638 151 155 154
-611.251470461907 87.6181012595263 2138.27586204041 146 150 149
-606.34681089332 87.0232377459043 2146.96635740317 136 140 139
-600.460317733811 86.3761288069565 2155.87483243478 139 143 142
-597.479305878887 85.8917421056748 2163.98456324092 137 141 140
-600.330271160339 85.7300153742879 2170.57028335844 136 140 139
-600.260659328535 85.4079912335401 2177.90208887719 145 149 148
-598.238976908843 84.9798173229484 2185.71186225939 153 157 156
-596.211399683194 84.5527295408778 2193.50043510711 157 161 160
-599.058100669308 84.3928463697759 2200.07241568178 153 157 156
-598.97576346225 84.0736803757268 2207.35877886051 146 150 149
-597.912973972073 83.7021380844018 2214.86816760754 145 149 148
-596.845949621662 83.3314681944442 2222.36145491458 144 148 147
-593.816238355175 82.8557754423193 2230.29586325478 146 150 149
-596.657197849743 82.6983181784475 2236.84805838747 154 158 157
-600.47999386628 82.5938063347116 2243.18179765127 149 154 150
-602.343198286736 82.3840074262403 2249.96705443855 146 151 147
-605.187991853434 82.2271465278875 2256.53386124356 137 142 138
-607.051584376434 82.0179381637652 2263.32093181829 134 138 137
-611.864822238251 81.9664091495931 2269.46911773295 127 131 130
-605.858332194241 81.3388973228736 2277.9444404419 124 128 127
-584.084391176094 79.8765914134631 2289.69796302165 126 130 129
-542.56715051057 77.374596969886 2305.42313147786 147 151 150
-514.792383071786 75.6096935254231 2318.08456877341 158 162 163
-506.711723560439 74.89055050189 2326.59462542661 146 150 151
-503.554323474456 74.4330915832871 2334.06646209429 144 148 149
-502.366225197084 74.0805476579729 2341.12259844804 148 152 151
-499.195639280743 73.6252274307251 2348.54589994721 145 149 148
-498.986695250403 73.3261630725643 2355.37488792592 151 155 154
-498.774885013131 73.0277261745868 2362.19270136307 147 151 150
-500.542210814617 72.8330308718009 2368.63151525576 134 138 137
-502.309290706884 72.638681724818 2375.06963468036 125 129 128
-506.061295176392 72.5474046996361 2381.1498235989 130 134 133
-507.829324427512 72.3535234185112 2387.59176319287 131 135 134
-514.56764686174 72.4161247559274 2393.16589695673 140 144 143
-523.302374354393 72.580585972938 2398.42395964479 140 144 143
-531.051462687976 72.6931552479961 2403.88609584395 158 162 161
-707.02015866466 89.2657442660495 2027.29364678045 186 190 191
-701.291834481848 88.6169212502661 2036.78829004386 172 176 177
-688.802478591634 87.6059782931862 2048.22895388751 165 169 170
-670.502220469813 86.2865022945325 2061.27893636859 160 164 165
-655.068276990018 85.1264221239746 2073.38265636172 156 160 161
-642.507613046427 84.1249465308261 2084.56361555464 142 146 147
-633.793263615476 83.3328980814155 2094.5721264737 139 143 144
-625.063210834917 82.5431639542466 2104.52286605285 140 144 145
-617.285681152616 81.8070722166601 2114.14768381868 142 146 147
-612.401390061758 81.2272406717882 2122.92329374526 148 152 151
-610.416608110928 80.8028503127129 2130.87338909492 146 150 149
-609.397059918881 80.4307620987444 2138.54205061736 147 151 150
