ply
format ascii 1.0
comment KinectMotionCapture
element vertex 751
property float x
property float y
property float z
property uchar red
property uchar green
property uchar blue
end_header
-751.461454782328 415.87951240387 2376.77800973151 172 177 173
-759.58462855747 415.960642042888 2372.74077045275 168 173 169
-768.179839575577 415.215208346577 2372.67778910335 172 174 173
-775.879632632243 416.117830788711 2364.66023320169 176 178 177
-783.834300117234 416.60567047716 2358.62733699018 173 175 174
-792.027624513726 416.679643620326 2354.58136217497 168 170 169
-800.546519164697 416.135388360986 2353.51968776257 186 188 187
-808.864421268305 416.001109659843 2350.46664217677 184 186 185
-816.704255652316 416.891406500719 2342.4316424044 181 183 182
-824.961923690347 416.958652808169 2338.37765559801 183 185 184
-833.143244691724 417.22887117218 2333.32497483256 185 187 186
-841.166707010477 417.906554604526 2326.27530638756 189 191 190
-848.700685159974 419.808306128514 2313.23689600671 192 194 193
-856.551951921172 421.092297115979 2303.18381829661 193 195 194
-864.45156337449 422.372494106668 2293.12495771484 189 190 192
-872.241782773087 424.056886892863 2281.06282944567 182 183 185
-879.938798862708 426.144329721937 2266.99589678412 200 202 201
-888.293147746597 426.597632142024 2260.91345391832 192 194 193
-897.027732116549 426.031394547131 2259.82492059384 169 171 170
-905.761891960825 425.464527052845 2258.73644190646 171 173 172
-914.234287278925 425.709393982383 2253.6475035492 184 186 185
-922.539929074678 426.560938444469 2245.55447581868 154 156 155
-930.762955924292 427.814855906063 2235.45508384492 168 170 167
-939.377492656984 427.849692634318 2231.3566472847 189 191 188
-948.007638638972 427.882758575307 2227.25626744575 183 188 184
-956.601614461873 428.116475963935 2222.15218592218 189 195 191
-964.823489819514 429.964311437179 2209.02807202255 195 201 197
-973.109592441269 431.807398320961 2195.89595544532 185 191 187
-981.678447458904 432.637217648179 2187.77013747318 188 193 189
-990.079276512672 434.471385804482 2174.62396747137 190 195 191
-998.544144688311 436.300874575367 2161.46957782001 191 196 192
-1007.00179666156 438.527756350352 2146.29966799132 195 200 196
-1015.50134456189 440.950074922582 2130.11608775584 196 198 195
-1024.3531805286 441.559398707036 2122.96322319958 196 198 195
-636.60774059829 419.888821923115 2363.89080180974 137 140 129
-645.759761325286 418.531274092864 2366.78348771334 188 190 185
-653.845755825127 418.614593098527 2362.75088242272 184 186 183
-662.38791209459 418.0794864908 2361.6862810052 172 173 175
-671.505757804953 416.722142469019 2364.58299094338 171 175 176
-681.025698247126 414.749996381045 2370.45444245886 179 183 184
-690.784955592783 412.369197255429 2378.31271927796 154 158 159
-699.681351511454 411.2202469482 2380.22882894532 157 161 160
-708.827804027887 409.662136085853 2384.13018473374 141 145 144
-717.947427528214 408.105139667779 2388.03512595865 146 150 149
-726.146723733108 407.979668505257 2384.99661822474 200 204 203
-734.356969621082 407.852845344852 2381.95698786429 186 190 189
-742.333620123537 408.132695725478 2376.92958313279 168 172 171
-751.049151746825 407.187463327023 2377.8600400129 155 160 156
-759.520257970749 406.649596907526 2376.80431248889 167 172 168
-767.649010342772 406.721651717837 2372.76640093245 170 172 171
-775.682543267867 406.995193366908 2367.73215449345 173 175 174
-783.411495045088 407.876190185557 2359.71101670616 171 173 172
-791.814305864023 407.53636094136 2357.65536315415 165 167 166
-799.912499504646 407.803812499396 2352.61306347816 181 183 182
-808.334037250069 407.461299691582 2350.55532025224 181 183 182
-816.369164184971 407.92764977061 2344.51243976917 177 179 178
-824.716808900158 407.784727686682 2341.45570524332 181 183 182
-832.705006283972 408.449010483414 2334.41047294382 184 186 185
-840.635619543391 409.312442255051 2326.36421525269 188 190 189
-848.255359168331 410.979984484072 2314.32340622675 189 191 190
-856.187498446072 412.03808290896 2305.26875835165 193 194 196
-863.99916086694 413.495710801456 2294.21247866428 191 192 194
-871.943514206684 414.747971652559 2284.14786785968 182 183 185
-879.707246410708 416.599673768517 2271.08115760319 198 200 199
-887.97702620519 417.24112092982 2264.00084562037 193 195 194
-896.49146224203 417.277556871537 2259.91489682373 173 175 174
-905.226289877728 416.710706557297 2258.82633475469 170 172 171
-913.567660283868 417.345502709024 2251.73710620197 178 180 179
-922.003787944408 417.777350915389 2245.64451432723 155 157 156
-930.346175232069 418.606843651416 2237.54671878025 157 159 156
-939.070224493242 418.234189684835 2235.45130328127 193 195 192
-947.689734749975 418.259930408804 2231.35227000865 180 185 181
-956.220891072186 418.682977523173 2225.2478422961 188 194 190
-964.531952469234 420.100310283352 2214.12934668471 192 198 194
-972.663416629306 422.509169587597 2197.99173656843 190 196 192
-981.094657322144 423.917353182075 2186.85826738543 174 179 175
-989.373236587192 426.315407077172 2170.70232662944 191 196 192
-997.809093239948 428.310215993101 2156.54367525045 184 189 185
-1006.24277493685 430.696776473908 2140.36840889542 194 199 195
-1014.78979705797 432.879264876971 2125.187463109 190 192 189
-1023.77634592063 432.679155102996 2122.05090745571 195 197 194
-635.598397273146 411.937060477633 2361.01464127571 162 165 154
-645.67253295269 409.370642077576 2369.84179906023 184 186 181
-654.19879953792 408.837204678047 2368.77917618557 185 187 184
-662.872091117277 408.100174572914 2368.70642871318 172 173 175
-671.540302238596 407.362811178002 2368.63431612962 160 164 165
-680.90996702241 405.612680150234 2373.5162493919 170 174 175
-690.108869075768 404.066101281115 2377.41126968783 163 167 168
-699.145032793276 402.722859477726 2380.31813591813 157 161 160
-708.026578281136 401.582141335626 2382.23607715234 145 149 148
-716.761563160899 400.643789367341 2383.16384799294 145 149 148
-725.485915106982 399.705340893347 2384.09318628369 189 193 192
-734.074453435424 398.968514226002 2384.03101498021 191 195 194
-742.290515002975 398.835109465436 2380.99067618974 176 180 179
-750.278016939518 399.102801886519 2375.96194928097 151 156 152
-758.638197994183 398.765571462476 2373.91184909636 167 172 168
-766.775202987738 398.828858870901 2369.87293075018 169 171 170
-774.92841079727 398.89045712284 2365.8319948367 171 173 172
-782.771127694296 399.551705089944 2358.804925634 171 173 172
-791.177146189415 399.208747614831 2356.74912028979 163 165 164
-799.381512718082 399.265175652589 2352.70181368618 179 181 180
-807.904317804174 398.720014331973 2351.63965366068 181 183 182
-816.426975041224 398.174145763882 2350.57751394837 173 175 174
-824.5679599242 398.425971280661 2345.52991532894 178 180 179
-832.545009282495 399.074719834311 2338.48611514599 181 183 182
-840.28434198959 400.318362520618 2328.44711239991 185 187 186
-848.072089509036 401.558266465281 2318.40231788606 186 188 187
-855.739007537629 403.192165674594 2306.35570987195 189 190 192
-863.465102126341 404.821580834972 2294.30196905032 189 190 192
-871.40860487233 406.049409774959 2284.23752873536 179 180 182
-879.62977547726 406.678425850639 2277.16331562884 190 192 191
-887.883006033043 407.304565916642 2270.0853494726 191 193 192
-896.168222826098 407.92806854994 2263.0031582999 177 179 178
-904.553776186159 408.351012520596 2256.91666097911 161 163 162
-912.768917298384 409.364505728827 2247.82681361441 165 167 166
-921.152678935933 409.979640213217 2240.73234666493 161 163 162
-929.688868623229 410.19739030909 2235.63551855875 140 142 139
-938.418790273958 409.821731957244 2233.53913786347 198 200 197
-946.988983971717 410.035942192068 2228.43807557992 180 185 181
-955.528048683931 410.444928558964 2222.33269797552 184 190 186
-963.895636779308 411.638096387606 2212.21542559493 184 190 186
-972.07742433332 413.809571790462 2197.08008792559 196 202 198
-980.422272617842 415.583102382508 2183.94082341095 156 161 157
-988.872548705982 417.155633030424 2171.79685882285 188 193 189
-997.149558711514 419.899120212851 2153.62483001852 186 191 187
-1005.76930172514 421.265971531218 2142.46794570737 182 187 183
-1014.40901660755 422.824281337872 2130.30013745903 183 185 182
-1023.4434841917 422.22896585499 2129.17425705789 183 185 182
-1031.94772236422 425.341769203444 2108.95728447557 176 178 175
-635.207873375101 403.16485037316 2362.09416475071 187 190 181
-644.977075977072 401.026613741037 2368.94263431399 181 183 178
-654.70342674099 398.890333132328 2375.79668665096 180 182 179
-663.064828833611 398.557501581691 2373.74618223501 181 182 184
-671.864546276467 397.623568554991 2374.66610346604 161 165 166
-680.936685635723 396.290218223964 2377.56845410009 157 161 162
-690.403809197389 394.35858407799 2383.44639016325 182 186 187
-699.152952591634 393.425961798298 2384.37261928476 156 160 159
-707.491346754656 393.091254045949 2382.32523133205 154 158 157
-715.965971994741 392.556388443307 2381.26905675309 136 140 139
-725.08061769931 391.026163566669 2385.17430840684 163 167 166
-733.792564273588 390.093283161437 2386.10518015133 188 192 191
-742.003502997588 389.954886976409 2383.06525353745 168 173 169
-749.506141315281 391.005708206015 2374.06422400722 158 163 159
-757.989365138131 390.467069825918 2373.00698631143 167 172 168
-766.243668368003 390.323880518446 2369.9616606861 165 167 166
-774.508805090105 390.179406337306 2366.9152267574 167 169 168
-782.675634647475 390.231297921274 2362.87261649248 170 172 171
-790.752244070822 390.479099802273 2357.83282187719 162 164 163
-798.95405996831 390.52750838954 2353.78585469621 178 180 179
-807.575778814744 389.785166271694 2353.71979745373 182 184 183
-816.191933937622 389.042638591352 2353.65419475099 173 175 174
-824.42034357669 389.087322450112 2349.60391863722 177 179 178
-831.922031709357 390.703919714413 2337.5782161701 180 182 181
-839.663214434032 391.923018167354 2327.53904718912 185 187 186
-847.54023348713 392.941986421644 2318.49138104011 187 189 188
-855.544946511516 393.761340688277 2310.43599221292 188 189 191
-863.177011582378 395.557764395483 2297.38561854121 190 191 193
-871.349565573115 396.174230414147 2290.31750555086 180 181 183
-879.40093751348 397.179284445808 2281.24811783489 189 191 190
-887.642994231946 397.789949131392 2274.17134659261 194 196 195
-895.774612260652 398.788634356739 2265.0917211425 180 182 181
-904.154593168478 399.198259446449 2259.00619457435 160 162 161
-912.363638556197 400.190519049835 2249.91692356923 181 183 182
-920.804795400684 400.594932993039 2243.82377632922 167 169 168
-929.393294839946 400.607838180387 2239.72864682522 140 142 139
-937.939706930849 400.813470389569 2234.63057493553 197 199 196
-946.287089982603 401.794110146751 2225.52407080823 182 187 183
-954.624792755607 402.965414913325 2215.41082578353 181 187 183
-963.109657313813 403.74516021657 2207.2953809236 182 188 184
-971.39712427422 405.490457181524 2194.16359187997 193 199 195
-979.748715188057 407.231009634611 2181.02357277182 155 160 156
-988.288927746726 408.386484474252 2170.8848571419 180 185 181
-996.605310208025 410.890657616444 2153.7164724798 181 186 182
-1005.22406513408 412.230517728574 2142.55978255653 185 190 186
-1013.82914122373 413.95181616712 2129.38818070178 175 177 174
-1022.80547026656 413.741786626297 2126.25292654494 173 175 172
-623.743358772608 398.100018148911 2348.42169863439 175 181 171
-633.576340000562 395.979997333859 2355.26240130025 183 186 179
-644.281254743662 392.675563895012 2368.04377378461 180 182 179
-654.611366087853 389.770261718619 2378.85549422299 174 176 175
-664.141629529368 387.855627411585 2384.72550603395 170 171 173
-672.190787175029 387.915373704846 2380.69755984285 161 165 166
-680.39808785341 387.776253729128 2377.65808914163 150 154 155
-689.450179598871 386.45427359665 2380.56291165635 185 189 190
-698.617168079767 384.936184736425 2384.46183955003 157 161 160
-707.089565241445 384.402177741472 2383.40594076097 164 168 167
-715.431304314702 384.063852734185 2381.35814490915 140 144 143
-724.5474457272 382.547089510007 2385.26317445661 153 157 156
-733.636706427011 381.031324579086 2389.17179619787 191 195 194
-741.717114349687 381.083824497427 2385.13996924002 164 169 165
-749.213612670934 382.113414942565 2376.13952158682 156 161 157
-757.222749370524 382.357156620291 2371.10839812969 165 170 166
-765.482804048112 382.208228419175 2368.0626101396 170 172 171
-773.30592234592 382.838773556682 2361.03806758103 171 173 172
-781.816793790047 382.296343309894 2359.9773896113 172 174 173
-790.114544311024 382.14298060878 2356.92666881217 163 165 164
-798.423019479553 381.988337464141 2353.87461301243 175 177 176
-806.641107432623 382.026813325319 2349.82588160133 180 182 181
-815.268884974424 381.286232728838 2349.75882336185 171 173 172
-823.4125510545 381.51626800438 2344.71094752869 173 175 174
-831.112562791927 382.714219852991 2334.67697213236 175 177 176
-839.131930673794 383.326947490535 2327.62798570766 182 184 183
-847.271087340474 383.743254748709 2321.57249498381 185 187 186
-855.182242495686 384.737650011396 2312.52039329441 180 181 183
-862.889764149091 386.308526182105 2300.46912442565 185 186 188
-870.815380693128 387.488701544748 2290.40704169695 176 177 179
-879.096475854285 387.893279007535 2284.33386877812 182 184 183
-887.033690822373 389.259297413038 2273.26216212544 191 193 192
-895.095933458006 390.42867863277 2263.18305769423 177 179 178
-903.343771677443 391.209372218502 2255.09743009156 165 167 166
-911.628934578755 391.987031063664 2247.00715258114 173 175 174
-920.141290526807 392.185394234344 2241.91310957076 179 181 180
-928.614147986831 392.573574784643 2235.8160490314 149 151 148
-937.229255171507 392.576005743636 2231.71762662158 192 194 191
-945.52885649194 393.726025577208 2221.60895221728 186 191 187
-954.03392810335 394.298136104403 2214.49945980229 178 184 180
-962.321844247262 395.82355726367 2202.37588083653 180 186 182
-970.668549539333 397.344456828288 2190.24497724008 184 190 186
-979.118360509967 398.670115763651 2179.10940792195 157 162 158
-987.82988986225 399.038370987512 2172.98237474535 161 166 162
-996.177843886715 401.309039822321 2156.81835216229 180 185 181
-1004.71488766682 403.003079269751 2143.65531212316 178 183 179
-1013.3495030505 404.501994255384 2131.488536945 164 166 163
-1022.19715986372 405.046725975122 2124.33636402329 168 170 167
-1031.10455061157 405.398980094622 2118.18493064078 187 189 186
-623.19475054538 389.487492815551 2348.51284247673 189 194 187
-632.874377182316 387.584425149581 2354.3641841836 187 189 184
-643.432385119121 384.512661594718 2366.15558994283 172 174 173
-654.520299876833 380.664938056915 2381.91413885685 170 172 171
-664.191507968852 378.574988660843 2388.77471039292 177 178 180
-672.229963389379 378.627175084739 2384.74811968489 167 171 172
-680.143109189923 378.871955547321 2379.72897258888 162 166 167
-688.912854532324 377.949544684505 2380.65236354891 137 141 142
-697.944917143115 376.638995799429 2383.55989574618 171 175 174
-706.554355666997 375.910811275786 2383.49509346309 163 167 166
-715.158584606349 375.182301688462 2383.4309421614 166 170 169
-724.14250440342 373.872846440698 2386.34423914841 149 153 152
-732.8537246983 372.950941464813 2387.27517262488 186 190 189
-740.693866750502 373.381281005936 2381.25696020364 157 162 158
-748.681282346614 373.616370610434 2376.228329928 137 142 138
-756.572891844965 374.042057769426 2370.20370692564 167 172 168
-764.835929087375 373.88750233843 2367.15732127946 165 167 166
-772.549296579268 374.694062836693 2359.13832434424 163 165 164
-781.066228229348 374.151306242197 2358.07689095607 167 169 168
-789.476408388024 373.799961427085 2356.02058834861 164 166 165
-797.891878804121 373.447679866402 2353.96338774645 166 168 167
-806.211384550316 373.286185128744 2350.910213708 178 180 179
-814.640139764408 372.931805588033 2348.85160103528 178 180 179
-822.786454254453 373.150740479591 2343.80318365995 172 174 173
-830.488330753272 374.324089937267 2333.76928061067 176 178 177
-838.51004617268 374.920423586905 2326.72004440015 184 186 185
-846.476154429396 375.70485110646 2318.66956519808 185 187 186
-854.649966877112 376.104793929031 2312.60955246406 182 183 185
-862.438658299139 377.455250538298 2301.5564216533 179 180 182
-870.759052215798 377.659096688283 2296.48656019907 179 180 182
-878.715870820754 378.812200979822 2286.42065492834 175 177 176
-886.720945564458 379.961514412057 2276.34873755987 190 192 191
-894.344889805656 382.246355452569 2260.27502979546 186 188 187
-902.600298593908 383.007575092483 2252.18850871451 172 174 173
-910.826910627983 383.955357288106 2243.09716262545 180 182 181
-919.476943333486 383.763310257557 2240.00282123491 172 174 173
-928.076534018448 383.759264432606 2235.9063522489 143 145 142
-936.807869336258 383.375632692676 2233.80981613396 174 176 173
-945.211938299309 384.123977661282 2225.70477704705 192 197 193
-953.495255028542 385.435279359037 2214.59002303521 177 183 181
-961.732042725037 387.119424360729 2201.46471950563 175 181 179
-970.080245469687 388.610424651205 2189.33346750589 175 181 179
-978.531739426459 389.908922217605 2178.19775968954 165 169 168
-987.203922921319 390.451395101574 2171.06749074914 147 151 150
-995.633715373096 392.30558624602 2156.90996645847 179 183 182
-1004.02357767447 394.717523062953 2139.73241457908 178 182 181
-1012.56659004571 396.74839087133 2124.55212820443 161 163 162
-1021.30848065541 398.024626006135 2113.38023922992 157 159 158
-1030.16033782526 398.922724840264 2104.21123735243 186 188 187
-623.437193473898 379.910003059033 2353.54672503939 189 194 188
-632.794094997793 378.411645072567 2357.42166067877 184 186 183
-642.888427301268 375.952574699343 2366.24601534682 169 171 170
-653.229321834622 373.111802205842 2377.05622017032 166 168 167
-663.210859774002 370.658543870558 2385.89463560238 180 181 183
-671.691654766674 370.126390773262 2384.83768393148 165 169 170
-680.030743752563 369.785248482138 2382.79022621411 167 171 172
-688.375458747744 369.443207778314 2380.74182850125 132 136 137
-696.86242527396 368.908810130952 2379.68411257039 149 153 152
-705.61740749733 367.991403376509 2380.609572971 153 157 156
-714.230550865613 367.264953665359 2380.54430377666 161 165 164
-723.095417880104 366.156592466472 2382.4642411749 145 149 148
-731.315308255792 366.001921577183 2379.4234805754 159 163 162
-739.176832092603 366.417279812189 2373.40239901784 149 154 150
-747.546990647396 366.069081824865 2371.35108258289 138 143 139
-755.569585095153 366.290406455394 2366.31833871285 160 165 161
-763.728778967456 366.319612265734 2362.27674107847 164 166 165
-771.567376846854 366.9164435037 2355.25035554398 161 163 162
-780.095767781335 366.372956887019 2354.18749402734 162 164 163
-788.730942971684 365.639310569706 2354.11949434387 158 160 159
-797.152330045266 365.28396708922 2352.06180371004 164 166 165
-805.37608223256 365.30583516599 2348.01216890326 177 179 178
-813.517161332809 365.514893590941 2342.96467115169 171 173 172
-821.967818769182 365.15571208412 2340.90309758818 166 168 167
-829.956984585806 365.738414897597 2333.85819954072 170 172 171
-838.159612005465 365.941638727313 2328.80279601921 178 180 179
-845.855975454762 367.272236893491 2317.76123949011 182 184 183
-854.032317215272 367.658344706183 2311.70118781555 183 184 186
-861.905213149118 368.793682865136 2301.64580238451 179 180 182
-870.145763474184 369.17438633552 2295.57775209283 177 178 180
-878.104417316415 370.302887613092 2285.5116825865 169 171 170
-885.888064247643 371.989739458183 2272.44268094836 187 189 188
-893.449220224435 374.420487696855 2255.36849717981 188 190 189
-901.717633985134 375.161946910442 2247.28040519356 172 174 173
-910.156026898078 375.526582785337 2241.18770762999 175 177 176
-918.748191803364 375.515604473332 2237.09218359384 171 173 172
-927.355999184892 375.502912979506 2232.99471198074 154 156 153
-936.154116305534 374.929582151952 2231.89826882434 156 158 155
-944.67407558053 375.28645122329 2225.79517244586 188 193 189
-953.009189770954 376.384701489739 2215.68244284739 173 179 177
-961.241921446221 378.036613506793 2202.55749010096 172 178 176
-969.586268470006 379.498120280968 2190.42703721125 180 184 183
-977.989297618946 380.955050052392 2178.28903292389 162 166 165
-986.36704253072 382.778154437235 2164.13784545565 145 149 148
-994.814187098952 384.596061277152 2149.97801100812 172 176 175
-1003.14771397863 387.333150867756 2130.79125898166 164 168 167
-1011.78114190322 388.955116791759 2117.61638057417 151 153 152
-1020.50976028656 390.387723832629 2105.43804899701 144 146 145
-1029.38243164681 391.262755301503 2096.26627010995 179 181 180
-1038.40068948494 391.397657415573 2091.10950092572 190 192 189
-624.156476326703 369.788077552527 2361.54559584529 183 188 182
-633.804607010496 367.924939951615 2367.4007629065 180 182 179
-643.415309159402 366.063410374692 2373.26059659291 171 173 172
-652.98857545024 364.203611236559 2379.12533776478 165 167 166
-662.2291458212 362.724190595305 2383.01474097348 179 180 182
-671.153286516913 361.624057483373 2384.92725969834 170 174 175
-679.919346909029 360.713231093454 2385.85132027983 165 169 170
-688.3959023806 360.180093911947 2384.79490026765 144 148 149
-696.599152749365 360.023554195294 2381.75598089539 133 137 136
-705.2156141114 359.300237551664 2381.69028938423 151 155 154
-713.826876989373 358.576657363269 2381.62548757593 155 159 158
-722.304224677863 358.040901658732 2380.56897559555 146 150 149
-729.900035034959 358.820133183107 2372.56472106564 152 156 155
-737.780269592154 359.220682778005 2366.54134351883 147 152 148
-746.169820043703 358.868502194717 2364.48761757782 137 142 138
-754.564795413157 358.515376287213 2362.43297685988 154 159 155
-763.08036055763 357.974020635196 2361.37171031419 161 163 162
-771.37105556401 357.806059922298 2358.32214871365 158 160 159
-779.782230845478 357.449990877269 2356.26549409311 161 163 162
-788.09174726158 357.279517244319 2353.21359030959 156 158 157
-796.30764750579 357.294360538706 2349.16495387841 160 162 161
-804.844525580811 356.748422132309 2348.10103967352 174 176 175
-813.08448896327 356.760418578453 2344.04940780202 166 168 167
-821.532935420815 356.398573484526 2341.9883574388 164 166 165
-829.519018097167 356.965285493747 2334.94364599149 168 170 169
-837.537304621677 357.529169544512 2327.89492314164 176 178 177
-845.235332541494 358.832428354701 2316.85323089368 181 183 182
-853.328770201402 359.390270680784 2309.79514553709 180 181 183
-860.958136128551 361.056435574961 2296.74569200326 178 179 181
-869.291965578939 361.237684422471 2291.6739731143 176 177 179
-877.18329482235 362.525941330268 2280.60819751093 167 169 168
-885.352075200845 363.256189437614 2272.5325687058 186 188 187
-893.126906831827 365.090111205968 2258.45659276342 186 188 187
-901.386672873969 365.813129671726 2250.36962852437 172 174 173
-909.816774359177 366.164796542708 2244.27799983538 170 172 171
-918.337149490133 366.330219695023 2239.18304282474 167 169 168
-927.122944530036 365.75839052104 2238.08813343662 157 159 156
-935.733047029217 365.736893097171 2233.99039859651 147 149 146
-944.191747442974 366.263943597122 2226.88705196557 186 191 187
-952.417331412339 367.704585992091 2214.7712346798 171 177 175
-960.852519778149 368.591544317146 2205.65425994387 171 177 175
-969.235117039979 369.840860191994 2194.52727954596 176 180 179
-977.491536434671 371.817007602806 2179.38314265343 158 162 161
-985.780698576908 373.970123541605 2163.22652625233 141 145 144
-993.913202109178 377.211560012872 2141.04023100831 173 177 176
-1002.23192365651 380.080690296676 2120.8470515084 152 156 155
-1010.99319926511 381.122346090225 2110.68104825517 155 157 156
-1019.86502110772 381.796578649151 2102.51783154661 157 159 158
-1028.77375813975 382.467862276719 2094.35001580656 173 175 174
-1037.92725024589 381.684294816653 2094.21746470181 197 199 196
-615.374015686209 361.365216446043 2364.67939078191 173 178 172
-624.244247818275 360.457008154319 2365.59020418269 174 179 175
-633.415840370772 359.174717614719 2368.48024945078 176 178 177
-642.259874099471 358.266924145615 2369.39433116501 172 174 173
-651.695295171352 356.612041514986 2374.26780759801 165 167 166
-660.655373327954 355.518457864989 2376.17582429244 153 154 156
-670.179740678614 353.679449135011 2382.04637274342 169 173 174
-679.381895084211 352.21466164234 2385.94077177035 169 173 174
-688.138331871589 351.30928332496 2386.86577870476 154 158 159
-696.473419004423 350.961587644928 2384.81883765312 117 121 120
-704.679861986301 350.798752876887 2381.77953643941 165 169 168
-713.29193386184 350.077808649356 2381.71462673129 122 126 125
-720.868128311169 350.839775940042 2373.71286561544 134 138 137
-728.482270975358 351.598785708026 2365.70613630653 142 146 145
-736.257840665769 352.169534722369 2358.68792527275 140 145 141
-745.031600837581 351.258633363749 2359.61078489593 138 143 139
-753.794626619185 350.347641962783 2360.53522461342 149 154 150
-762.431533595079 349.621350594822 2360.46698944436 151 153 152
-770.725207845821 349.447822585769 2357.41683044427 150 152 151
-779.139584992583 349.088804846589 2355.36002428389 153 155 154
-787.559294764555 348.728671000078 2353.30255558263 147 149 148
-795.670845863694 348.919245260616 2348.25879142841 151 153 152
-804.109245741859 348.556664077147 2346.19875648863 165 167 166
-812.057518086134 349.110737332971 2339.15903709968 159 161 160
-820.519931342601 348.745431915637 2337.09601260643 158 160 159
-828.706524190133 348.92853808746 2332.0429033526 161 163 162
-837.096463030175 348.743741363037 2328.98076077664 168 170 169
-844.879055428461 349.837296014352 2318.93699499708 177 179 178
-852.538854150332 351.292422465436 2306.89174622206 173 174 176
-860.340666643222 352.560522394768 2295.83719486262 176 177 179
-868.356557371255 353.4599785041 2286.77251308055 176 177 179
-876.49275018654 354.173848468851 2278.70099414191 164 166 165
-884.442112941211 355.430637489511 2267.62805916898 183 185 184
-892.373027978082 356.864968665951 2255.54903144429 181 183 182
-900.848467132908 357.023761173171 2250.45993990812 179 181 180
-909.278360485777 357.361884365737 2244.36837285961 167 169 168
-917.798713008462 357.516499241533 2239.27344713356 164 166 165
-926.340138708194 357.669057472585 2234.17613728444 158 160 157
-934.844090856372 358.000432140303 2228.0753459081 145 147 144
-943.262762428165 358.690991311906 2219.96863667879 186 191 187
-951.718625856522 359.378521700785 2211.85705383311 169 175 173
-960.211673735784 360.062909342114 2203.74107913283 169 175 173
-968.550924963672 361.465078277681 2191.61141843242 174 178 177
-976.768705379604 363.582847217712 2175.46380313382 158 162 161
-985.109130592783 365.514823550786 2160.30929913474 142 146 145
-993.207289591544 368.87861631333 2137.11904029759 168 172 171
-1001.60813197847 371.336506468403 2118.93231005376 147 151 150
-1010.47670839182 371.815704132886 2111.77769907123 145 147 146
-1019.37681720505 372.292119117907 2104.61940062844 146 148 147
-1028.3661205162 372.407960530352 2099.46605472494 164 166 165
-1037.53302154536 371.449321913574 2100.34021867646 201 203 200
-613.858669408721 353.895601960567 2358.84156487595 179 184 178
-623.539716375737 352.068947939686 2364.6925281014 169 174 170
-633.183382792126 350.243958608112 2370.54815181468 171 173 172
-642.329629845844 348.973373268853 2373.44108895721 173 174 176
-651.755867077768 347.335379860021 2378.31566700198 172 173 175
-660.706267517797 346.250415509875 2380.22486871961 155 156 158
-669.785995245828 344.982156723289 2383.12610095383 147 151 152
-678.55936835901 344.081674187864 2384.04922171079 162 166 167
-687.462002352285 342.997901446565 2385.96438126051 164 168 169
-695.663101301351 342.830509904321 2382.92575895061 131 135 134
-703.740845502151 342.84477814742 2378.89436509126 144 148 147
-712.098406528711 342.491768808875 2376.84463342387 118 122 121
-719.945559931481 342.868389491244 2370.82568749423 131 135 134
-727.567247293201 343.607807517174 2362.81806824582 140 144 143
-735.474115704596 343.979429566922 2356.79168339986 137 142 138
-744.012502571683 343.437814484038 2355.72756952132 139 144 140
-753.023665384689 342.16759312368 2358.63736341995 147 152 148
-761.551313056476 341.625408023135 2357.57459123061 149 151 150
-769.96618616663 341.26420868932 2355.51772892208 147 149 148
-778.276345588186 341.083598538855 2352.4655313207 146 148 147
-786.811999289041 340.538992298157 2351.40176640225 139 141 140
-795.242905369101 340.174860461987 2349.3429109965 146 148 147
-803.577117622636 339.990687453541 2346.28772112656 162 164 163
-811.723507892805 340.166858931711 2341.23964717898 158 160 159
-819.698240939235 340.702282882456 2334.19643449437 152 154 153
-827.79907307488 341.054501111055 2328.1458952216 152 154 153
-836.017832427979 341.224031708754 2323.08880752883 160 162 161
-843.992629334692 341.931996301205 2315.03720512826 174 176 175
-851.57631496885 343.536511602405 2301.99361457694 172 173 175
-859.307575253494 344.956448057175 2289.93954049297 176 177 179
-867.499648790625 345.474027288271 2282.8694922622 175 176 178
-875.646120141725 346.168250794165 2274.79674236131 160 162 161
-883.904970006444 346.680259597824 2267.71813524041 181 183 182
-892.051354208282 347.547690309714 2258.63701271329 181 183 182
-900.449134393257 347.875019024052 2252.54948162515 180 182 181
-908.806595556365 348.378774889693 2245.45859013102 170 172 171
-917.1959690877 348.879661643629 2238.3637237177 165 167 166
-925.678662117938 349.199669812225 2232.26561528687 157 159 156
-934.129097239749 349.695412426356 2225.16314229496 146 148 145
-942.499315140672 350.544582260071 2216.05413473485 174 179 175
-951.072089696197 350.856761441767 2209.94480527958 166 172 170
-959.569996510938 351.521907606078 2201.82827488463 167 173 171
-967.673903334745 353.781315680507 2184.6868102373 172 176 175
-975.818302102116 356.211766399055 2166.53215490189 158 162 161
-984.01134997749 358.81291676622 2147.36305154703 144 148 147
-992.340605632747 361.23003826305 2129.18536226691 154 158 157
-1000.90928355023 362.933479173554 2115.01066261784 128 132 131
-1009.82265134617 363.219123113473 2108.85889901934 145 147 146
-1018.69876778358 363.855335152677 2100.69500622769 161 163 162
-1027.69885827396 363.959801591368 2095.54058437232 173 175 174
-1036.98265407578 362.301738089343 2100.43299111934 171 173 170
-600.961671550608 350.024393039471 2337.28274351368 179 184 178
-612.018053073255 346.755970157007 2351.02808755622 183 188 184
-622.199244957236 344.401255163716 2359.84132784596 160 164 163
-632.326815821262 342.049120026456 2368.66125292802 156 160 159
-641.326265825016 340.970467043961 2370.56431692931 158 162 161
-651.365432543566 338.622769314307 2379.39526264033 176 180 179
-660.314257078035 337.546027576534 2381.30463936769 169 174 170
-669.537942017813 336.10763678077 2385.19604172774 158 162 161
-678.021481594859 335.574592171391 2384.1387498967 137 142 138
-686.505297572629 335.040753565199 2383.08142566345 156 161 157
-694.577508596199 335.047909029414 2379.05074104315 148 153 149
-702.531606326426 335.233583425173 2374.02663904213 113 115 112
-710.903130380101 334.876877618627 2371.97517460603 107 109 106
-719.021888923549 334.87915662852 2367.93869397241 127 129 126
-727.030510515024 335.059503649538 2362.90756147656 136 138 135
-735.060906347899 335.237988252758 2357.87395685747 134 136 133
-743.597225346452 334.696504904967 2356.81010068978 136 138 135
-752.133590185701 334.154301970554 2355.74624069644 146 148 145
-760.207398531701 334.328109837376 2350.70723076838 139 141 138
-768.415763624381 334.320858175494 2346.65959286584 134 139 135
-776.750577528448 334.133185455192 2343.60457739857 132 137 133
-785.526247541883 333.229747147115 2344.52717903114 129 134 130
-794.500693435967 331.969569028025 2347.44152853567 140 145 141
-803.04487451344 331.423105656265 2346.37670434172 154 159 155
-810.992381634886 331.944499899826 2339.33716650706 139 144 140
-818.681988566852 332.99703411203 2329.3048725211 148 150 149
-826.984136736693 332.979328765459 2325.24555857439 145 147 146
-834.937048854188 333.670295613266 2317.19697229783 155 157 156
-843.370569004666 333.471255848328 2314.12942854052 171 173 172
-850.869653961648 335.220201258343 2300.08808793507 173 174 176
-858.937949064155 335.901846715434 2292.02512709167 176 177 179
-867.124216713709 336.403548874713 2284.95560494431 174 175 177
-875.109170995847 337.432492494113 2274.88675574885 158 160 159
-883.142381499213 338.457881633835 2264.81165355413 180 182 181
-891.079003093559 339.832186799759 2252.73207176117 182 184 183
-899.771533593104 339.44021993656 2250.64064047713 179 181 180
-908.000070225453 340.279247360421 2241.54958088014 171 173 172
-916.335625857991 340.939208456847 2233.45332460761 166 168 167
-924.708413906712 341.596078464478 2225.35218982119 154 156 153
-933.295143337921 341.72341448792 2220.24929275601 144 146 143
-941.846710380117 342.024104438601 2214.1426401295 166 171 167
-950.47815771376 342.147454449465 2209.03393276274 166 172 170
-958.876649900456 343.143304723175 2198.91356363175 168 172 171
-966.986656938147 345.358965867398 2181.77145291978 169 173 172
-974.774009742427 349.139559077725 2155.59558166577 154 158 157
-982.909018332852 352.038797166958 2134.41756207076 138 142 141
-991.431083031484 353.710628457723 2120.24876271864 147 151 150
-1000.20892086299 354.507137246333 2111.08926555075 120 124 123
-1009.13284602318 354.778668624415 2104.9359813518 154 156 155
-1017.89170785331 356.09002404404 2092.7541948831 149 151 150
-1026.94250319376 356.008799194994 2088.60162147179 135 137 136
-1036.16737442005 354.885924490726 2090.47667069351 187 189 186
-1045.51774416894 352.724554310269 2098.38539640906 196 197 192
-601.725149111858 339.929035394972 2345.27602911573 179 184 180
-613.086654143093 336.343740779369 2360.99974448382 181 186 182
-623.084039155686 334.196870314632 2368.82744806635 152 156 155
-632.720485399396 332.410264541574 2374.68387173276 157 161 160
-641.397509200348 331.698142219328 2374.61083317616 139 143 142
-651.27724076 329.556738904151 2382.45344508525 152 156 155
-660.51555200317 328.131689932862 2386.34298703388 173 178 174
-669.43608224035 327.064156256056 2388.25587047317 168 173 169
-677.912121389893 326.531529744764 2387.1995135501 135 140 136
-685.967970942598 326.531963643585 2383.17088844564 139 144 140
-693.490497554591 327.241987411318 2375.17596155003 153 158 154
-701.185839660014 327.771381013827 2368.16763108383 104 106 103
-708.913809909346 328.297979349996 2361.15523617939 97 99 96
-717.838441300092 327.226601074636 2363.06761794358 125 127 124
-725.98717958907 327.218071596029 2359.02742447872 132 134 131
-734.524046705798 326.677210274079 2357.96349827103 127 129 126
-742.818551934073 326.48911933816 2354.91351418955 130 132 129
-751.123898037245 326.299797772672 2351.86194020306 139 139 137
-759.324277702265 326.285589554333 2347.81531715453 143 145 142
-767.314665069209 326.622089593336 2341.77860212924 134 139 135
-775.773660675721 326.252044957963 2339.71601661906 126 131 127
-784.453445558603 325.529175910924 2339.64266179688 124 129 125
-793.442704578263 324.278863827513 2342.55513672905 138 143 139
-802.307931656247 323.20493939544 2344.47493850549 152 157 153
-810.360032579645 323.534459591009 2338.43030010563 134 139 135
-818.051445211266 324.562332948769 2328.39784572251 138 143 139
-825.885524154634 325.411499321103 2319.35598541254 130 135 131
-833.854101181332 326.082357122768 2311.30549720439 138 143 139
-842.12659809348 326.226187951828 2306.24177106137 164 169 165
-849.990061563456 327.240532629456 2296.18788137808 171 175 174
-857.985252463665 328.076807468999 2287.12594919777 166 170 169
-866.345997364402 328.213102780659 2282.05098980327 160 164 163
-874.260202869233 329.391207949422 2270.9826494584 155 159 158
-882.52911204645 329.869967600175 2263.90287455523 172 176 175
-890.467256868678 331.214197691121 2251.82342214281 172 176 175
-899.232805794361 330.646047198504 2250.73102966238 169 173 172
-907.460633131068 331.463500374975 2241.64011539631 169 173 172
-915.602273349365 332.623712482201 2230.54343966452 153 157 156
-923.982661491019 333.261109167046 2222.44164798247 150 154 153
-932.57744797951 333.377239133398 2217.33753468618 137 141 140
-941.305939593073 333.146152170521 2214.23350489803 163 167 166
-949.776398215021 333.775780294287 2206.12049341076 170 172 169
-957.978382840799 335.43581226113 2191.99166923254 169 171 168
-965.960540907882 338.123029505694 2171.84096992674 172 174 171
-973.999052915078 340.974784452472 2150.67511758 155 157 154
-981.845079701553 345.020827314762 2122.4758509113 134 136 133
-990.438165413814 346.483993905784 2109.3064251658 133 135 134
-999.244937670386 347.256977745779 2100.14313883609 117 119 118
-1008.30257799794 346.99948740122 2096.9981027667 116 118 117
-1017.14588493886 347.937793766235 2086.8221346552 132 134 133
-1026.30093462236 347.335035400327 2085.6812259215 156 158 157
-1035.53499916149 346.21987641399 2087.55510755306 176 178 177
-1044.75191180624 345.105272602035 2089.43112817761 184 184 182
-601.668152002907 330.75925108942 2348.33059188187 176 181 177
-613.025059457536 327.22041462044 2364.05475865447 173 178 174
-623.334986768697 324.74544980846 2373.85993729578 162 166 165
-631.707359344896 324.388630223967 2371.80836726871 142 146 145
-640.393216446049 323.678689886756 2371.73398035355 159 163 162
-649.678608945021 322.264736006625 2375.61761762127 143 147 146
-659.234228590175 320.500362402658 2381.48430969045 116 121 117
-668.169360640059 319.440077943028 2383.39511155054 147 152 148
-677.2316501325 318.20482422668 2386.29867332454 179 184 180
-685.149934989332 318.372173447806 2381.27884854836 170 175 171
-693.227795393832 318.362428470667 2377.24774369417 140 145 141
-700.647458384087 319.225630520017 2368.25732281395 133 135 132
-708.639451628505 319.386435209742 2363.22855717029 71 73 70
-716.653259664452 319.545312672313 2358.19707424489 117 119 116
-724.688797604892 319.702206089442 2353.16264451206 122 124 121
-733.242502770168 319.160152642776 2352.09662015487 123 125 122
-742.160475492806 318.095469392976 2354.00981525036 130 132 129
-750.350124570321 318.07430033404 2349.96454964684 139 139 137
-758.556053511025 318.051499436348 2345.91749697877 136 138 135
-766.211751824797 318.894707738941 2336.89767293842 127 132 128
-774.684747707073 318.520966766501 2334.83359027951 119 124 120
-783.055202324586 318.319554363399 2331.77392297613 121 126 122
-792.382904305468 316.559664590565 2337.66880574563 136 141 137
-801.057865989352 315.838655585982 2337.59604793181 147 152 148
-809.328206377822 315.807986307388 2333.54073754821 130 135 131
-816.64403465454 317.500582642746 2319.52241468634 134 139 135
-824.784754875159 317.809526732401 2313.46677130855 127 132 128
-832.860648391629 318.288220094736 2306.41108379332 138 143 139
-841.502392584379 317.732495560778 2305.33410868831 164 169 165
-849.453930591034 318.550409684126 2296.27767248333 170 174 173
-857.615463750449 319.021736199537 2289.21131704729 166 170 169
-865.889954095165 319.318935870037 2283.1392511461 152 156 155
-873.956642672648 320.127600627092 2274.06822891979 154 158 157
-881.990800926249 321.103957192043 2263.99313757698 170 174 173
-889.782299394452 322.760280890821 2249.91578967878 170 174 173
-898.273759380562 322.874751685873 2244.8245752885 169 173 172
-906.449812142101 323.840100427828 2234.73204560742 169 173 172
-914.803161506859 324.46088242104 2226.63343169034 157 161 160
-923.317637200198 324.738195038666 2220.53146940826 153 157 156
-932.213807070014 323.992878804282 2220.43092986409 141 145 144
-940.821461243013 324.096784590447 2215.32548321753 162 166 165
-948.912013554374 325.895552947444 2200.20251267783 170 172 169
-956.770964049719 328.70589285296 2179.05917761125 168 170 167
-965.172887865006 329.984622296631 2166.92178054721 171 173 170
-973.450737906676 331.935585097992 2150.76734846121 153 155 152
-981.421900734336 335.401547795344 2125.57705446941 136 138 135
-989.683123351026 338.183214826138 2104.38359372929 107 109 108
-998.502759337409 338.933702520817 2095.21900159369 114 116 115
-1007.60901320714 338.501643000209 2093.07604566154 131 133 132
-1016.65539384519 338.405231345253 2088.92406317291 142 144 143
-1025.83513386891 337.634862568059 2088.78820172496 158 160 159
-1034.95494164119 337.200147920302 2086.64356133809 165 167 166
-1044.10328371191 336.596741868366 2085.50349138047 167 167 165
-602.436319923759 320.733830444062 2356.3233482469 176 181 177
-613.45081186121 317.590205547847 2370.07335094224 170 175 171
-623.268782817754 315.666970041605 2376.91540857412 150 154 153
-632.2603324664 314.613664789047 2378.81939174067 154 158 157
-641.082022878299 313.734109981778 2379.73618740323 129 133 132
-648.985443865154 313.893928069319 2374.71847765186 156 160 159
-657.951123207739 312.840359793585 2376.62568997233 109 113 112
-666.463196188103 312.305855775804 2375.56484118454 101 106 102
-675.691585701607 310.907241366576 2379.45579196064 148 153 149
-683.628718841623 311.062520404897 2374.43364681654 170 175 171
-691.587773704205 311.215688741255 2369.40901179827 173 178 174
-699.433607954156 311.539121265747 2363.39037056023 112 114 111
-707.306643405519 311.860280913973 2357.36810048986 60 62 59
-714.947559893264 312.522688976142 2349.35852463194 120 122 119
-723.007402597006 312.667047660869 2344.32133508685 121 123 120
-731.710321301229 311.95201901474 2344.24483238437 113 115 112
-740.529496438961 311.06522139692 2345.16220128069 118 120 117
-748.743593413064 311.034372648511 2341.11391021533 123 123 121
-757.090085823985 310.83084372177 2338.05723882746 112 114 111
-765.220513798401 310.967719610029 2333.01126036356 107 112 108
-773.926255557167 310.249286120741 2332.9344143271 114 119 115
-782.302427450124 310.042017556581 2329.87428923228 122 127 123
-791.426656502604 308.641376544773 2333.77800368637 135 140 136
-800.113190789987 307.922315293691 2333.70355628197 138 143 139
-808.094702089559 308.392690522686 2326.65990928368 127 132 128
-815.913996110545 309.19985601932 2317.61976438368 132 137 133
-823.870878330468 309.834072754952 2309.57083211121 128 133 129
-832.324473494064 309.618166604285 2306.50082752797 139 144 140
-840.788619870289 309.400874118397 2303.42975013538 162 167 163
-848.57202592284 310.53499532257 2292.37784861908 164 168 167
-856.660287825522 311.158274364107 2284.31254974294 161 165 164
-864.948047121833 311.441009562516 2278.23862577796 151 155 154
-873.419048686594 311.384358410837 2274.1583424882 154 158 157
-881.376719128518 312.504690474589 2263.08473011956 171 175 174
-889.169366137133 314.125642685246 2249.00709177112 171 175 174
-897.382759116119 314.901254323501 2239.91808901576 164 168 167
-905.70636913462 315.505598674623 2231.82346994997 157 161 160
-914.002513232896 316.274622199523 2222.72391742496 155 159 158
-922.837959483492 315.700227180375 2221.62281861634 151 155 154
-931.613470021663 315.292522628819 2219.5210733587 147 151 150
-940.16705059609 315.552590155711 2213.41403616424 154 158 157
-947.937525153996 318.315055401986 2192.2818684478 180 182 179
-955.866639126364 320.902991915241 2172.13829045243 172 174 171
-964.334865763134 321.984109733579 2161.00106695837 177 179 176
-972.718754485372 323.560468679424 2146.84976257423 157 159 156
-980.740563770847 326.794461613857 2122.66168645497 141 143 140
-989.047622469994 329.355391987545 2102.47077404305 109 111 110
-997.758610856251 330.581704482859 2090.2949455859 104 106 105
-1006.87880937544 330.14612883159 2088.15025870354 120 122 121
-1015.93879684174 330.040787847626 2083.99660167826 134 136 135
-1025.13276031634 329.272322401901 2083.85920048411 138 140 139
-1034.26649063859 328.834209971841 2081.71259132451 147 149 148
-1043.40466635806 328.395159904238 2079.5656701436 177 179 176
-1052.46103271208 328.614716539998 2073.39599494027 198 199 194
-602.052247889775 311.949623213523 2357.40209816142 176 181 177
-611.606540762719 310.387262161119 2362.26049644413 165 170 166
-622.246047017214 307.62928292445 2374.0409053553 156 160 159
-631.717462358531 306.071007202631 2378.90963550542 148 152 153
-641.002644166287 304.684777841941 2382.79322605462 142 146 145
-647.837475090886 306.027509285413 2370.85146464054 119 123 122
-656.815063045979 304.981364303052 2372.75717128759 153 157 156
-664.900307532504 304.95651447652 2368.72494445296 114 119 115
-674.00569302736 303.740191949372 2371.62283797728 100 105 101
-681.401746378787 304.562318649037 2362.63571187962 122 127 123
-689.393119275815 304.702615920432 2357.60683738846 155 160 156
-697.541686483723 304.671345689313 2353.56696542921 135 137 134
-705.971722711072 304.299861212028 2351.50799767011 31 33 30
-713.758123905545 304.773167742072 2344.48845127124 119 121 118
-721.831406314136 304.905741079284 2339.44961556673 117 119 116
-730.424203602479 304.361197240014 2338.37871930205 113 115 112
-738.895350926961 303.984647643896 2336.31487472863 114 116 113
-746.89582227687 304.281026402347 2330.27676667111 117 117 115
-755.156025073659 304.238401563962 2326.22275288357 113 115 112
-763.659705796739 303.857928015672 2324.15485866792 109 114 110
-772.834262330602 302.468954184208 2328.05250209351 112 117 113
-781.657041929993 301.584313325296 2328.96917522584 121 126 122
-790.363440858213 300.867333529236 2328.892483619 136 141 137
-798.036266548782 301.824246573587 2318.86253564771 138 143 139
-806.258123219969 301.941203491748 2313.80519987887 132 137 133
-814.696203125444 301.722045476422 2310.73714007179 132 137 133
-823.239590641558 301.33468265749 2308.66430882577 129 134 130
-831.880136055515 300.779691436736 2307.58748139011 139 144 140
-840.431123141658 300.390707256035 2305.51346576374 159 164 160
-848.208047627758 301.498008053528 2294.4624437392 160 164 163
-856.038747533785 302.601285826212 2283.40472145465 157 161 160
-864.085493572838 303.368402729471 2274.33653762278 149 153 152
-872.802816380233 302.805355071912 2273.25015003866 153 157 156
-880.837892915427 303.732800383799 2263.17507290578 171 175 174
-888.628965703648 305.318437621329 2249.09772401147 171 175 174
-896.771268371816 306.237738124906 2239.00928714018 168 172 171
-904.961738644343 307.153255913215 2228.91508946701 155 159 158
-913.460126072643 307.4051937328 2222.81496146018 156 160 159
-922.296166328094 306.830820594326 2221.71378846565 142 146 145
-931.072122286319 306.42051961269 2219.61199445982 148 152 151
-939.454974965165 307.160429037418 2210.50169788752 149 153 152
-947.339110904842 309.539625381911 2191.37196969273 177 179 176
-955.371258375191 311.747774489727 2173.23190807894 167 169 166
-963.933149664203 312.47418785069 2164.09930408796 180 182 179
-972.077260653133 314.83461257134 2144.93718197839 163 165 162
-980.187910104673 317.678855361937 2122.75465998987 150 152 149
-988.411194418978 320.515084050743 2100.55786267247 99 101 100
-997.164292069132 321.548073410042 2089.38521570466 100 102 101
-1006.21718212898 321.435838741958 2085.23246254801 120 122 121
-1015.3178927083 321.159121250107 2082.08210219984 127 129 128
-1024.36885675743 321.206534552024 2076.92124160377 126 128 127
-1033.60321158436 320.277043168842 2077.78691096191 167 169 168
-1042.72819357854 319.997045001099 2074.63329005546 186 188 185
-1051.84125543396 319.877990934677 2070.4730457731 207 207 205
-1061.06461913097 318.947587250362 2071.34008916179 211 212 207
-603.320254776866 301.483114094594 2368.35670046386 176 181 177
-612.359001315075 300.444181287234 2370.25475588829 164 169 165
-621.541801824786 299.237262809353 2373.14320397994 146 150 149
-630.3892554957 298.367413951146 2374.05675897981 147 151 152
-639.226341933552 297.497630827152 2374.97184784471 146 150 149
-646.688117540774 298.137887319524 2366.98468604498 129 133 132
-655.677606683733 297.099046659144 2368.88888825848 117 121 120
