ply
format ascii 1.0
comment KinectMotionCapture
element vertex 757
property float x
property float y
property float z
property uchar red
property uchar green
property uchar blue
end_header
-575.684829595618 67.8947952823685 2402.9140725534 144 148 149
-545.578846647401 66.1542345278528 2414.72910205935 156 160 161
-515.426536136103 64.4190029042274 2426.3754909378 161 165 164
-504.205246021169 63.602683583419 2434.85353985518 155 159 158
-501.960749145188 63.2207863479948 2441.86526350173 147 152 148
-500.710393785701 62.8876892409921 2448.70252921467 142 147 143
-498.454542055963 62.5075096158914 2455.67317892394 136 141 137
-497.194259286746 62.1760227945751 2462.47460276037 135 139 138
-497.934271827104 61.9406385545783 2468.9698353818 133 137 136
-501.681685417925 61.8485638603602 2475.0324756611 130 134 133
-508.44344230342 61.8990678472118 2480.68597931565 125 129 130
-513.202876029284 61.8541659148941 2486.63858501138 119 125 125
-523.997777820568 62.0933556731792 2491.80021000743 122 128 128
-563.979332551191 63.7035222389341 2493.18913855487 139 145 145
-623.142461270131 66.2055224870012 2492.32381652009 159 163 166
-662.238576611343 67.7558984191521 2494.28478288683 172 176 179
-691.306280173645 68.8300244946046 2497.67660449385 171 175 178
-703.261509555503 69.1011985741609 2503.26924223495 171 175 176
-715.230792730567 69.3710649775042 2508.91323335745 173 177 178
-711.049245254221 68.8900253074597 2516.46404422441 177 179 178
-876.383423989971 87.0452849891626 2058.52462106337 192 196 197
-857.109030720977 85.7361873531934 2071.86070340745 158 162 163
-852.379781316082 85.1580939204223 2081.21305007965 135 139 140
-852.502876155753 84.8234292784934 2089.25235714939 123 127 128
-855.54277245997 84.6343856691646 2096.52322370079 124 128 127
-858.584240749783 84.445629520069 2103.79917919144 111 115 114
-862.601442754871 84.3052247119139 2110.83297787199 111 116 112
-862.720019502254 83.9727649724454 2118.85597318807 104 109 105
-854.050020631581 83.2093805003688 2129.04724597968 90 94 93
-802.382369635533 80.3413811392052 2149.71716525499 120 124 123
-733.038274337925 76.6225032913401 2174.36098126926 159 163 164
-697.829716689005 74.5860514669168 2190.42319218555 155 159 162
-677.25144625288 73.2707854753 2202.81158919098 158 162 165
-661.538460138741 72.197393923538 2213.93400922937 163 167 170
-652.662836501725 71.4597044109349 2223.37713099468 160 164 167
-641.808707464607 70.6293421438381 2233.20951105123 146 150 151
-631.917487918322 69.8487926571595 2242.75211411969 138 142 143
-624.956940697432 69.2122959889914 2251.57585734674 135 139 140
-623.883188214795 68.8605068689607 2259.05701376971 134 138 139
-621.820915717567 68.4624735006644 2266.73511330999 128 132 133
-619.75244773132 68.0654672497362 2274.39178770447 133 137 138
-617.678239549166 67.6695074997652 2282.02688156 130 134 133
-614.611884657033 67.2277518301642 2289.84573637491 130 134 133
-610.551002404821 66.7403529051602 2297.84053866866 129 133 132
-608.456698707335 66.3476415642423 2305.4030726898 130 134 133
-609.321424048074 66.0956602890327 2312.35179001935 133 137 136
-607.217316837843 65.7046893204838 2319.87902429911 139 143 142
-601.1478736473 65.1290251134983 2328.1533481863 143 147 146
-598.038145596158 64.6940405043906 2335.81637087835 157 161 160
-597.895102549469 64.399001433963 2342.89164862656 160 164 163
-597.748698544396 64.1045750036837 2349.95576360645 163 167 166
-600.577364231025 63.9491750104575 2356.46361309276 167 171 170
-597.446723293347 63.5177715461044 2364.05032226073 164 168 169
-596.296823720444 63.1793816458523 2371.25721902789 159 163 164
-595.142326457358 62.8418123234124 2378.44756354239 150 154 155
-594.978789145086 62.5508404887725 2385.45024696152 134 138 139
-591.823331578847 62.1233469865908 2392.947285397 137 141 142
-570.713402930223 60.8754909785191 2403.40429879626 160 164 165
-537.59680760778 59.0848155438328 2415.69976501046 163 167 168
-516.411497746377 57.845677749567 2425.88240696478 159 163 162
-509.181649977544 57.24609653745 2433.7305255477 155 159 158
-508.93825643647 56.9655518227322 2440.44237255584 153 158 154
-507.690899470085 56.640310764703 2447.29573061276 152 157 153
-502.433526114537 56.1351684991421 2454.73331411362 154 159 155
-501.174096152607 55.8117281081215 2461.5429843512 149 153 152
-501.915736856548 55.5791305322243 2468.04602137874 139 143 142
-509.680026029598 55.6615135507858 2473.54646631597 134 138 137
-515.444547071 55.6535239309008 2479.35681931746 125 129 130
-518.199388981029 55.5108212066584 2485.59859198125 134 140 140
-530.006497871111 55.7706184449727 2490.63410462525 128 134 134
-562.961855248881 56.9663513742394 2492.95151755392 141 146 149
-636.246044775823 59.939870139326 2490.25948826174 151 155 158
-676.373258258021 61.4349805340184 2492.1175077848 163 167 170
-680.247250974777 61.3260205792387 2498.63852205779 165 169 172
-710.364663347868 62.3695323076623 2502.01205806164 158 162 165
-705.172247314122 61.8602207172181 2509.6891120961 165 169 170
-698.959058074347 61.3081134262936 2517.44460767954 181 183 182
-881.43404022197 79.4648326383577 2056.90352888425 193 197 198
-865.067794630654 78.3520866178474 2069.47199855218 167 171 172
-853.535209227782 77.4717666915621 2080.65018283008 159 163 164
-851.711422060904 77.051112076443 2089.20037881159 134 138 137
-852.802985705678 76.7683971764935 2096.97096968067 117 121 120
-857.790468951313 76.6683813964549 2103.73548254861 111 116 112
-861.807145896458 76.5228454755985 2110.76316324605 105 110 106
-865.826361020784 76.3774132293487 2117.80126218255 101 106 102
-859.106661781876 75.7340304904144 2127.51487925717 82 86 85
-798.623908348104 72.6066211641503 2150.362872571 112 116 115
-735.11486450649 69.3548391952436 2173.58528151451 148 152 153
-696.955202531578 67.2852984381544 2190.36054904705 144 148 151
-672.448437993661 65.8521598100681 2203.67500936402 148 152 155
-655.743657639161 64.7828706224254 2215.01400217654 156 160 163
-646.858438395649 64.0753473864146 2224.44054274343 156 160 163
-641.883524238734 63.5488017506352 2232.91332892083 157 161 162
-636.898328494911 63.0238495965069 2241.34894762208 153 157 158
-626.987551643365 62.2776512423903 2250.84062575603 145 149 150
-625.913202270804 61.9339318013914 2258.32466081659 141 145 146
-623.849921370687 61.5467307262299 2266.00585529739 138 142 143
-622.765802102125 61.2048633024461 2273.45478591567 140 144 145
-619.705220978776 60.7754012863001 2281.30376819416 137 141 140
-617.624045864758 60.3912229118825 2288.92043334093 142 146 145
-610.599942257767 59.7877757660375 2297.52999892383 145 149 148
-607.515180469078 59.3620706472054 2305.29064601697 153 157 156
-606.400458392167 59.0253600501406 2312.62921015626 157 161 160
-606.270651446728 58.7332888002503 2319.75643370324 155 160 156
-600.196423844637 58.1794648509786 2328.02678280344 160 165 161
-596.092237376145 57.7145486094405 2335.8749994189 167 172 168
-594.954267216843 57.3816820971374 2343.12967493866 166 170 169
-594.804279414232 57.0932228619398 2350.18332233278 164 168 167
-594.650942490738 56.8053748978242 2357.22585004453 161 165 164
-589.525334012564 56.3014856718165 2365.15344181344 150 154 155
-588.367631508968 55.9720566316024 2372.33702524619 146 150 153
-587.205326421473 55.6435065015781 2379.50407508488 145 149 152
-587.034619496437 55.3588588130676 2386.48320284932 140 144 147
-577.88989846731 54.6875221220636 2394.97003945982 145 149 152
-551.772703952805 53.2879513523518 2406.22280228217 163 167 168
-522.620148174119 51.7644939749731 2417.81846732451 164 168 167
-512.401921769317 51.0593486420768 2426.19363523164 159 163 162
-505.164748273489 50.4845588576771 2434.03020683564 155 159 158
-504.916602393689 50.2099866787591 2440.72910911046 151 156 152
-502.663354903728 49.8509083097285 2447.72275008002 150 155 151
-503.409395333862 49.6201991889188 2454.24331470027 142 147 143
-499.141164707509 49.1778658733766 2461.49672518662 138 142 141
-498.876786283865 48.9060953315625 2468.13712801464 134 138 137
-501.621262268076 48.7616814125241 2474.33840464622 133 137 136
-503.36207403807 48.5752226822918 2480.68397727731 130 134 135
-507.113139090292 48.4732519895155 2486.75392690169 126 132 132
-517.909542800276 48.665426633979 2491.8905163234 119 125 125
-576.037825490661 50.8282348040663 2490.86518607206 140 145 148
-650.366464426471 53.6526909577903 2488.06056201494 148 152 155
-664.304143343513 53.9585102830744 2493.24287875657 160 164 167
-698.437893980732 55.0972286072366 2496.00218945509 168 172 175
-718.48200404395 55.6482438234421 2500.63058269078 160 164 167
-713.291913132372 55.1575600692824 2508.32710106629 169 173 174
-701.013548469312 54.3777255191406 2516.80072334842 180 182 181
-862.341282985484 70.4566327404309 2069.95042950899 154 156 155
-851.772591505818 69.6573211262226 2080.86218702883 131 133 132
-848.971638993758 69.2046770820989 2089.66048353633 124 126 123
-850.059784400054 68.9250725390771 2097.42034687243 117 122 118
-856.994894320219 68.9030394744606 2103.672609294 115 120 116
-862.961909803123 68.8378947861287 2110.19869975084 108 114 110
-868.934347395924 68.7725491146078 2116.74572357126 93 99 95
-860.258353454781 68.0680358993689 2126.95097704833 105 111 109
-798.772080582669 65.0699361661774 2150.05105906395 116 122 122
-726.429617423771 61.6161522480216 2175.41885045553 156 161 164
-690.204411775189 59.7422350142559 2191.70631184518 170 175 178
-667.640387642488 58.466899717214 2204.54077451355 168 173 176
-650.923513252498 57.4491504961928 2215.86740417944 150 155 159
-642.029416070337 56.7717394181006 2225.27999394027 150 155 159
-635.083144899101 56.1805197124918 2234.18625586804 147 153 153
-635.002960939053 55.8848249269441 2241.4945031007 148 154 152
-628.03541137301 55.2968171371229 2250.32379035449 149 155 153
-625.975634847599 54.9195220650584 2258.0242500235 152 158 156
-620.955221290159 54.4181969517606 2266.34402876198 159 165 163
-617.895599754175 54.0015636270598 2274.20467316447 161 167 165
-614.828797318935 53.586172311053 2282.0385114122 156 162 160
-613.728535037412 53.2548657498291 2289.43417376305 162 168 166
-609.660412797564 52.8002489820878 2297.42279233963 165 171 169
-605.583418107486 52.3470338391043 2305.37935415997 161 167 165
-605.454356373665 52.0599598445427 2312.51249953703 157 163 161
-605.322414699649 51.7736304312752 2319.63449332774 144 150 146
-603.20597106021 51.4058352801679 2327.1305568616 137 143 139
-600.091997358258 50.9980297763514 2334.79497574854 124 130 126
-597.962830288914 50.6323127006185 2342.24511166888 127 133 129
-595.827652920814 50.2675795779356 2349.67355374437 137 143 139
-594.679931051753 49.9445925084461 2356.89826044007 139 145 141
-588.556255282764 49.4190670101335 2365.00381337116 128 134 132
-587.395770999398 49.0981336415613 2372.18243232316 124 130 128
-585.235088531858 48.7375056389363 2379.51877072119 121 127 125
-583.068388821775 48.3778046260498 2386.8333535298 106 112 110
-563.944442809302 47.3331013194553 2396.99862140458 122 128 126
-533.813498122622 45.8489064566729 2408.88282887111 163 169 167
-513.621924626215 44.7720399655322 2418.96114840315 157 163 161
-508.387887638965 44.3007070941517 2426.50672074724 152 158 156
-506.143550316294 43.9509095213027 2433.53930283046 146 152 152
-505.89449270645 43.6819883624547 2440.23838778856 143 149 149
-504.640897916853 43.3737877464741 2447.0793444735 144 150 150
-506.389233929359 43.1857656032679 2453.45186608521 134 140 140
-507.134481357129 42.9582675824817 2459.97151376356 130 136 136
-511.892337740967 42.8899216220254 2465.90346176545 125 131 129
-514.645506066198 42.7421557142647 2472.13582410789 120 126 124
-514.384869671617 42.4760827630433 2478.79278849432 127 133 133
-513.115168913482 42.1711312762612 2485.57599820485 123 128 131
-527.944519399559 42.4964793549534 2490.18399674522 125 133 135
-565.957735243717 43.7233877183447 2491.81646941703 146 151 154
-618.133061080026 45.4937736912803 2491.82100263317 154 158 161
-658.276205202369 46.7873720829698 2493.61094537136 164 168 171
-660.118433073481 46.5918124450247 2500.32731027219 161 165 168
-655.90012821494 46.1627172461119 2507.77351418054 151 155 158
-660.769530856584 46.0847848344025 2514.11448821423 169 171 170
-655.528136244683 45.6185487391109 2521.63596097765 173 175 174
-854.749763037025 62.3813931211617 2071.73599081219 149 151 148
-850.007359704933 61.8602189787425 2081.07543539098 150 152 149
-849.149668814193 61.5019842691759 2089.35471674994 145 147 144
-851.210972687148 61.2653460545957 2096.85853304508 133 138 134
-860.098430169542 61.3103300138878 2102.60822056497 113 119 115
-867.044209829134 61.2744481203231 2108.89042518972 97 103 99
-871.066954937166 61.1181807794971 2115.93478955236 120 126 122
-851.636121324168 60.0040786989089 2128.81407856865 112 118 116
-772.511121645663 56.4642796461738 2156.22143648576 105 111 111
-709.905625325216 53.6143012939266 2179.15589766948 153 158 161
-684.426416576872 52.2829629659771 2192.82045499147 170 175 178
-668.708784598266 51.3524451293378 2204.01582882985 170 175 178
-653.946145202837 50.4647777271525 2214.88670707042 156 161 165
-645.048946783007 49.8168107026544 2224.30637197763 154 159 163
-639.082698262087 49.2890503649779 2232.99501046532 154 160 160
-636.054362638496 48.880821215481 2240.9761902624 154 160 158
-629.083076478268 48.317045336251 2249.80690303412 156 162 160
-625.05234663699 47.8724300168319 2257.94066664878 157 163 161
-620.0275522893 47.3901834598556 2266.25622557336 156 162 160
-616.964581534639 46.9873175465645 2274.11219798365 155 161 159
-613.893967169878 46.585646233078 2281.94147439804 160 166 164
-614.76593337023 46.3402287519241 2288.92029063359 158 164 162
-611.683367537208 45.9406328821847 2296.70650391528 154 160 158
-608.593630592357 45.542162356384 2304.46587372499 137 143 141
-608.46507463078 45.2605176742766 2311.60432471892 129 135 133
-607.343153523291 44.9411031036815 2318.9270800743 120 126 122
-606.216677655852 44.6225330290002 2326.2334576692 118 124 120
-601.118606128746 44.1515918972241 2334.28409044218 118 124 120
-597.995287744815 43.7585938084678 2341.92223396063 122 128 124
-595.857421786414 43.4048801639283 2349.34857997141 124 130 126
-594.707653484529 43.0902170699406 2356.57094398549 123 129 125
-591.564149778963 42.7004200103895 2364.1361643232 118 124 120
-587.417643888653 42.2738449641821 2371.85146384337 117 123 119
-584.2584859464 41.886407176055 2379.36005258887 123 129 125
-577.104444615763 41.3490534703479 2387.52891280905 120 126 122
-555.97175282856 40.2860831097103 2398.01813825512 133 139 135
-524.823168204543 38.8510914970843 2410.05143282691 155 161 159
-506.613482614529 37.9092536891115 2419.7797939666 151 157 155
-501.370762930087 37.4575546774746 2427.30552494898 150 156 154
-498.118383171001 37.0819888825799 2434.47642373708 147 153 153
-499.864285397499 36.8939593869071 2440.83990453639 144 149 152
-496.600797212502 36.5201764883757 2447.96975652121 141 146 149
-500.347546326733 36.4073538587369 2454.01683056891 138 143 146
-502.090453180273 36.2204217560466 2460.36988297198 135 141 141
-506.845097456711 36.1447643612993 2466.28528899179 127 133 131
-507.584934936705 35.9212713621146 2472.78737915534 120 126 124
-506.31203793192 35.6246324165592 2479.56396993187 117 123 123
-509.059145169523 35.4756612128189 2485.77306768311 130 138 140
-542.013969536585 36.4268800073606 2487.9331992008 124 132 135
-602.21780960795 38.3616746695898 2486.67741014612 154 162 164
-650.404997545675 39.8496643314342 2487.28268931096 165 170 173
-690.585755715344 41.0394169920433 2489.145793854 155 160 163
-694.46947761244 40.9145364747366 2495.6938082795 159 165 165
-697.345568333638 40.7533698444453 2502.37316784885 159 163 162
-704.267221356241 40.737138967297 2508.57913064468 160 164 163
-684.886471363803 39.7808847476695 2517.84677779721 167 172 168
-852.864580778043 54.8968717875919 2063.9076640042 173 177 178
-848.123651394356 54.3935214077713 2073.26383405514 158 162 161
-844.345876597689 53.9295575106406 2082.32455449354 151 155 154
-847.378334164212 53.7305141461932 2089.56148914794 139 143 142
-852.361957626038 53.6069139490434 2096.29678142879 127 131 130
-862.227633106568 53.6706237378676 2101.79390277445 139 145 141
-867.223312675682 53.5465245708119 2108.57364199525 113 119 115
-867.338172359615 53.2357816449179 2116.59654744246 98 104 100
-835.183930934353 51.6971846836194 2132.62419421226 97 103 101
-751.119881290542 48.1958263083569 2161.20155703333 163 169 167
-695.325414219674 45.7843509919687 2182.42478202138 161 167 167
-675.702814712488 44.7513853382875 2194.64237812755 163 168 171
-665.854474601508 44.0915185402093 2204.42037686691 162 167 170
-656.970201191284 43.4707665721843 2213.90521196349 160 165 169
-645.123383907889 42.7420548370438 2224.0133613544 160 165 169
-636.204857726718 42.1260442194147 2233.37401606624 158 164 164
-631.204362662769 41.6584905466282 2241.78906978671 155 161 159
-627.177758742294 41.2289949705533 2249.94769795107 146 152 150
-624.127477282987 40.8371967846194 2257.85777081163 142 148 146
-619.098062660988 40.3740204612362 2266.16914453291 128 134 132
-615.045179442579 39.9486111494103 2274.23185364546 122 128 126
-613.944622877052 39.633108849482 2281.6364013607 114 120 118
-612.839543118246 39.3184473946242 2289.02468621138 119 125 123
-609.75268322608 38.9326344251628 2296.80365829477 122 128 126
-604.679966890097 38.4761196406255 2304.95753796331 124 130 128
-605.537060867414 38.2362925548321 2311.88466603259 124 130 128
-606.39249680088 37.9969460620683 2318.80594153129 130 136 134
-605.26324799322 37.6868128702958 2326.10735034883 129 135 133
-602.145008437346 37.3062176915586 2333.77311013103 125 131 129
-599.019561309258 36.9268098399811 2341.41193020395 122 128 126
-597.873748981637 36.6194876811561 2348.65361665728 110 116 114
-597.717636781422 36.3483952310813 2355.69641886491 106 112 110
-595.568428953815 36.0073515640796 2363.08772487631 100 106 104
-591.421536757808 35.5969091371097 2370.81177541037 98 104 102
-587.265755226043 35.1876969886076 2378.50359831646 89 95 93
-578.11513752479 34.6043922037402 2387.02319145357 91 97 95
-553.979256303893 33.4983337757204 2398.0248497667 129 135 133
-521.816556871366 32.1173366900579 2410.22334451752 162 168 166
-507.593301833714 31.3690457581467 2419.28852578469 155 161 159
-504.347697975625 31.0058670345524 2426.4924027135 153 159 157
-502.095609128545 30.6784839464215 2433.51035623809 146 152 152
-504.845026795171 30.5250285831764 2439.72520109588 138 143 146
-502.584473968836 30.199115410885 2446.7126575523 131 136 139
-505.33260812621 30.0463572726504 2452.92317718318 128 133 136
-508.082124791991 29.893792975842 2459.13802315564 127 133 133
-511.836880543413 29.775682975782 2465.21148610908 121 127 125
-513.584133799252 29.5890858026843 2471.58088730903 118 124 122
-519.354635456801 29.5393614709015 2477.38709605385 111 117 117
-526.136839476086 29.5233439257011 2483.07544671825 120 125 128
-558.108033277226 30.3565776469113 2485.40631053908 129 134 137
-604.2341352064 31.6603035932619 2486.03548762093 132 137 140
-605.030582497188 31.4349353276288 2492.74750399418 147 151 152
-597.750141842196 30.9399642251155 2500.47289743102 153 157 158
-854.991815597985 47.2505478163165 2063.08186091433 159 165 165
-846.356294490926 46.6254327038087 2073.48750989742 160 166 166
-843.547567239912 46.2128823462022 2082.28225337773 149 155 155
-843.655198761622 45.9064631232247 2090.28198085747 142 148 148
-850.586921998844 45.8450567193943 2096.49588190138 145 151 149
-861.429679799757 45.9224318460492 2101.73209657184 134 139 135
-866.425005863895 45.7904595674719 2108.5055526275 92 97 93
-865.559887855755 45.4507025916586 2116.768924429 83 88 84
-830.45475790844 43.9026542147699 2133.52442352111 97 102 98
-685.630243511456 38.2132335877152 2184.51081750189 172 176 177
-665.010230366998 37.2060111570606 2196.93871459073 175 179 180
-658.091433201431 36.682002297967 2205.98941552675 175 179 180
-652.141415362958 36.1940792751576 2214.76253752982 167 171 174
-647.162106077247 35.7419540605936 2223.26599061343 160 164 167
-640.206040256043 35.2233530691988 2232.18173458008 149 153 154
-637.17247318386 34.842294367582 2240.16157405478 144 148 149
-631.177786983486 34.3609527406378 2248.77300633369 132 136 137
-628.127291721328 33.9824872990989 2256.6916320055 128 132 133
-623.097342759358 33.537951807907 2265.01186165028 121 125 126
-620.030817348777 33.1621561996987 2272.87172709331 118 122 123
-617.944357011257 32.8210185050296 2280.49594287308 118 122 123
-615.851689347215 32.480909296795 2288.09869042107 127 131 132
-613.753273595599 32.1418475022285 2295.67982870615 131 135 136
-606.700293230699 31.6375167808681 2304.24475746823 130 134 135
-605.576904714691 31.3340781695347 2311.57122198521 126 130 131
-604.448712641184 31.0315634581311 2318.88136415922 114 118 117
-604.307767532564 30.7628471554044 2325.98197898031 114 118 117
-600.193451921882 30.363078682405 2333.83371896661 114 118 117
-597.063697475328 29.9975419142052 2341.46530428616 113 117 116
-597.90229705261 29.7642369071341 2348.32881299448 107 111 110
-596.749871694714 29.4660845887909 2355.55173591975 105 109 108
-594.597488727409 29.1361526920568 2362.9382686498 102 106 105
-592.43908709574 28.8072345990946 2370.30309532131 100 104 103
-590.274672167361 28.4792430395154 2377.64618076539 100 104 103
-580.123141788412 27.8931740783977 2386.34508555436 115 119 118
-549.98737048024 26.6630452636884 2398.37177672351 151 155 154
-519.805510619107 25.4382828406089 2410.22980916486 147 152 148
-504.573847881055 24.7011569116285 2419.45433966559 144 148 147
-499.32217163842 24.2877748417083 2426.97193703641 143 147 146
-498.065426024207 24.0038321757934 2433.81558150435 147 151 152
-500.811541854373 23.8483036146338 2440.01685838189 151 155 158
-501.553636593977 23.6293441628986 2446.53019155249 154 158 161
-504.300634703817 23.474291225639 2452.73504444557 148 152 155
-502.028441810649 23.161017615477 2459.68726357306 144 148 149
-500.754954584309 22.8802171578731 2466.47166256477 131 135 134
-502.493464500249 22.6948333780929 2472.80936753034 128 132 131
-514.294130105747 22.8243038638227 2477.73867603264 113 117 116
-534.164447835377 23.2036852289278 2481.61438079016 107 111 112
-578.244835721868 24.3320492611924 2482.33107803937 113 117 118
-617.343092296545 25.2981592938653 2483.93111948407 124 128 129
-635.302813323076 25.6045756320003 2488.45972762002 174 175 177
-829.818287326 30.5421845799852 2492.9036100504 156 158 155
-871.575476755023 40.3938081778036 2050.18634599914 179 184 187
-860.038034077986 39.6977471561677 2061.46282759638 153 158 161
-848.480294913633 39.0045245390348 2072.66574433424 155 160 163
-844.69599951934 38.5729129997476 2081.72268065673 146 154 156
-840.902938555395 38.1428351399335 2090.74804042203 140 148 150
-848.809271799499 38.1005429646489 2096.69622474213 88 94 94
-858.677045736164 38.1219343747184 2102.17349061267 97 101 100
-862.693270479992 37.9503620887272 2109.18398339983 101 106 102
-862.801214770377 37.6510190961541 2117.18841066729 87 92 88
-840.399036694887 36.6195715265609 2130.77775396853 95 100 96
-677.885867636048 30.7657434193028 2186.12518284745 147 151 150
-656.269323035466 29.7893971788395 2198.76896794892 133 137 136
-647.376809369117 29.2273935159616 2208.26029919391 125 129 128
-644.361076651206 28.8563453587759 2216.31267426428 124 128 129
-642.321028668245 28.5179271387842 2224.1109269539 129 133 134
-640.275039515777 28.1806004094897 2231.88781035565 146 150 151
-637.238617588827 27.8131003905806 2239.8656105566 147 151 152
-632.224840749054 27.3846020951744 2248.2560091673 144 148 149
-628.186500717407 26.9886397410889 2256.39223457197 142 146 147
-620.193397469516 26.4701310910863 2265.35404051092 143 147 148
-616.134479902537 26.0772707116914 2273.41582398442 146 150 151
-615.030542617244 25.7782184667478 2280.81820545332 157 161 162
-614.91090232355 25.5107712252987 2287.99779307295 166 170 171
-611.819765687842 25.1521120739606 2295.77802994503 171 175 176
-606.74116680836 24.7335080766483 2303.93400376892 172 176 177
-602.643012000354 24.346860905638 2311.85402975128 170 174 175
-600.519150965231 24.0224396802358 2319.34993797476 165 169 168
-601.366096478036 23.7900250857352 2326.2440666433 145 149 148
-598.239262962281 23.4371119159541 2333.89539570811 157 161 160
-597.09248066516 23.1457299312226 2341.14354464624 161 165 164
-596.935715871061 22.8853491106594 2348.1897576403 161 165 164
-596.77559359047 22.6256094119003 2355.22483873831 160 164 163
-594.620765936698 22.3066759216712 2362.60923864474 153 157 156
-594.452930487504 22.0484926029347 2369.61666487633 150 154 153
-591.290264875841 21.7016081389369 2377.13783357866 146 150 149
-579.137922229692 21.0884765981185 2386.1836694405 145 149 148
-543.993933008358 19.7963027894399 2399.06011708731 156 160 159
-516.792226197375 18.7467400610813 2410.4045244724 155 160 156
-506.551733079202 18.2031431043119 2418.79901362446 146 150 149
-502.298920304546 17.8380510657926 2426.15843367102 137 141 140
-501.042058508211 17.5622019951854 2433.00768567239 126 130 131
-501.785369788159 17.3456724490671 2439.52706973405 126 130 133
-507.542113556033 17.2753787363447 2445.27014072318 128 132 135
-511.296912293212 17.1466707683125 2451.33614324964 140 144 147
-511.036160146582 16.901890983954 2458.00705028476 141 145 146
-505.746320647088 16.5130325279009 2465.39750886613 143 147 146
-509.499535672002 16.3853164536358 2471.45825760914 142 146 145
-525.334940144839 16.6029841530356 2475.83723328253 131 136 132
-553.278590347968 17.163346939119 2478.62855123711 126 130 129
-593.356104949734 18.0635791638493 2479.9264736236 125 126 128
-607.2593087273 18.2158638886656 2484.8829281977 133 134 136
-598.969979596925 17.7400491353883 2492.77186018503 154 155 157
-611.880810351871 17.8625582691646 2497.92227888331 172 174 173
-866.903189226801 32.4843359967155 2051.22428280932 183 188 191
-850.489596626619 31.6770756675869 2063.80982998625 169 174 177
-843.787582889543 31.1710884528952 2073.67678322668 143 148 151
-843.894881593275 30.8748457243312 2081.68169992432 107 112 115
-840.098064182438 30.4610663288961 2090.70247371323 118 126 128
-847.029001621769 30.3734021932627 2096.89780850884 127 133 133
-854.944014355754 30.3147980968981 2102.8679195807 122 126 125
-861.890121452562 30.22633979718 2109.11814592522 93 98 94
-867.864924070478 30.1082687118796 2115.6406625543 103 108 104
-852.308144255089 29.3478414488785 2127.54063523239 83 88 84
-676.997084672863 23.5708872463388 2186.07549113825 162 166 165
-656.350362301305 22.6880633010669 2198.48276079307 165 169 168
-647.452344571158 22.1556878039764 2207.97329122327 166 170 169
-639.521022216571 21.6543824206148 2217.17533875229 166 170 171
-638.458129650966 21.3559843067586 2224.73052420497 165 169 170
-638.374914728729 21.0871259593123 2232.04446119119 161 165 166
-636.319089549137 20.7619413139672 2239.79249122821 165 169 170
-631.300701748546 20.3524255254099 2248.17868382869 168 172 173
-626.27226789927 19.9445119975874 2256.52765998043 164 168 169
-619.259903404893 19.4815308019207 2265.26856441262 162 166 167
-615.197016086692 19.1050153027554 2273.32592827959 164 168 169
-614.090303337165 18.8143135830427 2280.72327707824 164 168 169
-613.968049820715 18.5525625947485 2287.89768765251 163 167 168
-610.873572331938 18.2076410040982 2295.67326474607 163 167 168
-603.809506918735 17.7522784831565 2304.22795285465 164 168 169
-599.70593723638 17.3822010944792 2312.13833576297 164 168 169
-599.561428456262 17.1244753355363 2319.23172920173 168 172 171
-599.41357749905 16.867417810987 2326.31406470271 166 170 169
-597.276004360301 16.555904672317 2333.76721206315 159 163 162
-595.13218443669 16.2454245836356 2341.19874757191 154 158 157
-594.972336127715 15.9908015449189 2348.23714724161 147 151 150
-594.809121966639 15.7368494787281 2355.26440280159 146 150 149
-593.646592970398 15.4563580024497 2362.46096302907 142 146 145
-592.479477173594 15.1767436109394 2369.64104711046 140 144 143
-586.319405662389 14.7623601965314 2377.68071005498 140 144 143
-566.169508212838 13.9711519804836 2388.09411426121 155 159 158
-534.997205076218 12.8873504279632 2400.26106966332 159 163 162
-511.776185910168 12.0238897301353 2410.91534557793 151 156 152
-504.527974838874 11.5935216236957 2418.80211711443 147 151 150
-497.266546799805 11.1648265415894 2426.64087290001 146 150 149
-497.006234834769 10.9243932311219 2433.31522935668 142 146 147
-494.736979328198 10.6313953635427 2440.29208448982 134 138 139
-499.486064563272 10.5248404479372 2446.16734380143 128 132 133
-499.218459738108 10.2860304395078 2452.81564816573 112 116 117
-498.947446130611 10.0478674855028 2459.45263392813 103 107 108
-493.645349956199 9.67899847117502 2466.81020616482 106 110 109
-497.389924629597 9.54716937075105 2472.83627822673 108 112 111
-511.207296078749 9.67638928440383 2477.4604212963 119 124 120
-563.336762429338 10.7932533990703 2476.88208774117 85 85 85
-598.393580162142 11.4615270092024 2478.87523110077 117 117 117
-615.33197225763 11.6593222084851 2483.43958777436 139 139 139
-613.103100786588 11.3648380142614 2490.56451350503 127 127 127
-847.632510149794 24.1995192729854 2056.27466001006 168 172 173
-846.773451837048 23.8796551830069 2064.57308959961 152 156 155
-840.064300919402 23.3982714275696 2074.42814820109 159 163 162
-841.142011238059 23.1348858802439 2082.16043694932 158 162 161
-839.291137724658 22.7913409424724 2090.657820626 122 126 125
-846.222752718067 22.6904637264833 2096.84639997738 105 109 108
-852.18411213285 22.5625096685345 2103.31276503648 93 98 94
-859.128989423709 22.4609868436635 2109.5511061178 115 120 116
-865.102611422056 22.3326037224471 2116.06179983569 150 155 151
-857.370370643999 21.8329326739754 2126.00495909543 153 158 154
-676.106258406537 16.3879290663551 2186.02665383737 191 196 192
-658.393320355244 15.6457870322347 2197.72541868586 179 184 180
-650.473878510484 15.1691024863903 2206.98712052724 176 181 177
-639.590912926256 14.616234621472 2216.88763157471 172 177 173
-635.574866868249 14.2479923322359 2225.12413113179 161 165 164
-635.487839399726 13.9849183163649 2232.42756480503 165 167 166
-632.442093930389 13.6450402702851 2240.38818758808 162 164 163
-627.417391143013 13.2548338745988 2248.76219579763 156 158 157
-618.436141457445 12.7634588585506 2257.96865882521 157 159 158
-610.425842827377 12.2998458213059 2266.90220891892 160 162 161
-605.365268132446 11.9147702196351 2275.14627108116 160 162 161
-605.238191991902 11.6586386885432 2282.30539500597 161 163 162
-606.097199180256 11.4285190132466 2289.24668422615 159 161 160
-602.994099052435 11.0978809447621 2296.99926501908 158 160 159
-598.892530459273 10.7431690468186 2304.92677854583 170 172 171
-597.756980463848 10.4652473042528 2312.22512891093 171 173 172
-600.586433168246 10.2884476257322 2318.72146077646 172 174 173
-599.444669421139 10.0119088481322 2325.99761383111 173 175 174
-598.298345072486 9.73633077484602 2333.25744080449 170 172 171
-593.169507559586 9.36226949440215 2341.25501036858 164 166 165
-594.00148179515 9.13816463489024 2348.09972897318 150 152 151
-589.85217757139 8.79131314008096 2355.85497210648 147 149 148
-589.680821854873 8.54411534521869 2362.85533493763 147 149 148
-584.519304294495 8.17507565300667 2370.73474025848 150 152 151
-574.356830510246 7.68535583782075 2379.45384413523 162 164 163
-545.199390736057 6.73516649765631 2391.39237826473 161 163 162
-521.994134593193 5.93584481367808 2402.14660223309 164 166 165
-506.75488022707 5.33425036153888 2411.42851398602 155 160 156
-505.504543021826 5.07338803206279 2418.31145235911 135 140 136
-500.242884437915 4.71711436055265 2425.82711348385 135 140 136
-501.987782515803 4.53003861241229 2432.18746822245 144 148 147
-498.716607251508 4.22382892916172 2439.33237080158 150 154 155
-500.45735714466 4.03778172006157 2445.67797350898 156 160 161
-499.184089573818 3.78084226260338 2452.47825262486 142 146 147
-500.922127565809 3.59565747917316 2458.81433106518 137 141 140
-501.653940266756 3.38721646938921 2465.29612983507 115 119 118
-507.417556078966 3.29674734483341 2471.0519776791 109 114 110
-524.268683365471 3.46367878101155 2475.27285145609 111 116 112
-570.377675125063 4.30585891207057 2475.54803498874 47 47 45
-607.469761348467 4.93217224365082 2477.27767003791 11 11 9
-849.756982818934 16.5692054715942 2055.44778055626 179 181 180
-845.001160600097 16.1593034210177 2064.80858383472 161 163 160
-838.286078445428 15.702376514381 2074.65706168963 168 170 167
-837.410371432644 15.3932184217917 2082.90043712527 136 138 135
-840.434813709509 15.1820757435215 2090.09997370679 136 138 135
-845.414455656086 15.0195393469954 2096.79590112393 126 128 125
-852.353379994815 14.9051587911085 2103.00402236249 130 132 127
-858.321389093708 14.7664203314724 2109.48733866623 148 150 145
-862.336631991439 14.5797112725629 2116.48462948527 131 133 128
-715.458415642108 10.4550831987451 2168.62752852283 152 154 149
-682.082290506478 9.38259205555346 2184.3082267331 140 142 137
-664.364548336443 8.69371034029424 2196.0237096299 171 173 168
-657.427381519205 8.26700329627238 2205.06670989933 190 192 187
-643.593243439188 7.67831761615383 2215.67737256587 194 196 191
-634.656465408465 7.20932491837277 2225.06308115569 186 188 185
-632.597099184289 6.90536746092128 2232.81229474588 195 195 193
-629.546559295994 6.57936620448772 2240.76294884703 186 186 184
-627.474833496899 6.27759629381051 2248.46672583796 183 183 181
-618.488087639202 5.81584853083898 2257.67241677473 182 182 180
-609.485529844309 5.35631211601582 2266.81986819469 180 180 178
-605.408897280022 5.01324449015543 2274.84731589313 186 186 184
-605.279951629277 4.76260766535623 2282.00389678538 160 160 158
-606.137920281374 4.53550355878217 2288.9423049737 113 113 111
-603.031979109205 4.21842257576142 2296.69289675984 58 58 56
-596.944450631963 3.83495209195726 2305.02234359999 0 0 0
-596.797588239191 3.58795425759993 2312.11377158624 0 0 0
-598.632970980968 3.38639874162348 2318.80093637995 0 0 0
-600.468126120875 3.18527391370642 2325.48752804642 0 1 0
-601.308703189416 2.96228256701102 2332.36489029745 0 1 0
-595.183530376268 2.58487708441306 2340.55747119822 7 7 5
-593.029038427523 2.29738745358636 2347.96296951834 2 2 0
-585.886704741442 1.90101609799374 2356.26430680347 0 1 0
-584.713592930501 1.63786540135073 2363.4325231746 7 8 3
-576.551459766428 1.22272494488722 2371.83201542974 0 0 0
-553.397000340732 0.483295407723169 2382.81265041917 121 121 119
-524.211175042689 -0.381900438851959 2394.6994551044 140 141 136
-509.979482327505 -0.917992687282612 2403.86728006863 148 150 145
-502.729131733223 -1.30068713676947 2411.77620662686 139 141 136
-501.473868110274 -1.55292128930364 2418.64630155579 148 150 147
-495.203670709426 -1.9111855316984 2426.31251936349 158 160 157
-491.929932978864 -2.20401476441996 2433.4563557236 154 156 155
-490.65614244245 -2.45334808666971 2440.25856626389 141 142 144
-491.385887602974 -2.65959305469866 2446.73500414972 129 130 132
-493.119070643011 -2.84436075467161 2453.05332042964 118 119 121
-492.840718457379 -3.0706922133172 2459.66960025402 122 124 123
-499.603824694109 -3.15015251267343 2465.24699016115 144 146 143
-506.374064569461 -3.22996858475079 2470.84971223155 155 157 154
-526.252983310274 -3.0405358481423 2474.63742723775 111 113 108
-847.98717650468 8.84732433838613 2055.69153525739 92 93 88
-844.200791738589 8.47828438576868 2064.78021857606 106 107 102
-838.455332591032 8.06732505185491 2074.36234677266 104 103 98
-837.577558333351 7.76634892579957 2082.60321259851 111 110 105
-837.672076075182 7.4879682894116 2090.57102425702 143 142 137
-841.672462378732 7.29627656799224 2097.51000966141 111 112 106
-849.587830209433 7.1903207252773 2103.45154372403 90 91 86
-855.554183705051 7.04131088984659 2109.92315731085 42 44 39
-861.526429874498 6.89208880547208 2116.41558621528 44 46 41
-804.77310217821 5.38927634305618 2138.54968119638 173 175 170
-684.135515288645 2.26772912389121 2183.54317555663 9 11 6
-668.375072813214 1.67426154087023 2194.79239829626 0 2 0
-658.487131753829 1.20906225064497 2204.54534032675 0 1 0
-643.662719957583 0.642615025702106 2215.38967135397 0 1 0
-641.611880603703 0.347896045051518 2223.17637623295 2 4 0
-636.59966890556 -0.00747771133625952 2231.61875291358 0 1 0
-638.478731059756 -0.217753135641555 2238.46258551104 9 10 5
-630.491021427017 -0.631779628173915 2247.51038145046 64 65 60
-619.526548911267 -1.10477469040894 2257.15870074233 64 64 62
-609.531410156157 -1.5549765438619 2266.52310733523 9 9 7
-606.44026341425 -1.86155812112511 2274.33618573895 0 1 0
-610.26874454995 -2.02631351390477 2280.65299811288 6 7 2
-612.11927347472 -2.23094938869219 2287.39445293818 5 5 3
-609.014545943729 -2.53480495195497 2295.15882959632 2 3 0
-615.819691922822 -2.63893409399808 2300.87580118893 6 7 2
-601.790735553134 -3.15875941682693 2310.80661655398 15 15 13
-607.60141942214 -3.28173575340325 2316.71669551591 25 26 21
-598.509747005883 -3.69910745018183 2325.55990240837 25 26 21
-608.298974992717 -3.74312871228318 2330.70517344747 14 15 10
-602.174783105437 -4.09938961043667 2338.91474591742 7 8 3
-603.010740495193 -4.31829403490132 2345.7775364753 14 15 10
-577.929828629144 -5.03859481137144 2357.41034879472 22 23 18
-590.713620281031 -5.02364840904575 2362.02025770218 17 18 13
-566.579933457701 -5.71854836373072 2373.28964731902 8 9 4
-538.412764922652 -6.4853057596518 2385.12528243662 139 140 135
-518.19954780763 -7.09507568800057 2395.41721474921 164 165 160
-507.957609479673 -7.51191758109061 2403.88729365459 129 130 125
-502.703583472981 -7.83236345415468 2411.45391283894 136 138 133
-503.449954350585 -8.03876225730239 2417.99105260779 124 126 123
-499.182001224555 -8.33812695590876 2425.33575629868 128 130 127
-494.905153869054 -8.63620304366959 2432.6482510202 147 149 148
-493.631238310968 -8.8773839818785 2439.45607339052 151 152 154
-498.380726373425 -9.00709204454971 2445.31821063628 139 140 142
-505.145090008944 -9.10012131817457 2450.89077325615 119 120 122
-506.885784329779 -9.28518007134095 2457.23679369375 103 105 104
-512.653380385962 -9.39696319964957 2462.99396285738 100 102 99
-520.441584838071 -9.47270168531551 2468.48244187598 108 110 107
-568.568019868738 -8.82612957529984 2468.33093041071 103 105 100
-834.525748653826 0.912252880884354 2059.15155417969 162 161 156
-836.574820617352 0.675354122271141 2066.60979129864 177 174 167
-836.672680497285 0.4008545271008 2074.59339096963 171 167 158
-836.767806348151 0.127140404268963 2082.56640661017 170 166 157
-835.882806280717 -0.164508360704266 2090.78633322812 146 139 129
-837.92647487685 -0.398904785044354 2098.22608854583 131 127 118
-847.797187013637 -0.483052935152231 2103.64856024683 118 119 113
-857.679550846133 -0.567963861062018 2109.11288181112 66 68 63
-868.553120224065 -0.635160017802019 2114.37221908821 42 44 39
-709.757626115883 -4.41196124220479 2177.04133168598 10 12 7
-692.042513548969 -4.99560074317314 2188.83209318588 17 19 14
-673.315021644992 -5.59369742900868 2200.7512815028 15 17 12
-657.509637014442 -6.13372515027062 2211.86645293749 10 12 7
-635.768456462113 -6.77826629914376 2224.25790256523 9 11 6
-672.144381601685 -6.36249199866785 2223.19564855152 19 20 14
-661.226089981384 -6.80709253736951 2233.03335527267 12 13 7
-644.366467118145 -7.35564582867433 2244.12621358263 11 12 6
-625.503834312394 -7.93594655433862 2255.55488565578 10 11 5
-617.484198364058 -8.31907263686894 2264.50365434399 12 13 7
-637.148160411176 -8.21037605523652 2267.44230469521 21 22 16
-633.07922062556 -8.52201309128182 2275.5181578021 13 14 8
-642.870940417791 -8.58956638012066 2280.656894514 12 13 7
-642.759882158611 -8.83054539288776 2287.88598522222 18 19 13
-615.858881874381 -9.53461015378905 2300.56498633385 19 20 14
-617.707913255973 -9.73774420313835 2307.3018292488 15 16 10
-606.640595167713 -10.1617297522792 2316.59924512802 23 24 18
-602.514389670198 -10.464628112205 2324.46706999053 19 20 14
-593.40404270165 -10.8505306952385 2333.26173890394 18 19 13
-578.303560024064 -11.3349943623 2343.13283298372 22 23 17
-583.106885376115 -11.4822511898961 2349.18377816243 19 20 14
-594.894294343382 -11.5131667133859 2353.96260803529 15 16 10
-592.725772409071 -11.7769958265427 2361.33095378102 5 6 0
-573.575069615772 -12.3198277757723 2371.71466329703 18 19 13
-525.4142007491 -13.3344217181489 2387.09218951875 163 164 158
-512.182111886717 -13.7697999111755 2396.13768384677 177 178 172
-505.933133704304 -14.0887891787284 2403.90840963922 153 154 148
-503.678424163373 -14.3415238199453 2410.96376216267 155 157 152
-502.419821803012 -14.5772261233708 2417.83189835803 135 137 134
-501.156641955577 -14.8121390687724 2424.68353760039 120 122 119
-496.877980850349 -15.0939752126586 2431.99955127505 111 113 112
-496.607974423434 -15.3111916640325 2438.65257200424 115 117 116
-498.344796150672 -15.4961780139733 2444.98425997243 122 124 123
-504.104388644514 -15.618011105399 2450.70536845715 132 134 133
-505.843532406897 -15.8026594631542 2457.0458910773 144 146 145
-508.589505756965 -15.9713711670743 2463.23831580797 136 138 135
-517.38427708992 -16.0471150238102 2468.56765659813 144 146 143
-563.509015389283 -15.5539538398226 2468.68002263241 130 132 127
-824.950145620943 -6.87501992136226 2061.54505180167 207 204 199
-836.74314973504 -6.94644136419693 2066.31908204114 159 156 149
-833.91155723584 -7.26458532291148 2075.08853459442 82 75 65
-835.955997384412 -7.49996636027035 2082.53053290201 84 77 67
-832.136101033702 -7.83205926949494 2091.51812070407 88 80 69
-835.154267230596 -8.04983416609113 2098.68923917278 84 77 67
-842.088712898281 -8.20306453960569 2104.85620424251 74 73 68
-858.82581056662 -8.1971684563021 2108.55203910495 99 101 96
-884.406527724432 -8.05036101346142 2110.10272238177 97 99 94
-708.874671898362 -11.6462527898773 2176.9883835359 1 3 0
-714.745195618102 -11.8030401610561 2183.0992896181 12 15 8
-701.928177532836 -12.2537564663714 2193.67617670874 11 14 7
-668.413039732611 -13.0246379462508 2209.03209771556 11 14 7
-636.816276094158 -13.7585758693669 2223.74124945312 12 15 8
-643.625476714782 -13.8930102940605 2229.45414196608 8 9 3
-669.189666052565 -13.7401610290186 2230.94727517674 10 11 5
-654.302341119995 -14.2081477807087 2241.62018484777 16 17 11
-627.532008673059 -14.8526329807614 2254.82194544476 14 15 9
-624.453598577333 -15.1344834175117 2262.69699744436 8 9 3
-623.346888694158 -15.3854421888579 2270.11944850224 9 10 4
-640.061819972686 -15.37023092067 2273.73979404639 17 18 12
-652.834169961435 -15.4155979764908 2278.2691435411 10 11 5
-647.769598038129 -15.7246599709138 2286.54728481258 13 14 8
-635.747422904338 -16.1336803314943 2296.20527224952 14 15 9
-613.772596241071 -16.6842985178559 2307.78760867983 12 13 7
-624.563277495353 -16.7573607597559 2312.73549506037 7 8 0
-601.547782928762 -17.3164276502765 2324.34595086827 9 10 2
-580.486924000549 -17.8427376678799 2335.44069688698 12 13 5
-569.353784287565 -18.2239308826695 2344.52074681398 14 15 7
-582.125543249358 -18.2661173349901 2349.05083903049 28 29 21
-597.90576477861 -18.2676380885783 2353.08561811285 35 36 28
-600.728175656548 -18.4513711787037 2359.55235668628 38 39 31
-562.593367278651 -19.2003990640217 2373.35635404413 29 30 22
-531.39866695621 -19.846802613705 2385.71630328593 134 135 127
-514.162157472589 -20.2968023597195 2395.47207699135 176 177 169
-506.909498897261 -20.6078306152438 2403.4176807514 170 171 165
-501.647460070649 -20.890148207171 2410.97862210653 162 164 159
-501.388117899473 -21.1039478381807 2417.67339432864 149 151 148
-500.122177423259 -21.3304542077508 2424.5200913693 148 150 147
-499.855598217196 -21.5428751958294 2431.18979332478 151 153 152
-501.595438981386 -21.7282395956721 2437.53245170454 139 141 140
-506.351412650017 -21.8740058458138 2443.40853043597 125 127 126
-512.117518767744 -22.0068746887185 2449.14685533378 103 105 104
-511.847927976133 -22.217727140528 2455.80543713156 102 104 103
-512.582473651688 -22.4150536232927 2462.30532905353 112 114 111
-520.373845031853 -22.5223233502001 2467.78565908026 107 109 106
-846.561563738209 -14.1586252652239 2055.35722223124 124 110 101
-837.886007007687 -14.5477845284466 2065.76319696196 142 122 111
-833.099755404048 -14.8799014306235 2075.05920234675 156 128 114
-836.11959370118 -15.1014872507213 2082.23505200083 153 127 112
-830.340787889262 -15.4444114112971 2091.73632441518 137 118 103
-833.35704801132 -15.6645364654021 2098.89888223519 122 108 95
-838.332929103637 -15.8576295713531 2105.5615544309 107 100 90
-857.032034968385 -15.8648653303871 2108.74100965714 4 4 0
-877.716951596573 -15.8480043350221 2111.51503467794 103 104 98
-639.270553391084 -19.5352373648155 2186.34317805851 1 6 2
-722.73205862639 -18.674336691456 2173.34509914708 6 11 7
-716.810856488406 -18.9971816059194 2182.33035889652 19 24 20
-726.626428052836 -19.1137354706891 2187.52671616533 9 14 8
-679.324271689986 -19.9678394413545 2206.19379857703 11 14 7
-638.849761481031 -20.7250863741237 2222.99564270424 9 10 2
-634.810737378069 -21.0108668627575 2231.19889134794 10 13 4
-659.390149136958 -20.9337800573299 2232.8842263528 11 14 5
-647.4513031286 -21.318073979451 2242.8681385017 12 15 6
-645.378200366417 -21.5766486730699 2250.59407429731 12 15 6
-639.34195830947 -21.8830332406571 2259.16167655365 12 15 8
-622.40351499993 -22.321206062893 2270.03157844457 11 14 7
-616.335896133927 -22.6232685490359 2278.48541349453 13 16 9
-633.060098347189 -22.6479774115102 2282.11497672164 16 19 12
-641.868295192222 -22.7698696528501 2287.46502813268 15 18 11
-628.842497310269 -23.1525659546426 2297.3097010273 11 13 8
-631.692757013783 -23.3445166937398 2303.8746486385 10 12 7
-610.679873773815 -23.8161538723783 2315.18203655305 12 13 8
-609.535041447064 -24.0520168095881 2322.47247716913 14 15 9
-590.461546746018 -24.4941593884738 2333.20548617407 15 20 13
-568.367769676796 -24.9668201550309 2344.39633031697 17 22 16
-574.162015388818 -25.1175223603013 2350.22694393928 27 28 20
-580.959426143312 -25.2571857341908 2355.89369072777 33 30 23
-580.773341003661 -25.4755297919623 2362.8575828368 35 25 16
-556.598648305272 -25.9600388455703 2374.10755547732 34 30 21
-527.385624863268 -26.4952828473395 2386.10262212883 110 103 93
-512.139519320645 -26.8718935470525 2395.50113976945 117 110 100
-504.880981089328 -27.1584131529853 2403.44038699751 154 150 139
-500.616281657515 -27.4107208100908 2410.82595134735 169 166 159
-498.348283903124 -27.6403211083093 2417.84750217421 157 156 151
-495.070887625409 -27.8795749911657 2425.01065071449 152 151 147
-496.808020919222 -28.064828440918 2431.34332683547 150 149 147
-498.544884628812 -28.2497329967348 2437.67522231644 141 141 139
-502.293042074281 -28.4134374018721 2443.69540113264 113 113 113
-506.044029675298 -28.5770865100087 2449.72519365082 101 103 102
-506.775727892181 -28.7715636947063 2456.21538339197 98 100 99
-511.537682915998 -28.9247226202927 2462.10900237462 91 93 90
-540.51317877932 -28.8351099736395 2464.53783365103 73 75 72
-839.906586672679 -21.8774331305054 2056.9477666446 163 143 132
-832.196630319769 -22.2253803055137 2067.06852509564 164 136 124
-827.402139645676 -22.5381528582344 2076.3470824587 157 124 107
-830.417423949422 -22.7618043369726 2083.50379085666 158 125 110
-827.564745176917 -23.050157174737 2092.21376276415 139 116 100
-829.599326613787 -23.2833582077277 2099.62053394807 124 106 92
-831.633799374901 -23.5160556574656 2107.02721957632 75 72 63
-597.092899329921 -26.9984639773907 2196.48502776903 0 2 0
-655.975506517742 -26.6128262960205 2189.34477433157 6 12 8
-694.278691193174 -26.4501413516967 2187.48562910331 20 25 21
-683.345679779176 -27.0335758899533 2204.97367236467 11 14 7
-648.772342606138 -27.6160901874702 2220.41688108623 8 9 1
-653.618760069162 -27.7976472785031 2226.60616343647 12 15 6
-644.643719663296 -28.1161524112906 2235.94482129703 12 15 6
-654.429571679056 -28.2481369268804 2241.02202262388 14 17 8
