ply
format ascii 1.0
comment KinectMotionCapture
element vertex 784
property float x
property float y
property float z
property uchar red
property uchar green
property uchar blue
end_header
-713.977154966929 -216.895011899758 2117.07336224049 14 17 6
-732.549758572904 -217.816995813929 2194.37108632934 27 30 21
-734.149939023574 -218.130656165877 2129.67567989227 31 34 25
-743.214847763633 -218.711559639784 2127.53827556313 22 25 16
-746.992081340826 -219.114381294123 2077.68768811744 10 13 6
-757.703445708452 -219.753948745645 2089.45355079887 9 11 6
-765.408360562606 -220.294615436818 2073.37693898596 9 11 8
-770.334552465674 -220.750901283334 2029.42971225645 9 11 8
-790.846953940229 -222.00204374434 2044.00506267261 10 12 7
-795.910290376483 -222.477106509261 1997.01746900117 7 9 4
-804.235255879723 -223.0508448184 1982.87918009101 9 11 6
-814.224690186436 -223.671120124655 1986.67310724785 8 10 5
-566.41262636996 -216.805480283762 2138.51160880187 31 32 26
-576.267059546564 -217.408755407891 2141.31465143405 16 17 11
-578.456734971239 -217.814196447929 2096.700864518 13 14 8
-610.010175744724 -219.315581174899 2177.41909873013 13 16 9
-623.330435704436 -219.994527191376 2203.9757579152 11 14 7
-631.305371967723 -220.544732664236 2195.92769173859 11 14 7
-636.696197896523 -221.039238543012 2170.06215119181 13 16 9
-642.794831749365 -221.554653627214 2148.13956439453 11 14 7
-658.40532936091 -222.270684241402 2192.55032250126 12 15 8
-668.53959780798 -222.867776595503 2199.34941572547 13 16 9
-667.843278807163 -223.258932631178 2126.87858533354 14 17 10
-676.522426316797 -223.835967573041 2121.76576970566 14 17 10
-686.517612264238 -224.436362071206 2126.56661383453 13 16 7
-696.607042776018 -225.036731815959 2132.36338383194 14 17 8
-703.682643250924 -225.590325007724 2114.34996657819 17 20 9
-716.550839327633 -226.228608073718 2142.97854804397 16 19 8
-724.394797930469 -226.794892790262 2130.91588078766 23 26 17
-732.993490721287 -227.372978417003 2124.80542110179 29 32 23
-743.203322639418 -227.96902202718 2132.6027687879 25 28 19
-749.057043527158 -228.523531438684 2101.64094394432 11 14 7
-750.656365757795 -229.055092821438 2029.89168794907 9 11 6
-773.629054872152 -230.2768651944 2067.33865707612 9 11 8
-773.797586386428 -230.844408325129 1974.6051793857 9 11 8
-788.900377253845 -231.461873904779 2030.1643156114 4 6 1
-801.151064717072 -232.061018757224 2058.86985543238 10 12 7
-807.110679532086 -232.664788814603 2020.84065515405 8 10 5
-814.335420541178 -233.276574459109 1994.74656169933 12 14 9
-573.256525653569 -226.655389950259 2126.59819113217 18 19 13
-578.348779162799 -227.208318403052 2099.76237741379 14 15 9
-599.25257976395 -227.889189255363 2171.72987117718 8 11 4
-604.972593705008 -228.446951780752 2148.84671806005 12 15 8
-605.517519672506 -228.982806782022 2091.33787651041 11 14 7
-630.439956457169 -229.64712470621 2194.04404683836 14 17 10
-634.081689107835 -230.204410625216 2156.30398213663 17 20 13
-645.081661501066 -230.790797281743 2168.03368819297 9 12 5
-662.190567303678 -231.379459244302 2223.34239728149 10 13 6
-665.218217237907 -231.950407184912 2179.63239932417 14 17 10
-669.424319352242 -232.534883848199 2142.82966335394 15 18 11
-674.090406540572 -233.131082847401 2107.98516930137 15 18 11
-685.550068602408 -233.711621699587 2123.68848206625 15 18 11
-696.663886985438 -234.287721637912 2137.41956819153 14 17 8
-704.716369967516 -234.879845749981 2127.34632056898 18 21 12
-711.603106521368 -235.48564654203 2107.34099543776 21 24 15
-722.392675684437 -236.058702091636 2119.09692346634 15 18 9
-731.37119732301 -236.648289962372 2115.96263550861 23 26 19
-732.654541289212 -237.345607974982 2045.2609353451 28 31 24
-743.166169732923 -237.927361010754 2054.02827007349 19 22 15
-750.710116614311 -238.557483979369 2035.95660749549 13 15 10
-764.026183410749 -239.080489311188 2071.58352425699 8 10 7
-794.619816858117 -241.654101960362 1996.22132730383 12 14 9
-807.616437128601 -242.148001817232 2032.89571955319 4 6 1
-820.851173752608 -242.613110227072 2074.5789962278 15 17 14
-565.419096931853 -235.365277077078 2139.69239933325 16 19 10
-583.667774694037 -236.539497743825 2136.410237135 17 20 11
-607.787474823847 -237.649327246499 2170.69046970749 15 18 11
-606.597077126871 -238.358024896355 2102.31312231193 15 18 11
-636.135400117806 -239.374636366477 2174.211649987 12 15 8
-657.690740388017 -240.471027585057 2195.71073050019 9 12 5
-666.716433284567 -241.046043319253 2194.58589166952 12 15 8
-673.173836821292 -241.676634107188 2174.63421004421 12 15 8
-683.046239737669 -242.236360582292 2179.45026967168 9 12 5
-687.566021463595 -242.928089492872 2143.61635788355 13 16 9
-694.308507673699 -243.576824948729 2123.62938767807 12 15 8
-698.169940920481 -244.318895824528 2079.81578913878 12 15 8
-709.683755722317 -244.844733533998 2096.51988700654 11 14 7
-724.167983551134 -246.171224056705 2059.44414287608 19 21 16
-732.273738769154 -247.795076928465 1961.69193968442 21 23 18
-755.628977737669 -247.817771574996 2086.76303565273 13 15 12
-763.627672288393 -249.515530772007 1981.96985713552 9 11 8
-784.603612922212 -250.632535670081 1998.50262182365 7 9 4
-798.274524213005 -250.995792524689 2041.13912562297 9 11 6
-813.634323777927 -251.224376442742 2104.72714189964 8 10 5
-802.536961754403 -253.147659264908 1876.34785503919 6 8 3
-580.372958780833 -245.890021026555 2119.71415293951 20 23 14
-594.809029402908 -246.338686008162 2151.16987514205 12 15 8
-604.591041021529 -246.904944145874 2153.98161780486 13 16 9
-619.203653482151 -247.321974224537 2188.43852688359 13 16 9
-622.304341048448 -248.09085786074 2147.7432370815 10 13 6
-633.224585738917 -248.615335537583 2158.47504255052 9 12 5
-648.671652082579 -248.971233315119 2200.88963305116 13 16 9
-655.29306163931 -249.635924615735 2182.93318871176 14 17 10
-667.667551646896 -250.081636823012 2205.57627152108 9 12 5
-682.609036122714 -251.362074720468 2180.53654943967 11 14 7
-690.368417914274 -251.999236183928 2169.49231061897 10 13 6
-685.841809454808 -253.238829632797 2062.23026091264 10 13 6
-696.213915679651 -253.78536864657 2068.9992999891 9 12 5
-710.074762934407 -254.140025737376 2104.55754776227 7 10 3
-720.218840738842 -256.999500120032 1947.09636429687 13 15 10
-772.390306274947 -259.779903677464 1978.88798888249 8 10 7
-781.472881839284 -260.429743778933 1972.71733245003 9 11 6
-801.833607374242 -261.540807769459 1983.28025357357 10 13 6
-795.312719472487 -263.695448898981 1802.70304381676 9 11 6
-580.621313113297 -254.214302717933 2182.18624668061 13 16 7
-581.390410723296 -255.148867531918 2129.68915558307 16 19 10
-589.359287444399 -255.793092363681 2120.63440609993 13 16 9
-600.152994809973 -256.310845803715 2129.36637050585 13 16 9
-610.133947841328 -256.861904653178 2133.16093352789 12 15 8
-627.542194575017 -257.034958634984 2186.41581795269 10 13 6
-633.089438877643 -257.797154614897 2161.53938963688 9 12 5
-632.302501092987 -258.92182643657 2092.10510118447 9 12 5
-652.750106649621 -258.879857109995 2169.16629757824 16 19 12
-661.848961018817 -259.459678056294 2168.03234128266 9 12 5
-669.592780253296 -260.123373494058 2156.99011445335 8 11 4
-680.578483386777 -260.585016686937 2169.72895981967 11 14 7
-680.559865339577 -261.775520866539 2099.19127587527 10 13 6
-688.946509396374 -262.429009181014 2091.0921029917 12 15 8
-701.808820794657 -264.048507306193 2042.12632981493 10 13 6
-723.636271523987 -263.668605165006 2144.20853935939 9 11 6
-729.506513761167 -267.344712989382 1947.98017582684 10 12 7
-738.41595843991 -268.031288344755 1939.81584764996 8 10 7
-764.568212521505 -270.190285474338 1907.33279832697 8 10 7
-791.640396923001 -274.19452264932 1768.92497260274 11 13 8
-554.414437913646 -263.714556484634 2084.70581047079 24 27 18
-567.840068522988 -264.076361528161 2108.22518327895 20 23 14
-583.532103970054 -264.286025263075 2146.57782932007 14 17 8
-587.046749091786 -265.222025353799 2109.86230881911 17 20 13
-600.501385549366 -265.546003700107 2135.39381698749 13 16 9
-609.40315375726 -266.1530904646 2132.26891321812 13 16 9
-614.883389636575 -266.996778860121 2106.39313439783 13 16 9
-623.723407951995 -267.619611661848 2102.26829101842 12 15 8
-649.6379614896 -268.243317394363 2151.43952385488 15 18 11
-664.183426682811 -268.399308074435 2188.92742664096 14 17 10
-672.818421364795 -269.008906126384 2184.82813414566 11 14 7
-674.288739963391 -270.229401894911 2127.20561204362 11 14 7
-685.317580363256 -270.655395542264 2139.93898025231 11 14 7
-695.250117872461 -271.169624971459 2144.74741562325 14 17 10
-701.779237549199 -272.000686572612 2122.77193798402 13 16 9
-719.597845461022 -273.234593071391 2115.51261447955 13 15 10
-726.368190192763 -274.080889584413 2093.50707350016 11 13 8
-726.672429320562 -277.341569944849 1928.20499560078 7 9 4
-738.892300802428 -277.665185601746 1949.8593652529 8 10 7
-747.070031623709 -278.462585340831 1934.73235226683 7 9 6
-752.744423873191 -279.594611115236 1894.72452275596 8 10 7
-777.139208420003 -280.17936514312 1941.06200963645 9 11 6
-788.446193888103 -282.618283228328 1851.98212270149 9 12 5
-542.956185684276 -272.654165636786 2077.08937006109 85 88 81
-551.341404202512 -273.324285818976 2069.99810597393 22 25 18
-573.123534665682 -273.002183670566 2143.86872226586 18 21 14
-579.269220950829 -273.822109355849 2123.95643971741 17 20 11
-588.196841541912 -274.436577624733 2120.82856943112 17 20 13
-595.587318733603 -275.178152118759 2107.81502822642 13 16 9
-608.976411612621 -275.423987799089 2133.35426979124 12 15 8
-616.989795919844 -276.115095002632 2124.29408948755 14 17 10
-620.498898081221 -277.216981660666 2084.55639600832 13 16 9
-636.89166858448 -277.158792176673 2131.89079376516 11 14 7
-657.540249324896 -276.651361775864 2210.94129833409 13 16 9
-666.247981249079 -277.251424986371 2207.84059064952 17 20 13
-673.06464680298 -278.046091757342 2190.86780889998 15 18 11
-681.832377391823 -278.649872713306 2187.75962352732 11 14 7
-684.088983155412 -279.964259319004 2135.07814072218 13 16 9
-691.992345545521 -280.69293047971 2124.01617496152 12 15 8
-697.574597544568 -281.701367394859 2094.09711033045 13 16 9
-708.206454171969 -282.131057787478 2103.85672793893 14 17 10
-729.174246551481 -282.99391797538 2122.4054546651 12 14 9
-719.484391314629 -288.048502358497 1869.67235294344 8 10 5
-730.454326537936 -288.521933420444 1878.38220843315 9 11 8
-767.766296200232 -289.164429844907 1951.32501993869 8 10 7
-787.532665839296 -290.309956651548 1953.90022659782 8 11 2
-793.371747302271 -291.604117751588 1911.85665735923 7 10 3
-556.390297481146 -282.296284088268 2103.65542540555 21 24 17
-570.588549004307 -282.444303384538 2132.11673272264 23 26 19
-573.875654657627 -283.588923947588 2094.42247009853 18 21 14
-590.612631212393 -283.469244454836 2139.69837684694 16 19 12
-599.964649644479 -284.040575266382 2139.54049191273 14 17 10
-606.874836029607 -284.860302089853 2123.5637924093 13 16 9
-618.803283732849 -285.166347286745 2140.21580799522 13 16 9
-629.312511069912 -285.609182080099 2147.97514916435 13 16 9
-634.150696481307 -286.675483177055 2117.14140492962 9 12 5
-659.439266489955 -287.050009241615 2163.36679904061 18 21 14
-672.49676478078 -287.149847238684 2190.9626516351 18 21 14
-680.730799598729 -287.826162532411 2183.89027069456 11 14 7
-683.119929273027 -289.266419034881 2132.20026826092 14 17 10
-688.85533108495 -290.313725474674 2104.27780826526 12 15 8
-704.627203625972 -290.005407782645 2154.71209300792 13 16 9
-707.62427675653 -291.458939523239 2103.95394488313 15 18 11
-720.833168195688 -291.467002024023 2135.56165148174 16 18 13
-719.755625739595 -297.862242908722 1877.72632595018 10 12 7
-726.130792257855 -299.076041935851 1844.68578979402 9 11 8
-740.96369263054 -298.858917313965 1889.19113000796 8 10 7
-753.269905789195 -299.036315269651 1911.84202676834 8 10 7
-780.923699981878 -298.700846614747 1992.03414916434 5 8 1
-781.917341707558 -303.686557069938 1795.41011823919 13 16 9
-556.30424972024 -291.62222769069 2106.71402476127 21 24 17
-565.599969019912 -292.215620270757 2105.55553662663 25 28 21
-569.596278096214 -293.395114723039 2071.80385010876 18 21 14
-598.561284467172 -291.770175545141 2193.1472397215 16 19 12
-607.611856993571 -292.347685851535 2192.01930262948 14 17 10
-612.698564203774 -293.400442731732 2165.1854973368 13 16 9
-628.589787753885 -294.86220819365 2147.08202117823 13 16 9
-639.487767870444 -295.221149971902 2157.81616920154 12 15 8
-638.849030156102 -297.112661696997 2088.36540570211 10 13 6
-655.254730706999 -296.730520122294 2137.71271094553 15 18 11
-668.115189817995 -296.794311437605 2163.31768374075 18 21 14
-700.919624982562 -299.696710790158 2130.00643926918 15 18 11
-711.334846194227 -300.080239697966 2138.78528303399 15 18 11
-717.346241288552 -308.132977551598 1861.92985558488 9 11 6
-727.5774922484 -308.700309349967 1863.67785156304 9 11 8
-756.595134076834 -308.056164680129 1949.74556407642 8 10 7
-759.484552445901 -310.115150118074 1881.87056305721 7 9 6
-795.369478131405 -316.651257721958 1724.23005780061 13 14 8
-807.39270748244 -316.828066096033 1743.89296615124 13 14 8
-566.324351340664 -301.4229988063 2113.55160289092 23 26 19
-584.762925901016 -300.846976305786 2168.69131002431 20 23 16
-600.522090663577 -300.561178355717 2209.04988840814 18 21 14
-611.393414029059 -300.885980368883 2219.7870328618 16 19 12
-615.025946394705 -302.194165288705 2184.06570823217 14 17 10
-623.19660776604 -302.900007202201 2177.0013136804 12 15 8
-628.750186533524 -303.992310551444 2152.12496418684 12 15 8
-637.757873590576 -304.597618214148 2149.99452478427 15 18 11
-643.793556992522 -305.65898086386 2127.07354446639 10 13 6
-649.948728076963 -306.727875950604 2104.1374323598 7 10 3
-711.618380988435 -309.151642011649 2145.82807900786 17 20 13
-710.030108060661 -316.826593072186 1891.08316125428 9 11 6
-720.75404940826 -317.263429315433 1897.8080044891 8 10 5
-730.888118812942 -317.816276171529 1899.56809000524 8 10 7
-741.538470598778 -318.248220271048 1906.30234416777 8 10 7
-751.418256613255 -318.846140618508 1906.078666982 8 10 7
-760.786668059817 -319.565079777405 1900.88044925812 8 10 7
-774.8021529516 -319.13530974976 1942.46393653414 10 11 5
-801.116889501191 -325.140779479911 1797.10161577372 13 14 6
-806.15638963398 -327.273747959899 1737.02046941627 14 15 7
-547.318527375443 -311.436806922113 2060.5229133986 13 15 10
-563.778550282237 -311.047444442904 2101.80144319415 25 27 22
-585.639069080419 -309.830220296864 2177.67553427849 21 24 17
-594.418577038125 -310.457822968211 2174.56594189346 18 21 14
-600.876564323587 -311.439605837088 2156.63072673673 17 20 13
-617.665558627656 -310.836317215172 2204.9219297047 15 18 11
-625.177760278607 -311.650697087637 2193.90900420261 12 15 8
-632.44976317123 -312.516644174989 2180.91081568955 11 14 7
-638.340297996706 -313.629290973047 2158.00784384215 10 13 6
-643.640576982309 -314.871637635909 2130.14019823428 9 12 5
-708.263079557174 -326.991718882433 1881.25285367382 9 11 6
-719.23970226294 -327.355675943753 1889.96158630938 7 9 4
-733.226087902946 -326.973799006098 1926.51015536503 7 9 6
-743.59101864831 -327.432508899531 1931.26424413892 7 9 6
-749.762689206538 -328.963183834702 1896.23432309182 8 10 7
-798.728469850357 -335.824758021826 1777.27262872688 13 14 6
-548.059810356373 -320.72948785221 2068.5168549325 22 24 19
-556.805590234792 -321.433307627716 2063.39629813101 23 25 20
-579.751662617782 -319.854196090998 2145.18056865477 13 16 9
-596.698765096638 -319.16047254779 2192.44411540191 18 21 14
-605.907405936929 -319.712270257118 2192.30407170379 17 20 13
-610.674537748488 -321.031452150923 2163.49523468722 16 19 12
-622.205854788666 -321.187641314238 2178.18080072643 13 16 9
-632.1751563995 -321.606430802138 2182.98439681714 11 14 7
-640.518897227389 -322.319991585292 2176.90635066674 8 11 4
-714.914659118358 -338.218013953762 1857.27385477721 7 9 4
-724.941477563348 -338.819873856699 1857.03183918804 7 9 6
-736.886736800982 -338.891780258493 1874.68882729588 7 9 6
-745.499030734474 -339.874177086702 1861.52344478215 7 9 6
-790.582693601935 -340.604107903116 1915.35705606565 15 16 10
-551.137920869062 -329.581309098104 2090.32683393572 30 32 27
-564.743083030328 -329.436965051463 2114.8303967089 22 24 19
-573.208038940814 -330.172874906791 2108.73704221954 11 13 8
-594.227981024792 -328.630306131162 2180.68418686337 18 21 14
-610.794794507732 -327.816932528444 2226.98718923659 17 20 13
-613.930648736674 -329.498741533837 2188.30528919577 16 19 12
-614.414513917231 -331.751843270312 2130.8085899795 14 17 10
-625.844384816653 -331.896665215882 2144.49885859524 12 15 8
-639.36856953987 -331.590264148984 2173.04308876406 12 15 8
-695.216951648787 -340.489910152631 2028.03399427941 17 20 13
-696.342241792911 -346.445078558904 1875.73744325702 8 10 5
-700.917172414312 -348.528509493874 1828.81503532418 7 9 4
-712.040646018454 -348.84684752229 1837.5053216997 8 10 5
-720.69463460696 -349.864994099102 1824.33483008521 8 10 7
-727.700437808191 -351.40142751486 1795.24743250699 7 9 6
-738.197091231396 -351.913196428291 1797.96984860207 6 8 5
-750.29802715911 -351.90358052232 1816.61488159143 6 8 5
-756.947852543452 -353.650676640324 1781.52585958633 9 10 4
-776.097958322004 -351.206482859784 1873.85891765691 10 11 5
-780.524362610855 -353.746764577148 1814.86328204804 15 16 10
-793.842527473885 -357.552725288666 1736.62153102775 14 15 7
-560.231192265777 -337.193921808256 2147.66227150138 24 25 19
-564.654406623324 -338.687274738867 2117.88912492488 26 27 21
-586.990996202535 -339.113123162294 2139.28894429242 16 19 12
-601.33914638242 -338.652549279454 2170.75324399818 19 22 15
-609.68259049242 -339.394130729235 2164.67530866783 17 20 13
-617.601630856741 -340.233671775173 2155.62705255696 12 15 8
-623.345906943521 -341.560158153548 2131.7352089762 12 15 8
-630.9574893489 -342.504962065471 2119.70253771236 12 15 8
-637.489137608156 -343.714505247959 2099.74311543513 12 15 8
-697.980508899768 -359.290130622205 1809.05467033934 8 11 4
-718.965244896961 -360.291764287779 1814.500514437 8 10 5
-728.674107502958 -361.034402633413 1810.26755993031 8 10 5
-739.130659893014 -361.532543375602 1812.9951847767 9 11 6
-761.166916043427 -362.09942691861 1830.40186673005 8 9 3
-789.355149683522 -360.221628368437 1915.56190833141 15 16 10
-788.171423150542 -365.149023343133 1794.79150506617 19 20 14
-793.992497936801 -367.519627084356 1745.69872750293 7 8 0
-555.479674834079 -347.295111424282 2123.08773430477 20 21 15
-567.524945534332 -347.309170676539 2138.71647476979 14 15 9
-577.377521853333 -347.761175305406 2141.51935076136 16 17 11
-595.949106025198 -346.323829477792 2198.65556501364 17 20 13
-596.081792618494 -348.867682576656 2141.20345649228 18 21 14
-609.570807655427 -348.484084977238 2167.73649813933 18 21 14
-612.052045858668 -350.599481248313 2123.09082901846 14 17 10
-623.952664227636 -350.558869094586 2139.74540463099 13 16 9
-633.720931445771 -351.004564629207 2142.5585450164 10 13 6
-640.757430197717 -352.12065835637 2126.56686294803 11 14 7
-696.623568799766 -358.794240097274 2049.06953125069 25 28 21
-701.797499893064 -360.679446142914 2013.15712846836 24 27 20
-698.156555108061 -369.15906484021 1816.11298052515 2 5 0
-704.466769717295 -371.027211920428 1782.07434581862 7 9 4
-715.470511564438 -371.371685616682 1788.76402837178 7 9 4
-732.338004833264 -369.644735925344 1850.14336936306 8 10 5
-738.289436477692 -371.711743403424 1811.11135658151 11 13 8
-745.466384949436 -373.412135307242 1782.00279259543 9 11 6
-761.233123030506 -371.881306149113 1837.47365494509 13 14 8
-785.67082891313 -366.768987104364 1985.57438743708 17 18 12
-787.992495852165 -375.091471878635 1799.87869297925 18 19 13
-798.743892773743 -375.418538432165 1806.60006111492 11 12 6
-553.56257203131 -356.911260501201 2115.29032386407 22 23 17
-562.177633353917 -357.651360270681 2110.18593523888 21 22 16
-583.111248708643 -355.589619244942 2180.12687126139 19 20 14
-588.064923940058 -357.13427614702 2153.31096297439 16 19 12
-609.891963627514 -354.704257805801 2232.20933976679 18 21 14
-612.840773868087 -356.734348172406 2192.5440117983 17 20 13
-615.548512901098 -358.890535895408 2149.88579860089 15 18 11
-636.783389730186 -359.302231364896 2167.39231954231 10 13 6
-698.261121562459 -367.5648386072 2067.02808078593 20 23 16
-704.930432297111 -376.719396259045 1879.78408995278 5 8 1
-704.620401860114 -380.946258485727 1789.13558511637 5 7 2
-713.952056220974 -381.870087512703 1780.91919246634 5 7 2
-737.762060136401 -381.779806789213 1812.21137101586 11 13 8
-746.157218111099 -383.068146452117 1795.04290281415 14 16 11
-787.541207344531 -385.130198837643 1801.97706221227 20 21 15
-540.42827941571 -369.20150775521 2041.37971331661 24 25 19
-573.617409815779 -364.128521036867 2182.3420604891 22 23 17
-560.190913637796 -370.21613440688 2043.95480114406 14 15 9
-582.076357371614 -367.718016300753 2119.82240855514 16 19 12
-606.826893037246 -364.353531751995 2216.49305856066 16 19 12
-615.504096419073 -365.008081354286 2213.39654441441 18 21 14
-619.961086060814 -366.791758137286 2182.61226034146 17 20 13
-621.909632081374 -369.314320134047 2134.00315165068 16 19 12
-700.601624632883 -388.014659339204 1848.1058956701 8 11 4
-711.566562956657 -388.262921917502 1855.80785440322 5 7 2
-721.267517352375 -388.979734086546 1852.58374614903 5 7 2
-724.837431258494 -392.15207866375 1792.68873262453 5 7 2
-762.866662037376 -390.674902381862 1866.54437946742 13 14 8
-771.578029910442 -391.82705549827 1853.3670801589 20 21 15
-779.600484094955 -393.334564970728 1832.21471170118 18 19 13
-557.718173605933 -377.20688795129 2090.6387646612 16 17 11
-565.713913469612 -381.250612476583 2022.13175164746 17 20 13
-592.473193053325 -377.163469039816 2129.63509807746 15 18 11
-620.300052353261 -375.674270753469 2188.63971399083 18 21 14
-629.058788796098 -376.339255102064 2185.53305248011 17 20 13
-634.765359585909 -377.915829934881 2161.64657289654 13 16 9
-696.610008908658 -399.348319332465 1819.40878423826 7 10 3
-710.035065535234 -398.622325666544 1847.96428002533 7 9 4
-728.734425871086 -400.390532701009 1834.55008802885 6 8 3
-741.547710651574 -399.78299631965 1860.15893971528 5 7 2
-781.70840618864 -402.017180621883 1861.19960911132 13 14 8
-808.701483400255 -411.625920781197 1706.69221984105 12 12 10
-555.679222631696 -383.916549772115 2138.27578099036 26 28 23
-562.249196247112 -385.224766383697 2121.33513735155 16 19 12
-552.026906596963 -391.226173611564 2001.6952814322 18 21 12
-569.267171559785 -389.667242886009 2047.91227764399 19 22 15
-580.129306944527 -389.862952804603 2055.62716744931 14 17 10
-620.035417199083 -384.706475919108 2190.71213934951 20 23 16
-629.680657833295 -385.101042830134 2193.54049807986 18 21 14
-693.684779831527 -405.699579330946 1885.29502810776 10 13 6
-700.744014877001 -407.478643243653 1860.2323499028 6 9 2
-716.471220593335 -410.528886728645 1820.99065472608 6 8 3
-730.700102297427 -409.272577456968 1858.51434601833 7 9 4
-752.773314518382 -409.456064375287 1877.93102087632 7 9 4
-761.92072326962 -410.424670527775 1869.73749863935 7 8 2
-772.369940970271 -410.755552060872 1874.48097253682 6 7 1
-783.069834527237 -410.935939440818 1882.21606881173 22 23 17
-786.741582564622 -414.879933420474 1814.24840177789 19 20 14
-553.760068524029 -393.576966657686 2130.47850284934 12 14 9
-562.496179899094 -394.311183577554 2126.3669197679 23 26 19
-604.399287301932 -395.130284229803 2153.38820659462 15 18 11
-623.714001844013 -392.466207853491 2218.49066961056 17 20 13
-640.283160000971 -390.557459157662 2267.81379631432 19 22 15
-643.12470383511 -393.124685994826 2226.14765462385 18 21 14
-703.546083549851 -411.169933038113 1972.76151331309 15 18 11
-707.759553442267 -419.113837407466 1839.23230945871 7 9 4
-721.739605722779 -423.200491271463 1782.07156867166 7 9 4
-740.616171507318 -419.573976849555 1863.35061069941 7 9 4
-749.067015303557 -420.924620395898 1848.19073150783 7 9 4
-760.497186966314 -420.778186401078 1861.88043584667 6 9 2
-770.579231386645 -421.301700151892 1862.6392494274 6 9 2
-776.86165496642 -423.909244917424 1823.56711402609 8 11 4
-790.617453459249 -422.398199462003 1863.16478693271 10 12 7
-798.346773452203 -424.283227294413 1838.01876514002 15 17 12
-816.206878979555 -426.809715071648 1811.61041073591 30 32 29
-570.833130127033 -404.314379481039 2123.33748653099 20 23 14
-568.08423649429 -408.70955409255 2048.11004819552 19 22 15
-591.526717945253 -404.785752201008 2134.86487090344 17 20 13
-606.761671738541 -403.383671712083 2172.26262646347 14 17 10
-620.874792019614 -402.275271400368 2203.75455048328 14 17 10
-630.336653563901 -402.697294107436 2205.5981790456 17 20 13
-637.586813586239 -403.891765037709 2192.60334128073 18 21 14
-648.63776048946 -403.744665635266 2205.33244150834 18 21 14
-691.827149775911 -416.183938133797 2039.74163792771 10 13 6
-704.508033570405 -425.151057748651 1903.142831013 12 15 8
-724.463373877283 -431.716823023694 1812.99478869664 7 9 4
-735.340764833273 -431.92069403732 1819.69986882189 7 9 4
-745.968469153358 -432.230233361673 1824.42101244051 8 10 5
-761.076827686917 -430.084477931908 1873.92581415232 8 10 5
-766.051760773678 -433.443805456268 1822.9256193746 8 10 5
-773.859052524294 -435.338988733905 1798.77782127846 7 9 4
-789.25627961317 -432.784685809975 1855.29978823188 7 9 4
-805.833454350751 -436.087026406101 1815.95268583504 10 12 7
-563.742452042935 -415.760245341378 2083.942136364 17 20 11
-574.377427430039 -415.931771711549 2090.67738334063 16 19 12
-580.719935605903 -417.547865895898 2070.74263526522 17 20 13
-605.727676412604 -412.715941229898 2169.39293760353 14 17 10
-615.903018671927 -412.921019208149 2175.17794533595 13 16 9
-622.75706392716 -414.314378270953 2159.21000282245 15 18 11
-632.3305935587 -414.735215995248 2161.03945247831 18 21 14
-640.305938761757 -415.754051633539 2151.98488229109 18 21 14
-690.235057378216 -426.131175937243 2031.90454002028 9 12 5
-710.195374818961 -421.929016121453 2116.06988160133 11 14 7
-722.218497159156 -426.193987928517 2059.15382369553 15 17 12
-701.601028181579 -441.61775259825 1796.72645154621 15 17 12
-714.244598493439 -440.957980253982 1818.32535637193 8 10 5
-724.265402433719 -441.594675826134 1817.07649599769 7 9 4
-732.379906405774 -443.255207046555 1797.92865771314 7 9 4
-741.829836753006 -444.236836957932 1790.70534423401 7 9 4
-755.330792374032 -442.930631804673 1823.2808289705 9 11 6
-767.864998569736 -442.071763082488 1847.91615904145 9 11 6
-776.360751703084 -443.564589685397 1831.74336276592 11 13 8
-787.061224349688 -443.733925689549 1838.47067057227 12 14 9
-807.200547459018 -444.818725100062 1838.98356045463 16 18 13
-816.372945993492 -445.971772996889 1828.77203116484 16 18 13
-563.320639506559 -425.127952852327 2085.02713269731 15 18 9
-571.389638452786 -426.176317680299 2075.96071257196 16 19 12
-589.271322172467 -423.733967505996 2128.14194018788 16 19 12
-594.627469412426 -425.737476372142 2102.28470124211 16 19 12
-611.377988310093 -423.554329373427 2149.56885811434 15 18 11
-622.782621186827 -423.287346596053 2163.26143208176 16 19 12
-625.74315199335 -426.266015110858 2120.5738379394 17 20 13
-638.868373294032 -425.311492379742 2146.14284801606 18 21 14
-649.304074549518 -425.380314866338 2153.91062012613 19 22 15
-672.296587598664 -433.752405790612 2046.25619121971 13 16 9
-679.930318321055 -435.168256565023 2031.19869489868 11 14 7
-688.265131205306 -436.296627031544 2021.09162635914 12 15 8
-705.211549846141 -433.326327684504 2080.44246941714 16 19 12
-719.434887535914 -431.510058025798 2119.98075213023 19 22 15
-712.498300466583 -451.643935134361 1808.49383333536 8 10 5
-721.675765598217 -452.757866591107 1799.28949611938 6 8 3
-730.366018656507 -454.172397973115 1785.10783568054 8 10 5
-739.953253495427 -455.112752502567 1778.87496581353 7 9 4
-753.492306935486 -453.715641039219 1811.44569703764 7 9 4
-766.846671753357 -452.306542396308 1844.03920447338 8 10 5
-785.045205185532 -454.654188734084 1823.63450815283 13 15 10
-795.563966766528 -454.922313145221 1828.36913811653 16 18 13
-578.665201432593 -432.732456572499 2124.45030252571 17 20 13
-595.906087117082 -434.389771057498 2114.24112907504 16 19 12
-598.619513231789 -437.537542900289 2070.57713036676 17 20 13
-621.612897342071 -432.714458186918 2159.40124400358 15 18 11
-629.71801847337 -433.716744099598 2151.33788179409 16 19 12
-646.891828585931 -435.36711291759 2141.13706068708 18 21 14
-649.267399616626 -438.906824116536 2091.46965332761 19 22 15
-670.949865223698 -438.699958077936 2111.94175017052 21 24 17
-683.173295568749 -442.866496935969 2061.0470389169 19 22 15
-691.299794065906 -444.075365552345 2049.95849167215 20 23 16
-710.015167473658 -440.013687344757 2124.20197307365 21 24 17
-720.412626822906 -439.984154631615 2132.98194563081 18 21 14
-718.228752120268 -446.549326005857 2035.51915310979 15 17 12
-713.986530462208 -460.585279768941 1827.47915422118 6 8 3
-724.091343809995 -461.158059279974 1827.22732874706 5 7 2
-727.391529351034 -465.720940499323 1763.33864899515 10 12 7
-740.142974980408 -464.802726759366 1786.9390254879 9 11 6
-752.859374509736 -463.81290792532 1811.55127405547 9 11 8
-762.883777907139 -464.448489054223 1810.30196155542 9 11 8
-775.960349019794 -463.06637832178 1840.91459260984 11 13 10
-781.911759931145 -466.414112758276 1796.84703913608 11 13 8
-797.566432642316 -470.9283113658 1743.50967047365 12 14 9
-807.925419254211 -471.445506897939 1744.23366639859 11 14 7
-557.782747248767 -441.529623873022 2115.99419749269 19 22 15
-564.928435148423 -442.92288880088 2102.00523364982 18 21 14
-572.626911191407 -444.135515609218 2090.97011097397 21 24 17
-586.696079787728 -442.879238151003 2119.44382891168 14 17 10
-608.70611958229 -442.634264803373 2139.87494607835 15 18 11
-609.20916419749 -446.836858330681 2081.37330020108 13 16 9
-649.43268367304 -443.22457662047 2163.011467386 13 16 9
-658.408617222858 -443.869577353801 2160.88509516369 16 19 12
-660.715429550329 -447.610880269306 2110.21911227031 22 25 18
-668.633765722674 -448.834751278351 2099.15658196132 23 26 19
-679.876379963765 -448.473432790061 2112.86912646689 24 27 20
-690.141099505745 -448.552601633493 2119.6503359638 16 19 12
-702.368513832454 -447.60668533418 2142.30810814444 14 17 10
-712.993830616426 -447.420760630228 2153.07484805321 17 20 13
-716.716518212397 -450.891273842341 2107.27013494154 18 21 14
-719.627859937482 -454.956583853236 2052.49857495291 18 21 14
-734.411512418633 -471.270677045409 1835.03596862582 8 11 4
-739.505798498314 -474.970255183761 1787.04531717013 10 13 6
-752.529298732677 -473.713049764304 1814.6415985268 8 10 5
-765.690081133232 -472.248718675405 1845.2437442547 10 12 7
-772.369768867065 -475.114119066644 1810.15394061943 14 17 10
-778.583236860633 -478.45246904624 1768.06903345382 14 17 10
-787.001629322676 -480.349977575676 1747.87620865541 14 17 10
-797.533439572983 -480.729058817942 1750.59388795806 15 18 11
-802.959431415637 -485.09397083458 1693.49368902731 15 18 11
-545.736450361287 -455.282988225311 2047.99826770396 20 23 16
-552.903107606818 -456.788005553847 2032.99929420848 16 19 12
-587.224243729151 -451.745398206918 2126.45555611603 16 19 12
-588.532948958758 -455.636613008593 2074.90683877713 15 18 11
-605.230752936562 -453.122285357121 2121.18877464032 16 19 12
-615.371322384798 -453.323212266565 2125.9704237841 15 18 11
-660.064267187718 -447.223540666088 2241.30828695308 14 17 10
-659.088682603697 -452.459780254764 2169.89275370821 14 17 10
-664.226475276329 -454.951769856584 2140.03306185667 17 20 13
-674.868789095274 -454.809813625425 2149.79010932717 18 21 14
-679.950855750207 -457.446899530087 2117.92213939401 19 22 15
-687.894469402546 -458.69921105455 2106.85652950204 19 22 15
-700.914217359113 -457.290318410507 2135.46080702482 17 20 13
-714.262701125926 -455.603642051698 2168.05455765867 20 23 16
-714.933589736717 -460.868232313157 2097.44131605162 21 24 17
-719.858616562834 -463.941427148216 2059.54772938014 19 22 15
-738.898242221363 -478.054000702737 1882.86625938872 9 12 5
-744.581171422668 -481.397573134972 1841.85550144795 11 14 7
-749.367865066468 -485.504308888124 1789.87331928337 11 13 8
-759.746659675224 -485.938416003381 1791.60255184395 13 15 10
-766.375053173335 -489.042690119368 1754.50416402638 16 19 12
-776.919133581944 -489.411997143661 1757.22028634576 16 19 12
-788.344208309451 -489.091200680033 1769.90224020769 16 19 12
-796.188602218731 -491.525877008207 1742.72793115393 17 20 13
-801.881017794653 -495.837182081488 1688.61764450769 15 18 11
-564.093727836474 -461.532616717029 2104.17402270884 22 25 18
-574.840802996197 -461.525095421692 2111.9024958791 18 21 14
-586.330843820031 -461.177857404947 2124.57651299215 16 19 12
-590.124452404567 -464.129797849462 2088.8391755056 16 19 12
-623.723878559506 -463.339152699752 2122.93907657956 14 17 10
-642.503793193457 -459.432757028106 2187.09732076049 14 17 10
-654.537113640093 -458.576812774652 2206.75625008476 13 16 9
-662.557291004337 -459.630555235524 2198.70386413294 13 16 9
-658.052126123735 -467.001981610046 2099.51726368152 15 18 11
-680.853532928392 -460.643318862052 2198.43888284917 15 18 11
-683.961290266071 -464.322429932478 2152.71145873334 18 21 14
-692.450168074993 -465.250161050346 2146.61562408695 21 24 17
-707.049146600142 -468.500090669382 2114.56954108484 24 27 20
-718.320057908955 -467.902526878811 2130.29330633643 23 26 19
-715.15309959645 -475.821131915268 2024.89454346561 15 18 11
-689.235156054339 -497.991302796272 1717.79736271422 15 18 11
-700.543384888399 -498.013779445767 1725.4561264907 7 10 3
-718.588905548867 -493.66971862161 1794.74354188192 7 10 3
-733.046964171806 -491.417168506102 1834.2516241499 6 9 2
-741.14431863773 -493.322471043368 1815.10633035013 7 10 3
-747.717688291692 -496.367804866226 1780.03026843097 7 9 4
-756.052807343737 -498.287507844843 1760.85534093956 9 11 6
-781.77499614678 -495.43254249972 1816.08802192781 11 14 7
-787.793999968808 -499.214468462426 1771.00548958813 12 15 8
-798.000943747063 -499.782616079191 1770.74090664216 12 15 8
-807.776550485966 -500.709641136326 1765.49242133992 15 18 11
-553.382898687864 -470.648328944747 2100.49576074007 23 25 20
-561.547417133532 -471.733349041516 2092.42544424317 25 27 22
-609.735432196551 -469.131548542359 2157.95608298284 18 21 14
-626.244997004126 -471.149470194458 2143.80789476998 15 18 11
-642.516278085024 -468.263948194633 2191.15000800895 14 17 10
-648.4664772904 -475.613745805017 2102.75154895703 15 18 11
-664.442989711731 -472.708474864168 2150.13039557392 16 19 12
-681.762287253331 -468.927357198218 2209.43257028837 16 19 12
-691.922972953593 -468.854362802921 2217.23428924414 20 23 16
-696.247981651549 -472.013236527769 2180.42349401828 22 25 18
-701.271699984515 -474.895950592143 2147.55576536557 24 27 20
-719.27941079228 -470.276453427547 2217.85510121802 23 26 19
-705.512647237012 -504.712417295136 1775.24159149264 8 11 4
-717.295319709675 -504.259566946783 1788.88625860906 9 12 5
-725.895848908247 -505.926088793586 1773.7087716872 8 11 4
-736.030848160333 -506.568879749212 1772.44567646514 7 10 3
-745.353553736287 -507.800161023813 1763.22352313693 7 9 4
-769.700368229793 -505.980316385296 1802.5061334779 10 13 6
-779.64828384263 -506.689863227176 1800.25887388905 10 13 6
-788.241246655566 -508.513970597616 1783.06713173813 10 13 6
-799.031203606505 -508.555767054639 1789.78293656146 11 14 7
-812.334486099187 -506.355177656971 1826.41172306817 15 18 11
-554.635981883602 -479.231772311383 2111.44726644433 9 11 8
-557.849303214069 -482.505252776993 2073.76781794428 20 22 17
-567.069935352957 -483.179725120672 2071.61122666588 21 24 17
-576.455052053122 -483.781463000516 2070.44160424123 19 22 15
-608.398158031343 -478.700464606948 2153.10925026421 16 19 12
-617.250522549176 -479.432900102091 2149.9908418847 16 19 12
-634.387456193497 -476.054603089016 2202.26254512443 17 20 13
-654.167353393192 -481.627079546218 2147.40523240402 18 21 14
-682.809048183801 -477.076162150546 2221.41636628496 17 20 13
-690.440318962917 -478.391111711017 2210.38989989206 18 21 14
-692.846340899244 -482.768764314627 2158.70552493207 19 22 15
-695.906970434625 -486.93933099729 2109.96197475489 17 20 13
-718.346840250714 -479.505982257721 2214.97248458066 14 17 10
-720.281795886574 -511.923845717068 1821.78982457115 12 15 8
-727.183852207462 -514.762800375744 1791.71111703539 11 14 7
-734.869020338701 -517.154333633202 1767.57986636497 11 14 7
-745.830247431331 -517.186678217565 1774.27403252724 13 15 10
-756.351913871928 -517.521993818133 1776.99286246212 13 15 10
-772.241480745932 -513.560950045363 1835.46505791546 14 17 10
-779.667428576631 -516.265778451706 1807.33599279617 13 16 9
-787.87503218436 -518.440265315087 1786.16227524625 14 17 10
-800.949059852803 -516.452307173947 1818.78924269501 15 18 11
-810.421825597815 -517.547234062862 1811.56361812555 20 23 16
-817.610713080816 -520.815099677097 1776.41108898104 11 13 10
-557.228005789773 -487.154818832905 2130.29215872383 14 16 13
-559.398259654153 -490.976651019063 2086.69771981511 28 30 25
-564.385321173564 -493.608793744872 2058.87282187376 23 25 20
-572.217845850564 -494.967410846003 2047.82135518112 21 24 17
-613.213484429896 -490.401908251947 2127.34504172821 14 17 10
-629.090390010748 -487.565624492314 2170.70551170371 17 20 13
-641.964918182922 -486.163344850242 2195.29694055064 17 20 13
-646.149425818105 -489.341025906348 2160.51934302034 17 20 13
-650.658201098282 -492.453449168905 2126.70879404912 16 19 12
-657.539105668595 -494.34767524052 2108.7232042022 14 17 10
-693.694759010555 -485.186684786649 2239.22674918022 15 18 11
-692.273943049988 -491.941640497166 2158.80111324262 14 17 10
-693.432647377097 -497.405979190366 2095.18205164206 12 15 8
-701.485913051076 -505.361977579153 2006.52273873623 11 14 7
-711.866624312224 -512.437936545613 1929.66410335036 14 17 10
-710.431807643272 -520.815469028468 1830.09675086972 10 13 6
-724.080318353806 -526.728080412599 1768.95144471192 9 12 5
-736.737366341986 -525.477822257071 1791.55479967814 11 14 7
-744.17201656757 -528.172584306162 1764.4323091402 12 14 9
-757.298517974359 -526.438168330849 1793.02240720941 12 14 9
-767.465797965438 -526.99612976557 1792.76274724463 13 16 9
-775.378136867981 -529.463439935316 1768.60334656077 12 15 8
-787.418752744525 -528.428866014736 1788.26113531239 13 16 9
-798.815275704478 -527.866281741124 1801.95370262472 14 17 10
-818.710781090418 -529.293208135303 1797.45924473706 18 20 17
-569.454530630524 -500.36379858762 2093.52969496009 21 24 17
-629.70575165701 -496.095511941204 2178.71339895499 13 16 9
-636.311793999695 -498.019828802491 2160.76194926339 14 17 10
-642.296962954255 -500.345741158411 2137.85060299655 15 18 11
-647.841754846164 -502.996493068934 2110.9638397068 14 17 10
-658.33100801228 -502.871270621482 2118.72441784459 15 18 11
-671.865762768021 -500.908734539448 2149.27834175961 16 19 12
-695.962219451713 -498.470905645154 2191.61410966767 21 24 17
-697.677934073711 -510.235829378759 2058.40667342296 19 22 15
-700.040131156766 -515.507148684972 1999.67559049146 19 22 15
-711.138606879411 -522.3043294123 1928.77301104949 21 24 17
-710.36636837214 -530.465346958972 1835.1692459424 16 19 12
-711.089181213265 -537.926400480581 1750.44672835654 10 13 6
-726.018125032113 -534.989314252486 1792.91754579774 9 12 5
-735.576967369712 -536.036584267631 1786.68850070517 11 14 7
-743.836454968048 -538.148519957994 1767.52375807879 10 12 7
-758.945642950685 -534.692161771859 1816.01707748761 11 13 8
-777.083942651639 -537.604611058327 1793.60601117271 14 17 10
-780.580814011667 -544.179560041406 1720.62818021226 13 16 9
-805.980348931318 -540.753498396841 1774.89169516894 13 16 9
-808.855540965433 -548.611671849976 1686.87855789117 18 20 17
-563.168011674122 -507.381545612929 2116.50325412001 24 26 23
-577.561053761886 -510.674247777234 2088.51397206928 21 24 17
-589.08606656127 -510.137813119355 2101.1831266439 19 22 15
-605.299208715005 -507.077493852962 2144.50080602464 17 20 13
-625.495744514611 -501.721320139165 2215.53297681377 14 17 10
-630.027440118262 -504.743977449525 2184.74239242081 14 17 10
-641.853391929672 -503.769945783875 2202.41151494943 15 18 11
-642.007503335351 -509.426384703063 2139.92601359368 14 17 10
-649.784011199491 -510.833869296504 2128.88166615891 13 16 9
-665.447218915413 -507.554018930362 2174.28325071284 13 16 9
-674.794336220695 -507.96839600221 2175.13325117638 14 17 10
-685.318665828787 -507.637920465519 2184.90452592 19 22 15
-693.585657506347 -508.711098991093 2177.82907728341 21 24 17
-696.442695934208 -513.354122860371 2128.10449117382 22 25 18
-705.882134171629 -513.77291811175 2128.94298216595 22 25 18
-715.068410803442 -514.357270684836 2127.79812802271 22 25 18
-719.872312583778 -518.030706145802 2089.92123775318 25 28 21
-717.284890253381 -542.987309724598 1812.16803341534 10 13 6
-731.897414182317 -548.646067207893 1757.95580554794 12 15 8
-738.699266400812 -552.079946849761 1723.85994067528 11 13 8
-753.239565332529 -549.087424565596 1765.37142561367 12 14 9
-770.051064601941 -553.517304994136 1725.99780996785 14 17 10
-781.118486281561 -553.397680492773 1733.68625083524 13 16 9
-791.959332084258 -553.445369202699 1739.38779318083 13 16 9
-804.308428895143 -551.950227977163 1763.03686110947 17 20 13
-810.696050720683 -556.44694396208 1716.90228242935 15 17 14
-538.219339537295 -529.034621852528 1970.52522088747 13 15 14
-559.383631076519 -523.729900002829 2039.42114251314 16 18 13
-573.952834396032 -521.661739591375 2069.84593547383 17 20 13
-584.278899010929 -521.76095422399 2074.60392779305 18 21 14
-651.156758527793 -512.906773137972 2207.32117443519 15 18 11
-655.520307790049 -516.281232727954 2173.52943887577 15 18 11
-668.042457724689 -514.735751427085 2197.15677822885 14 17 10
-682.452281075852 -511.903458593578 2235.66142587483 13 16 9
-687.262082526881 -515.117734065919 2203.82895303768 11 14 7
-693.534481441766 -517.486978017846 2181.88956338029 13 16 9
-698.146332331668 -521.063004628537 2146.05175760013 16 19 12
-705.924608349602 -522.5896183922 2133.99981613447 17 20 13
-722.254896169341 -518.095969331872 2191.40792252404 19 22 15
-726.404237331818 -522.204134980356 2149.58263346612 22 25 18
-708.882272426821 -550.71876241329 1833.39217452609 16 19 12
-716.20997481948 -553.43372279955 1808.29869810216 9 12 5
-723.128610561505 -556.591040173792 1778.2185196808 11 14 7
-731.464875539695 -558.712923349617 1760.05190898586 11 14 7
-740.200001157558 -560.578384248608 1744.85814912551 11 13 8
-750.704564437873 -560.961990732225 1746.57155350781 12 14 9
-769.779095851334 -563.480250990008 1730.08897578524 14 17 10
-783.765447464963 -560.521102506409 1769.65406349762 14 17 10
-791.578890175789 -563.451024177136 1742.48492118142 14 17 10
-798.843828336446 -567.095652104338 1707.32413382083 17 20 13
-557.982503855446 -533.697245975918 2034.58332752936 16 18 13
-569.381826369967 -533.269902247458 2045.25284033042 16 19 12
-581.500113648165 -532.405374108415 2060.87015502957 16 19 12
-614.539322685187 -525.444822863444 2151.45828172712 15 18 11
-635.328569631573 -525.133908926039 2165.99496984516 16 19 12
-658.322358837538 -523.321021757333 2197.38447074224 16 19 12
-672.849559582818 -520.387123953368 2235.87420281029 15 18 11
-677.032223345188 -524.032735494897 2200.09038056451 15 18 11
-685.903850360931 -524.695067259653 2197.9773110904 15 18 11
-698.840883513551 -529.380179532256 2156.064576491 17 20 13
-707.4592208895 -530.314746862073 2150.96053142586 18 21 14
-718.164534060712 -529.741105468093 2162.72395431852 22 25 18
-723.345594283582 -540.878320239572 2049.23759395681 22 25 18
-712.334141947679 -557.547968825551 1869.25876458021 19 22 15
-716.350850836922 -562.916641667178 1815.36038076218 8 11 4
-724.432566330061 -565.165721624061 1796.2181842081 8 11 4
-735.663294240859 -564.815959277469 1805.90101355986 8 11 4
-746.116435970133 -565.091935182675 1808.62823870461 11 13 8
-762.48967827579 -569.793420478156 1768.30258336922 11 14 7
-770.074857566961 -572.877207240627 1740.15464507836 12 15 8
-779.822991867118 -573.975116776394 1733.90211082532 13 16 9
-793.957769061659 -570.623164568605 1776.47070276264 13 16 9
-623.567861953046 -534.975511563034 2153.37997369545 15 18 11
-651.607628079116 -530.017278113257 2218.39524737288 15 18 11
-664.367135899065 -528.151983053807 2244.00773811209 18 21 14
-665.946958283729 -533.51466050121 2190.4132072657 18 21 14
-672.276050302696 -535.904039115872 2169.47448276619 16 19 12
-680.303630378721 -537.210151578395 2160.41415050894 17 20 13
-689.283154467536 -537.88171603256 2158.28764043195 15 18 11
-699.030588415079 -538.006259433447 2162.11022204184 16 19 12
-706.761007270086 -539.590024390945 2150.06440337281 17 20 13
-721.092016941978 -543.776246104994 2115.03092542796 20 23 16
-716.70659154455 -563.443428973545 1913.07023028746 21 24 17
-709.290568424938 -578.352796765304 1757.83217656854 14 17 10
-723.580328759725 -575.488292310511 1794.33610807587 7 10 3
-732.393624139073 -577.237158289476 1781.14766023923 9 12 5
-744.352531599791 -576.208400781908 1797.79235947209 13 15 10
-756.2135446947 -575.173080873216 1814.44901779247 13 15 10
-762.820890906027 -579.062831474545 1778.36325244315 13 16 9
-772.549057042961 -580.074252651955 1773.12090970175 13 16 9
-793.673668745532 -580.415604739878 1780.56317377541 15 18 11
-806.701415408908 -577.864683236412 1813.19443427602 14 17 10
-808.658712517244 -587.509567256989 1716.23064540718 17 19 16
-570.447981227301 -545.096428882673 2117.70969222635 17 20 11
-577.309456593386 -547.068120791684 2101.74210522917 13 16 7
-616.580047451177 -541.932450208316 2172.40990159522 12 15 8
-623.443039761496 -543.902623752302 2156.44236156254 12 15 8
-631.26487214785 -545.321515990804 2146.40007503518 13 16 9
-643.010385099768 -544.236196414842 2163.07101541823 15 18 11
-658.460137400207 -540.632623133358 2206.48277096817 15 18 11
-658.890759167666 -546.985151314584 2143.96459588027 14 17 10
-670.217049902658 -546.075832257976 2158.6729420123 13 16 9
-683.314107613115 -543.851042878752 2187.26542309983 15 18 11
-687.801276491567 -547.706955131353 2151.44415423521 15 18 11
-694.641360037514 -549.978496098817 2132.45672488922 15 18 11
-708.428772679903 -547.082487051027 2168.0155763543 15 18 11
-715.55854797669 -549.167682884408 2151.00711892229 15 18 11
-712.411273702705 -559.471206071564 2047.62779466202 12 15 8
-720.299208213982 -561.297815549829 2033.54734402759 15 18 11
-720.866648692856 -569.287181429566 1954.89221041242 17 20 13
-722.744508177429 -576.543577600639 1884.13383159457 10 13 6
-713.089953209315 -594.283740759396 1703.98848861039 9 12 5
-730.487894072501 -588.554950399586 1769.32232310315 11 14 7
-740.733191234197 -589.101458372977 1769.05289689443 13 15 10
-753.476709593054 -587.256995718869 1793.65951051832 12 14 9
-762.278407143612 -589.138532426585 1779.4651723076 12 15 8
-770.771107600171 -591.407832065674 1761.27942760581 12 15 8
-779.539484720306 -593.490224705129 1745.07416206964 13 16 9
-802.688683191117 -591.688323258169 1774.42892354337 22 25 18
-803.308235008837 -603.244075274312 1660.50522756801 19 21 18
-570.972545040155 -559.829974606617 2066.28714372431 15 18 9
-580.0541856596 -560.622492250838 2063.14052153573 15 18 11
-596.409072605007 -556.955825472308 2106.43891520986 15 18 11
-619.351740792768 -548.995518302886 2194.25340903212 13 16 9
-624.6612140374 -551.955132452911 2168.40451259426 13 16 9
-629.81367978335 -555.113812118263 2140.56035979959 13 16 9
-640.141324463986 -554.936272423932 2147.33304057841 15 18 11
-647.465575348159 -556.766296579668 2133.32318358935 15 18 11
-664.261925563242 -552.077659148607 2186.64138572213 14 17 10
-683.942751987663 -552.076396884091 2196.27853786535 15 18 11
-693.213998476288 -552.457838754128 2197.13816009333 16 19 12
-692.025867403035 -560.760599422956 2116.68732227793 17 20 13
-709.978019441166 -554.572465978848 2184.97384612343 17 20 13
