ply
format ascii 1.0
comment KinectMotionCapture
element vertex 761
property float x
property float y
property float z
property uchar red
property uchar green
property uchar blue
end_header
-422.576918981919 92.3634390437587 1967.42898551043 159 163 162
-416.849709362489 92.784262276889 1957.05240446381 156 160 161
-418.095156274811 92.6289446156246 1947.31741837528 147 151 152
-411.373227146097 93.1311774685591 1936.79717117592 141 145 146
-416.60245070062 92.6465251522396 1927.46007615025 146 150 151
-416.851960090546 92.5727463186221 1917.62916681429 143 147 148
-419.092701506013 92.3344405054057 1908.01367922028 140 144 143
-415.35951211465 92.5887459295272 1897.75073449098 143 147 146
-411.62684316981 92.8426577150145 1887.46702624982 145 149 148
-407.894694671491 93.0961758618677 1877.1625544968 137 141 140
-407.149129686744 93.1031240109595 1867.19179062542 132 136 135
-401.427002287131 93.5200283981914 1856.61237106766 127 131 130
-399.687009426617 93.6083804144774 1846.49586160696 129 134 130
-393.966194653217 94.024455190863 1835.86424929736 127 132 128
-388.24617344036 94.4400336083653 1825.20108894076 124 129 125
-367.600885971307 96.084606977889 1812.52891101605 147 149 148
-350.938463686743 97.4003315598156 1800.28144397787 166 168 165
-337.262964210685 98.4693507997266 1788.35427867761 162 164 161
-328.106548056327 98.8162922851983 1716.37350585384 95 96 91
-335.322443432329 98.164155721454 1707.42688585591 105 107 102
-344.526045907971 97.3486825593767 1698.84405684315 106 108 105
-346.768417840319 97.1053812084249 1689.15947917736 101 103 100
-339.068936828064 97.6788113800104 1677.81363035678 114 116 113
-339.323280249634 97.5984489085093 1667.78672131486 112 114 113
-335.60147185807 97.8444727197988 1657.0700755294 109 111 110
-325.916307316509 98.5798754957813 1645.27988303335 106 108 107
-85.1193529703127 110.556980083031 2152.00548016875 132 137 131
-98.3599462610041 109.444433008583 2141.76606231246 115 120 114
-246.516287871339 97.4764795975453 2126.88029350409 167 171 170
-282.681091704548 94.530454067507 2118.26766199975 146 150 149
-283.937509844972 94.3794897275434 2108.11788135995 123 127 126
-284.19643323038 94.3081111777007 2097.92161770848 119 123 122
-285.452370183762 94.1566928929715 2087.78083132606 169 173 172
-293.687357268578 93.4466826657031 2078.05059859041 177 181 180
-299.927424375006 92.8961793511101 2068.24369192462 173 177 178
-312.148045520723 91.8673084523163 2058.85000205143 173 177 178
-331.344716988527 90.2806742551247 2049.98499850055 166 170 171
-346.551511286902 89.013295132345 2040.94971094685 164 168 169
-354.779662686097 88.3039612619024 2031.49669149355 157 161 160
-368.986174066293 87.116772039482 2022.53386543864 152 156 155
-373.225258982536 86.7262373394441 2012.87838803202 144 148 147
-377.463759483125 86.335588141763 2003.24562867495 144 148 147
-380.70534275096 86.0244578746356 1993.55306773518 149 153 152
-399.887911847322 84.4400776538137 1985.24165385981 161 165 164
-415.082786003734 83.1743984100596 1976.6833967351 163 167 166
-421.309461167043 82.6249277422804 1967.39167758701 155 159 158
-414.585824736759 83.1090692412685 1956.91873254492 151 155 154
-414.835514969897 83.0362625858783 1947.08179907984 154 158 157
-413.093339050624 83.122164832545 1937.04798074401 155 159 158
-414.338952603489 82.969443644992 1927.30926965932 146 150 151
-413.592839242669 82.9753942901848 1917.36819196994 143 147 148
-414.838245903473 82.8222480307922 1907.63711053427 136 140 139
-415.087842463897 82.7483409565712 1897.80265657838 136 140 139
-414.341833109023 82.7535586885929 1887.8567270306 134 138 137
-413.595690636559 82.7585599146263 1877.9064429237 133 137 136
-410.858787876347 82.9219306157863 1867.71568847364 130 134 133
-406.131544469547 83.2435740764157 1857.26795880424 129 133 132
-399.41413685467 83.7233864397938 1846.54692178585 132 137 133
-394.688107473586 84.0441846608287 1836.04151144445 127 132 128
-387.972429032848 84.523041511686 1825.25186635471 123 128 124
-373.296543999831 85.63518306962 1813.37069850555 123 125 124
-350.661881072232 87.3801120718275 1800.33231073089 137 139 136
-339.970412299444 88.1737384467536 1788.81700299563 137 139 136
-308.932097332388 90.2333248733428 1713.45071078377 107 108 103
-326.094461749115 88.8104447026063 1706.04365198318 102 103 98
-337.288265211761 87.8620008468577 1697.75974876779 103 105 100
-345.497272491616 87.1508346208779 1689.04365558671 100 102 99
-338.791456522792 87.6239748200125 1677.86241282876 113 115 112
-339.045820945523 87.5442069478968 1667.8353214237 107 109 108
-333.335409854874 87.937705681624 1656.77285673596 108 110 109
-322.655672084825 88.7251298182294 1644.80172607762 110 112 111
-82.8275806498775 99.9754183856449 2151.99789189244 135 140 134
-100.059646721192 98.5899344095407 2141.90680412435 145 150 144
-165.170765474122 93.5020784288366 2133.89279426598 124 129 125
-259.198901537043 86.1799181637121 2127.5138420656 159 163 162
-283.397029627577 84.2582329249035 2118.37429453873 144 148 147
-287.645202731375 83.8789030148823 2108.37565011979 123 127 126
-287.903857396862 83.8077310487908 2098.19011078749 120 124 123
-287.165387561531 83.813342308121 2087.94993323695 175 179 178
-294.403813885553 83.2024723660965 2078.16703465903 177 181 180
-301.64124612289 82.5916420068027 2068.42303093338 175 179 180
-314.859545519869 81.5188959498206 2059.09767094087 176 180 181
-330.069669615816 80.2924936270024 2049.97624109487 164 168 169
-349.265192965211 78.7586667549128 2041.21281042731 167 171 172
-360.483819715499 77.8407541555657 2031.98218446175 164 168 169
-371.701128756181 76.9230241803494 2022.81258002838 160 164 165
-374.94376980726 76.6206301633661 2013.08805756762 155 159 160
-374.199571338792 76.6256089973697 2003.0617710073 147 151 152
-379.434661844505 76.1691941896229 1993.52569446685 142 146 147
-393.636573984823 75.0213265072376 1984.78484308031 158 162 163
-409.829287668568 73.7201618454315 1976.29762086554 159 163 164
-419.045858359429 72.9569338530957 1967.26404591708 149 153 154
-416.306610766051 73.1150619535116 1957.15930656919 144 148 149
-417.552238575274 72.9658780944146 1947.42383640747 147 151 152
-418.797697958957 72.8165440130794 1937.69478760227 147 151 152
-423.031228085687 72.4368479924858 1928.27737314015 144 148 149
-419.296391074528 72.670663551748 1918.04749787313 144 148 149
-415.562315442349 72.9040932178304 1907.79677572382 142 146 145
-414.816143222702 72.9072236328421 1897.85497029533 142 146 145
-414.07007490165 72.9100863108942 1887.90881667451 139 143 142
-412.328296376149 72.98931380942 1877.84297519471 133 137 136
-409.591252896355 73.1448594786888 1867.64931863678 132 136 135
-409.841138224315 73.0703953739383 1857.80298054876 132 136 135
-406.10927834719 73.3018847143625 1847.46357564392 131 136 132
-399.39180696153 73.7626129929219 1836.72453998812 119 124 120
-388.69388216626 74.5288639106452 1825.43216231876 113 118 114
-379.988236659364 75.1414663101963 1814.34460576247 123 125 124
-360.336870817327 76.5946024902192 1801.72913886323 126 128 125
-344.66855634121 77.7409423307262 1789.55478445552 124 126 123
-309.647080046112 80.0197415647724 1713.65763700149 147 148 143
-323.827049732513 78.8728090307796 1705.77537681719 90 91 86
-327.065968360487 78.565044009541 1696.19057257585 103 105 100
-332.293079113397 78.1048148884835 1686.9529521142 95 97 94
-325.587655722255 78.559109624147 1675.73613125321 109 111 108
-330.814354375092 78.0987319996169 1666.52378242665 98 100 99
-324.109707883675 78.5524179091627 1655.26661913427 103 105 104
-321.382888914873 78.7010370539123 1644.67524088676 113 115 114
-257.918047843252 75.9952173457766 2127.53033234582 148 152 151
-279.125422157094 74.3625567381618 2118.24700020579 137 141 140
-280.382219631916 74.2172382325498 2108.08845592576 123 127 126
-283.633367837293 73.9230977073739 2098.04030636846 128 132 133
-281.897690014756 74.0003259061005 2087.73388158867 177 181 182
-294.123046731841 73.0372955604771 2078.22580369662 177 181 182
-303.355106970301 72.2973156314989 2068.602480761 175 179 180
-317.571474753029 71.1861991972479 2059.34543823994 178 182 185
-333.779679879745 69.9269748927504 2050.29778909412 168 172 175
-357.960784864915 68.0745103546114 2041.88856256514 173 177 180
-373.166927020816 66.8904312338924 2032.96820412515 169 173 176
-382.390547410567 66.1516897784651 2023.68539428005 168 172 175
-383.63917325546 66.0062692046964 2013.83679122456 159 163 166
-382.894523415249 66.0089192951669 2003.83497019837 158 162 165
-385.139683202335 65.7889852556933 1994.07584831937 153 157 160
-390.373787479646 65.3466705361393 1984.58413180186 141 145 148
-398.596683525837 64.6821295628111 1975.38460491257 152 156 159
-405.821923895371 64.0917704928075 1966.13908210942 154 158 161
-414.042367041917 63.4274505483423 1957.02633557111 146 150 153
-419.273252195229 62.9852544825729 1947.66988576067 147 151 154
-423.507104396184 62.6170445236732 1938.2428915823 152 156 159
-424.752134679032 62.4707206003166 1928.53384560001 145 149 150
-423.009203886204 62.5460203869453 1918.51814623272 143 147 148
-418.278464904811 62.8428644369332 1908.17108324238 138 142 141
-417.532023692645 62.8436807082019 1898.23730622407 139 143 142
-417.781407291366 62.7703705018896 1888.41181642006 137 141 140
-416.039216080523 62.8446212545758 1878.35676046665 136 140 139
-413.301684474758 62.9924043718961 1868.1738467322 134 138 137
-411.560281832632 63.0660669308112 1858.09666401267 132 136 135
-406.832319132258 63.3608964509891 1847.6389312956 130 135 131
-401.109638482355 63.729107627886 1837.02885165666 122 127 123
-390.410996258657 64.465671928442 1825.74196316071 118 123 119
-377.723137827074 65.3491092420596 1814.13258752772 119 121 120
-344.391474631774 67.703375167924 1789.60653097007 115 117 114
-348.159719980797 67.0160458941973 1719.80877127682 155 156 151
-323.548381380735 68.7765155043106 1705.82607896453 79 80 75
-319.825779239113 68.9921259145874 1695.1078001134 106 108 103
-319.086886533774 68.9869294222691 1684.86322046812 93 95 92
-310.393192483783 69.569296417442 1673.27609512526 105 107 104
-312.638065650821 69.3432448528296 1663.51228203508 97 99 98
-319.854055406932 68.7500668830393 1654.62527853286 101 103 102
-322.09816658471 68.5240049796998 1644.90056030992 108 110 109
-47.310296458015 80.9994675470699 2150.87324467924 140 143 136
-214.473620310945 68.884596526836 2136.08204115029 159 164 160
-255.639246053934 65.8759834906789 2127.50289802265 145 149 150
-270.863315427036 64.7306723195037 2117.93283265779 128 132 133
-276.110585352729 64.3016697329496 2107.95017532453 129 133 134
-276.370025658332 64.2305286832988 2097.73396365061 142 146 147
-281.61598010946 63.8013842916338 2087.7932425728 167 171 172
-296.834061874224 62.6568269255034 2078.45800306183 173 177 178
-309.058200549774 61.7271944886023 2069.02406576645 170 174 177
-318.28949801046 61.0122773886351 2059.46679015237 172 176 179
-334.498856911822 59.7971600129187 2050.42140611961 168 172 175
-356.687901366606 58.1536770652236 2041.87687062543 171 175 178
-373.889180367507 56.8680535763234 2033.09627072159 168 172 175
-382.116416620727 56.2256926570376 2023.74160395187 169 173 176
-391.339453774183 55.5120293859001 2014.50851602448 166 170 173
-392.587445968473 55.369568393743 2004.68785600042 167 171 174
-398.818558788565 54.8701394186749 1995.28575355615 170 174 177
-401.06260265404 54.6560992456308 1985.5765741393 169 173 176
-399.320174812818 54.7272619959735 1975.52745086175 153 157 160
-401.563886367606 54.5129201696715 1965.83093540574 140 144 147
-411.778031847963 53.7282016594501 1956.89376888497 156 160 163
-420.994304011685 53.0149471134823 1947.91619426099 157 161 164
-423.2360464577 52.8005743437665 1938.29660517249 142 146 149
-423.485090599406 52.7285248820317 1928.485736215 137 141 142
-422.738098995587 52.7274920498344 1918.57148498424 136 140 141
-422.987149497421 52.6550657757949 1908.75996285888 137 141 140
-419.252227268062 52.8671171076985 1898.51004946317 141 145 144
-418.505691470679 52.8653927458893 1888.57724122668 143 147 146
-411.784422840606 53.2901602246504 1877.94800309968 135 139 138
-404.06843359928 53.7855641972556 1867.16357453579 134 138 137
-403.322872368704 53.7829082990047 1857.18235185207 132 136 135
-404.56892564307 53.6379144004803 1847.44407668387 132 137 133
-403.823429107308 53.6348961690958 1837.45993645729 133 138 134
-401.08727423106 53.7736850235139 1827.21355801727 133 138 134
-406.314688928399 53.3441916302961 1818.00638480001 117 119 118
-328.24300087634 58.3256798337351 1706.67291762553 81 82 77
-318.552013278095 58.9556039035894 1694.99705544591 100 102 97
-314.829704323345 59.1604978827025 1684.25581135776 96 98 95
-303.151928659309 59.93090170113 1672.15569724151 99 101 98
-305.397695312472 59.7107910918742 1662.37266734686 94 96 95
-313.608989616132 59.0665674349756 1653.63906712775 98 100 99
-318.836528901687 58.6345200727617 1644.42428231618 99 101 100
-42.0214940906742 70.5045334999749 2150.75917667013 152 155 148
-217.180129242937 58.2965963248654 2136.26752741477 167 172 168
-250.367280053458 55.9517446770765 2127.34357506047 134 138 139
-263.597518656269 54.9853548285724 2117.66578664974 120 124 125
-267.847952524715 54.6389136681328 2107.61409712295 135 139 140
-270.103005104612 54.4300602384335 2097.48022813575 148 152 153
-283.329155838194 53.464158506558 2087.96273191773 161 165 166
-300.542773514934 52.2233553789709 2078.74801847059 173 177 178
-314.762180149593 51.1893227722678 2069.44564897789 175 179 182
-321.999264199732 50.6369386309229 2059.77800866159 176 180 183
-345.189432338123 48.9848097252951 2051.20497001838 166 170 173
-362.393983750732 47.7457150713974 2042.34643200823 165 169 172
-374.611324354747 46.8505547068573 2033.22452514287 168 172 175
-383.836192631806 46.1616719582304 2023.94647797826 173 177 180
-395.053338265291 45.3356827243924 2014.87243941843 178 182 185
-399.291499061105 44.9903633241424 2005.30162854608 174 178 181
-401.535802915678 44.7822708442864 1995.58867402949 182 186 189
-405.77293905714 44.4368641218889 1986.05781643902 181 185 188
-403.033525179962 44.571494019726 1975.93434547785 173 177 180
-403.284026114843 44.5001220563147 1966.06726744201 152 156 159
-412.502445071668 43.8117259097585 1957.04180452965 151 155 158
-420.723054675719 43.1920458317158 1947.97048310593 153 157 160
-421.968742117961 43.0519658568139 1938.25178211718 150 154 157
-422.217870641098 42.9802390398741 1928.4379616722 137 141 142
-425.455449141657 42.7029903709258 1918.93830036153 136 140 141
-427.696327904612 42.4941023403064 1909.34903130117 135 139 138
-419.977002189888 42.9693128860389 1898.67332152933 137 141 140
-419.230099967738 42.9652734454788 1888.74302390054 136 140 139
-410.516640767014 43.5080082374301 1877.88583511117 135 139 138
-403.795864498026 43.9135135637188 1867.21667159154 134 138 137
-398.071688849376 44.2502376319264 1856.63121325037 132 136 135
-399.317943752282 44.1083141799867 1846.87902976118 131 136 132
-399.568498573542 44.0346021323303 1837.00733305671 131 136 132
-399.819013992103 43.9607055128838 1827.13697816726 131 136 132
-319.011950855386 48.8543199600255 1705.29260752986 84 85 80
-298.379057912959 50.2055696385066 1691.81173539083 95 97 92
-297.641748739825 50.1956420627895 1681.50951073657 98 100 97
-299.887983821737 49.9816368561077 1671.70540374656 98 100 97
-308.1010900045 49.3597649383792 1662.93431337965 91 93 92
-312.335184964978 49.0099161980979 1653.51754618057 97 99 98
-306.625209139396 49.3393187454049 1642.36924827775 99 101 100
-69.6646950692199 57.7967938057272 2151.8256591418 140 141 135
-224.876105001746 47.3936055942656 2136.65928710814 175 177 174
-252.07883519763 45.5364154118193 2127.49254096237 123 127 126
-262.316831832989 44.8042107279116 2117.67957398139 121 125 124
-273.550969543061 44.0060779967854 2107.97133637192 138 142 141
-277.800724675365 43.6708010212302 2097.95816144673 146 150 151
-295.017190671981 42.4765796149107 2088.6821416564 172 176 177
-306.246988878921 41.6791038905748 2079.15353709372 173 177 178
-315.480218697958 41.0139264260672 2069.56482002276 170 174 175
-324.712412789595 40.3489015282894 2060.02607136918 172 176 179
-346.906995267755 38.8261579901545 2051.39473141568 175 179 182
-357.132797130691 38.0957294349962 2042.06028545628 172 176 179
-362.371747932677 37.6952931338068 2032.42411578545 173 177 180
-371.598145032504 37.0311063363901 2023.11283354133 173 177 180
-386.804858041652 35.9716066920617 2014.31325281416 177 181 184
-396.028045297025 35.3079174675685 2005.11863187804 178 182 185
-403.256764649426 34.7761229405844 1995.80934525658 175 179 182
-407.494076444352 34.4420130545398 1986.28375219309 167 171 174
-407.744269726544 34.3712181541853 1976.42931789594 162 166 169
-409.987445320692 34.1686358371628 1966.75705130553 174 178 181
-418.209637461364 33.5711734938758 1957.65705934913 166 170 173
-419.455414767851 33.4342987537306 1947.92896290036 156 160 163
-423.690148756614 33.1000198815937 1938.50393798749 148 152 155
-422.942925564312 33.0944122332885 1928.59382595171 153 157 158
-427.176832126922 32.7600385455317 1919.20103791352 150 154 155
-425.43338963574 32.819824593739 1909.18868003306 146 150 149
-418.709393184812 33.2077945207923 1898.61721942955 147 151 150
-416.966788357241 33.2669974448128 1888.57149663947 147 151 150
-408.252565833553 33.7854358134943 1877.70872873956 139 143 142
-402.527222081874 34.106505796876 1867.15211576061 142 146 145
-399.790135134637 34.2304029899492 1856.92617636465 141 145 144
-403.027918505459 33.9605421408103 1847.42644048628 137 142 138
-402.28261100442 33.9528939952197 1837.43926567084 133 138 134
-402.532936442151 33.8795431112325 1827.57692185904 132 137 133
-418.711791006367 32.7577889128114 1819.82399918402 133 135 134
-402.03807475399 33.7978518248231 1807.72195526194 118 120 117
-288.150736535064 40.6924825957981 1690.24595460054 94 96 91
-294.376939027804 40.2233500903836 1681.0682947753 87 89 86
-304.580738317658 39.4933775318943 1672.59427520716 93 95 92
-311.799395473896 38.9593884354078 1663.66657292122 99 101 100
-310.066777050766 39.0124215799955 1653.22392221681 103 105 104
-300.378628076917 39.5867356515437 1641.36808224076 107 109 108
-125.257538172586 43.4653267363099 2153.89232607499 133 134 126
-215.345505047731 37.6832032573154 2146.7297607082 160 162 157
-239.558830885766 36.0899656088477 2137.33956949927 161 163 160
-252.792672096336 35.194879578902 2127.59753924597 128 133 129
-259.040345930926 34.7437533204658 2117.60003872161 128 133 129
-266.284795472806 34.2293209433475 2107.68527915404 150 155 151
-276.521159802649 33.5249345168287 2097.96597742957 165 169 168
-300.721870571668 31.9342150920407 2089.07153069341 176 180 179
-312.949510357228 31.1038942417077 2079.61671581154 175 179 178
-326.172805886411 30.2105654388928 2070.28873409426 171 175 174
-339.39427168395 29.3175737150885 2061.03262655764 175 179 180
-354.608321055049 28.2984074778908 2051.98029750884 182 186 187
-360.845544773056 27.8486828997438 2042.39272875805 181 185 186
-365.087539183759 27.5254652208277 2032.69581806161 180 184 185
-378.302651923928 26.6335196569104 2023.68913330116 185 189 190
-388.524905780611 25.9314043684315 2014.52375632229 177 181 182
-401.736558867948 25.0400947720682 2005.65296963236 171 175 176
-405.974558544053 24.7172803956419 1996.11262003768 168 172 173
-409.215257590415 24.4575967871842 1986.509856996 170 174 175
-408.468673727894 24.450228426293 1976.57286722006 169 173 174
-415.695320403897 23.9380598929212 1967.35633606457 165 169 170
-423.917714244801 23.3629909757024 1958.27250530062 151 155 156
-421.177161340372 23.4814188764715 1948.17615501365 143 147 148
-421.426347784572 23.4105469155099 1938.36098869135 138 142 143
-422.671806586268 23.2765328514305 1928.64841208682 148 152 153
-425.909797861657 23.0164597762525 1919.15105993565 147 151 152
-422.173723724857 23.1970045473286 1908.92166254293 140 144 143
-414.453328270573 23.6290192222917 1898.23205671143 147 151 150
-416.695196385744 23.4314183296531 1888.62556438688 150 154 153
-407.980306457872 23.9255616129997 1877.76279476295 138 142 141
-408.230309232991 23.853361969106 1867.91429783675 137 141 140
-402.504909390474 24.1581367088384 1857.34238050445 135 139 138
-401.759509334449 24.1483525182464 1847.35652953782 141 146 142
-399.022621879276 24.2640190053986 1837.11395580286 137 142 138
-389.316393158475 24.8189856175022 1825.95328594575 126 131 127
-384.58967578668 25.0595383400027 1815.39792801691 128 130 129
-359.952599242701 26.5548269179035 1802.12710795691 118 120 117
-337.309990004056 27.9234813584118 1788.99527490071 107 109 106
-278.915644552247 31.0615159431062 1688.84292012153 140 142 137
-286.137888277219 30.5467352652158 1679.80499161362 85 87 84
-297.337652262999 29.7821065269199 1671.4761722338 89 91 88
-305.551911567794 29.2053051517849 1662.69908235245 109 111 110
-307.797798190944 29.0034984226425 1652.93101691188 104 106 105
-299.103717796762 29.4885754967851 1641.24520402593 99 101 100
-222.045153175576 26.8806861890586 2147.06117471554 173 174 168
-231.289971583471 26.2636647756865 2137.07124170578 158 160 155
-242.529681545576 25.5254899188582 2127.21892411938 119 124 118
-246.78273507839 25.2120220158287 2117.10025317837 138 143 137
-255.026260914295 24.6560731484931 2107.20171569322 154 159 153
-272.248293087585 23.554851720503 2097.81733143856 173 178 174
-298.446471812645 21.9088872111677 2089.0212479486 176 181 177
-317.657851925641 20.6877050206372 2079.96444902047 190 195 191
-328.886948060466 19.951373054746 2070.52893532684 177 182 178
-345.101258049433 18.9127396248374 2061.47021571939 180 184 183
-348.347924921238 18.6610777616729 2051.64282251803 190 194 193
-352.59160584712 18.3488865923054 2041.90116117093 170 174 173
-363.814952687602 17.6134506850628 2032.68198714743 177 182 178
-385.008198703893 16.2738207424337 2024.26547157851 168 172 171
-395.230733850314 15.5995319221298 2015.11897874064 171 175 174
-409.440067344513 14.6838421470326 2006.3466946788 172 177 173
-412.680960285368 14.4328321876241 1996.74566666498 159 164 160
-415.921172128213 14.181789122115 1987.16189798581 175 179 178
-414.177311930303 14.2324434421596 1977.15606058485 164 169 165
-421.404084002877 13.7399202704168 1967.9557221733 161 166 162
-425.639855965687 13.4284498868579 1958.5146196373 163 167 166
-421.902431551276 13.5993009495149 1948.32758741372 147 151 150
-422.151564100672 13.528795948798 1938.5149215007 147 151 150
-420.40767092747 13.5786369211573 1928.50017479009 143 147 148
-419.660573763171 13.5680441490504 1918.5797845014 142 146 147
-413.931913405185 13.8582995470429 1908.11970965776 133 137 136
-407.207888264735 14.2084019567229 1897.51803590472 120 124 123
-411.442607974041 13.8961763843923 1888.11724821729 117 121 120
-406.71199494218 14.1253498016559 1877.70192795754 124 128 127
-408.954001605584 13.9332819256307 1868.08663682696 127 131 130
-401.236313408691 14.3422756395666 1857.27582865145 134 138 137
-398.499041758242 14.4503544697524 1847.04012355708 118 123 119
-391.77890712647 14.7984608105194 1836.28425202236 113 118 114
-384.064026858633 15.2062268214393 1825.36238203919 131 136 132
-377.345593780196 15.553530683652 1814.52982147772 135 137 136
-357.685320912535 16.6805464085849 1801.91230896769 137 139 136
-290.572658006593 20.124821219898 1690.83871312213 162 164 159
-286.851089849429 20.2877147098276 1680.02341920752 95 97 94
-295.067267646712 19.7331723041956 1671.19524796085 94 96 93
-299.303487285552 19.4178465507235 1661.73250909548 103 105 104
-305.528489868943 18.9831468224274 1652.63871714848 106 108 107
-299.817631386174 19.2650392045377 1641.47390378986 113 115 114
-292.118690108834 19.6659659787197 1629.92173939668 141 143 142
-193.078392135739 18.1308188754103 2135.56699206136 71 74 67
-197.335463090538 17.8275950111002 2125.30230561187 26 31 25
-200.594117154666 17.5822398307496 2115.01318303885 31 36 30
-213.830825387451 16.7581207841053 2105.23529850647 85 90 84
-244.027921703784 14.9508083985501 2096.41639181545 114 119 115
-287.191061257681 12.3926135644508 2088.47676205929 35 40 36
-317.378855619902 10.5875150404531 2080.02378503276 37 42 38
-337.586754810827 9.36138541955878 2071.13174287904 110 115 111
-347.816849681546 8.7136680577064 2061.71832021287 92 96 95
-345.078915915664 8.81705411649458 2051.50345414682 82 86 85
-357.30190744721 8.05405923923619 2042.30259857888 148 152 151
-376.504219403653 6.88735463996168 2033.66803325268 188 193 189
-397.698161184822 5.60582546410027 2025.28670891071 195 200 196
-401.937840676578 5.30556303827862 2015.71424563707 186 191 187
-416.147521289322 4.42869883666774 2006.96075810238 178 183 179
-411.411924474816 4.64746848985598 1996.71972578438 175 180 176
-411.661830939716 4.57777027226358 1986.87767883406 177 182 178
-407.924267796482 4.73835749915821 1976.68504809713 174 179 175
-424.123301413105 3.74695664017421 1968.28342152638 161 166 162
-427.362517906916 3.50439803936717 1958.75698928855 160 165 161
-425.617850037788 3.54956871007861 1948.7675057682 147 152 148
-420.883862814341 3.76708894949535 1938.47154831959 153 158 154
-418.14344798035 3.86928245107504 1928.35237051405 143 147 148
-417.396188782128 3.85626766889025 1918.42638771625 145 149 150
-412.663779518994 4.07293267225994 1908.06783982572 142 146 145
-407.931796495982 4.28929227174907 1897.68298028718 127 131 130
-409.1782403163 4.16075215398318 1887.94710803283 125 129 128
-403.451058959276 4.43398852319532 1877.4109549857 129 133 132
-407.685751252589 4.13299381198728 1868.02329764397 136 140 139
-399.967539749014 4.52045246590305 1857.20981941755 129 133 132
-395.238096652926 4.73543064073595 1846.72420746864 124 129 125
-384.534108743054 5.29406619123352 1835.45520071858 114 119 115
-377.814883285519 5.62290444534141 1824.64310691764 115 120 116
-370.100665570806 6.00865026712732 1813.66237369175 130 132 131
-354.422094500374 6.85211871103403 1801.56368254135 132 134 131
-279.346526435343 10.5659609978142 1689.11350172478 93 95 90
-281.594807607532 10.3760188738552 1679.25526352364 91 93 90
-285.832814930543 10.0720152982564 1669.74413743878 90 92 89
-295.043801210085 9.48307201313109 1661.10662933768 73 75 74
-301.269553254672 9.06534570739564 1652.00177060472 107 109 108
-294.563959961594 9.38833398656233 1640.65060333983 148 150 149
-275.924233701844 10.3942787774154 1627.12475923352 171 173 172
-147.680930327757 10.0128503246174 2102.03462328138 29 34 28
-272.940825820949 2.98075068647502 2087.76802987574 32 37 31
-300.138709948961 1.42311096322351 2079.10299427442 28 33 27
-327.332812782695 -0.133649612363507 2070.58668871367 29 34 28
-329.583860773699 -0.313678096271641 2060.64028293983 26 31 25
-331.834611621541 -0.493770017455597 2050.7054224361 21 26 22
-359.020854255466 -2.04879059608365 2042.49818898785 27 32 26
-373.237524434808 -2.88821064436998 2033.5117296253 28 33 27
-378.476715241618 -3.232633677835 2023.93564725565 26 31 27
-395.681773669544 -4.2362285263845 2015.31015488395 17 22 18
-416.873023239717 -5.45896502655896 2007.09717852112 13 18 12
-411.139971880403 -5.19873551988881 1996.77647973108 11 16 10
-405.407732747342 -4.93886479620342 1986.4236510918 7 12 8
-402.667411374052 -4.84394661199611 1976.30233363106 10 15 9
-424.849100848239 -6.12028241426432 1968.43014579762 29 34 28
-430.08220133689 -6.46391679602626 1959.09294095312 104 109 105
-425.346942411702 -6.25944660849415 1948.82334908511 177 182 178
-422.60578593961 -6.16486564052668 1938.72498331347 162 167 163
-422.854842701593 -6.23480279065319 1928.91588914935 155 159 158
-423.103870442527 -6.3048522526491 1919.10780863651 157 161 160
-415.381269983664 -5.93724680592667 1908.44454914205 145 149 148
-409.652394176368 -5.67945687149485 1897.95803588944 140 145 141
-409.902300995426 -5.75010798578035 1888.11495195036 141 145 144
-406.167210132598 -5.60223527679854 1877.81204406059 148 152 151
-409.405898388929 -5.83713585984069 1868.31447976306 154 159 155
-403.679041723662 -5.58040114277703 1857.74791843411 149 154 150
-398.948956924947 -5.37860636689566 1847.27323112841 157 162 158
-383.26411972661 -4.57668655214202 1835.38415503381 135 140 136
-375.548379114593 -4.21201460899645 1824.44031440236 131 136 132
-364.846418518129 -3.68413087592417 1813.05905428818 124 126 125
-348.171303896836 -2.82963469280911 1800.81241620588 115 117 114
-333.489762374909 -2.08492117685707 1788.74848281704 126 128 125
-282.308042059769 0.110661922275712 1679.47492730618 48 50 47
-278.586457459076 0.252563760373359 1668.62841205438 53 55 52
-285.809284013225 -0.202713148300837 1659.63159512781 72 74 73
-287.062040419342 -0.332308023132999 1649.63854784727 70 72 71
-284.335762817491 -0.245026793457059 1638.95082638653 69 71 70
-263.706142804975 0.817714611635711 1625.04158363295 111 113 112
-59.7395179888798 4.22699354999345 2130.21540538282 128 131 124
-61.0122770793913 4.10065298010193 2119.45340291326 140 145 139
-76.2575771008702 3.24059006825889 2109.35052308643 138 143 137
-102.47894116403 1.80473910837786 2099.87388001207 20 27 19
-195.557978175186 -3.1387065130373 2094.03492534383 9 16 8
-254.696818332111 -6.29900991732274 2086.84028893411 23 30 22
-284.891646811404 -7.93971648762731 2078.29823045199 23 30 22
-300.116100282454 -8.79478463070443 2069.01546903038 24 31 23
-311.347887912055 -9.44024844708388 2059.56300482937 26 31 24
-331.556669668032 -10.55586601661 2050.76445309373 29 31 26
-360.73985024547 -12.1410645298974 2042.69388800398 29 32 25
-377.95003997733 -13.0985235353989 2033.92670840198 33 36 29
-356.259992764064 -12.019132224819 2022.3630249203 25 27 22
-361.500149226903 -12.3499373053671 2012.75449848863 26 28 23
-402.640276473353 -14.5589284159052 2006.03982216473 24 27 20
-430.811277328174 -16.0884385426272 1998.48037906557 24 27 20
-380.208083822968 -13.498275334972 1984.35347177747 24 26 21
-393.421488503094 -14.2456304179864 1975.56879404298 27 30 23
-427.569037546173 -16.0866315315038 1968.75830950969 15 18 11
-434.795947624099 -16.5203277616723 1959.61574121004 3 5 0
-427.069740034303 -16.1729862303261 1949.07170305662 10 12 7
-425.324903804865 -16.1382965780666 1939.07754593002 20 22 17
-424.577160428607 -16.15580706035 1929.17498413886 145 147 144
-423.829527681546 -16.17345202861 1919.26795417477 175 177 174
-419.095662817556 -15.9833224135478 1908.92847976358 159 161 158
-415.359096226389 -15.845462626345 1898.67249734532 153 155 150
-415.608598504723 -15.9156084141766 1888.84576683972 151 153 150
-410.876306502839 -15.7262426492999 1878.44399936528 167 169 166
-410.12990294253 -15.7447850430207 1868.48796493846 163 165 160
-407.391128572368 -15.6596985705185 1858.2863039133 153 155 150
-404.652737460758 -15.5748116633041 1848.06944953845 178 180 175
-389.962264360657 -14.8680487410469 1836.3231695289 11 13 8
-381.249537694192 -14.4728826106514 1825.26957811135 170 172 167
-372.538022841739 -14.0781666401112 1814.16814145727 155 157 152
-358.84863030246 -13.4249849607618 1802.34679563832 153 155 150
-343.169504855499 -12.6689067093405 1790.17593858496 157 159 154
-275.060394324039 -9.7370601922602 1678.379275151 91 90 86
-270.344313854205 -9.55409919580064 1667.34635268535 117 116 112
-276.573138677884 -9.93819262852025 1658.15751148952 94 90 87
-278.821414516664 -10.1160770060611 1648.31242841593 98 95 90
-275.100752863044 -9.98504738973205 1637.4274922291 90 87 82
-256.459510373258 -9.08226930711237 1623.85013517941 152 151 146
-60.4394740898639 -6.62762147103507 2130.32133319909 105 108 101
-66.7032031818113 -6.99947557935723 2119.78145392817 109 114 108
-77.9566935920366 -7.61951489033688 2109.50806875354 86 91 85
-258.144398908021 -16.6986379008513 2097.38187436301 27 34 26
-291.595221133214 -18.47605900854 2078.76199292701 18 28 19
-303.82691657771 -19.14097111525 2069.31694722567 16 23 15
-277.145722367137 -17.8733073273861 2057.47659711423 16 21 14
-311.325320876531 -19.6278157612096 2049.50637758992 24 27 20
-321.558097481136 -20.1929931532836 2040.07676853599 26 29 22
-358.722668912595 -22.0940474579484 2032.62925216914 25 28 21
-375.932853756243 -23.0044245850533 2023.90349172208 21 24 17
-374.190377207792 -22.9747295328549 2013.81174727125 22 25 18
-469.187368736325 -27.7399041025125 2011.42954812433 23 26 19
-405.860222276173 -24.7142194041859 1986.62302670113 23 26 19
-382.17988916749 -23.5983154165272 1974.66016674765 20 23 16
-402.372648916195 -24.6549976203044 1966.55109081618 14 17 10
-398.635104512718 -24.5269725813904 1956.31344010679 14 17 10
-401.87654397691 -24.7444048375813 1946.72710521933 13 16 9
-421.066731873386 -25.750541729527 1938.7387953944 12 15 8
-420.319202990183 -25.7705250826969 1928.8251952933 2 4 0
-419.571546140221 -25.7906212798168 1918.90715062508 0 1 0
-407.861565449546 -25.2692634661264 1907.80763888343 16 18 13
-418.077033607263 -25.8312433047352 1899.05793718031 69 71 66
-419.322743759333 -25.9501169588396 1889.35179353861 130 132 127
-414.590046108515 -25.7739930700243 1878.96098691133 154 156 151
-405.872482813875 -25.4015018969717 1868.07208105502 140 142 137
-402.137580642544 -25.2751362331336 1857.73870583924 173 175 170
-399.399324467636 -25.1981402429766 1847.50810501164 174 176 171
-394.669101691004 -25.0231372484504 1837.01004340951 4 6 1
-376.991018837025 -24.2103701801635 1824.80991097074 174 176 171
-377.243068369641 -24.2814942148202 1814.88257457754 159 161 156
-361.560354738419 -23.5680195116109 1802.80621178643 142 144 139
-360.817663614222 -23.5905887258399 1792.70075880599 151 153 148
-261.841169411321 -19.3305437643401 1676.29755640009 97 93 90
-256.130379615279 -19.1121098036206 1665.06192176081 95 92 87
-265.34548203143 -19.6257371694044 1656.34440921545 125 120 116
-267.594927629898 -19.7977241339484 1646.46926485709 114 109 103
-267.854205930072 -19.8721906222819 1636.25581431654 121 116 110
-57.1459357461945 -17.289296292308 2130.26272547528 134 135 129
-53.4274223266102 -17.1753363331688 2119.27550077722 75 76 70
-65.6808092607446 -17.8122251046183 2109.01276581646 40 43 36
-229.914490615029 -25.647427449752 2095.9835082416 29 34 27
-254.129302140827 -26.8429017604095 2086.96233884571 19 24 17
-310.275011630673 -29.5363671372278 2079.9170620517 22 27 20
-264.629767516627 -27.4523519538215 2067.02298856397 22 27 20
-293.826277887617 -28.8801237803687 2058.60980640515 21 24 17
-311.045832300138 -29.7455202854086 2049.56614747626 20 21 15
-267.665531356293 -27.8287651514079 2026.19630623769 25 28 21
-395.859724797099 -33.9488497149595 2015.56024596651 25 28 21
-422.291890501373 -35.2995972478326 1997.93612200559 22 25 18
-432.513461553907 -35.8344152142323 1988.97706235789 31 34 27
-424.78454098643 -35.529632647894 1978.49336023163 30 33 26
-415.062164044544 -35.1320175912185 1967.7855420254 26 29 22
-397.365192794602 -34.3621621099717 1956.27755837666 25 28 21
-389.640373225236 -34.0587789436632 1945.63207246962 27 30 23
-392.88220264484 -34.2678416934802 1936.03015851688 29 32 25
-410.07960489241 -35.1283266090194 1927.86688140838 25 27 22
-396.374700404571 -34.5463359790237 1916.56603202138 22 24 19
-407.589286454088 -35.1273093646575 1907.86443480556 25 27 22
-414.815645542119 -35.522026580788 1898.78525376295 24 26 21
-433.002971157077 -36.4275524747378 1890.98281770514 20 22 17
-413.321617171389 -35.5679210016601 1878.90213170017 15 17 12
-393.643011922828 -34.7091488611082 1866.71309284106 13 15 10
-387.915879348574 -34.500753554801 1856.1054118548 0 1 0
-393.148696339016 -34.8028317958768 1846.82390688574 11 13 8
-378.45650989379 -34.1776256278738 1835.04769618937 1 3 0
-369.743452057495 -33.8311099338957 1823.96413573252 8 10 5
-364.019581099568 -33.6239655841119 1813.22763630058 1 3 0
-372.240362932692 -34.0653073977593 1804.34106946129 44 46 41
-367.513200228548 -33.9047765505912 1793.71719533665 23 25 20
-245.894894135002 -28.9314123523557 1663.44734828284 39 34 28
-254.11637100245 -29.3738920063257 1654.53239536914 75 68 62
-262.336930524252 -29.816100562535 1645.66291137323 94 87 81
-261.60145379488 -29.8440009021164 1635.26044591096 98 91 85
-246.937997820468 -29.2282173002827 1622.36055644968 149 144 138
-43.1447828935689 -27.5554471350187 2118.90171441334 90 89 84
-41.4236680993865 -27.541132266165 2107.95856454813 85 84 79
-244.601374579948 -36.647817836019 2096.82688449097 23 26 19
-270.813237634704 -37.8652208275009 2087.95612634258 21 24 17
-301.013488927994 -39.2580750977892 2079.45892542645 23 26 19
-324.22392382388 -40.341393595891 2070.70453649984 25 28 21
-345.435284474709 -41.335788816327 2061.95072471633 24 25 19
-407.554049429454 -44.1349327906796 2056.01189970898 24 25 19
-332.973611458661 -40.9015707110401 2041.01890250628 25 26 20
-373.135769658293 -42.7308311689003 2033.81688329072 28 31 24
-360.672937678187 -42.296788417984 2012.9301691289 25 28 21
-424.764042226879 -45.1780644986473 2008.04294159459 27 30 23
-440.971286553433 -45.9487442846455 1999.55740532512 13 16 9
-427.256394434924 -45.4018091331955 1988.60926727081 24 27 20
-438.475082543257 -45.9525784206421 1979.7797782205 26 29 22
-415.787829382362 -45.0115955069371 1967.93358355357 24 27 20
-422.020089220465 -45.3430814511035 1958.66697596405 22 25 18
-414.292695315357 -45.0608417172358 1948.09007703819 24 27 20
-428.499896106829 -45.7427302968 1939.64285931584 27 30 23
-398.841404919147 -44.4974878066368 1926.8077043831 22 24 19
-425.009817867156 -45.7045047682396 1919.64627864488 22 24 19
-405.323366485043 -44.8981223043951 1907.70764186555 26 28 23
-425.507465038855 -45.8417791264671 1900.04910859631 22 24 19
-429.74269561886 -46.085351374324 1890.70206896454 16 18 13
-419.029120730408 -45.6734608822493 1879.65019100666 23 25 20
-406.323975479769 -45.174716132294 1868.30339090032 22 24 19
-359.742490472116 -43.1923131480852 1852.78358964464 23 25 20
-391.878993862045 -44.6588811333428 1846.7574496306 24 26 21
-377.185754793543 -44.0743689817357 1834.97868499767 16 18 13
-359.506157217216 -43.3597199205554 1822.73240159631 9 11 6
-381.674323609802 -44.3888569288164 1815.65416566479 13 15 10
-214.494694545448 -37.8219533229023 1668.68368101371 24 19 15
-209.781698493902 -37.679381044568 1657.48684250144 41 34 28
-240.895146271368 -39.0959710189724 1652.38143577941 46 37 32
-252.102307843309 -39.6457053756143 1643.99423014218 85 76 69
-253.357855210006 -39.7624295970648 1633.91524675836 103 94 87
-242.673388986758 -39.3601911295688 1621.70601293746 140 133 125
-28.8666542445921 -37.8249804815907 2118.35292030968 38 31 25
-32.1383538763782 -38.0234302738576 2107.6042951534 23 18 12
-244.316897456302 -46.9453617670592 2096.88852638092 38 38 30
-284.504987546506 -48.6703444946572 2088.78496444431 46 47 41
-316.702827086385 -50.063134559685 2080.44081225864 39 40 34
-342.907757789823 -51.2068047616689 2071.91083821716 24 25 19
-363.121747507859 -52.1017308543917 2063.1457027936 23 22 17
-385.328322539484 -53.0785309789552 2054.62251950845 22 21 16
-389.571229582851 -53.3116967182908 2044.98663080314 20 21 15
-369.867711824893 -52.5547053176338 2033.66197479334 25 28 21
-366.129827099007 -52.4582791172896 2023.41302145168 24 27 20
-452.671065921935 -56.2056007419835 2000.60239143362 11 14 7
-434.964982471419 -55.5319606410306 1989.34723548462 16 19 12
-443.191712275318 -55.9286675546714 1980.27612686048 15 18 11
-453.411916037858 -56.4073675640263 1971.43076078248 19 22 15
-480.583117228168 -57.5844756433117 1964.22649718147 24 27 20
-444.931789162966 -56.1724442065267 1951.12363218016 20 23 16
-419.255940119982 -55.1724633638541 1938.81165473499 15 18 11
-457.390323934648 -56.8003289782108 1932.85267685808 20 22 17
-372.899448541208 -53.3807684157356 1914.28423846879 21 23 18
-434.207536397845 -56.0194382024904 1901.09362576531 19 21 16
-358.706371187374 -52.97406710279 1882.77582657467 18 20 15
-423.740957191951 -55.7053739183061 1880.28326264493 10 12 7
-385.123835396488 -54.1776051992559 1865.88435012862 12 14 9
-322.596337514741 -51.6695428685554 1848.37717094727 13 15 10
-466.582905723147 -57.696157286941 1846.38864681167 13 15 10
-379.155839319906 -54.169006247436 1825.36776141852 15 17 12
-388.373489237846 -54.6060973238651 1816.63286245116 16 18 13
-467.320216360721 -57.8998739670558 1817.35325762844 28 30 25
-203.522369598922 -47.8423903934709 1656.54322181677 32 25 19
-215.729167204275 -48.4027935552399 1648.19280836436 48 39 32
-242.861724848928 -49.5709121508111 1642.49919582327 69 56 48
-243.122723485322 -49.6438672665505 1632.22013137921 93 80 72
-237.413425024432 -49.4738193227343 1620.87425701747 132 122 113
-29.5645318663413 -48.7520440721074 2118.46229260056 59 50 45
-25.8470365255929 -48.6713925058444 2107.39018907957 41 34 28
-256.01198331187 -57.706771712643 2097.5752005577 33 30 23
-279.232222235819 -58.6650398043163 2088.57190574676 33 32 27
-316.423813205568 -60.1629259858726 2080.50126310247 27 28 22
-344.627017678921 -61.3122287385614 2072.09142842726 21 22 16
-332.905075437112 -60.9179771377638 2061.3136138908 24 23 18
-320.186901510791 -60.48568222473 2050.40467084685 24 23 18
-323.436831049184 -60.6703499138694 2040.521694517 20 21 15
-370.590663759141 -62.5493000821522 2033.79256929882 24 27 20
-372.838735054014 -62.6945246557933 2023.99054809171 24 27 20
-372.09367511513 -62.7243219683989 2013.96991561994 23 26 19
-390.303205699628 -63.4847702852499 2005.45540555904 14 17 10
-412.750337196871 -64.465995098927 1987.53501616162 19 22 15
-431.95082177321 -65.2632085806028 1979.36860228523 19 22 15
-436.188507908498 -65.4841209177227 1969.94992151343 18 21 14
-439.428419690944 -65.6665679868238 1960.46085812027 16 19 12
-445.659495435557 -65.9639592204652 1951.27713728051 18 21 14
-428.955811212699 -65.3798427252482 1939.85678531301 19 22 15
-432.19557424122 -65.5624039906353 1930.37341312332 23 25 20
-456.371517663449 -66.5487886780877 1923.09584819536 22 24 19
-438.673521749008 -65.9273056956867 1911.45927623464 18 20 15
-419.98146523431 -65.268323028837 1899.61546335526 21 23 18
-400.295077103817 -64.5718672882656 1887.55632363428 20 22 17
-379.614569036788 -63.8380023313963 1875.27351534781 20 22 17
-443.651511120509 -66.350776441641 1872.89881360861 20 22 17
-320.324325556176 -61.6858023634493 1848.19493245423 15 17 12
-421.724827953246 -65.7452848686645 1830.96668406713 17 19 14
-425.958852286376 -65.965938807243 1821.69139665734 21 23 18
-192.2852950164 -57.8492678937428 1654.76465476031 25 16 11
-205.488791456049 -58.4141461584667 1646.55383015309 32 21 15
-220.681267176126 -59.0541747499273 1638.76108771361 123 108 101
-235.871617889283 -59.6936413552634 1631.05200132339 60 45 38
-226.181977504397 -59.3884376499045 1618.97482566035 121 111 102
-25.2692235354086 -59.494041028602 2118.352595937 56 43 37
-24.5475444894208 -59.5321411598448 2107.40924224776 47 36 30
-254.990858454051 -68.005746560662 2087.31788952521 29 29 21
-299.174394449979 -69.6533311716297 2079.58353694499 30 30 22
-343.352019218664 -71.2993226738213 2072.09125094882 26 25 20
-329.633172401147 -70.8662217668295 2061.18477457535 23 22 17
-285.974920251693 -69.3596724075417 2048.22845717198 21 20 15
-323.158288908844 -70.7530939803374 2040.58201225073 18 19 13
-361.334545184134 -72.1809333458953 2033.21061112713 26 29 22
-370.568411580368 -72.5708184918529 2023.90192689172 28 31 24
-361.841216117194 -72.3173503015828 2013.2616818373 20 23 16
-335.156960068866 -71.4215446467708 2001.14172632831 11 14 7
-396.517686192118 -73.7349655514528 1986.23373022804 13 16 9
-414.723327076432 -74.44439308908 1977.93535009649 16 19 12
-408.988414365731 -74.2980287092116 1967.56513976313 17 20 13
-376.326155487804 -73.1904003069307 1954.64606203179 17 20 13
-403.504690283074 -74.2196388648394 1947.30462185924 20 23 16
-438.657185954406 -75.5324930284866 1940.9019119271 19 22 15
-451.867801281554 -76.0618346725724 1932.46033780979 20 23 16
-457.09994439241 -76.3064178072217 1923.25757941835 20 23 16
-438.403604875309 -75.6984182922186 1911.5170945399 19 22 15
-426.688551640933 -75.3396670607598 1900.44124095385 19 22 15
-418.962263856224 -75.123301996874 1889.75037986382 18 21 14
-415.224379203305 -75.04912600286 1879.47753311249 17 20 13
-380.588973685518 -73.8764167499931 1865.5294165212 15 18 11
-344.219173535038 -72.7033889624156 1841.13281918377 20 23 16
-361.414084782868 -73.3741513137898 1833.26128366366 16 19 12
-401.524868882483 -74.8577404131326 1828.44762231686 16 19 12
-399.782362202952 -74.8552240928866 1818.32787306388 23 25 20
-324.314223633889 -72.2384901278893 1798.25904077363 17 19 14
-188.279387825945 -68.2349028615338 1643.72679304332 37 26 20
-233.595582538148 -69.9571510223422 1630.76153275741 50 33 26
-235.847662826426 -70.0990008785619 1620.8157745 96 83 75
-8.98963679192066 -69.8597235334001 2117.71748111975 131 116 109
-19.2535382253105 -70.2657922367592 2107.24224459038 54 44 35
-262.694232655035 -78.5385007089438 2087.81802399626 30 30 22
-305.882540997955 -80.0318848671956 2080.04734725882 32 32 24
-308.136099646342 -80.1669022522117 2070.04182096019 26 27 21
-305.398571872257 -80.1365080372999 2059.73271430796 22 23 17
-302.661448126865 -80.1062513958485 2049.40766909899 20 21 15
-297.928782349134 -80.0100663613602 2038.92978457595 19 20 14
-337.107572135571 -81.3668541070165 2031.56035248012 26 29 22
-391.249341919823 -83.2171825411448 2025.5156284279 27 30 23
-346.597941813262 -81.8004974311534 2012.170322479 18 21 14
-345.854607901728 -81.8358202442322 2002.07629802224 10 13 6
-332.141339950373 -81.4429487620447 1990.90858497488 7 10 3
-369.308796119454 -82.7297377285147 1983.99854909142 13 16 9
-394.500554131056 -83.6203032482289 1976.2398009196 16 19 12
-361.834504661445 -82.6025439010718 1963.37237817267 17 20 13
-355.105886376562 -82.4406012730791 1952.74818893351 16 19 12
-368.324904301197 -82.9359084063661 1944.00543104644 18 21 14
-420.685330149993 -84.7782399889796 1929.3740616031 18 21 14
-401.989011051338 -84.2223061924535 1917.58619933076 19 22 15
-411.212871475414 -84.5847589684084 1908.68871312779 19 22 15
-404.483671534345 -84.4228171613951 1898.08725614586 19 22 15
-428.660125084369 -85.2759828343883 1890.93279397411 18 21 14
-405.234233176878 -84.625348265165 1868.5352447654 16 19 12
-412.461370489086 -84.9216482396754 1859.5313208803 19 22 15
-327.995593283098 -82.2128717513414 1839.2187731842 20 23 16
-372.100808975651 -83.718182365045 1834.70753702541 16 19 12
-396.520091573012 -84.6371645366856 1817.99180579008 22 24 19
-205.176963786149 -79.3201954010973 1636.29383017165 67 49 45
-223.35667711291 -79.9733039760029 1629.06925977194 54 36 32
-226.604812280351 -80.1414688663879 1619.2741331093 105 92 86
1.30009484323867 -80.4960928089192 2117.34573197065 146 129 121
-31.9348512170481 -81.5749011739775 2107.91315545349 50 37 29
-301.35147003334 -89.9693237293951 2090.0159435634 27 24 17
-296.617094587749 -89.8862318952338 2079.59082031284 29 29 21
-308.854717362161 -90.3192244794232 2070.16313134645 24 25 19
-322.089077342375 -90.7821173420843 2060.8648815151 18 21 14
-324.341608222876 -90.9111342977159 2050.91529153298 20 22 17
-327.591891447594 -91.070376798728 2041.04579152519 20 22 17
-344.814379158837 -91.6533299648596 2032.19075502507 27 30 23
-348.062815916382 -91.8121099554907 2022.39391795895 27 30 23
-362.287750683247 -92.3033709479168 2013.45827626582 15 18 11
-293.208397803883 -90.3940303325185 1977.60164344947 12 15 8
-345.343368070803 -92.0314297934977 1972.0018994961 16 19 12
-369.539209579546 -92.8229258815295 1964.15590478471 17 20 13
-350.839519204766 -92.3182367202837 1952.43545633121 16 19 12
-372.03956621772 -93.0184547132898 1944.44901034679 16 19 12
-387.252263912093 -93.537370874868 1935.98663951024 14 17 10
-399.471212186903 -93.9655393319453 1927.30331924475 17 20 13
-404.707755175226 -94.1829207714641 1917.9578054851 17 20 13
-384.018033849253 -93.6193512575961 1905.86155793189 18 21 14
-430.135131450267 -95.0673230253491 1900.99689699138 18 21 14
-447.332599657696 -95.6437962825107 1893.12666699984 17 20 13
-457.549153926477 -96.0098245531755 1884.54491401589 18 21 14
-386.021253992588 -93.9191515445582 1866.35503458779 16 19 12
