ply
format ascii 1.0
comment KinectMotionCapture
element vertex 745
property float x
property float y
property float z
property uchar red
property uchar green
property uchar blue
end_header
-1206.30291595656 29.9112217782457 2558.44107273272 80 85 81
-1217.50489498127 28.9499661140226 2549.81455910873 65 70 66
-1265.73224061984 24.9011080725086 2537.90711168599 153 158 154
-1312.95211372744 20.9370279938512 2526.34872225619 128 133 129
-1324.14449587639 19.9774720196091 2518.0991127784 123 128 124
-1325.33049017396 19.8521587013821 2510.72928197063 124 129 125
-1326.5161293525 19.7267329945558 2503.36388498245 133 138 134
-1325.70104835921 19.7679101390116 2496.15612478898 139 144 140
-1324.88588886566 19.8089162558405 2488.94192423305 144 149 145
-1324.07112730703 19.8497082624528 2481.72126589506 144 149 145
-1323.25652502106 19.8902778090032 2474.49414376935 164 169 165
-1319.44177556808 20.1805813762633 2467.45750082145 161 166 162
-1315.62736230408 20.4706035138171 2460.39809147739 159 164 160
-1310.81387965366 20.8435653160378 2453.37599188099 169 174 170
-1305.00105893776 21.2994695596795 2446.38305634472 169 174 168
-1089.77722964655 32.6386344051942 2852.49968651934 184 188 187
-1108.03744039906 31.1345130860832 2841.20592113264 173 177 176
-1119.27240394002 30.1995540039571 2831.3278183815 170 174 173
-1127.49594150764 29.5086170501366 2822.06555185315 167 171 170
-1138.72789552559 28.574177233479 2812.29630444618 164 168 169
-1143.94003495915 28.127233721034 2803.66740485996 155 159 160
-1148.14833355852 27.7615955151058 2795.24189530444 154 158 159
-1154.36210258941 27.2336234255911 2786.48700082614 137 141 140
-1163.58373373114 26.462281049426 2777.24693332715 134 138 137
-1170.79843685617 25.8534355360628 2768.39339322298 134 138 137
-1175.00396186044 25.4881156067352 2760.076627113 147 151 150
-1179.20896376384 25.1228449131727 2751.78035846289 157 162 158
-1185.41874513596 24.5953942804631 2743.18187540401 154 159 155
-1187.61764739191 24.3923967789537 2735.2488432365 148 153 149
-1192.82347828366 23.9461456008341 2726.8579219053 147 152 148
-1199.03120962928 23.418880629221 2718.33976033206 146 151 147
-1205.23814160046 22.8917084357328 2709.85294069899 139 144 138
-1209.43966974624 22.5266873410021 2701.69270653066 139 144 138
-1209.63198000197 22.4857671403788 2694.13261857726 146 151 147
-1211.82864995264 22.2827037325216 2686.28676186829 150 155 151
-1214.02483586089 22.0796072734251 2678.45046293766 166 171 167
-1214.21696418304 22.0384204086896 2670.8971992554 159 164 160
-1217.41487134594 21.7542528307006 2662.94060225817 150 155 151
-1216.60508742548 21.7938246817158 2655.52409046794 145 150 146
-1216.79716961433 21.7523199942072 2647.97228858129 147 152 148
-1215.98765421487 21.7915952858552 2640.54496363744 134 139 135
-1219.18454338868 21.5071616893674 2632.61854276174 124 129 125
-1216.37211059964 21.7079529940419 2625.42926763913 111 116 112
-1211.55680605106 22.0702994485708 2618.45765140278 103 108 104
-1208.74516562792 22.2706278572147 2611.22758606556 104 109 105
-1210.94085165727 22.0665509924176 2603.41909623835 101 106 102
-1213.13604938272 21.8623971966234 2595.62028362842 102 107 103
-1214.33009435849 21.7389618350509 2587.93782083243 96 101 97
-1211.5192622327 21.9386099043065 2580.67543393865 94 99 95
-1210.71087856249 21.9764616755303 2573.19302384056 88 93 89
-1205.89892704283 22.3371470801831 2566.09790089928 88 93 89
-1205.09139136429 22.3745748947033 2558.59121792546 80 85 81
-1207.28640410396 22.1696300806958 2550.79878586576 71 76 72
-1245.5101124487 19.058898756582 2539.76583371179 131 136 132
-1297.73868527912 14.8194188614447 2527.71386375432 119 124 120
-1316.9380992349 13.2439714524584 2518.744360996 120 125 121
-1323.12746914708 12.7176185549437 2510.94480716428 128 133 129
-1325.31400205412 12.5138928498226 2503.49443011332 132 137 133
-1324.49867144015 12.5519885856024 2496.28379259312 135 140 136
-1325.68459169269 12.4286305946075 2488.91895520148 149 154 150
-1325.86991762482 12.3857736148205 2481.62975924494 156 161 157
-1326.0552640024 12.3427461394872 2474.33958114435 145 150 146
-1321.23966087666 12.7024112074915 2467.37675527184 161 166 162
-1316.42501078206 13.061729387629 2460.38563396733 164 169 165
-1308.61072174655 13.6623517859521 2453.54675254335 150 155 151
-1302.79758226217 14.1014755420029 2446.54825798841 162 167 163
-1098.59014096094 24.0339822916859 2850.81367627176 183 187 186
-1114.84434215617 22.7356239907479 2839.92632235748 166 170 169
-1126.07963771004 21.830285946705 2830.06704818133 171 175 174
-1133.30005407593 21.2392305351272 2821.00931647386 176 180 179
-1140.51953567863 20.6483339555396 2811.98828909183 171 175 176
-1146.73499047001 20.136073197615 2803.18437887189 166 170 171
-1150.94336883255 19.7808270614997 2794.76691009931 167 171 172
-1157.15736878679 19.2687735654759 2786.02008249655 146 150 149
-1163.37057239353 18.7568120417224 2777.30447766582 144 148 147
-1168.57992714091 18.323382079984 2768.78959828348 153 157 156
-1168.77466359903 18.282041026675 2761.13423405668 146 150 149
-1173.98328565712 17.8486679495392 2752.65737657706 130 135 131
-1183.20166863369 17.101930996621 2743.5613532446 119 124 120
-1188.40869689481 16.6687571621574 2735.14700080284 112 117 113
-1192.61235688785 16.3140169521641 2726.91448548045 135 140 136
-1197.81813229303 15.8809665969349 2718.54923157175 145 150 146
-1205.02790519726 15.2913643396088 2709.90904350211 143 148 142
-1210.23198249633 14.8584841133449 2701.60101534561 151 156 150
-1211.42663914118 14.7387571367334 2693.89862818146 153 158 154
-1211.61883112251 14.6972532288677 2686.34253606161 153 158 154
-1209.80671541185 14.8121318596046 2679.06399487914 152 157 153
-1211.0010908322 14.6921527834682 2671.3630034695 166 171 167
-1214.19942229033 14.4156447128863 2663.39804773356 160 165 161
-1214.39160205869 14.3737539326392 2655.84201754488 149 154 150
-1214.58381410132 14.3317345219672 2648.28458785288 152 157 153
-1217.78140543641 14.0550633789057 2640.34838359468 150 155 151
-1218.97510314465 13.9347245575752 2632.67349325517 146 151 147
-1218.16556347187 13.9705552161427 2625.24341841523 128 133 129
-1211.34674134714 14.4750112603945 2618.51247224754 117 122 118
-1209.53628962641 14.5885616086846 2611.16747036715 110 115 111
-1211.73204850203 14.3895219550334 2603.36154202456 108 113 109
-1211.9247453995 14.3465932145631 2595.78418615717 108 113 109
-1212.11747037605 14.303521955782 2588.20557983689 101 106 102
-1211.30907603904 14.3383724790697 2580.72968891358 99 104 100
-1211.50192569117 14.2950129471427 2573.14590031433 90 95 91
-1204.68726138683 14.7976568374574 2566.2505063712 86 91 87
-1201.87759393398 14.9879469659608 2558.93255218807 74 79 75
-1202.07121837464 14.9439910394577 2551.3178418064 74 79 75
-1231.28999025327 12.6386990685088 2541.08306447565 125 130 126
-1284.52444009829 8.46318805777471 2528.90410774097 122 127 123
-1315.73508154261 6.00392464566521 2518.88049338706 123 128 124
-1322.92556124976 5.41572260062864 2510.99585373461 128 133 129
-1323.1109574117 5.37295195700618 2503.70400565529 130 135 131
-1321.29547017391 5.48579912028263 2496.56437898778 134 139 135
-1324.48219766979 5.20908244224916 2489.04339752029 149 154 150
-1327.66876614568 4.9322999312445 2481.53788520653 153 158 154
-1326.85372498343 4.96683436660395 2474.3214358485 151 156 152
-1320.0373200003 5.46814110367189 2467.49263793039 151 156 152
-1314.22201405893 5.8912613698778 2460.56163270476 152 157 153
-1309.40783490591 6.23618464301301 2453.53664922959 153 158 154
-1306.59430056358 6.42528354271882 2446.36854743339 153 158 154
-1089.1405421725 16.8851900036656 2860.46880329988 183 187 186
-1100.3795976298 16.0087435881264 2850.4842758902 179 183 182
-1116.63485519593 14.7535878523571 2839.602022929 187 191 190
-1126.86721818692 13.9535459982857 2829.93639995737 184 188 187
-1134.08807809791 13.3810834409754 2820.88129654576 181 185 184
-1142.31147695848 12.7330038712598 2811.6797929159 185 189 190
-1150.53356659332 12.0851259423498 2802.52035008134 178 182 183
-1157.75148559141 11.5131612492623 2793.58072230212 170 174 175
-1159.95309236936 11.3198720368364 2785.55241205927 164 168 167
-1166.16652758986 10.8237989132381 2776.84481470055 170 174 173
-1170.37315017584 10.4792234531796 2768.50742510884 169 173 172
-1174.57925227635 10.1346815278277 2760.19041389915 138 142 141
-1179.78758435439 9.71456296821643 2751.72979673601 133 137 136
-1183.99281493838 9.37012989198249 2743.4562890727 123 128 124
-1185.18921182201 9.25262860201828 2735.67895233132 117 122 118
-1184.38041914179 9.28624975175812 2728.2173100338 108 113 109
-1191.5920605705 8.71505604054878 2719.52385923387 115 120 116
-1201.81021707306 7.91726587222691 2710.41589273069 139 144 140
-1209.01977661253 7.3464013477432 2701.80416282947 147 152 148
-1208.20979616901 7.37996359481591 2694.38887919104 142 147 143
-1206.39755539967 7.48896364338736 2687.10891376677 140 145 141
-1206.59011458345 7.44676178528458 2679.53772069748 145 150 146
-1209.78911502656 7.17796811683899 2671.55490184235 155 160 156
-1214.99194708447 6.75818532664962 2663.3189298303 155 160 156
-1217.18788397734 6.56489325327397 2655.50289047816 156 161 157
-1216.37802720113 6.59788240514852 2648.08215814767 151 156 152
-1216.57011952219 6.55530968203338 2640.52881348476 148 153 149
-1217.76395236133 6.4371855993558 2632.85101977709 151 156 152
-1217.95603554898 6.39442024590459 2625.29782524789 138 143 139
-1215.14319659775 6.57766221255762 2618.09625643477 129 134 130
-1213.33254499454 6.68533575886218 2610.76208138517 113 118 114
-1212.52339421151 6.7174948857624 2603.30354039041 110 115 111
-1211.71464975376 6.74946767821791 2595.83824351274 106 111 107
-1209.90453977285 6.85662504547163 2588.47302096528 99 104 100
-1209.09619929117 6.88826521656685 2580.9915781602 100 105 101
-1211.29172725929 6.69386348956888 2573.19965433139 96 101 97
-1205.47760870755 7.10163286703375 2566.20575920358 100 105 101
-1201.66662241746 7.35853929142216 2558.98617953373 86 91 87
-1196.85503304507 7.69044231191879 2551.83667352729 67 72 68
-1220.07084681773 5.91554401029173 2542.12949433345 97 102 98
-1271.30821971888 2.03516015385996 2530.09445913373 130 135 131
-1307.52627113645 -0.715724964275521 2519.6102543178 119 124 120
-1319.72140683342 -1.66113344068769 2511.29291480117 117 122 118
-1320.90784281949 -1.77948210115519 2503.91329938972 128 133 129
-1324.09497869187 -2.04820492898936 2496.38494033457 138 143 139
-1327.28195705773 -2.31699399272206 2488.87199084908 150 155 151
-1331.46916683828 -2.66098830169714 2481.30326972628 149 154 150
-1328.65288908277 -2.47923909183279 2474.23449849002 154 159 155
-1323.83630864047 -2.14756780177219 2467.27981197123 152 157 153
-1319.02068356582 -1.81621401209742 2460.29677025583 150 155 151
-1313.2054240261 -1.41012149978476 2453.34566840251 166 171 167
-1310.39137953468 -1.22949951743712 2446.18840313902 175 180 176
-1092.93694060545 8.69482807923414 2859.74019345857 181 185 184
-1106.1839492717 7.7017665143892 2849.37833483891 178 182 181
-1122.43998652365 6.48984199094413 2838.51202740138 172 176 175
-1126.65150260425 6.15496223412912 2829.99379358718 177 181 180
-1132.86949777309 5.67406032295506 2821.1242673303 185 189 188
-1141.09331881126 5.04729829340017 2811.91982788174 186 190 191
-1152.32626834334 4.20168108346414 2802.21636799654 173 177 178
-1160.54773603118 3.57532801368682 2793.10434474114 163 167 168
-1163.75237469127 3.31402114404789 2784.90920358203 163 167 168
-1169.9659736254 2.83386199993513 2776.21229493309 169 173 174
-1172.1664399368 2.64561354994752 2768.22464566802 174 178 179
-1176.37293131667 2.31149819521065 2759.91294010915 163 167 166
-1182.58431447356 1.83161698932682 2751.29360535101 152 156 155
-1186.78962756876 1.49762026559108 2743.02807861576 127 131 130
-1185.9802644934 1.52811036308609 2735.5760426655 112 116 115
-1183.16583730596 1.70422026559364 2728.42888976405 107 112 108
-1188.37296815909 1.29732996892321 2720.03874891005 107 112 108
-1197.58959719057 0.599192108299895 2711.07278257842 127 132 128
-1207.80742173351 -0.171598641727055 2702.00678010331 151 156 152
-1205.9948431311 -0.0684805477798034 2694.73370277534 139 144 140
-1204.18257637551 0.0345020070022517 2687.44829186195 130 135 131
-1203.37305850955 0.0645275193423833 2680.01113161702 131 136 132
-1210.58125502964 -0.487630808674422 2671.47275850803 148 153 149
-1216.78644871022 -0.966940175610442 2663.10526871051 151 156 152
-1215.97640425231 -0.937074564754559 2655.68851781317 149 154 150
-1211.15835243209 -0.616445180896208 2648.77948189224 146 151 147
-1211.35078140057 -0.659580179148689 2641.21237615402 146 151 147
-1213.54705074577 -0.848199884045109 2633.39768503056 147 152 148
-1216.74479091349 -1.10952326684338 2625.4721431205 140 145 141
-1217.93861209118 -1.22555858294798 2617.79704793975 136 141 137
-1215.12577352672 -1.05113201711793 2610.585998712 118 123 119
-1214.31663665121 -1.02216073768618 2603.13281608606 113 118 114
-1210.50311380842 -0.775532487266861 2596.00133777133 108 113 109
-1206.68993485455 -0.529127697446369 2588.84685436309 100 105 101
-1205.88171881005 -0.500709167060853 2581.35708897209 101 106 102
-1207.07612939741 -0.617539103189346 2573.65810441806 98 103 99
-1205.26694543946 -0.516865883616324 2566.25905229558 103 108 104
-1200.45431748681 -0.198798342448903 2559.13528213122 94 99 95
-1198.64595336243 -0.0985534525750342 2551.70372816533 76 81 77
-1211.85312674117 -1.08587127324666 2542.90493776884 85 90 86
-1261.09291116798 -4.68202779408303 2531.02211310118 124 129 125
-1306.3221725894 -7.98687084423674 2519.74591367936 120 125 121
-1319.51926339608 -8.97221712350688 2511.34330201636 119 124 120
-1320.70576749542 -9.08818315569662 2503.96358278505 130 135 131
-1323.8931253961 -9.34903507690388 2496.43499726814 139 144 140
-1330.08216736548 -9.82713537971233 2488.70007049673 151 156 152
-1332.26829795256 -10.0156516825499 2481.28174818829 151 156 152
-1331.45274575241 -9.98717065880894 2474.07877227467 151 156 152
-1324.63468366924 -9.5247696084203 2467.26364084845 151 156 152
-1319.81860417845 -9.20742182394751 2460.28332072045 146 151 147
-1315.00300241873 -8.89037814694735 2453.27467789199 152 157 153
-1315.18917582199 -8.93511877390157 2445.95033731257 163 168 164
-1092.71878282988 0.807406093933177 2859.79764880728 181 185 184
-1105.96675692022 -0.15071132190686 2849.43557840589 181 185 184
-1119.21296927851 -1.10847225025876 2839.14274536461 193 197 196
-1125.43226903424 -1.57371890058955 2830.23904074605 189 193 192
-1134.66113793447 -2.24966415044053 2820.80920187072 183 187 186
-1143.88903556214 -2.92541397422785 2811.426858313 180 184 185
-1153.11572146263 -3.60093123032967 2802.09212296454 175 179 180
-1156.32123144094 -3.8547051051801 2793.87101602077 177 181 182
-1162.53613640228 -4.31915685523498 2785.13992869419 182 186 187
-1169.75335144163 -4.85369231443028 2776.26800268967 182 186 187
-1177.97267465096 -5.45828023624168 2767.26316282323 183 187 188
-1182.17879909669 -5.78192647663553 2758.96771446199 183 187 188
-1187.38754472323 -6.17567486443682 2750.52857343854 171 175 174
-1186.57815937171 -6.14838548842508 2743.08329621803 150 154 153
-1184.7659458468 -6.05103638864796 2735.78975609524 147 151 150
-1181.95134630542 -5.88370340085356 2728.63991540766 148 152 151
-1187.15891317631 -6.27746057274386 2720.24683480702 117 122 118
-1193.36813429774 -6.74120624475155 2711.72932497771 106 111 107
-1203.58698024977 -7.48520783412732 2702.65216643435 113 118 114
-1203.77958896847 -7.52829315604642 2695.0780887738 166 171 167
-1205.97716396144 -7.71156615423907 2687.21810929447 189 194 190
-1205.16742017249 -7.68475153295331 2679.78633129498 179 184 180
-1211.37378675487 -8.14820552834336 2671.39002470858 146 151 147
-1214.57269738105 -8.40154288693667 2663.42731200501 140 145 141
-1214.76477429066 -8.44492176425032 2655.87370408857 151 156 152
-1211.95064171463 -8.27845583165254 2648.70468180074 152 157 153
-1209.13695919535 -8.11219974554178 2641.51784441923 154 159 155
-1211.33326876148 -8.295837939648 2633.6976052968 150 155 151
-1212.52777886446 -8.40958401677211 2626.00736732555 137 142 138
-1217.72907341144 -8.803048620392 2617.85042022103 134 139 135
-1214.91599644473 -8.63730636152579 2610.63936403869 121 126 122
-1214.10677487626 -8.61153855831087 2603.1860518614 116 121 117
-1209.29118607673 -8.30644212247941 2596.16407447615 110 115 111
-1207.48113323811 -8.21117187039139 2588.79317992987 100 105 101
-1204.66977139917 -8.04623133687665 2581.51422978222 100 105 101
-1206.86562335017 -8.23059546988464 2573.71109638679 99 104 100
-1205.05628042003 -8.13581431088278 2566.31193100733 99 104 100
-1203.24700359179 -8.04121266719265 2558.90066459873 95 100 96
-1198.43474000733 -7.73751479543844 2551.75654940739 88 93 89
-1205.63624761728 -8.27109451382377 2543.49955035833 87 92 88
-1243.8686604619 -10.9663324818277 2532.56319617194 116 121 117
-1298.11145998355 -14.7759512315943 2520.47546974242 120 125 121
-1316.31442035705 -16.0746605131289 2511.63980311896 120 125 121
-1320.50369000851 -16.3973487820587 2504.0134518904 128 133 129
-1326.69354663322 -16.8593226478682 2496.25467610432 135 140 136
-1329.88075909565 -17.1122989962485 2488.74955579001 147 152 148
-1331.06649466871 -17.2260347819606 2481.40226789494 151 156 152
-1330.25069236322 -17.2005975259579 2474.19647401297 156 161 157
-1325.43344374902 -16.896967940321 2467.24711773221 151 156 152
-1318.61600889901 -16.4544457678173 2460.39545224159 146 151 147
-1313.80009237338 -16.1514302701263 2453.38404917631 153 158 154
-1312.98613775648 -16.1269156924129 2446.11437531091 156 161 157
-1099.52776111867 -7.55373617744176 2858.4774216131 181 185 184
-1103.74185633003 -7.86832591455566 2849.88017229496 181 185 184
-1116.98917355689 -8.79117231561197 2839.58164569287 199 203 202
-1125.21648783688 -9.37578130586592 2830.29526372831 192 196 195
-1137.45685528261 -10.2304116272921 2820.30758137003 174 178 177
-1144.67804736759 -10.7469798506077 2811.29951047919 167 171 172
-1154.90896170817 -11.4659885705998 2801.78683771063 165 169 170
-1160.12119293636 -11.8471199914899 2793.21568963924 170 174 175
-1169.34626142863 -12.4981840230453 2783.97042419599 185 189 190
-1175.56032400182 -12.9465514716436 2775.28953040079 184 188 189
-1183.77982140589 -13.5297139541949 2766.3008873866 177 181 182
-1183.9733937899 -13.5730708360066 2758.68885476717 182 186 187
-1187.17617170131 -13.8187875305131 2750.58317764197 179 183 182
-1183.35773313289 -13.5925099484292 2743.62197193356 156 160 159
-1182.54840066833 -13.5686375981968 2736.16163397975 148 152 151
-1182.74224920697 -13.6122630621401 2728.53851989786 181 185 184
-1187.95010941844 -13.9928641292885 2720.14810054293 164 169 165
-1196.16520420242 -14.5754321924293 2711.33216541551 111 116 112
-1201.37153878914 -14.9558221567619 2703.00159942702 102 107 103
-1204.57198876126 -15.2014517566428 2694.98699974926 111 116 112
-1210.77956428968 -15.6490149622022 2686.56050566968 136 141 137
-1211.97409498382 -15.7599800025875 2678.86312419992 198 203 199
-1215.17332546935 -16.0055475237764 2670.89625293769 181 186 182
-1212.3584059197 -15.8475073171113 2663.74894140976 150 155 151
-1210.54607944591 -15.7568952949293 2656.45258196523 145 150 146
-1210.73845365971 -15.8009084992845 2648.88667327958 139 144 140
-1209.92885271633 -15.7778080743176 2641.44532436271 135 140 136
-1212.12547386414 -15.9564532435745 2633.62759346247 135 140 136
-1210.31389775086 -15.8663560887199 2626.3013545053 137 142 138
-1215.51593803754 -16.2466456191554 2618.13873247688 141 146 142
-1213.70449244109 -16.156763268744 2610.80716182921 128 133 129
-1215.9004719805 -16.3356202450246 2603.01427978588 117 122 118
-1210.08276362893 -15.977521228707 2596.10735426297 110 115 111
-1210.27552122232 -16.0223642305896 2588.52557080237 108 113 109
-1207.46371611247 -15.8660459597879 2581.25468729574 107 112 108
-1208.65811991766 -15.9782376187591 2573.5609480369 98 103 99
-1206.84823825566 -15.8893043012673 2566.16723441456 90 95 91
-1206.04014377613 -15.8676327660661 2558.66547343993 84 89 85
-1203.22963050866 -15.7120410419103 2551.34332014769 85 90 86
-1205.42555563177 -15.8917087929475 2543.55169433477 85 90 86
-1233.64978388151 -17.8132469937056 2533.49101069901 89 94 90
-1290.90049684327 -21.6763119117885 2521.12003101327 117 122 118
-1312.10822476722 -23.1270213817986 2512.01824368348 125 130 126
-1316.29782998358 -23.4391424711355 2504.38079885172 127 132 128
-1321.4878963818 -23.8181798260526 2496.68750235339 129 134 130
-1324.67567848468 -24.0633403001467 2489.16851060084 113 118 114
-1326.86220898625 -24.2416366598572 2481.73620684808 145 150 146
-1328.0481742086 -24.3531303537304 2474.38235084892 147 152 148
-1322.22996494451 -23.9966760445781 2467.49323676271 140 145 141
-1315.41220274989 -23.573700455101 2460.63337741801 144 149 145
-1308.59543504767 -23.1510946611422 2453.73425280666 160 165 161
-1308.78201713422 -23.1965217745642 2446.39320237265 156 161 157
-1104.33003888836 -15.7471486065308 2857.54977397881 182 186 185
-1108.5440757261 -16.0513245026518 2848.96598768377 180 184 183
-1121.79201440911 -16.939150185411 2838.68077497288 178 182 181
-1131.0232473341 -17.5672400518175 2829.21925003359 176 180 179
-1143.26409020665 -18.3895416445242 2819.24769844733 172 176 175
-1147.47453011097 -18.6930150155671 2810.80524708816 168 172 173
-1154.69533542645 -19.1908249831882 2801.84175844766 164 168 169
-1157.9008923379 -19.4293033601433 2793.62591553364 167 171 172
-1167.12676467244 -20.0563487062603 2784.37502256468 169 173 174
-1175.34816603435 -20.6184068517478 2775.34395128263 183 187 188
-1184.5714451812 -21.2449837536592 2766.18558726304 184 188 189
-1186.77141724344 -21.4183090601012 2758.24260307781 174 178 179
-1188.97114832647 -21.591637732449 2750.30903358101 178 182 183
-1185.15201567768 -21.3768309314529 2743.35331370798 181 185 184
-1185.34560807036 -21.4208983639708 2735.73973614573 168 172 171
-1186.54231794706 -21.5296858237839 2727.968847579 153 157 156
-1190.74725268614 -21.8324362989081 2719.74233333847 176 180 179
-1197.96002492657 -22.3289822766626 2711.08483748566 171 175 174
-1202.16370921252 -22.6315498931993 2702.90739162506 120 124 123
-1205.36430493612 -22.8694758389226 2694.89536706499 104 109 105
-1209.5670156666 -23.171964324439 2686.75605608902 110 115 111
-1211.76434596513 -23.345276537267 2678.91633524031 148 153 149
-1212.95883451591 -23.4540696721215 2671.22293290349 174 179 175
-1212.14863359755 -23.4338404787268 2663.80195017994 176 181 177
-1213.34304600413 -23.5427408823066 2656.11140864554 143 148 144
-1215.53974390765 -23.716207335978 2648.29623837233 135 140 136
-1212.7253056286 -23.5672906122484 2641.12032102832 133 138 134
-1210.91332708112 -23.4830131990681 2633.80356180343 136 141 137
-1209.10189835913 -23.3989153098859 2626.47444552273 145 150 146
-1215.3062495669 -23.830412782932 2618.19121921033 153 158 154
-1216.50029589559 -23.9397333904593 2610.51453408539 126 131 127
-1216.69249759023 -23.9847209891418 2602.95432181651 117 122 118
-1210.87425598344 -23.6434954055627 2596.05012036263 109 114 110
-1212.06853086578 -23.7531244391537 2588.36417140516 105 110 106
-1211.25964068285 -23.7341519889517 2580.89061120615 106 111 107
-1213.45553067738 -23.9083036399974 2573.10628110278 100 105 101
-1210.64375203524 -23.7609052444645 2565.82478567108 87 92 88
-1208.83373762146 -23.6779910062596 2558.42979762469 74 79 75
-1205.0215306096 -23.4667041731782 2551.20894518675 79 84 80
-1204.213683311 -23.4484745160956 2543.69382790116 84 89 85
-1222.42828164354 -24.6511381865782 2534.50643590259 86 91 87
-1276.68047442794 -28.1657701374415 2522.35899754196 122 127 123
-1306.90045084199 -30.1374997408805 2512.47864361349 128 133 129
-1313.09250190335 -30.5674749868265 2504.66845929488 125 130 126
-1315.28041679292 -30.7406588046739 2497.19686310562 120 125 121
-1316.46707425308 -30.8497003208884 2489.80926022584 119 124 120
-1320.65616852322 -31.151282714422 2482.21242537051 144 149 145
-1324.84449057542 -31.4528439458145 2474.63646940119 144 149 145
-1322.02792592412 -31.3055668213385 2467.54189757557 140 145 141
-1315.20962766625 -30.9021047551911 2460.68203732108 139 144 140
-1307.39167153825 -30.4349187332301 2453.84320487069 156 161 157
-1305.57762943421 -30.3525258493433 2446.61439791048 163 168 164
-1300.76258426935 -30.0781763572537 2439.5381596991 151 153 148
-1098.08857616765 -23.2297934688371 2858.7858502632 178 182 181
-1115.35483639045 -24.3315629647525 2847.66296735821 177 181 180
-1128.60325880433 -25.1843312628304 2837.39649068841 180 184 183
-1135.82693089398 -25.6640553305778 2828.33105304089 172 176 175
-1141.04230471223 -26.019423090087 2819.67406948666 164 168 167
-1145.25316965538 -26.3125888111386 2811.22607369858 166 170 171
-1153.4779320502 -26.8539017567091 2802.07659141681 165 169 170
-1158.69119742045 -27.2088807421231 2793.50243075052 166 170 171
-1168.92107193892 -27.8738999499242 2784.07904282393 153 157 160
-1174.13243700927 -28.2285499432948 2775.57018091867 142 146 147
-1182.35342459184 -28.7691086402811 2766.57836601839 168 172 173
-1184.55343323765 -28.9375565008985 2758.62986425813 172 176 177
-1186.75343915498 -29.1060142727805 2750.69078328226 177 181 182
-1185.94378550661 -29.0886016259216 2743.24538716091 204 208 209
-1190.14949439644 -29.3809348302947 2734.99980169011 193 197 198
-1194.35468231615 -29.6731968590235 2726.77465395969 190 194 193
-1196.55364795298 -29.8416177548284 2718.87627034431 196 200 199
-1198.7521319502 -30.0100123225194 2710.98741435415 180 184 183
-1202.95603557642 -30.3021575072083 2702.81258672038 177 181 180
-1206.15677553804 -30.5323793958466 2694.80319686208 155 160 156
-1209.3571339077 -30.762589722422 2686.80873335359 136 141 137
-1213.55985149572 -31.0545873376549 2678.68974343841 129 134 130
-1216.75913564499 -31.2847261099655 2670.72801622534 137 142 138
-1217.95354168627 -31.3912572017555 2663.04959224191 156 161 157
-1216.14047172622 -31.3125185736474 2655.76954208006 161 166 162
-1218.33710104024 -31.4809626786124 2647.9624451334 164 169 165
-1217.52653103802 -31.4641657108349 2640.54287743775 152 157 153
-1218.72078844193 -31.5709723311376 2632.86996687604 152 157 153
-1216.90840197104 -31.4926857530159 2625.56271821362 153 158 154
-1220.10655218455 -31.722998424648 2617.65444720715 142 147 143
-1216.29067468308 -31.5215903483083 2610.56644317007 149 154 150
-1216.48286554561 -31.5670252060434 2603.00617402533 150 155 151
-1210.66415837797 -31.2427060821351 2596.10201544786 149 154 150
-1212.86041054887 -31.4116949856468 2588.30907359832 141 146 142
-1212.05112621625 -31.3958479925779 2580.83823747115 136 141 137
-1213.2455554531 -31.5033605692404 2573.15785308137 112 117 113
-1211.43500493558 -31.4261929741698 2565.77764752334 115 120 116
-1209.6247597995 -31.3491742017594 2558.38534680643 112 117 113
-1203.80952209702 -31.0261645049315 2551.35350833754 102 107 103
-1200.99891059695 -30.8880346789256 2544.01644507484 93 98 94
-1212.20629725844 -31.6112314964024 2535.43419152724 82 87 83
-1256.45139378199 -34.3634294091362 2524.10779158102 112 117 113
-1298.6883013488 -36.991315121065 2513.18552597369 116 121 117
-1306.88378738907 -37.5282730937625 2505.19426586923 117 122 118
-1310.07293246712 -37.7578507354047 2497.6294111824 113 118 114
-1315.26383510133 -38.1102897075165 2489.93199097981 145 150 146
-1321.45483307732 -38.5240751770232 2482.18967300883 145 150 146
-1324.64268253729 -38.7535811092641 2474.68485734903 141 146 142
-1321.82588414992 -38.6148469887759 2467.59024791919 149 154 150
-1319.00952560341 -38.4763199950154 2460.47822558811 153 158 154
-1313.19189716173 -38.153998601561 2453.52976165378 154 159 155
-1309.37620140703 -37.9546345447673 2446.43245961299 160 165 161
-1299.55850288927 -37.3876821152865 2439.64128502135 166 168 163
-1100.88324196309 -31.2803332324024 2858.25039050282 175 179 178
-1123.17062892396 -32.6331990719804 2846.16500667361 176 180 179
-1134.41167161313 -33.3321161661927 2836.30275345854 183 187 186
-1138.62372230989 -33.615086732604 2827.81936108353 175 179 178
-1140.8277405277 -33.7792559929114 2819.72807017902 163 167 166
-1143.03127469625 -33.9433757764441 2811.64642593244 161 165 166
-1149.24952509978 -34.3447903886095 2802.85227155947 151 155 156
-1154.46343087863 -34.6867431805704 2794.26706802971 149 153 154
-1165.69780470727 -35.3843243395351 2784.65756662268 149 153 156
-1169.90632706118 -35.6666481535343 2776.31276854226 159 163 164
-1176.12125770103 -36.0674265287148 2767.6490451762 191 195 196
-1180.32860534132 -36.3495576386193 2759.35036588396 176 180 181
-1183.53222887735 -36.5723921285112 2751.23620796845 173 177 178
-1189.74511573664 -36.9728139506744 2742.65274546582 168 172 173
-1195.95720899646 -37.373099517882 2734.10044588035 176 180 181
-1200.16227056927 -37.6548695901456 2725.8915016789 166 170 169
-1200.3548630098 -37.6999237045967 2718.3159462877 169 173 172
-1199.54463268043 -37.6858911503688 2710.88945957425 176 180 179
-1206.75736294967 -38.1449965746259 2702.27380488369 178 182 181
-1209.95803994414 -38.3674817494095 2694.27518308737 173 178 174
-1210.1501449302 -38.4126311610428 2686.71857678281 171 176 172
-1209.3394622817 -38.3987526394132 2679.30027809127 135 140 136
-1210.53445363639 -38.5031363272793 2671.60128374856 140 145 141
-1215.73910843338 -38.8437334617369 2663.36977144945 149 154 150
-1218.93835633329 -39.0661832804117 2655.42704158201 160 165 161
-1222.13721871812 -39.2885979854354 2647.49941668118 168 173 169
-1220.32405096226 -39.2159927762258 2640.21660312557 166 171 167
-1219.513595865 -39.2025080752638 2632.79831287708 168 173 169
-1218.70330918066 -39.1891357320415 2625.37331982756 178 183 179
-1218.8952215931 -39.2348265632097 2617.82365863233 172 177 173
-1215.07909938346 -39.0448694936606 2610.73292342916 165 170 166
-1211.26332360501 -38.8550990496272 2603.61912332273 152 157 153
-1206.4465562287 -38.6066725632541 2596.591685762 138 143 139
-1207.64123991432 -38.7117964675009 2588.89459661737 110 115 111
-1205.83053928595 -38.6403657421396 2581.5140981023 99 104 100
-1206.02360361847 -38.6867983853206 2573.91861937933 103 108 104
-1206.21669499444 -38.733328256809 2566.32197930874 111 116 112
-1205.4083450483 -38.7211242355731 2558.82003736669 107 112 108
-1199.59268269527 -38.4150362570016 2551.77730168646 95 100 96
-1197.78368297576 -38.3443916020317 2544.33880652756 87 92 88
-1204.98681886099 -38.8028108211359 2536.09887039537 88 93 89
-1246.23191507472 -41.25862649281 2525.00729720522 108 113 109
-1289.47381584018 -43.8306175264141 2513.97459316107 110 115 111
-1304.67837347001 -44.7571788367481 2505.40199106876 113 118 114
-1308.86909930158 -45.0376231172735 2497.75476082968 114 119 115
-1315.06135705045 -45.435388783256 2489.98040740191 155 160 156
-1322.2536466219 -45.8917231597532 2482.16662132935 154 159 155
-1323.43986011445 -45.9960025052195 2474.80148349429 134 139 135
-1324.62619505575 -46.1003773381307 2467.44082128222 147 152 148
-1321.80939333095 -45.9703450912613 2460.33699888899 161 166 162
-1319.99359476083 -45.8991101416275 2453.155535389 152 157 153
-1313.17537744427 -45.5351546563698 2446.25009254367 145 150 146
-1307.35858006924 -45.2300999264843 2439.25060803266 165 167 162
-1069.33519091329 -37.3403035453881 2872.30451925544 186 191 187
-1094.64066178457 -38.804528877711 2859.48552687883 180 184 183
-1120.94675098539 -40.3246356629284 2846.60706450488 186 190 189
-1137.20884661808 -41.2773753260954 2835.78226730158 197 201 200
-1139.41293299645 -41.4366830496535 2827.68420760184 195 199 198
-1142.62084804715 -41.6525724959953 2819.40977947919 186 190 189
-1142.81685342308 -41.6985877476438 2811.69980275421 178 182 181
-1149.03554106578 -42.0841762053686 2802.9055524656 178 182 183
-1155.25343421281 -42.4696056624042 2794.14252454279 185 189 190
-1169.49946581075 -43.3073295365822 2784.01034044877 209 213 214
-1173.70800154116 -43.5792361043653 2775.67620480499 198 202 205
-1174.90576112805 -43.6814833624383 2767.87131229212 172 176 177
-1179.11346631854 -43.9532663478169 2759.56976971846 181 185 186
-1183.32065115618 -44.2249558147451 2751.28866474977 184 188 189
-1190.53718833893 -44.6659886900576 2742.54362760312 162 166 167
-1194.74313035706 -44.9374673211627 2734.31132270553 164 168 169
-1196.94240597731 -45.0959925764434 2726.4114490407 141 145 144
-1196.13218871288 -45.0852120315129 2718.98095994711 147 151 150
-1196.3250783913 -45.1309304648775 2711.39307417521 127 131 130
-1204.54139814651 -45.6278548645904 2702.62122049787 122 126 125
-1209.74825681934 -45.9554475541448 2694.32686105591 181 186 182
-1207.93465750772 -45.8883917502812 2687.05495567036 168 173 169
-1208.12691994196 -45.9341607624509 2679.49153046594 139 144 140
-1208.31921705328 -45.9799990256925 2671.92667560506 140 145 141
-1212.52185776874 -46.2511389275218 2663.82376075359 140 145 141
-1217.72666551889 -46.5785232102461 2655.60978224593 138 143 139
-1222.93057178251 -46.9057918968014 2647.42183628479 143 148 144
-1222.11971911667 -46.8954123709015 2640.01575029605 161 166 162
-1221.30903699448 -46.8851232628623 2632.60290178679 147 152 148
-1217.49153426154 -46.7062366547019 2625.54491081959 128 133 129
-1218.68584530294 -46.8086461547112 2617.87462520833 141 146 142
-1210.86080108575 -46.4053164477399 2611.24425584504 125 130 126
-1211.05331831457 -46.4517684887308 2603.67013900224 112 117 113
-1208.23994765779 -46.3298219661909 2596.42353675693 104 109 105
-1210.43662028133 -46.4887795868433 2588.62493298039 104 109 105
-1204.61829396672 -46.1987126958596 2581.66911193728 104 109 105
-1201.80612308938 -46.0772656458985 2574.37508185982 99 104 100
-1201.99948369046 -46.1242873261176 2566.76739147292 97 102 98
-1202.19287229746 -46.1713989885056 2559.15850990122 77 82 78
-1195.37547884227 -45.826171212893 2552.20075932748 73 78 74
-1190.5621372421 -45.5933614326779 2545.0226625514 78 83 79
-1194.76203201844 -45.8650306874052 2537.02650013463 89 94 90
-1233.0068803988 -48.0409559754078 2526.16172009257 92 97 93
-1278.25557137502 -50.6076239318481 2514.92806671312 97 102 98
-1298.46790478922 -51.7734745627616 2505.92744268964 103 108 104
-1305.66275863989 -52.2112705228472 2498.03334082573 113 118 114
-1316.86109648993 -52.8726950824226 2489.88039725769 159 164 160
-1323.05261114825 -53.2541821784632 2482.14324026921 138 143 139
-1323.23797544902 -53.300147856488 2474.8492068529 143 148 144
-1324.42437860305 -53.4020950733134 2467.48848523819 152 157 153
-1323.6087646428 -53.3923279177351 2460.25850482465 162 167 163
-1320.79226707231 -53.2710225237672 2453.14274959302 176 181 177
-1316.97515878051 -53.0940414985382 2446.0672964317 180 185 181
-1315.16010676098 -53.0289578254527 2438.85937516948 190 192 187
-1067.10692168264 -45.1810838201099 2872.75785024787 185 187 182
-1090.40579337793 -46.4696956455525 2860.32661667478 168 173 169
-1122.73904608482 -48.2429752350382 2846.2721836895 172 178 174
-1141.01053161322 -49.2603834258627 2835.06968086319 178 184 180
-1144.21869478684 -49.4686714960512 2826.79371700914 173 179 175
-1149.43429487751 -49.7846488403326 2818.16085955115 151 157 153
-1151.63771701191 -49.9388838036304 2810.10353233431 146 151 147
-1151.83311616062 -49.9853753627379 2802.41673764709 156 158 157
-1160.05864584994 -50.46260467984 2793.30607490284 161 163 162
-1172.29810955105 -51.1548935844352 2783.53734851379 171 175 174
-1180.52121591861 -51.6315977824224 2774.52196141101 156 160 161
-1180.71482011221 -51.6777765257831 2766.90565566522 159 163 162
-1181.9121218377 -51.7777787142564 2759.12106854466 170 174 173
-1187.12274183477 -52.0927903301937 2750.68388732137 178 182 181
-1193.33623218913 -52.4614351833475 2742.11095780313 174 178 177
-1194.53236159111 -52.5613021878075 2734.36300950854 167 171 170
-1193.72209169537 -52.5537786691069 2726.931080285 136 140 139
-1192.91199310001 -52.5463457697307 2719.49235874892 130 134 133
-1195.11109576215 -52.699990309898 2711.59516063391 155 159 158
-1203.32831577623 -53.1755806712232 2702.82035335718 141 145 144
-1211.54421982029 -53.6509375866978 2694.08790461553 171 175 174
-1211.73615992766 -53.6971159434367 2686.53663753932 175 179 178
-1210.9254016881 -53.6897475041986 2679.12362797149 145 149 148
-1208.10924872641 -53.575275360278 2671.97774242807 141 145 144
-1213.31501277403 -53.8895675005308 2663.7404458369 141 145 144
-1218.51987746586 -54.2037221047355 2655.52912207277 146 150 149
-1222.72162451481 -54.4642482939738 2647.47253099143 160 164 163
-1220.90829858461 -54.4035704074718 2640.19241758486 160 164 163
-1218.09272695324 -54.2895231159451 2633.02335546524 163 167 166
-1216.27985175065 -54.2291196406863 2625.71600663198 131 135 134
-1216.47187933479 -54.2758014386243 2618.16078010422 122 127 123
-1211.65315864367 -54.0552814464499 2611.17972100882 114 119 113
-1209.84127931435 -53.9953081533807 2603.83298810187 106 111 105
-1209.03191633111 -53.9888963568103 2596.36441991447 93 98 92
-1209.22462162261 -54.0359911535515 2588.78226278876 99 104 98
-1205.40955964571 -53.8696081063286 2581.6154532596 108 113 107
-1202.5973209225 -53.7568188817577 2574.32410351614 97 102 96
-1201.78867264064 -53.7508943190019 2566.81775438022 82 87 81
-1200.98042930322 -53.7450957040195 2559.3047681684 78 83 77
-1197.16745979725 -53.5794529245344 2552.06470757215 76 81 75
-1193.35507415018 -53.4140331063322 2544.80158834913 74 79 73
-1194.55057517605 -53.5152332954189 2537.07676769896 79 84 78
-1218.77853379015 -54.8416131718614 2527.40120823346 85 92 85
-1266.03414812195 -57.3919918720273 2515.96385160825 97 104 97
-1295.26037799812 -58.9826600664641 2506.21422265898 95 102 95
-1306.46098038147 -59.6145429417756 2498.00449287003 138 145 138
-1316.65877137317 -60.192920813921 2489.92806910642 160 167 160
-1319.84774699754 -60.3987714601517 2482.40463826489 127 134 127
-1320.03331227122 -60.4451057428949 2475.10235435138 122 129 122
-1323.2214673531 -60.650959873517 2467.60166462357 135 142 135
-1321.40529287447 -60.5911591414522 2460.43194053648 142 149 142
-1318.58846186546 -60.478397082089 2453.31071927426 157 164 157
-1313.77053578043 -60.2596384942891 2446.2873881713 176 183 176
-1313.95669119999 -60.3065200144779 2438.96145173125 188 193 187
-1062.86922276257 -52.930525877438 2873.60975321013 175 177 172
-1085.16583059323 -54.1057175387565 2861.36408348347 180 185 181
-1112.48063358033 -55.5361916496026 2848.26599448044 188 194 190
-1133.7667621051 -56.6586984332722 2836.46176363131 191 197 193
-1137.9796726118 -56.9106579904366 2827.97806413865 191 197 193
-1146.20824154348 -57.3671120897665 2818.77092410345 185 191 187
-1149.41592342333 -57.5676571089864 2810.52208476904 190 195 191
-1151.61937789937 -57.7170241347969 2802.46872034563 178 180 177
-1159.84549303424 -58.172952504068 2793.35804767833 185 187 184
-1168.07077929483 -58.6286633386973 2784.28932864955 178 183 179
-1178.30227067821 -59.1862662728736 2774.91808336309 165 170 166
-1181.50694580262 -59.3862133725193 2766.78740044747 158 163 159
-1184.71124001866 -59.5860965754238 2758.67167335774 160 165 161
-1188.91858633737 -59.8369311505062 2750.40664952615 147 152 148
-1194.12877418144 -60.1386685384743 2742.00061118281 136 141 137
-1195.32513522065 -60.2363533834829 2734.25527752564 151 156 152
-1193.51124225323 -60.1811406837404 2726.982133013 127 132 128
-1190.6945060115 -60.07508847573 2719.85000339577 103 108 104
-1190.88771384871 -60.1219832084771 2712.24841985641 136 141 137
-1198.10254670931 -60.5253467830248 2703.61043991711 142 147 143
-1208.32552355895 -61.0812268286507 2694.57382200984 142 146 145
-1211.52652794908 -61.2806318124763 2686.58718618831 151 155 154
-1212.72153497941 -61.3782675306044 2678.89482463775 171 175 174
-1214.9189362205 -61.5267513598943 2671.06966512554 163 167 166
-1217.11633277156 -61.6752333246548 2663.2540157061 167 171 170
-1221.31868580754 -61.925331233885 2655.18493763674 178 182 181
-1221.51015456888 -61.9721530989672 2647.65140144626 185 189 188
-1219.69649509097 -61.917456454837 2640.3685772539 187 191 190
-1218.88577598124 -61.9136658153129 2632.95019679075 178 182 181
-1219.0775508876 -61.9607192325328 2625.40444676977 185 189 188
-1221.27410260767 -62.1092913792494 2617.62171944177 185 190 186
-1214.45003881031 -61.8014314423942 2610.88454624001 147 152 146
-1211.63567387683 -61.6966557489023 2603.65836705858 146 151 145
-1210.8258470948 -61.6934071347524 2596.19520456446 145 150 144
-1211.01840221259 -61.7409158450359 2588.6184723194 143 148 142
-1208.20503174179 -61.6365662070051 2581.35296862577 137 142 136
-1206.39418316627 -61.583011164183 2573.96838365523 109 114 108
-1207.58894244881 -61.68142555859 2566.27554407556 119 124 118
-1204.77656341377 -61.5775011701658 2558.97083503787 48 53 47
-1202.96649710727 -61.5243269443863 2551.55526739188 30 35 29
-1199.15314260606 -61.3701697118116 2544.30859665967 120 125 119
-1199.34680410054 -61.4183856020191 2536.68786406542 88 93 87
-1210.55705921555 -62.0224649190957 2528.13072540381 93 98 92
-1243.79693364302 -63.7373862078469 2517.82252215819 101 103 98
-1288.04704017586 -66.0066092146752 2506.81889494988 122 124 119
-1307.25911608863 -67.0125751657125 2497.97530916691 159 164 158
-1319.46010766328 -67.6647622184245 2489.7532650345 145 150 144
-1320.64671425349 -67.761793884146 2482.38054558124 120 125 121
-1321.83320396857 -67.8588619558116 2475.01235492313 112 117 113
-1322.01864376179 -67.9055717118578 2467.71457206644 121 126 122
-1321.20324362634 -67.9019790584469 2460.47892972223 134 139 135
-1315.38356181851 -67.6466549380073 2453.53878193883 136 141 137
-1311.56642044522 -67.4923179295275 2446.44963310346 131 136 132
-1307.74985612024 -67.3382020691577 2439.33769376962 157 159 154
-1080.9296974049 -61.8177675726965 2862.20426568897 171 176 172
-1092.17732136111 -62.3996334466462 2852.20114955614 161 167 163
-1122.50467025237 -63.9016823819247 2838.61928939942 109 115 111
-1133.74824919269 -64.4825307606689 2828.78468379684 90 96 92
-1138.96526366722 -64.7725325403851 2820.12443787841 118 124 120
-1148.19806541602 -65.255985283931 2810.75689807304 164 169 165
-1153.41373299992 -65.545646623074 2802.15898363349 159 161 158
-1161.64030018972 -65.9802460345138 2793.05354448598 186 188 185
-1166.85420522871 -66.2695587880545 2784.51556590313 176 181 177
-1176.08279158128 -66.7520693303095 2775.31379004875 181 186 182
-1179.28781543743 -66.9444155803962 2767.17763869549 168 173 169
-1183.49603652938 -67.1849984673497 2758.8894331682 163 168 164
-1185.6967250679 -67.328913875327 2750.9500246919 152 157 153
-1191.91116288526 -67.6658583287638 2742.37410248511 153 158 154
-1191.10050686366 -67.6648947427448 2734.94089605913 144 149 145
-1191.29356318971 -67.7122517984479 2727.34473769381 121 126 122
-1189.48019230574 -67.6632168930967 2720.0538798995 124 129 125
-1194.68950046627 -67.9516546874964 2711.6965027153 107 112 108
-1203.91099389917 -68.432693274843 2702.77352320426 188 193 189
-1212.12825241749 -68.8653089942767 2694.04335390908 166 170 169
-1216.33214702672 -69.1051076650805 2685.92508434571 148 152 151
-1216.5237457676 -69.1523017415681 2678.38606845245 169 173 172
-1217.71819388982 -69.2476586021129 2670.70867304081 174 178 177
-1219.91552023503 -69.3911215390409 2662.90115655457 168 172 171
-1221.10968902702 -69.4864903113143 2655.23466554583 161 165 164
-1221.30114541306 -69.5338152924648 2647.70107281802 157 161 160
-1221.49263461748 -69.5811940250921 2640.16613971957 171 175 174
-1222.68662349008 -69.6766461893719 2632.50659104425 171 175 174
-1222.8781075071 -69.7241023159665 2624.97177758788 167 171 170
-1221.06496836369 -69.6756467708453 2617.6712404975 146 151 147
-1217.24714011873 -69.5313607613841 2610.58882020945 146 151 145
-1213.43013944973 -69.387271953137 2603.48316843527 153 158 152
-1214.62480374247 -69.4830758723375 2595.80616910164 148 153 147
-1211.81067815395 -69.3872129578546 2588.56106563445 145 150 144
-1213.00516508657 -69.4831240734699 2580.88155826094 145 150 144
-1211.19356854616 -69.4354024314659 2573.51061810465 134 139 133
-1210.38436045383 -69.4356902345374 2566.02880272973 130 135 129
-1207.57153508438 -69.3403610349008 2558.73230913525 41 46 40
-1208.76620836284 -69.4365355789424 2551.04523587194 8 13 7
-1209.96101068711 -69.5327513651226 2543.36239955682 114 119 113
-1206.14716316668 -69.3899827830627 2536.12276946767 117 122 116
-1208.34358432967 -69.5341200252223 2528.34990662168 113 115 110
-1231.5711198067 -70.6813087612576 2518.85858880164 107 108 103
-1277.82833834625 -72.9259457211658 2507.66211845121 123 125 120
-1305.05330898215 -74.2621690803835 2498.17618812744 137 139 134
-1316.25412477911 -74.8341234839635 2490.02246397254 144 146 141
-1316.43986019624 -74.8811145077982 2482.71282510569 180 182 179
-1317.62669667123 -74.9758403741358 2475.33359674874 153 158 154
-1321.81667844754 -75.2135743231707 2467.76130583166 141 146 142
-1325.00518724237 -75.4035982023404 2460.27311386917 140 145 141
-1321.18674134035 -75.2602237307764 2453.22317980793 145 150 146
-1314.36623695076 -74.9742355505985 2446.32340841221 141 146 142
-1301.54187355856 -74.4030361161548 2439.71386253266 161 163 158
-1305.73174972836 -74.6410608009315 2432.14538691403 164 166 161
-1105.61178900192 -71.028720905453 2826.31376831741 15 20 16
-1122.88054940382 -71.8540255627851 2815.3900164029 14 16 13
-1140.14723514446 -72.6787885239118 2804.5572558572 10 12 9
-1160.42339209557 -73.639875414506 2793.28204644852 18 20 15
-1161.62205244817 -73.7336678381972 2785.44170225328 12 17 11
-1164.82842787542 -73.9186464623864 2777.26063760851 11 16 10
-1168.03442552412 -74.1035582718881 2769.09440959893 7 12 6
-1173.24734737645 -74.3795101156675 2760.60920327258 6 11 5
-1182.47442160262 -74.8375091850081 2751.49284508794 6 11 5
-1187.68599040758 -75.1131227003061 2743.0702085993 11 16 10
-1186.87552191768 -75.1155250930335 2735.62605865589 1 6 0
-1185.06208941476 -75.0725282045522 2728.33112598649 0 2 0
-1186.25888657373 -75.1660496645123 2720.56389279261 15 20 14
-1192.47224084769 -75.4868643700575 2712.04763809632 25 30 24
-1204.70404231406 -76.080145709223 2702.67536029446 92 97 91
-1208.90919224266 -76.3096808524796 2694.52837347481 160 165 161
-1214.11661216481 -76.5845167865942 2686.25939981774 210 215 211
-1212.30241843954 -76.5415085497811 2678.9942305396 209 214 210
-1215.50298582914 -76.7254479357011 2671.03195519228 204 209 205
-1214.69188760893 -76.7279296389671 2663.62165692154 196 201 197
-1215.88646557176 -76.8211528786273 2655.94147780638 183 188 184
-1219.08653984068 -77.0050278873106 2648.00786923483 183 188 184
-1219.27815556332 -77.0529317086497 2640.46742756687 184 189 185
-1222.47767267842 -77.2367484157036 2632.55565709664 185 190 186
-1218.65900979552 -77.1036282005494 2625.50319316908 185 190 186
-1218.85079379845 -77.1517043633723 2617.95598947711 174 179 175
-1216.0353630805 -77.0641217246207 2610.75300426682 142 147 141
-1216.22741689845 -77.1123372413123 2603.19510564149 142 147 141
-1216.41950277807 -77.160606308017 2595.63589643756 139 144 138
-1215.60949228831 -77.1637527151417 2588.1823721848 159 164 158
-1217.80582337721 -77.3024648784948 2580.40952998992 146 151 145
-1214.99196845128 -77.2154511921359 2573.15367125951 118 123 117
-1214.18215608004 -77.218827265915 2565.68283246222 123 128 122
-1211.36881530779 -77.1320823694759 2558.39726543103 24 29 23
-1212.56351613444 -77.225874123322 2550.72099873385 4 9 3
-1210.75249797159 -77.1844509120507 2543.3206908087 135 140 134
-1210.94530563191 -77.233276002805 2535.73267489867 123 125 120
-1210.13657095371 -77.2371221815691 2528.22853614959 118 119 113
-1221.34673203059 -77.7813155797094 2519.73004892319 106 105 101
-1249.58116026733 -79.0902646522897 2509.93779027513 98 99 94
-1283.82012931552 -80.6681956531885 2499.83675967176 100 101 96
-1305.03663438241 -81.6603818277689 2490.88425819063 111 113 110
-1315.23607195175 -82.1574183599804 2482.83081853509 161 163 160
-1320.42813677473 -82.4294936352773 2475.17426431763 202 204 203
-1325.61928972269 -82.701443046312 2467.54415968999 188 190 189
