ply
format ascii 1.0
comment KinectMotionCapture
element vertex 776
property float x
property float y
property float z
property uchar red
property uchar green
property uchar blue
end_header
-1027.89830881884 -504.776179057839 2376.0124650712 17 18 13
-1033.05144017236 -505.46622926924 2383.01948004631 20 21 15
-1019.56134836715 -503.314334286335 2392.74052885264 17 20 13
-1020.56292622342 -503.371440312209 2400.32038678055 15 18 11
-1028.82495869472 -504.534582571979 2406.88156654997 14 17 10
-1032.94301861946 -505.065996882351 2414.04203896597 13 16 9
-1017.32596849847 -502.591941468357 2423.86307344021 14 17 10
-1027.67295897916 -504.071816087088 2430.17268465904 14 17 10
-1030.74947768449 -504.444373267442 2437.46366214627 16 19 12
-1049.44205703305 -507.193150344105 2442.78434041485 17 20 13
-1023.36458879288 -503.128965559763 2453.73780794905 17 20 13
-995.163452753871 -498.743463040214 2464.80294616154 16 19 12
-1016.99081568688 -501.968672200178 2469.77177702716 14 17 10
-984.565503462134 -496.943090042046 2481.14370031282 14 17 8
-1022.0779931196 -502.551878642328 2484.39494337449 14 17 8
-1064.86547919664 -508.960099511629 2487.24303462071 16 19 10
-1045.995498073 -505.99635204001 2496.98562994402 16 19 12
-1046.9841464128 -506.050858004151 2504.51819563176 16 21 15
-1161.5430646542 -520.809422146441 2710.11905623403 18 19 13
-1063.27780404245 -505.880162592258 2720.98508472667 19 20 14
-1104.80578207703 -512.067876614798 2727.08965573847 21 22 16
-1073.70415983837 -507.287958549127 2735.42751126793 19 22 15
-1075.71531653424 -507.509294420175 2742.75480202177 15 18 9
-1171.91266685887 -521.947023930116 2747.90113462094 13 16 7
-1158.99308724296 -519.913957952839 2755.76904057115 14 17 8
-1051.80347985089 -515.899289351135 2372.01957867877 22 23 18
-1029.01100646151 -512.266463860213 2383.20736040123 16 17 11
-1021.69429149629 -510.932317636554 2399.74738217148 14 17 10
-1044.48810093785 -514.361710427589 2404.27827924271 14 17 10
-1037.19317972844 -513.131322453339 2413.04013963899 13 16 9
-1033.00295761002 -512.381974435766 2421.33554563448 14 17 10
-1030.88397428857 -511.953368284977 2429.32498591666 15 18 11
-1083.91416166877 -520.057263839565 2430.16566844988 15 18 11
-1101.60740157205 -522.691807912072 2435.74536536878 17 20 13
-1078.68060504944 -519.04350504621 2446.44420322848 18 21 14
-1037.99138580861 -512.650444185363 2459.17056405123 19 22 15
-1011.85294958464 -508.509657409364 2469.94603189833 17 20 13
-1031.62212098371 -511.465312783529 2475.23695293306 15 18 9
-1077.53942499864 -518.459898548255 2477.64535448135 15 18 9
-1095.28369925039 -521.099355832315 2483.41050096659 15 18 9
-1056.54451953922 -515.014521463842 2495.38880850313 16 19 12
-1029.26744299068 -510.7022034014 2505.94227327382 14 19 15
-1154.40684436353 -527.631140248358 2679.31679326805 10 13 6
-1146.83108518701 -526.281006598242 2694.90419925462 10 13 6
-1261.93563867557 -543.862244697798 2698.12528367995 9 12 5
-1216.05681930603 -536.72438006425 2707.64011702945 11 14 7
-1175.45306317049 -530.399646062798 2716.74339820302 20 21 15
-1079.22756196947 -515.542680781476 2727.34437001795 19 20 14
-1112.25187202046 -520.522053699048 2733.8117929156 20 23 16
-1160.29760749146 -527.804673999716 2740.04447298757 19 22 15
-1169.64195978959 -528.889826065237 2770.15586401457 17 20 13
-978.404887553046 -511.812346433271 2382.64077917593 22 23 18
-1014.60600194909 -517.408925842347 2384.92717154295 11 12 6
-1027.00865192702 -519.256726407127 2390.8431846045 16 19 12
-1076.77336923667 -526.876835691421 2399.3477850488 14 17 10
-1062.22403425421 -524.481257014375 2409.18717007826 13 16 9
-1027.89867793898 -518.976349884149 2421.6007925399 15 18 11
-1077.79094635992 -526.716326269834 2422.71064667992 15 18 11
-1101.72318818601 -530.264172915949 2435.29078391198 16 19 12
-1104.84824104626 -530.647657822116 2442.75506001002 17 20 13
-1067.28986816608 -524.639757774709 2455.17165016866 19 22 15
-1035.94031835621 -519.609764021845 2466.64413332274 19 22 15
-1047.37507100395 -521.300458934972 2472.96204196815 16 19 10
-1055.68653009364 -522.500164885076 2479.68364868434 16 19 10
-1062.96022547181 -523.536482682835 2486.5526462685 16 19 10
-1045.1183288749 -520.631320375226 2496.17900995066 16 19 12
-1049.24674945737 -521.174446431339 2503.37055527502 14 19 15
-1199.12323068587 -541.855367272448 2699.97810651725 12 15 8
-1174.53416383406 -537.923387303561 2708.58160871967 16 17 11
-1179.82021300833 -538.651801150166 2716.05790072115 18 19 13
-1099.59476397856 -526.050427712512 2726.19041683815 17 18 12
-1130.50446877424 -530.776077910539 2732.7604819078 18 21 14
-1175.16485837123 -537.368219308055 2761.92963901745 16 19 12
-950.521384816464 -514.633989923465 2386.43776348749 17 18 13
-971.168805937086 -517.829791016517 2390.94151778671 16 17 11
-1074.81497772653 -534.297039127485 2383.49561282483 15 18 11
-1076.88924585509 -534.517124724495 2391.05801331627 15 18 11
-987.567089318524 -520.127864432586 2411.40825584631 13 16 9
-1066.487119401 -532.631607522305 2408.17957487656 14 17 10
-1075.83113536471 -534.013400541033 2414.72358226336 15 18 11
-1082.06275477527 -534.897204295278 2421.71616578825 16 19 12
-1068.51256298235 -532.621670330343 2431.29213430015 15 18 11
-1060.15122456199 -531.175594380307 2440.12802010752 14 17 10
-1087.23409281406 -535.388033006251 2444.50276720277 14 17 10
-1065.30166291746 -531.776334779063 2454.97406281742 17 20 13
-1046.46924659903 -528.661135897049 2464.95174739194 19 22 15
-1044.32837127225 -528.209728958843 2472.87523119511 18 21 12
-1039.04468954462 -527.257617297838 2481.13517070773 18 21 12
-1022.23986779235 -524.468972691593 2490.64117744324 17 20 11
-1034.73010871568 -526.351512071087 2496.86046624868 17 20 13
-1041.99499467753 -527.400617184288 2503.6886829551 14 19 15
-1041.56017370422 -524.721431207518 2690.80216043075 15 18 11
-1139.53930778425 -540.148807261614 2694.14552608323 16 19 12
-1172.54811017604 -545.277850129061 2700.46087831065 15 18 11
-1157.542105705 -542.80045661411 2708.65639263942 15 16 10
-1085.63629661719 -531.122598917024 2733.50883120423 18 21 14
-1129.21803554922 -537.735601091674 2754.76274999535 19 22 13
-1154.68807070472 -541.484829108379 2776.82252021199 13 18 12
-1012.79564494892 -532.074973431381 2368.9462961513 26 27 22
-1038.66187376717 -536.164221814671 2372.77892476049 21 22 16
-1056.26623628214 -538.9091536357 2377.95801528804 20 21 15
-1101.90603520888 -546.206227511573 2379.14511967549 15 18 11
-1078.04126029229 -542.213888367073 2390.47588349966 15 18 11
-1042.71170561642 -536.36207376202 2403.27645386877 13 16 9
-1042.68046877469 -536.242030810625 2411.02983622386 14 17 10
-1086.34429801428 -543.212159645337 2412.87960919412 15 18 11
-1093.62507168914 -544.276677354775 2419.75708315864 16 19 12
-1052.98788732452 -537.569197256243 2432.87421810233 15 18 11
-1027.93032301832 -533.391143082243 2443.78995983481 13 16 9
-1021.61445064022 -532.253296795967 2452.23209029197 13 16 9
-1028.85928681688 -533.313766549953 2458.97776201387 16 19 12
-1045.51344041448 -535.898504400517 2464.62730056057 19 22 15
-1024.55198632696 -532.388523295108 2474.74309979826 19 22 13
-1016.11280274193 -530.908366410361 2483.31054966197 19 22 13
-1025.45588113991 -532.308420708591 2489.83954683507 18 21 12
-1040.04689181183 -534.557460124597 2495.83362324979 17 20 13
-1063.04120733912 -538.165498952476 2500.99710138631 15 20 16
-1131.08757721356 -546.275659098564 2693.96740398917 15 18 11
-1110.62379691777 -542.777206466717 2709.82001038371 15 16 10
-1110.52346699105 -542.659216770605 2717.31463831568 13 14 8
-1110.42016423051 -542.541468052422 2724.79900557998 14 15 9
-1103.89164747468 -541.391845384319 2732.4581351083 15 18 11
-1095.20947806485 -539.897449909998 2740.1324157285 15 18 9
-1156.18665293277 -549.595901232731 2746.09220584987 14 17 8
-1055.34922195371 -546.340224523628 2369.86173167941 15 16 10
-1077.11925608074 -549.8110691685 2374.46263053856 15 16 8
-1065.70166068262 -547.807058284808 2383.99244525924 14 17 8
-1075.0387855883 -549.22594907348 2390.48744590831 14 17 8
-1063.5980341405 -547.219144544182 2399.93305051655 13 16 7
-1056.29893777733 -545.895905226674 2408.73803086255 14 17 8
-1073.96668517711 -548.686582479038 2414.12357577373 15 18 9
-1083.3233621532 -550.107041365579 2420.69017941324 15 18 9
-1053.08431533681 -545.006525535707 2432.43394609275 15 18 9
-984.211340741744 -533.548179387472 2448.92465664308 14 17 8
-1015.43414288754 -538.570384170562 2452.57364138387 14 17 8
-1038.34183333776 -542.221896057487 2457.38805097362 14 17 8
-1083.22561607843 -549.487229520383 2459.68457505668 15 18 9
-1018.35568333165 -538.697579735711 2475.03033400057 16 22 12
-1038.16426719468 -541.83727354799 2480.35139355405 14 20 10
-1059.04447108294 -545.151549730207 2485.64369665378 18 24 14
-1070.5185995156 -546.918717811535 2492.05951871619 19 24 18
-1067.32363335572 -546.274703765842 2500.08729228103 12 17 13
-1096.65320071713 -550.974159937808 2504.70347467681 12 17 13
-1236.84453054265 -571.236255474783 2673.40995116032 22 23 17
-1162.17819970277 -558.925036789508 2684.51573507163 20 21 15
-1087.40877602422 -546.603057367429 2695.24647826705 15 16 8
-1107.58873777148 -549.791710592242 2701.91548070657 15 16 8
-1029.47103318056 -536.931809860695 2712.24421864911 13 14 6
-1053.91184071797 -540.817986596964 2718.70631601554 12 13 5
-1081.59366113087 -545.232328675525 2725.17738382232 13 14 8
-1107.16794150359 -549.301519365939 2731.83597785761 13 16 9
-1058.83503903314 -541.314141116134 2740.56826083385 15 18 9
-1089.66314910644 -559.672906318565 2356.36087725011 21 22 17
-1076.19631554969 -557.291018228545 2366.31348498203 13 14 8
-1053.36882534602 -553.342846901639 2377.5712780109 14 15 7
-1055.42751534395 -553.562574969905 2385.07606568151 15 18 9
-1057.4861027502 -553.782291172931 2392.58047994039 14 17 8
-1066.82305842558 -555.219705402123 2399.06315753991 14 17 8
-1065.76512115473 -554.917379076226 2407.01507797125 14 17 8
-1073.0322022561 -556.00769444245 2413.82542680409 15 18 9
-1042.79697967122 -550.827145178529 2425.63299200359 15 18 9
-1072.99072694644 -555.750273862275 2429.42016954589 15 18 9
-1045.83794113302 -551.087593625132 2440.65630179113 15 18 9
-993.587375317932 -542.234029071103 2454.87246424075 15 18 9
-1067.68213569993 -554.488826394313 2453.3700629136 15 18 9
-1086.46371608567 -557.500798163547 2458.85501723903 15 18 9
-1083.29749328825 -556.847277154518 2466.9945824516 14 20 10
-1065.46659309472 -553.746403228372 2476.78533569457 13 19 9
-1075.89521187897 -555.362977936713 2483.31171152552 17 23 13
-1075.85168461376 -555.231743878608 2491.0255984035 17 22 16
-1050.62700557658 -550.901094977542 2501.4172162157 13 18 14
-1103.050597163 -559.52001811201 2503.57688638853 12 17 13
-1133.46206562342 -561.700530673773 2685.25138786656 16 17 11
-1135.51763980111 -561.928158976373 2692.73961931292 16 17 9
-1035.00671103378 -545.158426076639 2704.22347039429 17 18 10
-1015.61156612643 -541.836905986165 2712.2421144199 16 17 9
-1069.05371401057 -563.712732474482 2359.11985153584 14 15 10
-1051.41639030586 -560.584336470807 2369.64669234077 17 18 12
-1022.33347774866 -555.512497069224 2381.76760472609 14 15 7
-1004.63363909366 -552.377044198456 2392.06679510965 16 19 10
-1065.90609786179 -562.657425643644 2390.96287549507 15 18 9
-1055.4875709251 -560.75831603385 2400.23855702146 15 18 9
-1060.66511964957 -561.507974602621 2407.29859531295 15 18 9
-1060.6386393677 -561.373924639551 2415.07848113638 16 19 10
-1056.43995630256 -560.532153867676 2423.40082418367 16 19 10
-1024.07039270433 -554.911959974973 2435.35513791403 17 20 11
-1089.76721688944 -565.926388406748 2434.62744151909 18 21 12
-1077.215405121 -563.667993843736 2444.00305807934 19 22 13
-1066.73371685511 -561.761759746959 2453.04966102034 17 20 11
-1078.19897262733 -563.575847768772 2459.40291783936 16 19 10
-1036.29912401039 -556.347851669824 2472.0579038497 13 19 9
-1039.37465090022 -556.741609941578 2479.33181366119 13 19 9
-1049.78818735145 -558.378037797499 2485.78872848515 16 22 12
-1066.50550281587 -561.080992112191 2491.59813897722 17 22 16
-1192.20692960993 -578.92619109641 2689.86064961028 17 18 10
-1098.10799782998 -562.983978583123 2701.2487553872 17 18 10
-996.577426271669 -558.695830894248 2369.85619492476 15 16 11
-1023.50361956865 -563.208391487035 2373.46068634344 17 18 12
-1020.34967488443 -562.531682018789 2381.6604777631 14 15 7
-1074.33207215735 -571.570157226302 2389.34280471716 15 18 9
-1088.88748936479 -573.94332861467 2395.12728816795 15 18 9
-1098.25356428048 -575.421081122368 2401.69261232221 16 19 10
-1061.75096906625 -568.865271585916 2422.27226880241 18 21 12
-1078.38865394198 -571.460775248055 2435.64650601123 20 23 14
-1096.12417394855 -574.377538551843 2441.20407319619 20 23 14
-1073.10276842423 -570.283262097398 2451.83413977472 20 23 14
-1072.01954487102 -569.96346129211 2459.70413868958 19 22 13
-1024.78752341577 -561.579830486082 2480.56659099684 18 24 14
-1018.41806947896 -560.354683206074 2488.86490090538 18 24 14
-1085.47908002798 -571.743327457482 2489.06958044404 18 23 17
-1082.28638799173 -571.062143801479 2497.12926433031 15 20 16
-1120.62629160729 -574.188930887085 2699.84856459843 16 17 9
-1150.48793678083 -579.162851448468 2706.26696517912 13 14 8
-1154.69157175853 -579.760261247948 2713.70442392009 13 14 8
-987.385753426773 -564.523814212487 2363.22225272135 23 24 19
-1060.95593988298 -576.986075102734 2375.22651112299 17 18 10
-1068.21519275761 -578.116383703211 2381.98254564984 15 18 9
-1101.48820786637 -583.794369890916 2385.03597345199 15 18 9
-1101.4929328828 -583.654448150606 2392.93449654219 15 18 9
-1092.11909177424 -581.875754617103 2402.11747602714 16 19 10
-1062.92383074457 -576.635414417684 2413.92764313654 18 21 12
-1077.49688778094 -579.042043722295 2419.75556721556 19 22 13
-1097.30613476152 -582.36169878198 2424.96547068402 21 24 15
-1079.53552213052 -579.11985767557 2435.06905912849 21 24 15
-1077.41685072968 -578.611223376258 2443.11018309423 21 24 15
-1082.61430217446 -579.379531683884 2450.23234181659 21 24 15
-1075.21548646531 -577.812507448967 2466.61456660094 19 25 15
-1053.16189414249 -573.830319757379 2476.86991752669 21 27 17
-1010.09831288664 -566.188614774653 2489.36170684969 18 24 14
-986.915026757482 -562.015127466827 2499.43982303378 17 22 16
-1111.78714232178 -583.633741028087 2493.51372323208 17 22 16
-1088.63571464635 -579.463887680239 2503.70875834118 8 13 9
-1170.97078337145 -590.313434000175 2697.34388413829 14 15 9
-1135.58646152952 -584.067662956735 2706.29351784099 14 15 9
-1145.13579563488 -585.596359998654 2713.50708373675 15 16 10
-1165.41293692195 -588.980065192101 2720.41374915901 14 15 9
-1177.06510948468 -590.750579612332 2735.28207126843 12 15 8
-1135.00762276417 -583.245048361854 2751.42331944623 13 16 7
-1056.94008911289 -584.007817083739 2359.7805334119 19 20 15
-1065.23239679748 -585.335744598463 2366.35008233114 16 17 11
-1060.02318620785 -584.267528249406 2374.95982100511 15 16 8
-1049.60403421012 -582.275869486578 2384.29254151509 15 18 9
-1038.12700000583 -580.097692727638 2393.71163081407 17 20 11
-1079.74165496934 -587.332494494854 2395.57969048176 18 21 12
-1037.00095103941 -579.613523359714 2409.31904183738 19 22 13
-1032.78252169905 -578.724179978662 2417.59810568991 20 23 14
-1092.21047842308 -589.10885485031 2417.37270685702 21 24 15
-1093.2393961479 -589.146709507227 2425.06622666494 21 24 15
-1070.23309579684 -584.929686322881 2435.82894262811 22 25 16
-1063.92316103081 -583.670112622685 2444.3690415693 23 26 17
-1055.50878713314 -582.038819892698 2453.12402420023 23 26 17
-1079.50170070172 -585.998633096077 2465.67025862576 18 24 14
-1042.761775842 -579.36075915913 2477.626998023 14 20 10
-1020.65832495368 -575.313710053131 2487.73818396858 16 22 12
-991.172197675577 -569.964517872624 2498.53714514817 4 9 3
-1145.46159866721 -593.498409890974 2690.24432594949 14 15 9
-1143.2420444254 -592.980252480848 2697.91783311533 10 11 5
-1144.22937692891 -593.025594704303 2705.45129886695 18 19 13
-1163.42991450326 -596.265674454162 2712.34774368295 14 15 9
-1127.97363381074 -589.922447462457 2721.09173686081 15 16 10
-1122.50803231803 -588.840059618626 2728.7584935028 13 16 9
-1093.37362110367 -598.157271214674 2345.84011922965 22 22 22
-1077.81145300069 -595.20594291988 2356.16624499157 17 18 13
-1078.84743900439 -595.243048228829 2363.88555201019 15 16 10
-1098.595083116 -598.646445148593 2368.81386587351 16 17 9
-1061.1479910684 -591.761184506499 2382.19846852465 15 18 9
-1038.22142559686 -587.490706520511 2393.29097303126 17 20 11
-1026.7198616862 -585.276361568487 2402.64182304186 18 21 12
-1033.96457210159 -586.432073563183 2409.32689687203 19 22 13
-1034.95683615877 -586.463956048488 2416.88809931244 20 23 14
-1036.99168388456 -586.68323729469 2424.3046473996 21 24 15
-1016.04460380521 -582.77597675305 2434.7237069281 21 24 15
-1038.97062417011 -586.746399497264 2439.4048282784 22 25 16
-1052.51052494987 -589.030494468531 2445.37145683982 23 26 17
-1091.1891106012 -595.823515262485 2448.30727415962 23 26 17
-1076.49509390591 -593.040169866476 2457.8542999527 22 25 16
-1028.2351059415 -584.239514539828 2471.26801017648 17 23 13
-1064.86999707676 -590.662700513048 2474.64305444707 12 18 8
-1039.62284184727 -585.992269679482 2485.16574308683 16 22 12
-1027.99315388493 -583.764377401563 2494.04944667754 11 16 10
-1131.63825626118 -598.508435742676 2690.31102734491 17 18 12
-1139.0413778697 -599.693155566267 2697.56593686285 13 14 8
-1171.08741853398 -605.260456681856 2703.92729958419 16 17 11
-1062.47350873256 -585.565903671637 2730.0352598229 13 16 9
-1198.39445359359 -608.953757288041 2771.80786192907 12 17 11
-1004.23845935535 -589.417685184827 2359.42047878682 17 17 17
-1058.19294277441 -599.113586616239 2358.79146180294 13 14 9
-1075.84299130689 -602.180773600741 2363.93764954183 15 16 10
-1059.1938348292 -598.99040183381 2374.27524043087 18 19 11
-1024.82602009877 -592.571052283882 2387.1085541906 17 20 11
-1053.9044531073 -597.568729803059 2398.39668337706 19 22 13
-1040.31110510485 -594.940169213098 2408.03623289375 20 23 14
-1037.13248145621 -594.210002137173 2416.1781464904 20 23 14
-1020.37022296981 -591.007076592577 2426.10466660904 20 23 14
-995.221937930927 -586.279511879373 2437.03051222906 22 25 16
-979.448222910443 -583.260738928836 2446.61378677322 23 26 17
-1024.34510700823 -591.281735055083 2448.48279680378 22 25 16
-1071.39532453312 -599.690091529934 2450.30765394823 21 24 15
-1100.69228526623 -604.865822463349 2454.50300839527 20 23 14
-1083.88772923648 -601.658633289865 2464.27424883508 16 22 12
-1037.67595842129 -593.109106009445 2477.34046900161 14 20 10
-1018.69955911283 -589.512697425475 2487.08738356818 5 11 1
-1072.19709649355 -599.082050675253 2488.73803178418 16 21 15
-1264.40623560563 -630.027101635476 2676.27792632479 24 25 20
-1154.18741024708 -610.006713422071 2688.84022417596 16 17 11
-1212.6202768974 -619.323368269865 2755.73295489199 13 16 9
-1202.86512269232 -617.437839666846 2763.56764365493 11 14 7
-1045.83164362968 -604.26103212228 2360.30243429239 12 13 8
-1045.80341318351 -604.098994107892 2368.09349228925 17 18 12
-1048.89379837608 -604.513642122715 2375.40845035395 18 19 11
-1015.54527874931 -598.193337467841 2388.06735491121 19 22 13
-1023.82243864089 -599.567863537391 2394.55124315582 20 23 14
-1050.87429387204 -604.409668881444 2398.41442480724 20 23 14
-1056.05147876334 -605.209253302909 2405.44159168769 20 23 14
-1014.18265506148 -597.169434617182 2426.51695017735 20 23 14
-995.291730233705 -593.529997565897 2436.60838065986 22 25 16
-976.37215834245 -589.887709469783 2446.59525021081 23 26 17
-1034.89187903665 -600.527590515524 2446.73387459724 22 25 16
-1063.10915875875 -605.575276488439 2450.89681730869 21 24 15
-1050.41585519626 -602.926276016418 2467.78728048274 18 24 14
-1002.06273228319 -593.86587600456 2481.01918809257 20 26 16
-1061.83686012523 -604.721697902343 2481.7815972057 11 17 7
-1055.46662673418 -603.395131080378 2490.14011512032 13 18 12
-1250.62706957467 -635.261510804622 2676.36605304005 17 18 13
-1058.26867058512 -599.28436519775 2729.14218182083 13 16 9
-1126.90147120594 -611.678081486354 2734.54805996547 13 16 7
-1204.22747840373 -625.652933049284 2740.05944315038 13 16 7
-1177.17847791997 -620.448863868747 2755.9190350043 13 16 9
-1036.6116334802 -610.09209239316 2353.5613386042 23 23 23
-1043.85414695755 -611.288687111414 2360.21337344509 17 18 13
-1053.18405830271 -612.875999153617 2366.57525919528 26 27 21
-1052.08463540611 -612.346789816497 2382.30996347592 21 24 15
-1067.68436380464 -615.10662276011 2387.83040242905 21 24 15
-1055.14219443468 -612.596738079646 2397.40152604202 21 24 15
-1041.53661874644 -609.889638022137 2407.04433324361 21 24 15
-1041.48646454123 -609.720212038307 2414.75865699725 20 23 14
-1026.8017817955 -606.813748410581 2424.41806832181 20 23 14
-1019.41519261838 -605.273752579523 2433.03412469053 21 24 15
-1042.3654153597 -609.405600970592 2437.70318901824 22 25 16
-1049.63511594194 -610.604877882173 2444.45447085463 22 25 16
-1049.57638749514 -610.43474193939 2452.13647933816 21 24 15
-1057.90394645445 -611.831105341398 2458.79463151729 19 22 13
-1070.43790159248 -614.012211542026 2464.98772317345 16 22 12
-1075.63530096918 -614.82302989456 2472.0828499603 14 20 10
-1049.31169909309 -609.751642492421 2482.75836655036 21 27 17
-1057.65087259333 -611.149746401813 2489.45761335582 14 19 13
-1133.82481539931 -620.909187724888 2703.76916170715 14 15 10
-1067.86933047327 -623.238911537041 2356.10674527948 20 21 15
-1059.50448599905 -621.316743491152 2373.02283419012 25 26 18
-1059.47679267143 -621.145178375609 2380.82190131579 21 24 15
-1035.46538622213 -616.42338270685 2392.0678626374 22 25 16
-1071.93331549191 -623.175590069163 2394.61528334449 22 25 16
-1029.0980873763 -614.886970165729 2408.36333133574 21 24 15
-1036.35148050974 -616.098109441445 2415.04657753519 20 23 14
-1021.65624440019 -613.149411123909 2424.69347106043 20 23 14
-988.105983179044 -606.630330366719 2436.72791642053 21 24 15
-1004.76035703114 -609.623848703013 2442.12019013023 21 24 15
-998.386296181795 -608.255478477438 2450.49088992297 22 25 16
-1044.41966914868 -616.808161602998 2452.34653163477 21 24 15
-1050.64743691604 -617.823747174004 2459.24161462313 19 22 13
-1084.17599143524 -624.003528051492 2462.927003274 12 18 8
-1045.18659424735 -616.303451465258 2482.78872250657 10 16 6
-980.939406044507 -603.998510360983 2497.50696511591 15 20 14
-1199.3360575627 -640.610915838862 2700.76497881197 11 12 7
-1213.86323636034 -642.028554826673 2769.39273395448 5 10 4
-1175.99973086728 -634.806458245328 2777.5466862692 10 15 11
-1036.80825831845 -624.875155829656 2352.75168553154 24 26 21
-1046.13391852283 -626.49963989584 2359.07431915926 24 27 20
-1079.41026476599 -632.730662448434 2361.79095660157 21 24 17
-1037.73293448615 -624.543253603538 2375.87783256704 22 25 18
-1064.78972953518 -629.575616798847 2379.63811752009 22 25 18
-1054.33069432897 -627.39426181362 2388.94252375801 22 25 18
-983.316186709498 -613.579212384141 2406.76361078563 22 25 18
-1005.16026759875 -617.609250185672 2411.28638547517 21 24 17
-1021.80542486375 -620.638788603326 2416.62169860969 20 23 14
-1014.33711376265 -618.870787119329 2432.87278713824 21 24 15
-968.173638641014 -609.847268864445 2446.41757283676 21 24 15
-986.924169891184 -613.280117117735 2451.52152842843 21 24 15
-1004.64885286877 -616.514382033515 2456.83840595239 20 23 14
-1055.97864238555 -626.188892206654 2458.16781043123 18 21 10
-1038.06187084443 -622.587881200829 2467.95550056052 15 21 9
-1068.46070678752 -628.245595535342 2472.039424184 18 24 12
-960.081352547159 -607.320864795644 2492.00227229854 19 25 15
-1006.2479635956 -615.999240756324 2494.2741740397 14 19 13
-1164.17287769596 -641.808671411829 2686.35275632767 14 15 10
-1155.51951199769 -640.011676401832 2694.32502498907 12 13 7
-1221.97102792117 -652.481891572063 2699.37749297462 12 13 7
-1174.68127602944 -643.348216488204 2708.81018102507 12 13 7
-1192.44668372457 -645.686066637743 2761.60377149976 11 14 7
-1208.56055063281 -648.596517639826 2768.93801361388 8 13 7
-1017.14837243568 -628.408193762806 2355.45978910782 27 29 24
-1031.62148600194 -630.881506602952 2368.66811196825 21 24 17
-1008.65029061901 -626.232984863976 2379.83359139591 20 23 16
-984.516681693698 -621.19023471241 2398.62297154685 21 24 17
-988.605550557308 -621.815436007416 2405.61585108188 21 24 17
-995.746000322198 -622.8636864503 2419.77524094039 19 22 13
-1033.258772822 -629.815307279335 2429.97238093761 20 23 14
-1037.38085940199 -630.444415272626 2437.08705388081 21 24 15
-999.567623364761 -622.926601852678 2449.51066734762 21 24 15
-1004.71610110071 -623.757179386957 2456.41168275781 20 23 14
-1035.0662251812 -629.480608586321 2460.27418887973 18 21 10
-1057.05023715879 -633.577086881004 2465.27455322537 16 22 8
-1003.36576725052 -622.988599668596 2479.160428586 12 18 8
-961.040668209642 -614.445201512823 2498.85965988406 13 18 12
-1044.18624357486 -626.206564832225 2691.03204407745 14 15 10
-1093.38004301549 -635.521140409238 2696.34807008268 16 17 11
-1147.9137748351 -645.704957395379 2709.25153471707 16 17 9
-1019.26736643707 -635.960840355793 2362.45517323488 19 22 15
-1007.75464014065 -633.511250517675 2371.9131008008 23 26 19
-1032.70764047244 -638.256892950892 2375.83792759399 22 25 18
-1004.41986840417 -632.32382206263 2395.35109763029 21 24 17
-1016.87894682124 -634.603482825881 2401.20396450555 21 24 17
-1000.95961295425 -630.940282903885 2426.23965282618 20 23 14
-1018.67631340854 -634.253176064173 2431.47818007082 20 23 14
-984.00731718973 -627.255296059332 2443.55851983697 21 24 15
-1005.92677325009 -631.394680436299 2448.29211206036 20 23 14
-1008.98114774727 -631.821453757755 2455.46571418714 19 22 13
-1030.94184545462 -635.965557307872 2460.35037814627 18 21 10
-1035.062908003 -636.600951799596 2467.45635107228 16 22 8
-1056.0141950769 -640.543520730085 2472.61682998115 16 22 10
-1006.47793083432 -630.637500675184 2485.88616633459 16 22 12
-1056.02651180175 -635.709975151429 2690.02669269855 14 15 10
-1087.00091924007 -641.58959817815 2696.10842796616 15 16 10
-1115.8664331858 -647.056377230183 2702.41447289162 13 14 6
-1038.14003462253 -647.225195589351 2351.37923465361 24 26 21
-1029.76936474201 -645.368585063338 2360.43873559538 21 24 17
-1029.72124454909 -645.176222861669 2368.17416294265 26 29 22
-1043.22653447504 -647.691135311156 2373.86656211516 22 25 18
-1076.57465935856 -654.16683951108 2376.695220398 22 25 18
-1052.53234645233 -649.182560373056 2387.99215042383 22 25 18
-1028.45392295906 -644.194169768713 2399.15853370459 22 25 18
-987.317226285886 -635.271070375739 2435.19968373215 20 23 14
-1012.37905360024 -640.087065588275 2439.48414672027 20 23 14
-998.650127264583 -637.173568381902 2448.79928549885 20 23 14
-1019.54861696254 -641.157515008954 2453.73761438739 19 22 13
-1032.06744487295 -643.471120772511 2459.79088832468 17 20 9
-1041.44637912592 -645.158839446955 2466.27139503208 15 21 9
-1012.95912077911 -639.312253027686 2477.19574005724 14 20 10
-1041.28333780882 -644.768880274281 2481.49846494337 14 20 10
-1002.21596254721 -636.823038785927 2493.43318919627 12 17 13
-1129.03061235859 -657.33440744896 2686.35202895642 14 15 10
-1180.39388674773 -667.138930984034 2699.41356274825 12 13 5
-1167.42153178973 -664.418522176623 2707.51947647709 15 16 8
-1131.83808430966 -657.244406313402 2716.31590403269 15 16 11
-1096.53625941061 -666.400492065704 2341.77327907022 20 22 17
-1055.87400473484 -657.791993279724 2363.79110633286 27 30 23
-1048.53672985432 -656.119588579621 2372.67478207026 23 26 19
-1080.8559537553 -662.465213923917 2375.66177802806 21 24 17
-1026.44754309272 -651.09393992418 2399.04297500727 22 25 18
-1029.51932238744 -651.528683273174 2406.27709490045 20 23 16
-997.001613307815 -644.777792815901 2418.39523611225 20 23 14
-1095.37533216346 -664.450394700899 2412.72983455987 19 22 13
-1120.50506837179 -669.332060940748 2417.2240396903 19 22 13
-1078.53386468313 -660.675683212548 2430.51590368853 20 23 14
-1014.45978650372 -647.567815944611 2446.38286640974 20 23 14
-1021.72099396405 -648.848767158643 2453.05012104773 19 22 13
-1015.32495875522 -647.377060266118 2461.40540473481 17 20 9
-1003.65856396065 -644.844652937618 2470.34507791318 14 20 8
-1055.12479974768 -655.029308613328 2471.85900148685 12 18 6
-1057.15631855616 -655.255021288245 2479.25912948912 14 20 10
-1106.56539473891 -660.241885333445 2686.8330012809 12 13 8
-1176.25939537598 -673.991868476778 2691.42631082145 14 15 9
-1234.222107645 -685.393754425984 2696.80842285977 13 14 6
-1135.02964274349 -665.105249778027 2723.20260992579 14 17 10
-1311.65450302332 -699.825246471289 2741.39156749972 10 13 4
-1113.3060169427 -677.529331399211 2330.76784380577 6 8 5
-1100.82047138664 -674.773607028134 2340.70348183004 25 27 22
-1092.48354297281 -672.869717845171 2349.91810749334 16 19 12
-1039.23997260979 -661.580124063492 2373.67623920444 19 22 15
-1022.34752543074 -657.551436649129 2399.22694759834 24 27 20
-1005.53335885531 -653.924329603075 2409.22762012744 22 25 18
-1041.05302080416 -660.995154997147 2411.94947176617 20 23 14
-1009.55215670732 -654.369252009617 2423.86772817337 20 23 14
-1043.02026355467 -661.016881580174 2427.03331129352 20 23 14
-1057.64328795916 -663.812916490808 2432.80090410302 21 24 15
-1035.53142718687 -659.109534986556 2443.29523971455 21 24 15
-1038.60510180448 -659.54842565398 2450.53377817037 20 23 14
-978.468151278163 -646.909686236459 2472.92877165479 14 20 8
-989.924341644822 -649.061879441915 2479.03583750933 15 21 11
-1043.53917258121 -659.804805258652 2480.38104142711 11 16 9
-1209.65736936162 -688.241351294518 2689.53116317101 13 14 8
-1194.5533435747 -685.01685054951 2697.83442795907 11 12 4
-1183.73012006046 -682.659934994414 2705.89751414134 14 15 7
-1205.18752805047 -686.822951405644 2712.79701279346 14 15 10
-1246.02466293318 -694.72629768983 2726.94334836362 13 16 9
-1292.36997996847 -703.907238989539 2733.45777734732 10 13 6
-1300.99401763966 -705.476235014925 2741.10677665192 9 12 3
-989.460653820728 -659.184088249944 2357.92197041643 20 22 17
-1037.34158447302 -668.915591920288 2358.10034535421 17 20 13
-985.129468862445 -657.899483542604 2373.8245828368 24 27 20
-1021.58358593958 -665.258373596944 2375.93769388822 20 23 16
-958.613075095589 -651.642225788089 2407.91277773243 23 26 19
-1006.65356958765 -661.391837215192 2408.67214964393 22 25 18
-1015.99620018292 -663.13150612638 2414.98506932577 20 23 14
-1001.23774710009 -659.88712660543 2424.58392825216 20 23 14
-997.995883417647 -659.02579435246 2432.57385482423 20 23 14
-1024.13939598095 -664.237048329966 2436.72760803821 21 24 15
-1015.65080985647 -662.29135728923 2445.40554985065 21 24 15
-1007.14792182518 -660.344358759901 2454.03121696607 20 23 14
-1008.09751594243 -660.350163752875 2461.45045824607 16 19 8
-936.41625149564 -645.367371024959 2477.53325984115 14 20 8
-1167.92060895818 -687.460241858029 2683.13522645435 11 12 7
-1204.38620943817 -694.741214361595 2689.23648657665 14 15 9
-1303.2892471138 -713.891162871204 2732.62587874003 11 14 7
-1241.68354470636 -700.973260942194 2749.74393295282 11 14 7
-989.457999323824 -666.207345028951 2365.16788830679 16 19 12
-1126.09993527598 -694.662561032808 2351.86592022292 18 21 14
-964.120539634079 -660.305508197856 2391.71895002617 21 24 17
-959.829348963683 -659.211517161145 2399.85706913745 21 24 17
-991.968007059527 -665.355785642236 2417.88699639242 21 24 15
-974.040002638529 -661.409418848131 2427.85102060542 20 23 14
-953.986071144748 -657.021138484312 2437.99353612952 20 23 14
-1002.16100575436 -666.902062438486 2439.16915399268 21 24 15
-997.85619344775 -665.807420253825 2447.25710973918 20 23 14
-1008.26503867135 -667.788401990561 2453.47907367166 19 22 13
-1026.05106795477 -671.30941616911 2458.84360855516 16 19 8
-996.473563091747 -664.937761770324 2469.9488317895 13 19 9
-953.154740806022 -655.701991840816 2482.49937035152 15 20 13
-1252.89529377362 -712.523168349589 2678.87087035011 10 11 6
-1225.99175513757 -706.77284670663 2687.82183895196 12 13 7
-1206.58115903055 -702.576638747432 2696.33627685388 12 13 5
-1027.14868953932 -681.624644782379 2351.19828447883 15 17 12
-1123.08489978067 -701.780529951528 2343.97041218339 17 20 13
-1066.71220349508 -689.609149400134 2360.56374702455 17 20 13
-1049.96191447396 -685.849584806682 2370.88614017685 19 22 15
-966.272226501681 -667.899695445587 2391.01684899465 21 24 17
-965.118255535489 -667.455890726279 2398.70246621088 21 24 17
-1056.09234487908 -686.533182492185 2393.21563894736 21 24 17
-956.388588713295 -665.011741136198 2422.38623383611 20 23 14
-945.772033867513 -662.567289331635 2431.27097706123 20 23 14
-987.629146407978 -671.228779625587 2433.13942676658 21 24 15
-996.974106896347 -673.007305952522 2439.43646434674 22 25 16
-1022.09808006694 -678.121912970321 2443.76220583499 18 21 12
-1011.48635030321 -675.678661778005 2452.66503466285 16 19 10
-1028.22764768804 -679.01825323869 2458.16061693698 16 19 8
-1139.07434922752 -696.371950480489 2683.40998384332 11 12 7
-1245.46202814233 -718.458481528642 2686.49135682796 15 16 10
-1074.15255734302 -698.813810820008 2351.20456012283 19 22 15
-1095.01580363006 -703.079444590366 2355.83326559585 16 19 12
-1036.46874462124 -690.304413215261 2372.52830112878 14 17 10
-1011.30822202265 -684.698828120498 2383.9630471921 19 22 15
-987.157302797445 -679.313797943651 2395.10975646817 20 23 16
-1047.806383886 -692.109160484286 2393.99985068955 20 23 16
-1074.9972798019 -697.727252338462 2397.88915648881 20 23 16
-999.440990900137 -681.332457201954 2416.06335575028 20 23 14
-1002.3935863253 -681.556568127336 2430.78059234916 21 24 15
-1026.46388552039 -686.50398283385 2435.19705476035 22 25 16
-1045.30618187332 -690.330319846826 2440.3932879896 17 20 11
-1016.81485906049 -684.031645674348 2451.58796698931 15 18 9
-1078.7870364202 -696.871042687808 2459.25990669147 13 19 9
-1139.15160863261 -703.789320394404 2682.91021419684 12 13 8
-1156.26700644856 -707.228161212647 2689.73302622391 16 17 11
-1189.55433172143 -714.089192820351 2695.98899229993 15 16 8
-1210.70471968595 -717.465633482397 2741.21210845431 9 12 3
-1263.63993107889 -728.469297370256 2747.6620426093 9 12 5
-1051.24302704148 -701.037851318947 2362.15633428202 8 11 4
-1014.52525172992 -692.643174788348 2383.09803358921 10 13 6
-1060.51757120558 -702.406861425247 2384.03668751413 15 18 11
-1065.65921999333 -703.093704127558 2398.79666481735 20 23 16
-1081.3460455945 -706.278950678974 2404.37189473198 20 23 14
-952.164330459255 -678.084631947989 2429.62127310592 20 23 14
-961.485854853304 -679.898573594356 2435.80893768255 22 25 16
-1022.33307808799 -692.864387637215 2435.32708070243 23 26 17
-1021.1892252985 -692.408351331907 2443.05798710873 16 19 10
-1023.19948148442 -692.635301927602 2450.37838960239 14 17 8
-1038.90514167549 -695.823997654118 2456.02137102927 16 19 10
-1130.53229008177 -715.423122131871 2452.62976621342 13 19 9
-1122.02585811119 -713.158314184863 2469.23649339661 13 18 12
-1145.58525570686 -712.376715024177 2689.68556323418 15 16 10
-1393.70745568366 -763.54293322347 2760.32425139745 0 5 0
-1024.02444036075 -701.977812043502 2381.30083677754 13 16 9
-1050.13798847601 -707.489567254278 2385.15361712157 16 19 12
-1022.828571364 -701.283905154775 2396.7814370033 18 21 14
-1031.14045376376 -702.890804752995 2403.24846365678 19 22 15
-1027.83465548274 -701.736681183855 2418.97943649538 17 20 13
-1028.80191215673 -701.734528216323 2426.46835060395 18 21 14
-972.973669360168 -689.299957533015 2441.35297862675 16 19 12
-1001.15296474051 -695.046814151838 2452.72704296921 13 16 9
-1051.62665556494 -705.875044110849 2454.04584290358 17 20 13
-1130.47650199653 -716.32198886812 2697.34097422049 13 14 9
-1255.20936168318 -741.976472657541 2746.79925833301 16 19 10
-994.786902430354 -702.760553580842 2385.25505916008 15 18 11
-986.310274257578 -700.662471393021 2394.07361029599 14 17 10
-989.353634057798 -701.120319991045 2401.18669770898 14 17 10
-979.806795339146 -698.787510330061 2410.0772108888 13 16 9
-1013.29397691197 -705.991903381498 2412.96210341117 13 16 9
-978.409437544883 -697.832849402928 2432.76791894033 16 19 12
-985.652848454362 -699.222307237303 2439.30059307333 17 20 13
-981.321897489673 -698.050007803711 2447.340529827 17 20 13
-1053.89320698868 -713.890377736503 2445.71075188948 16 19 12
-975.893871159037 -705.495808810704 2395.21034222788 10 13 6
-1049.21001697963 -721.711657690569 2392.2116884111 9 12 5
-1056.4938856155 -723.118568173487 2398.88448448655 10 13 6
-961.502089059906 -700.960524806605 2442.05525868775 16 19 12
-1007.70820016486 -711.082134080694 2443.56170541459 17 20 13
-1046.59675287417 -719.560684605934 2446.21293403446 17 20 13
-1063.38688276165 -723.093382878853 2451.76883331052 17 20 13
-986.544217883382 -715.276120585407 2385.71590406106 17 20 13
-1031.53356407137 -725.250082781877 2386.6942781503 15 18 11
-1047.06380872115 -728.0829722943 2407.49682402918 10 13 6
-1027.696179391 -722.568282929474 2448.17563040742 15 18 11
-1047.64384270761 -726.853106168823 2453.29008994124 15 18 11
-1050.72296526495 -727.324051836663 2460.52861768039 14 19 12
-1066.41457066053 -741.464042055263 2350.10001041039 12 17 11
-927.904715878373 -708.999902520578 2394.06745695382 20 23 16
-932.416545552092 -708.911883986463 2430.35802649844 11 14 7
-970.025375635402 -717.067837013418 2440.15145717429 11 14 7
-1026.81043198643 -729.825511627381 2440.30518961693 13 16 9
-1045.69820025838 -733.913937087845 2445.50478224403 15 18 11
-1054.05402186688 -735.593671319514 2452.08803357058 15 18 11
-1088.51790257662 -754.206951528388 2338.39459212673 30 34 33
-920.754965736302 -714.591726691447 2387.37123129406 16 22 12
-856.635261316006 -699.505975658697 2404.31752499093 18 21 14
-915.210034064918 -712.849798871042 2402.95341933577 17 20 13
-988.455527429407 -729.348638734052 2407.30642187345 13 16 9
-986.004569596772 -728.086537239368 2430.1766707689 11 14 7
-1043.83854050488 -741.2243076813 2430.08852438853 10 13 6
-1055.35236106284 -743.650444079634 2436.23567743479 13 16 9
-1042.61007367375 -740.472445811527 2445.48468498532 15 18 11
-1031.95943362616 -737.780111533382 2454.40030557617 15 18 11
-1232.21224178546 -775.935928060561 2706.21732876938 11 13 8
-1280.8349191237 -786.826296827446 2712.31433740333 11 13 8
-1141.75662137059 -754.081060902476 2754.34873615267 10 15 9
-1034.2228177989 -748.902839117412 2346.67616752275 27 32 28
-1003.71110254125 -741.26594105404 2366.80154945082 20 25 19
-953.297875997196 -729.216875191514 2382.06515299862 20 25 18
-943.729271697403 -726.740648857477 2390.96447159851 18 21 14
-877.453237986208 -710.992793475411 2408.11632508291 10 13 6
-947.657071607126 -727.191452553664 2405.26300898146 16 19 12
-1099.83313155808 -761.819491871095 2414.56565106904 12 15 8
-1113.49109716927 -764.766362612366 2420.55218928506 11 14 7
-1029.06283401639 -744.807663448808 2439.20897056085 14 17 10
-1018.40752699557 -742.083826624088 2448.12715265353 12 15 8
-1412.32766736385 -826.939444876718 2633.56824565541 126 130 133
-1291.85026634907 -798.391572925835 2664.08215061887 19 24 20
-1169.69341927791 -769.307350919243 2700.38911505962 16 18 13
-1270.10495349856 -791.838229194271 2719.96768742018 12 17 10
-1272.23578074791 -792.117250256544 2727.70287207439 8 13 6
-1203.71405772067 -775.705062548185 2752.52255648355 7 12 6
-1004.04100043188 -749.287643747464 2343.47938157765 27 31 32
-992.445529740818 -746.294144951486 2352.9734910657 23 27 26
-1002.82658822108 -748.508524167154 2358.94493331654 22 27 23
-1002.64644426137 -747.976510617211 2374.19911918755 27 32 26
-977.363532218617 -741.750454488198 2385.57119016131 21 24 17
-932.088910049671 -730.800559386777 2399.73507674976 23 26 19
-940.348816104016 -732.516800015103 2405.93916419495 16 19 12
-1021.18300373116 -751.385956083017 2401.90319514125 15 18 11
-932.68924228085 -730.233699625543 2421.80533820613 14 17 10
-1056.80095082339 -759.313355570599 2412.24273400454 19 22 15
-1101.99623994805 -769.492145010529 2421.64998644619 11 14 7
-1043.90838546081 -755.539261850035 2436.89634291533 14 17 10
-994.186578746822 -743.569625279564 2450.77965587399 14 17 10
-1043.724329119 -755.013200746364 2452.13131579292 14 17 10
-1399.52303685898 -832.234082569218 2625.54764548587 117 120 125
-1223.02834365079 -790.291605404839 2659.15957146051 25 29 28
-1242.38675755328 -794.587544330659 2665.97556593123 17 22 18
-1200.26766057984 -784.531586805698 2675.70563217988 15 20 14
-1208.83523636079 -786.311138844472 2683.01206550816 13 18 12
-1187.1605070268 -781.035697737045 2691.59423257614 13 18 12
-1220.59201495815 -788.616652884187 2697.93099856977 12 17 11
-1248.60951029541 -794.714857877723 2712.37882847797 14 19 13
-1247.47681720665 -794.235157164838 2720.16610913391 9 14 8
-1247.42428201121 -794.00884474033 2727.90750785805 12 17 11
-1222.4209929924 -787.973680198005 2736.29999595382 5 10 3
-1006.29181829455 -757.294572339137 2335.09118143342 136 141 145
-985.2855473216 -752.012911572869 2346.15913014863 205 210 213
-986.236221132495 -751.991857394205 2353.5984085719 150 156 156
-986.137570204204 -751.720006043799 2361.19733951224 70 76 76
-995.472661078115 -753.70581205428 2367.32686760736 30 36 34
-999.571872169272 -754.438268581089 2374.29043046777 17 22 18
-1004.72384635248 -755.422215911359 2381.10759784115 23 26 19
-988.867251861049 -751.385256276399 2391.02598692342 13 16 9
-980.345909941198 -749.10408222326 2399.79411929888 10 13 6
-930.779101188095 -737.022859683255 2414.32335884709 19 22 15
-1024.32245692208 -759.114495976187 2408.67997402863 12 15 8
-1016.8535995829 -757.085639874146 2417.29922561868 16 19 12
-1017.80539005317 -757.067321467557 2424.74185177856 17 20 13
-1002.93171236594 -753.275392023034 2434.25859868937 16 19 12
-1039.66824685306 -761.545129461886 2444.63784964511 18 21 14
-1036.39925877127 -760.521867453385 2452.63023163167 23 26 19
-1405.00160383486 -841.790692478274 2616.47516734513 114 119 122
-1201.64325180376 -793.053679638913 2652.05274915762 112 117 120
-1178.94389383647 -787.469924567744 2660.92164461244 147 152 155
-1176.7061832187 -786.717554769206 2668.67468113126 86 92 92
-1177.70133363234 -786.729487934291 2676.25826598142 26 32 30
-1183.01552538191 -787.760798039095 2683.64874203107 0 2 0
-1215.3551078836 -795.162446835586 2689.94092794317 6 12 10
-1204.47416396711 -792.377507541297 2698.05994136637 12 18 16
-1193.49179419805 -789.354759830814 2713.74516103095 15 21 17
-1275.76550711227 -808.50773043098 2718.77007295278 19 26 19
-1215.00366067295 -793.988601019429 2728.3431690384 3 10 3
-1425.7226629146 -842.239196456489 2771.05721837788 3 7 6
-1018.99410931927 -767.848882501599 2324.93297843001 158 163 169
-988.589885612555 -760.233408269703 2337.6512887648 204 209 215
-978.029768852299 -757.424970153057 2346.97537744244 215 220 224
-980.021874907131 -757.654673972621 2354.22665381528 201 206 209
-979.917588313943 -757.377780583385 2361.80784391578 206 211 214
-982.957413043252 -757.861215210625 2368.89165262392 12 18 18
-991.24643931834 -759.613006757109 2375.18234177522 12 18 14
-979.588042936602 -756.546492132976 2384.48891887836 22 25 18
-1012.05513877602 -764.135484642202 2387.23993742463 29 32 25
-985.665057029381 -757.514970022331 2398.64666511246 18 21 14
-1002.38799460587 -761.300885742203 2403.79322426725 21 24 17
-987.535141444054 -757.469426355177 2413.41224569569 11 14 7
-984.126746984547 -756.15359099644 2428.86439539009 17 20 13
-1008.2714230578 -761.724639432721 2433.16234586055 17 20 13
-999.708057962128 -759.415036500154 2441.79240292671 16 19 12
-1001.69831079754 -759.648454100507 2449.0344539723 23 26 19
-994.171104459855 -757.591772048143 2457.45556403782 25 28 21
-991.09919033405 -769.060403186616 2306.32527236817 202 207 211
-999.372070377984 -770.825281700101 2312.5468222794 203 208 214
-1002.42845796533 -771.312891931078 2319.69041839809 201 206 212
-981.435123058945 -765.918400452436 2330.87670257562 207 212 218
-974.013653918837 -763.846335098266 2339.70010634325 202 207 213
-969.720818875239 -762.540844408061 2347.96565002818 199 204 208
-975.898025603384 -763.794472062708 2354.52272247768 176 181 185
-974.741049324044 -763.256622670963 2362.25655643809 193 198 201
-975.678483076371 -763.230802295259 2369.64968624617 177 183 183
-978.714406642716 -763.717432153469 2376.71792242178 187 191 190
-983.853399296291 -764.717208023541 2383.47689860855 22 25 18
-987.945424428336 -765.461542065219 2390.4062825701 9 12 5
-1008.87482471742 -770.310360608471 2394.9133415739 25 28 21
-998.243915154623 -767.465082818581 2403.99784909183 19 22 15
-1028.68609207975 -774.62829900567 2407.29312325378 22 25 18
-1013.83142542212 -770.755846803807 2416.93129224501 14 17 10
-1044.32040342141 -777.925168965648 2420.39647462978 16 19 10
-1009.39176098303 -769.170094992378 2432.62127013081 14 17 8
-1000.82463654403 -766.834871124684 2441.25354520918 17 20 11
-974.270906876689 -760.127676960851 2452.1083341904 20 23 14
-987.879291814707 -763.189249246464 2457.83744351158 16 19 10
-995.151554185757 -764.709425934891 2464.39563744794 12 17 10
-986.123499865038 -775.555219560036 2291.54366258391 209 210 215
-967.264340411303 -770.624853650862 2302.56805657429 206 210 213
-956.728143396417 -767.756628103346 2312.01963025479 205 209 212
-961.845109875429 -768.760557438143 2318.69420529223 205 208 213
-972.193303182628 -771.056925866258 2324.49279092286 210 213 218
-971.045788572487 -770.511967935705 2332.26624216584 199 202 207
-966.753524021791 -769.19129289753 2340.5434905815 198 201 206
-964.547878927378 -768.386944832003 2348.44839646055 198 202 205
-972.819220360287 -770.168975315988 2354.65340495436 189 193 196
-973.756416701293 -770.141163425043 2362.04691063921 189 193 196
-974.691941694438 -770.113223137823 2369.43522102222 170 174 177
-976.676722738259 -770.344390439081 2376.65837709911 164 168 169
-982.866293583329 -771.611860703515 2383.25168656979 127 128 123
-996.424359228116 -774.693904158368 2388.78197481545 24 25 20
-1007.89331155092 -777.259844973046 2394.67427570886 6 7 2
-1021.48167679208 -780.346085924316 2400.31441033779 20 23 16
-947.603690766465 -761.908826579279 2418.21575442589 17 20 11
-1050.81558141693 -787.044210129309 2411.47841156915 19 22 13
-1065.50864105925 -790.396894653542 2417.15459206516 16 19 8
-1023.18650784483 -779.733677614035 2430.41053679635 15 18 7
-986.088694563327 -770.362035947455 2442.76446445768 16 22 10
-965.859441698512 -765.141167742473 2452.78169846958 14 20 6
-977.945061826695 -780.969339380815 2285.03756301312 207 208 213
-963.259230298946 -777.029930374474 2295.3439277494 198 199 204
-952.724774345254 -774.130943401573 2304.82138680247 203 203 205
-944.261965854576 -771.751750791074 2313.86872611399 207 207 209
-949.370993447694 -772.763426913336 2320.50893470803 204 204 206
-955.530056613511 -774.036560806161 2326.98632844903 191 191 193
-958.555344503847 -774.527390636458 2334.01242480164 190 190 192
-957.393227045536 -773.973811846149 2341.73710129099 195 195 197
-959.370767638273 -774.20391068749 2348.93404956175 182 182 184
-970.78645375874 -776.786450959485 2354.61810345744 168 168 170
-972.770542231538 -777.017653694235 2361.83866578302 168 168 170
-976.855017417843 -777.772321227637 2368.73349425007 166 166 168
-976.738947418267 -777.481009823284 2376.28003765208 141 141 141
-989.238653808145 -780.330093693682 2381.92424428733 148 149 144
-1003.85740281469 -783.704800011125 2387.31062054981 105 106 101
-1021.65209176024 -787.867098446879 2392.30243375318 67 68 63
-1033.14653518429 -790.461058050253 2398.27168851303 21 24 17
-1006.69531064912 -783.623895479802 2409.58818518503 18 21 14
-962.268423269526 -772.326887469772 2423.2223734295 13 16 7
-1056.0934308558 -795.369583889486 2418.02425716087 15 18 9
-1031.70890078041 -789.052747540439 2428.89283779566 18 24 12
-984.028769646316 -776.96031153825 2442.64045136647 18 24 12
-965.904970794874 -772.208681018509 2452.38593059417 15 21 9
