ply
format ascii 1.0
comment KinectMotionCapture
element vertex 759
property float x
property float y
property float z
property uchar red
property uchar green
property uchar blue
end_header
-690.963360215553 32.2030808040115 2176.73184624251 140 144 143
-700.786202563489 31.1543627312265 2181.55537847789 134 138 137
-710.078014793604 30.4219646270367 2182.41311818492 130 134 133
-719.359076169488 29.6898358625065 2183.27243909445 112 116 115
-728.510073719716 29.0364126713903 2183.13985656523 115 119 118
-737.53912820742 28.461090635068 2182.01459903449 126 130 129
-746.340509129035 28.0413536267354 2178.90172962605 126 130 129
-755.263755117287 27.5427465477835 2176.78178724621 126 130 129
-764.409056599784 26.8882528962597 2176.64991837159 130 134 133
-773.865829291718 26.0014007874156 2179.50333347121 131 135 134
-782.682896662614 25.5791714074275 2176.38851305021 132 136 135
-791.109552697766 25.4643659986333 2169.29061540422 136 140 139
-799.861096163868 25.1163150772239 2165.17608953464 138 142 141
-808.913122199949 24.536692817296 2164.04797661496 139 143 142
-817.964797588892 23.9566748402577 2162.91990849607 140 141 143
-826.56901606673 23.7583761188614 2156.80799935058 139 140 142
-835.460025984605 23.3293160364225 2153.68396932527 141 142 144
-843.941420409142 23.2795047719359 2145.57138239394 146 147 149
-852.13509405007 23.5304261956128 2133.46292068508 162 163 165
-859.680584486951 24.458613344012 2112.36366016293 167 168 170
-867.561467719227 25.1529130849949 2094.24622183147 166 168 167
-876.119233849831 25.2380956185808 2084.10837446499 152 154 153
-884.302315681385 25.7709279375805 2067.96926321876 148 150 149
-891.617457266279 27.3483887539489 2037.82713434248 158 160 159
-989.075802823799 31.1481965690407 1881.54531572875 137 141 140
-998.986886157369 30.1522726396175 1885.34976961237 114 120 118
-1008.83719202001 29.2304960474472 1888.15416607122 103 107 106
-1018.69461200981 28.2374234201891 1891.96530931407 104 100 101
-1028.44229291479 27.4629072087983 1892.76651049083 94 90 91
-1038.32471142546 26.2556638525746 1899.59839964039 91 87 88
-1047.92336313898 25.8433451957759 1895.37832891637 140 139 137
-460.88227818025 38.6501334090748 2189.30343205681 152 158 148
-468.6044307557 38.6433450717379 2181.28548072031 103 108 101
-477.327964815517 38.2328673531354 2178.18230175599 101 103 98
-485.683612908671 37.9813553371791 2173.10923995848 98 100 97
-494.436048936761 37.5684391753961 2170.00246062093 99 101 98
-502.462506493558 37.4732162095274 2162.95445380943 86 88 85
-510.340584290055 37.4550612080836 2154.91707386087 75 77 72
-518.257351957868 37.4341428288204 2146.87487292235 83 86 79
-575.875948070138 36.6634587868433 2097.36046071647 157 160 151
-589.903475786432 33.7361047243982 2125.85063290327 169 171 166
-602.841179021266 31.285565239668 2148.42870967279 153 155 152
-614.282099743577 29.5416271384449 2162.12181055143 143 145 144
-624.746980457826 28.2673494819942 2169.88911576084 146 148 147
-634.577510859379 27.3049277818675 2173.70377421596 138 140 139
-643.949891855062 26.5753400364658 2174.55145201638 134 136 135
-653.170729466397 25.9229347170974 2174.41039144864 135 137 136
-661.694534744481 25.6544965114637 2169.31614893436 132 134 133
-670.918587341049 25.0011995738732 2169.17468950352 123 125 124
-680.270322303536 24.2714937666673 2170.02494411774 125 127 126
-690.132346222305 23.2370018167713 2174.84354926073 144 146 145
-699.834464930543 22.2803419297249 2178.67421756248 142 144 143
-709.63435106288 21.2491192043576 2183.50032825573 143 145 144
-718.669173284308 20.6741463966007 2182.37435002624 130 134 133
-727.823428875355 20.0232355132202 2182.24159456546 131 135 134
-736.972219270774 19.3723119571267 2182.10928089341 133 137 136
-746.00157026558 18.7966126984467 2180.98398735374 129 133 132
-754.808292926035 18.3706826158519 2177.87046763711 124 128 127
-763.734310283415 17.8688830140721 2175.75018781418 126 130 129
-772.877251515472 17.2169286117375 2175.61860679784 130 134 133
-781.602081402839 16.863176450662 2171.50766990771 132 136 135
-790.041605037805 16.7311575601366 2164.40821179243 137 141 140
-799.099696467628 16.1515072329693 2163.27934202138 137 141 140
-808.347480885653 15.4235563133882 2164.14256442757 138 142 141
-817.399519730918 14.8436644875767 2163.01445061927 139 140 142
-826.09283431726 14.5581293787365 2157.89933963827 138 139 141
-834.633642249468 14.4178962924976 2150.78726347328 138 139 141
-843.206493693503 14.2752336563962 2143.67119486558 144 145 147
-851.485532777549 14.4228223378468 2132.56003927538 162 163 165
-859.030727332895 15.29641239079 2111.46095945701 167 168 170
-866.835778486277 16.0171150861815 2092.34546815999 168 170 169
-875.104421306603 16.3680900872898 2078.2117727881 154 156 155
-882.877847938964 17.2938897973193 2056.07638636534 153 155 154
-890.017194588796 19.0071870116335 2022.93253637404 162 164 163
-988.588750087316 21.124578467541 1884.65579543566 137 141 140
-998.457398218992 20.2132468300638 1887.45763511261 111 115 116
-1008.17238971807 19.5832079248025 1886.246920793 113 117 118
-1018.03634149643 18.6036369598059 1890.05745361986 114 114 114
-1027.81748359195 17.7650149997234 1891.86209468751 112 112 112
-1037.70426407272 16.5797129203715 1898.69362197615 98 98 98
-1047.28350466893 16.2287211890182 1893.46812504436 123 123 121
-460.103073852368 29.5697827190262 2188.41689783248 156 162 152
-466.459070844956 30.0869552610613 2173.5135243102 112 117 110
-475.396931964193 29.59183655661 2171.3917488619 104 106 101
-483.391129348547 29.4825138958768 2164.34780506025 98 100 97
-492.167910889723 29.0622860975185 2161.23824707027 96 98 95
-499.295068130463 29.3336989513916 2149.26258607078 86 88 85
-507.210149819298 29.2938365993396 2141.22064542075 84 86 81
-515.701387037416 29.0213242841324 2136.13071820558 76 79 72
-576.887934447964 26.5372623371458 2107.3384295654 157 160 151
-589.003821540119 24.5963367990517 2123.97135922291 170 172 167
-601.177436854564 22.586178735419 2141.60495415915 162 164 161
-612.488146021262 20.9567615769945 2154.30631598511 128 130 129
-623.125937974697 19.6307580077251 2163.05986621065 134 136 135
-633.416577718093 18.4569321973279 2169.84072375982 164 166 165
-643.520292406717 17.3599150519799 2175.6372593484 156 158 157
-653.162626331227 16.4876363327008 2178.46723885598 157 159 158
-661.952325637493 16.0607303198387 2175.35584612339 157 159 158
-670.75313707225 15.6327605713495 2172.24330973291 140 142 141
-679.964318512454 14.9826699840937 2172.10320783373 135 137 136
-689.431062431651 14.185430179905 2173.9472152254 147 149 148
-699.264767717069 13.1688075591984 2178.76930730817 157 159 158
-709.315996675156 12.0075162301451 2185.58000889885 152 154 153
-718.345732223642 11.4328376115528 2184.45466468134 147 151 150
-727.255932774825 10.9306421595886 2182.33635974477 143 147 146
-735.820968039601 10.6458139057438 2177.23725540325 135 139 138
-744.978346623794 9.99676198152055 2177.10386504714 137 141 140
-754.241645731357 9.27537754449034 2177.9651340192 138 142 141
-763.059115052142 8.84303201138573 2174.8505303465 135 139 138
-771.993262493572 8.33760892259369 2172.72924547947 134 138 137
-780.41610789181 8.19064698394878 2165.63190806152 132 136 135
-788.871220017734 8.0412711364061 2158.53055030365 131 135 134
-797.4564726464 7.81801982436309 2152.42083342703 133 137 136
-806.829939454948 7.02239244853678 2154.27647700438 135 139 138
-816.094353685624 6.29858044905829 2155.13785347731 134 135 137
-824.988495531903 5.85892918335415 2152.01346049735 130 131 133
-833.806030609872 5.48905617080639 2147.89075673245 135 136 138
-842.639359587493 5.11787838524255 2143.76608541832 141 142 144
-850.998713669804 5.16786342907641 2133.65309139379 157 158 160
-858.222452436006 6.26824670684542 2108.56230117534 165 166 168
-865.651876211659 7.28985482205843 2084.45397750223 162 164 163
-873.940333681131 7.60412239519526 2070.31790604697 165 167 166
-882.086225546944 8.12279318556189 2053.17602635303 161 163 162
-889.160564334767 9.81799505764544 2019.03264951383 159 161 160
-988.217157717288 10.9133065432257 1890.77566211441 136 138 137
-998.035041786687 10.0817825187937 1892.57593957752 112 113 115
-1007.73677026535 9.45288715501513 1891.36687739297 114 118 117
-1017.55821760258 8.55537219584365 1894.17457106429 102 106 105
-1027.32935384772 7.72593044323588 1895.98067689591 115 119 118
-1037.10782213605 6.83058613532547 1898.79372838211 109 113 112
-1046.59830604548 6.73533972734619 1889.54740533365 126 131 127
-455.952844689844 21.759479074588 2170.81558067282 157 163 151
-464.115695090008 21.5608254777609 2164.75875258863 115 120 113
-473.463750623993 20.9116304981119 2164.60156725319 111 113 108
-482.236783538945 20.4861744242807 2161.49225056934 86 88 85
-490.271735021005 20.3573093215712 2154.44327236155 82 84 81
-498.155284018626 20.3002849592167 2146.40531200051 75 77 74
-505.71349650609 20.3886611464813 2136.39219460901 73 75 70
-514.576550428793 19.9563056350437 2133.27166200502 75 78 71
-562.615559740667 19.7452638009708 2081.92795023674 158 161 150
-577.743069731731 16.5373321805853 2116.32795288759 176 179 172
-589.049589247119 15.0095701487973 2128.02188275391 122 124 119
-600.286173716583 13.4859050476643 2139.7245293114 147 149 146
-611.605033472506 11.8941460613195 2152.42477482056 97 99 98
-622.698906139222 10.3788409242422 2164.14520895166 100 102 101
-633.135379317456 9.15504657755659 2171.91592630762 148 150 149
-643.235165745915 8.07734349091313 2177.71266098822 151 153 152
-652.024604785356 7.6452010095118 2174.60155479418 163 165 164
-661.102552301481 7.06939198312262 2173.47019698502 159 161 160
-670.316726008508 6.42208195036065 2173.32971434614 155 157 156
-679.925544345653 5.56182238917158 2176.16384474886 151 153 152
-689.512853760635 4.7025747366185 2179.00065667308 147 149 148
-698.56715586561 4.1269581703999 2177.8722491646 152 154 153
-708.372491783666 3.12819318038235 2182.69783454926 153 155 154
-717.288246736588 2.62325499345878 2180.57884367909 145 149 148
-726.568625317372 1.90726235381755 2181.43796703476 132 136 135
-735.487100441608 1.40150886280252 2179.31863885036 130 134 133
-744.868200383904 0.615951110026464 2181.17330333975 133 137 136
-753.563312346958 0.248741043997025 2177.06587024306 129 133 132
-762.383478307615 -0.189240861134865 2173.95094488883 133 137 136
-771.001917757009 -0.489716821343966 2168.84497695973 134 138 137
-779.848821860381 -0.930088904837673 2165.72672113781 131 135 134
-788.202496341157 -1.02688725931691 2157.63019663922 131 135 134
-796.78994535148 -1.2638503616649 2151.52024177666 133 137 136
-805.785585905231 -1.77717737097574 2149.39130374745 136 140 139
-815.249459714594 -2.63310035361908 2152.24351095011 136 137 139
-824.151741862188 -3.078585478347 2149.11811747193 135 136 138
-832.890017187434 -3.38902233323995 2143.99746123439 141 142 144
-841.734014431797 -3.76897210567359 2139.87148168436 144 145 147
-850.348376597446 -3.94718614091408 2132.75032640735 159 160 162
-857.966594136853 -3.24994173989604 2112.65052551921 169 170 172
-865.305235619633 -2.22284158597655 2087.54558910952 167 169 168
-873.436367973055 -1.8090232634406 2071.41351453891 157 159 158
-881.435212783871 -1.19965837381461 2052.27389187455 152 154 153
-888.438819469121 0.472378103521409 2017.13171589064 156 158 157
-987.808687380441 0.798752317378582 1895.89194887585 152 151 147
-997.43497542071 0.300218591538004 1892.67658371289 157 153 152
-1007.2693933744 -0.586506703954132 1895.48263031376 164 164 162
-1016.9898920097 -1.27892774251309 1895.27908011543 141 152 146
-1026.84208254303 -2.29227867628287 1900.09885673267 145 156 150
-1036.41108646356 -2.66343145664075 1894.87469037088 146 157 151
-1045.91136280795 -2.7807718270409 1885.62720346809 98 108 100
-454.773571921832 12.7646977322114 2167.96313281568 139 145 133
-462.94393300868 12.5515458769065 2161.90540562284 105 110 103
-473.265776852287 11.5441509348618 2166.66631632989 109 111 106
-481.081637832954 11.4725067527321 2158.63684153397 86 88 85
-488.748716550809 11.469819028054 2149.6180651923 78 80 77
-496.274994846724 11.5355469067694 2139.60875237388 66 68 65
-503.668625263722 11.6692780428216 2128.60812704421 64 66 61
-566.920308085789 8.22088579267527 2111.65386749641 164 167 156
-577.798647298118 6.93539823217384 2120.37729214868 169 172 165
-589.254732769889 5.37379376172784 2133.06057355766 165 168 161
-600.170024812738 4.02554822646223 2142.78723908422 163 165 162
-611.331027536029 2.5417998348439 2154.49921267757 93 95 94
-622.122564473209 1.20072154377868 2164.241303235 119 121 120
-632.707889206513 -0.0677715340735852 2173.00124960759 123 125 124
-641.940714785404 -0.712669032152724 2172.85867324079 134 136 135
-650.602057426366 -1.08246078228569 2168.75546115462 128 130 129
-659.418809061989 -1.52221344209677 2165.64072628245 135 137 136
-669.199844803323 -2.44199074867751 2169.46144907606 136 138 137
-679.087426218655 -3.42864595206158 2174.2767388182 135 137 136
-688.550382893666 -4.20923831862768 2176.12093472638 131 133 132
-697.485099244184 -4.71753445432541 2173.99958642892 136 138 137
-706.926628961872 -5.4974610326039 2175.8466948101 152 154 153
-716.351959646199 -6.2766542504463 2177.6958228036 153 157 156
-725.880949110847 -7.12252652284784 2180.53987748925 157 161 160
-734.802278250651 -7.63122398242608 2178.42020089342 134 138 137
-743.957932811399 -8.27465670422647 2178.28701088728 130 134 133
-752.772780472573 -8.71743591169064 2175.17276185891 136 140 139
-761.816456438223 -9.29464497515223 2174.04568462358 127 131 130
-770.434540288723 -9.60598265120755 2168.93978967506 127 131 130
-779.17777141619 -9.98538074904906 2164.82638368787 127 131 130
-787.53327858615 -10.1014218884142 2156.7296811557 131 135 134
-796.319370244159 -10.4841775310622 2152.61093526966 132 136 135
-805.121393212056 -10.8682914921911 2148.49020482742 130 134 133
-814.310608630753 -11.5163829919956 2148.35307916208 134 135 137
-823.223697512979 -11.9679464955935 2145.22635307451 136 137 139
-832.059825192231 -12.3551737471031 2141.10137476465 141 142 144
-840.996455435154 -12.8088914107168 2137.97195679608 144 145 147
-849.287680264856 -12.7438088512901 2126.85949777381 156 157 159
-856.919246107082 -12.0992860416249 2106.75792966808 166 167 169
-864.423513809566 -11.2678184687545 2083.64845374191 163 165 164
-873.006319538885 -11.2821033477473 2073.50750325668 157 159 158
-881.068207919501 -10.7855907567448 2055.36823768697 158 160 159
-887.23713738547 -8.43640000923596 2008.23523497053 158 160 159
-987.208290584384 -8.97861000612732 1895.99262318216 148 143 139
-996.90642421495 -9.60623121908558 1894.78400625797 116 108 106
-1006.80284170554 -10.6050802281165 1899.59822542211 122 118 115
-1016.51299851594 -11.2937070179814 1899.39595583036 96 106 98
-1026.30009391385 -12.1666650965764 1902.20811201969 90 100 92
-1035.86327939676 -12.5479608187867 1896.98445820686 80 90 82
-1045.40197524877 -12.808650480877 1889.74816874703 86 93 85
-450.21680653782 4.93632698468774 2148.39722235573 151 157 145
-461.575463097034 3.59443066495521 2158.06854189135 103 108 101
-470.363702776644 3.1567208424915 2154.95760003173 90 92 87
-478.211116632541 3.06362698754034 2146.92424411048 105 107 104
-485.721711332638 3.1057185970223 2136.91695075738 119 121 118
-494.762689074492 2.59417661016564 2134.78235021433 99 101 98
-502.897991056874 2.42498146889408 2127.72095506508 74 76 71
-567.149654296787 -1.4553563833381 2116.68964451297 157 160 149
-578.980808900831 -3.11637829264838 2131.34175552031 162 165 158
-589.777705468711 -4.3698025027589 2140.07525929542 169 172 165
-600.520895440938 -5.62011883599353 2148.81545715168 129 131 128
-611.668171834919 -7.06753273000898 2160.52904802416 13 13 13
-621.99597364903 -8.1780315661282 2167.30510119728 153 153 153
-632.280836193229 -9.28607610083496 2174.08674674284 133 133 133
-641.22242631315 -9.79575326351043 2171.96430400775 124 124 124
-649.602779165721 -10.0419463313086 2165.88045809686 115 115 115
-658.010473506149 -10.2901823236552 2159.79296524117 101 101 101
-667.94524325139 -11.2631364112053 2164.60233007731 102 102 102
-677.714083511222 -12.1688187467494 2168.42453767631 99 99 99
-686.932295159852 -12.8116679663794 2168.2835393788 103 103 103
-695.888827284348 -13.3241309740276 2166.15947957503 109 109 109
-705.352858615778 -14.0972643022648 2168.00376199806 117 119 118
-714.80068629069 -14.8696938366404 2169.85006468822 134 138 137
-724.712576046817 -15.9000563584909 2175.670123093 148 152 151
-734.117048223057 -16.6703509817865 2177.52183067086 142 146 145
-743.04656557883 -17.1825885523133 2175.4009012881 135 139 138
-751.421707841919 -17.3747371977012 2168.30963593699 131 135 134
-760.266209950167 -17.8251687551933 2165.19170636112 121 125 124
-769.121363024872 -18.2765799552277 2162.07220991873 125 129 128
-778.09100413146 -18.7925954400197 2159.94652354682 128 132 131
-786.45918971083 -18.9285255072525 2151.84829120089 133 137 136
-795.553813935888 -19.5101299194499 2150.71486749898 131 135 134
-804.648132759812 -20.0919985562554 2149.58148260516 125 129 128
-814.392936170775 -21.1147326896574 2155.42237230892 130 131 133
-823.287032177561 -21.5704313742885 2152.29802730977 132 133 135
-831.928889656137 -21.8393754512436 2146.18160708154 138 139 141
-840.088301046434 -21.7357734071827 2134.0775687906 142 143 145
-848.060448503045 -21.4495858711262 2118.97335780452 154 155 157
-855.869633645232 -20.9823037773927 2100.86570508247 156 157 159
-864.000536336626 -20.7068868050614 2085.74171074554 155 157 156
-872.724756567379 -20.8686486686424 2077.59911540709 169 171 170
-880.559317474713 -20.2330167612451 2056.46455103301 175 177 176
-886.786693719807 -18.070338978846 2010.33243277751 160 162 161
-986.490963852751 -18.5785717566367 1893.08412091174 154 143 137
-996.125322972966 -19.0878470820146 1889.86777681334 120 105 102
-1006.0700171866 -20.1299147090365 1895.68377224074 136 122 119
-1015.79146268116 -20.8161849599716 1895.48008768209 161 150 146
-1025.70234033209 -21.9135433928339 1902.30837618989 167 157 155
-1035.31573626534 -22.4225607462346 1899.09440722519 154 145 140
-1044.93867823219 -22.9324549866294 1895.87924928118 152 145 139
-439.01620293891 -3.29271844744991 2142.76237214101 148 154 140
-452.015174223003 -5.14294993281586 2160.29254637074 164 170 158
-461.970787962427 -5.98597528792344 2163.08335337182 124 130 120
-470.552004140245 -6.36208439174568 2158.99015723108 114 116 111
-477.815547176708 -6.27469681829002 2148.00588808154 107 109 106
-486.074052767257 -6.52220779328019 2141.93701119052 93 95 94
-493.989939328209 -6.63962589529124 2133.89517433752 61 63 60
-502.127228047585 -6.82565238250468 2126.83381584874 67 69 64
-566.235566211284 -10.6523891360817 2114.81232289529 150 153 142
-578.557866894687 -12.4638426794594 2132.42683949522 35 38 31
-589.986794175678 -13.9473497678365 2145.11306415045 171 174 167
-601.495843501665 -15.4905992622645 2158.79737474456 0 1 0
-612.16022041546 -16.7089749731855 2167.54732389008 72 72 72
-622.02052042993 -17.605092928858 2171.35785239621 171 171 171
-631.854149256296 -18.4998228143939 2175.17194592225 147 147 147
-640.937813513139 -19.0756675579199 2174.0398747917 157 157 157
-649.737923949498 -19.5251996557203 2170.92724239661 144 144 144
-658.131530821902 -19.7863315180214 2164.84178180319 140 140 140
-667.371514461636 -20.4272830178688 2164.69806149233 133 133 133
-676.606276658731 -21.0682154233614 2164.55499273636 131 131 131
-685.835826657493 -21.709096958431 2164.41281456669 120 120 120
-694.931688072128 -22.2874954661316 2163.27922802821 114 114 114
-704.278962578928 -22.9907140048626 2164.12996952765 116 118 117
-713.738438768701 -23.7557036761524 2165.97479895941 112 114 113
-723.301942271506 -24.5818690729797 2168.81473486853 112 116 115
-733.078777137221 -25.5304608411026 2173.64350461789 137 141 140
-742.019288565612 -26.0461435141097 2171.52145258116 136 140 139
-750.85300016288 -26.5010411970907 2168.40464108992 121 125 124
-759.478640701858 -26.8343876239892 2163.29810133936 121 125 124
-768.339203010335 -27.291590569415 2160.17818537766 122 126 125
-776.794446836482 -27.506161579853 2153.07698287353 126 130 129
-785.383256354418 -27.7837627228787 2146.9669652465 127 131 130
-794.885981641992 -28.6084027985006 2149.81424163194 123 127 126
-804.46258574892 -29.4922830370314 2153.66038175129 118 122 121
-814.011759584694 -30.3747144208185 2157.5099411908 129 130 132
-822.448211142278 -30.5352566802741 2149.40301420096 132 133 135
-831.097660656701 -30.8182264205777 2143.28568346762 139 140 142
-839.178624331399 -30.685384726823 2130.18367088804 147 148 150
-847.159531223725 -30.4379624895839 2115.07846886321 162 163 165
-854.817759535543 -29.8989503329272 2094.97385129745 163 164 166
-862.962860660703 -29.6626302242574 2079.84818804012 167 169 168
-871.628246200079 -29.7853557986763 2070.70490475571 162 164 163
-879.907540868109 -29.5582116718922 2055.5625191022 159 161 160
-886.886737713869 -28.1633585494385 2020.42411927445 154 156 155
-986.045186191792 -28.5928398877136 1897.19711220862 151 138 130
-995.704965716008 -29.1630635066371 1894.98544339744 122 105 98
-1005.4361551092 -29.8465652654288 1894.78053556711 133 114 110
-1015.19158895445 -30.5861153319665 1895.58067714066 174 150 150
-1024.99139727062 -31.4372212283499 1898.39094901727 173 152 151
-1034.74290839569 -32.2311919320164 1900.19941053611 179 161 159
-1044.3403559296 -32.690345657671 1895.97961342508 190 175 172
-441.049613856423 -13.425245763 2155.63619148141 139 145 131
-449.241433514248 -13.6815278992498 2149.57565969909 119 125 113
-458.638957578644 -14.3238683371154 2149.41252320106 105 108 101
-467.064172524342 -14.6469872004639 2144.33072817697 105 108 101
-475.321145454193 -14.9081341364996 2138.26231873151 77 77 75
-483.606085247544 -15.1712742538129 2132.19018416705 63 63 61
-492.104465758338 -15.4997832765493 2127.09951297652 91 91 89
-499.528900550191 -15.4510134726455 2116.09526718562 63 64 58
-566.958748329283 -20.4808318722638 2122.81017448826 102 105 94
-583.450633512392 -23.8457148371241 2166.10998892823 18 21 12
-585.130244559094 -21.5268226006655 2118.52961930179 6 9 2
-601.229116164514 -24.8158175244746 2160.87083283487 2 2 0
-611.737099769542 -25.9454641464267 2168.63213790891 132 132 130
-621.295375819885 -26.7056843997702 2170.46462514207 157 157 157
-630.690284352711 -27.4042905548531 2171.30965031887 134 134 132
-639.785059892442 -27.9809775258034 2170.17619478388 139 139 139
-649.306462617324 -28.739714708473 2172.01327968445 142 142 142
-658.393712625402 -29.3165045512396 2170.88076356223 137 137 135
-667.344505113351 -29.8332776765289 2168.75719111298 136 136 134
-676.300958758668 -30.3507374182036 2166.63315426167 140 140 140
-685.525507053372 -30.9886153212548 2166.49135209641 123 123 123
-694.744800710973 -31.6264695113856 2166.35044588508 113 113 111
-703.707050887803 -32.1451222094173 2164.22544853378 124 124 122
-712.551695996805 -32.6050437748971 2161.10752610387 139 141 140
-721.888843678159 -33.3027348875096 2161.95951681498 138 143 139
-731.685984829003 -34.2361941757854 2166.7859528779 139 144 140
-740.990574082636 -34.9324058477218 2167.642243061 141 145 144
-750.059653079503 -35.5108151747235 2166.51199883841 145 149 148
-758.690317953895 -35.8554407029014 2161.4048617836 144 149 145
-767.449358681261 -36.2600483814008 2157.28954924035 138 143 139
-775.912012685522 -36.4914404128415 2150.18746628735 135 139 138
-784.609838687664 -36.841195531559 2145.07196142945 123 127 126
-794.21768113694 -37.7129888288517 2148.91393108908 122 127 123
-803.798130217837 -38.5833331184316 2152.75955573197 126 130 129
-813.257829082508 -39.3946911970388 2155.61216658295 132 134 133
-821.789413945612 -39.6319078524214 2148.50149680523 139 141 140
-830.528885462292 -39.9857344314996 2143.38080555537 143 145 144
-838.522924013808 -39.8285626785754 2129.28188954673 145 147 146
-846.586930562287 -39.6761468995911 2115.17425447041 161 163 162
-854.002965109307 -39.0190013335488 2092.07624859121 165 167 166
-861.845873339327 -38.5954990921358 2072.95681562166 152 154 153
-870.231780122401 -38.5160659519529 2059.81688859449 157 159 158
-878.180584483019 -38.0484342280125 2039.67619683354 164 166 163
-974.36492592369 -35.9563565750647 1865.41805426845 156 142 131
-985.639461785949 -38.6401252556452 1902.3131194127 146 126 115
-995.140037457325 -38.9965795279602 1896.08952641693 139 110 102
-1004.7339959873 -39.4622570878755 1891.87042216199 139 106 101
-1014.40504712963 -40.0360978037764 1889.65711597627 99 57 58
-1024.22206131923 -40.8769227354256 1892.46521358703 96 56 56
-1033.99051343861 -41.6634324041696 1894.27154132157 123 89 88
-1043.58107803681 -42.0784510632221 1889.0447998339 143 113 111
-435.820975865634 -21.2693898729762 2133.13086672598 135 141 131
-446.663311998238 -22.3424192696574 2139.84261038361 127 130 121
-456.677682796906 -23.1679241823403 2142.62627898034 98 97 92
-466.671289954229 -23.9923477245561 2145.41229564027 82 81 76
-475.688992092528 -24.51100942145 2143.2803782357 101 98 93
-484.524806164975 -24.9696069412656 2140.16355438012 111 106 102
-491.701721264868 -24.8837530198273 2128.18241282555 92 87 83
-498.390316531098 -24.6207003770305 2113.23820222073 86 79 71
-572.27538638149 -31.9248706802418 2158.45620545093 23 26 17
-569.006441254137 -27.9558312781478 2081.25602514245 30 30 22
-580.10601450751 -29.1955783767567 2090.95964800536 24 24 16
-600.184079974036 -33.837365775908 2158.00170353616 23 22 17
-612.539321520439 -35.6456370976898 2177.62747512725 19 20 15
-622.073998185223 -36.3963212998707 2179.46288231135 9 10 5
-629.968164614533 -36.5060327864279 2170.41580834034 6 7 2
-639.065913706919 -37.0830286341331 2169.28198253698 35 36 31
-648.306274992813 -37.7181638440285 2169.13844004986 82 83 78
-657.681022179119 -38.4109044312577 2169.985725528 112 113 108
-666.634653427663 -38.9307374937776 2167.86204714519 142 143 138
-675.728043176251 -39.5085007646273 2166.72876738314 138 139 134
-685.478771567641 -40.3723883183783 2170.55312517117 139 139 137
-694.687631913287 -41.0068779213458 2170.41327184624 127 128 123
-703.513138454872 -41.4708084459471 2167.2975080851 115 116 111
-712.349583761004 -41.935702078609 2164.18062203588 125 125 123
-721.799818643915 -42.683933242062 2166.02656059516 133 135 130
-731.233778867982 -43.4314112967537 2167.87452815236 132 134 129
-740.766585459996 -44.2342580137949 2170.71799317681 129 131 128
-749.940254537992 -44.868088369132 2170.58252977793 134 136 133
-758.559666442669 -45.2229261797348 2165.4768239209 132 134 129
-767.093555553181 -45.5237542586287 2159.37372120333 125 130 124
-775.237083511029 -45.6048461681547 2149.28800618968 126 131 127
-784.038836853076 -46.0208793948725 2145.1673934534 113 119 115
-793.449994683925 -46.7688009858485 2147.01820778251 110 117 110
-802.748394182236 -47.4609628544585 2147.87501947673 112 118 114
-811.848651896703 -48.0432247632252 2146.74089448014 120 122 117
-820.403891073585 -48.2982375620909 2139.62731964942 127 129 124
-829.519611484264 -48.8820071025345 2138.49126897006 134 136 131
-837.610640258766 -48.8153193544095 2125.38841480833 139 141 136
-845.766195284434 -48.7529836914804 2112.27727934425 158 160 155
-852.467503802216 -47.6713601218236 2080.19768477917 175 177 172
-859.567873223034 -46.7618362665043 2051.09180428565 134 136 131
-867.639039967234 -46.4511580703097 2032.95187021928 78 80 77
-975.354224596589 -47.7796048939438 1903.62072470256 154 136 124
-984.999055071116 -48.3533851981186 1901.41093081081 136 108 97
-994.575042737472 -48.8254603415385 1897.19384579248 144 101 92
-1004.03040981969 -49.0951202167666 1888.96029179503 145 101 92
-1013.70969740741 -49.6718297375567 1886.7459653045 110 69 63
-1023.45027374058 -50.3502085945047 1886.54011281732 102 61 55
-1033.2099186613 -51.0787867319165 1887.33945971062 108 69 64
-1042.88827348763 -51.6561957845152 1885.12549173414 142 107 103
-433.615098297551 -30.1231630992304 2125.36724571037 158 161 150
-443.683450010582 -30.9412076058899 2128.14415816141 96 98 87
-453.927703788372 -31.8167102953412 2131.90671721822 100 97 90
-463.17636839102 -32.3989307460798 2130.75407181018 99 96 89
-472.234817069606 -32.9232464899143 2128.61732463675 99 94 88
-480.357065560962 -33.1579763350208 2121.55773106933 97 90 84
-487.769530324401 -33.1635526245005 2110.55512218571 89 82 76
-494.504718936993 -32.9420910692299 2095.60544680411 76 67 60
-502.759508152125 -33.1858916021597 2088.52933682526 53 46 36
-561.192392047112 -37.5231150149488 2095.35726073996 27 30 21
-572.12670925937 -38.6760767497459 2104.07335066672 26 26 18
-600.230049833873 -43.268001632834 2162.0517906748 28 29 23
-612.271767501409 -44.9068252970773 2179.70086776168 25 26 21
-622.102890446665 -45.760398762516 2183.51492535415 14 15 10
-630.13298128936 -45.9468600100638 2175.45901830462 11 12 7
-635.588615361667 -45.1406710191431 2149.58196475103 13 14 9
-645.026040884714 -45.8317583251018 2150.42166425819 2 3 0
-656.129665348711 -47.1818907718817 2163.14813354443 5 6 1
-665.924480212365 -48.0344177968344 2166.96695968382 20 21 16
-675.02084075236 -48.6124748379836 2165.8333099582 21 22 17
-684.643767245594 -49.4085210495924 2168.66551064287 27 28 23
-693.729590879917 -49.9863846069131 2167.53317535126 21 22 17
-702.941687709204 -50.6186317825819 2167.39291222694 19 20 15
-711.90150992613 -51.1429352849407 2165.26847302061 80 81 76
-721.470553036498 -51.9365790236206 2168.10739170609 104 105 100
-730.545718605927 -52.5148087394012 2166.97638744223 145 146 141
-739.390180708414 -52.986498848736 2163.85851884249 148 150 145
-748.357992687825 -53.5123291259773 2161.732846313 144 146 141
-757.111292157831 -53.9326661842417 2157.61829166748 139 141 136
-765.773498744386 -54.3013833810964 2152.50728183803 139 144 138
-774.352703121542 -54.619055861106 2146.39880867096 137 142 136
-783.264112661463 -55.0962825069144 2143.27235973835 110 115 109
-792.285192511736 -55.6268176375951 2141.1402923523 104 109 103
-800.92589585072 -55.9491569857292 2135.02391649967 108 115 108
-810.061660635175 -56.5335465237097 2133.8853660337 134 137 130
-819.28798684236 -57.1700570618442 2133.7435786633 143 146 139
-828.508470908157 -57.8064069536027 2133.60227966582 146 149 142
-836.611257886876 -57.7731686747128 2120.49780596896 127 130 123
-844.033278817012 -57.2824245361046 2098.40741860372 38 41 34
-848.925108093802 -55.1112374878398 2043.37204161539 14 17 10
-855.579507010894 -53.9275992757635 2007.2670437777 16 18 13
-974.457130077891 -57.2042448028097 1896.70320602385 123 101 90
-983.963058013857 -57.5874671151661 1890.47901558979 120 88 77
-993.642110614459 -58.1660404110959 1888.2649636012 146 96 85
-1003.25725920732 -58.6487624095345 1884.04301956887 140 90 79
-1013.07565780891 -59.4207612564043 1885.84307606396 110 67 58
-1022.79065301193 -60.0483667182937 1884.63235487373 102 59 50
-1032.47844250223 -60.6284372287698 1882.41721651582 106 63 56
-1042.17040821076 -61.209015180972 1880.20131805814 130 91 84
-431.811187647494 -39.1336935219783 2119.56972914815 138 136 123
-444.091076095004 -40.5581135918721 2133.15729037526 136 132 120
-453.338967748876 -41.1403743846259 2132.0047415329 103 96 86
-461.423337151753 -41.3890251339733 2124.94991171199 91 82 73
-469.92391383536 -41.750954257151 2119.85905446272 74 65 58
-477.503701841515 -41.8379705957982 2109.84346619528 63 54 47
-484.761217332371 -41.818093365209 2097.85243993569 48 37 31
-491.712638954269 -41.6922810891583 2083.88371894005 64 49 42
-499.457479901672 -41.7904094693851 2073.84756230449 73 60 51
-561.803567509932 -49.7216704020211 2158.80196640904 17 23 11
-564.752127309245 -45.7875794949865 2062.68664143642 14 15 7
-597.46657885053 -51.7189648992773 2148.31033037736 23 26 19
-612.46529500869 -54.3170698495695 2184.74017397668 23 24 19
-624.394407510429 -55.8970751527251 2202.40314862648 34 35 30
-632.520067286642 -56.1522830699747 2195.34318327915 20 21 16
-640.533283906741 -56.3572432812042 2187.2894307492 10 11 6
-643.450711443291 -54.6786025034179 2143.58726368366 23 24 19
-657.094212086057 -56.9318832919956 2174.1389592273 21 22 17
-664.253621112184 -56.7799567860425 2159.13628649539 26 27 22
-674.178802329941 -57.6707493758493 2163.9466315537 28 29 24
-683.280997439236 -58.2494468624148 2162.81225539492 29 30 25
-693.1577006872 -59.137658765947 2167.62864342111 25 26 21
-702.243873776169 -59.7158282659474 2166.49626532531 26 27 22
-711.206481289174 -60.2430862895917 2164.37148631112 16 17 12
-720.537297592323 -60.9239803153031 2165.22422290627 18 19 14
-728.556906990191 -61.0451348217168 2155.15407769973 7 8 3
-737.087256565352 -61.3723137874431 2149.05148608938 2 4 0
-746.434223541969 -62.0549956578125 2149.90245215293 12 14 9
-755.219791345063 -62.485555403884 2145.78389753129 16 18 13
-764.450956858735 -63.1180020869221 2145.6412552733 6 11 5
-772.94386195116 -63.4004875810666 2138.53553171616 8 13 7
-782.590559828227 -64.2331571813289 2142.37278968599 0 2 0
-790.621980033705 -64.2701544145404 2130.28509420144 0 2 0
-798.809249073829 -64.3606846099102 2119.18601804777 2 9 2
-807.707151732588 -64.7999087163728 2115.05346751755 6 9 2
-816.894261758621 -65.3877334769598 2113.90851851552 6 9 2
-826.169384962147 -66.0247099568183 2113.7606427955 3 6 0
-833.467655159512 -65.5399155077556 2090.67778709146 9 12 5
-840.967670364125 -65.1115629399128 2068.57783080784 7 10 3
-846.654368753662 -63.5286089694637 2022.51471263429 11 14 7
-973.430210424755 -66.5299139896102 1886.77832655521 104 82 71
-983.04195001141 -67.0197795749822 1882.55682675909 109 77 66
-992.853558460165 -67.73903433982 1883.34990462726 131 81 72
-1002.5504230449 -68.3213577111674 1881.1333994153 122 70 59
-1012.37770886005 -69.0853227288638 1882.93232568188 132 86 73
-1022.15875927734 -69.8032727852806 1883.72921357583 122 74 62
-1031.84932592569 -70.3858518860485 1881.51349498255 111 64 56
-1041.63779054198 -71.1479708535874 1883.31726104373 110 67 60
-431.826909690763 -48.6586050706256 2122.61615220896 147 141 127
-440.507419904203 -49.0831887115789 2118.51069241556 90 82 69
-449.599163505346 -49.6152867146751 2116.3695704582 90 80 68
-457.337477899903 -49.7775065802304 2107.34232444742 84 71 62
-463.970797698867 -49.6262237611634 2092.40554650472 56 43 34
-472.191567895708 -49.9006744320189 2085.33376261429 46 33 25
-481.004138154206 -50.3346714025037 2081.21184729767 51 38 30
-489.283531640379 -50.6132150465037 2074.132758346 60 43 35
-497.596275634675 -50.8941371285991 2067.04951371162 66 52 43
-548.686282655671 -55.0990500312512 2084.87126887141 31 34 23
-566.919888978963 -58.4471359691552 2137.02358726562 33 34 26
-575.641484213327 -58.8774126546439 2132.91301529693 31 32 24
-588.196931865568 -60.5257067439041 2152.51338105527 31 32 24
-606.110846183785 -63.9354993515564 2206.72161235789 20 23 16
-607.591066379759 -62.0390534302762 2157.15162356304 31 32 26
-620.806831613026 -63.973626586722 2182.71694262339 22 23 17
-630.912557645481 -64.898938692467 2188.5125347603 24 25 19
-632.687525586448 -62.9812760860344 2137.89802021784 19 20 14
-648.155526187619 -65.7497378177337 2180.3163516482 19 20 14
-652.459593555757 -64.6427418361928 2145.51255022559 21 22 16
-665.60208151658 -66.6550058794214 2173.10283291764 19 20 14
-672.932169651945 -66.5932411191009 2159.08702524662 20 21 15
-690.776580404207 -67.6063657336629 2153.83951474411 20 21 15
-701.166135459219 -68.6733365598625 2162.6233613135 25 26 20
-710.634883047255 -69.3978877263613 2164.4669272362 26 27 21
-717.302126747871 -69.0110179343735 2143.47869225459 23 24 18
-724.669718061694 -68.871836395881 2127.44238606916 20 21 15
-732.118582402586 -68.7381160960819 2111.39595187241 21 24 17
-741.908044507312 -69.5651590766342 2115.21537889314 21 24 17
-752.442061761986 -70.7238861408016 2125.99705353598 19 22 15
-760.867497720842 -70.9776671479091 2117.8919870374 13 16 9
-770.588682985287 -71.8010796720643 2121.71968477473 12 17 10
-780.895279771281 -72.9054319566767 2131.52166958658 9 14 7
-789.750198811874 -73.3495622005707 2127.39449607793 9 14 7
-797.073837613416 -73.0472470689352 2107.33249690691 8 13 6
-805.534015663251 -73.2638472642714 2098.2150695195 11 14 7
-814.858761528525 -73.9008794384893 2098.06100133133 14 17 10
-821.07758116836 -72.9204055566228 2063.01834306781 13 16 9
-828.596444355588 -72.5504227819746 2040.91618838216 15 18 11
-839.72105355713 -74.1141934131552 2060.6948917306 13 16 9
-846.065601938584 -73.0208519163265 2022.613184736 21 24 17
-854.320215632619 -72.9419412925133 2006.46634212285 11 13 8
-972.612174169191 -76.127130713762 1881.86677054394 95 73 62
-982.237148959001 -76.6257078563651 1877.64364201428 105 73 62
-992.137154784658 -77.4258163090861 1880.44151580285 110 60 51
-1002.01430235855 -78.2246950220867 1883.24199865889 115 63 52
-1011.80520654633 -78.9371687299681 1884.03740217002 137 89 75
-1021.6131229403 -79.6914789752613 1885.83872020036 129 80 66
-1031.32464395402 -80.3182509588828 1884.62843037348 120 72 62
-1041.15289367643 -81.1553048600688 1888.44304329223 119 75 66
-426.780307518812 -56.900175999949 2101.09684416711 122 110 94
-436.719017437332 -57.6402734158557 2102.88180250985 106 90 74
-447.431157126819 -58.5810901330384 2108.60175863828 73 54 40
-454.801126873639 -58.6664803851993 2097.60466306874 59 40 26
-460.884109444584 -58.4053836355613 2079.71297320414 51 33 21
-469.139229157107 -58.6987298509908 2072.63695245797 50 32 22
-478.731885228273 -59.3421715355314 2072.44922727045 54 37 27
-488.136415002664 -59.9360086442087 2071.2771614025 58 38 29
-496.637341514952 -60.2834377602992 2065.17853521324 53 35 25
-554.118662155001 -66.2681852920483 2120.50213203703 28 31 20
-557.282382879296 -65.0665703851512 2082.81684812628 31 32 24
-578.782909144383 -69.2695634008736 2155.72683653615 21 22 16
-588.891617408819 -70.1372446093525 2160.51421764104 23 24 18
-602.880935173975 -72.198041452824 2190.0143229857 25 28 21
-607.321199086336 -71.3433654929773 2159.22517817686 13 14 8
-614.492940001875 -71.3058981581257 2145.22919528914 30 31 25
-626.186820280137 -72.6915848393011 2160.90539933345 23 24 18
-635.021288607089 -73.1766132807616 2157.78881302383 18 19 13
-636.147352345683 -71.127974668947 2101.20832984226 16 17 11
-648.796814446022 -72.8399914839027 2123.82043252813 11 12 6
-662.966844040204 -75.1031123151899 2158.33743494635 17 18 12
-673.436517192941 -76.1471624853309 2167.11122289007 18 19 13
-677.774992005443 -75.0605864881587 2130.28756693199 17 18 12
-688.131858263609 -76.0600393883154 2138.06762796572 18 19 13
-699.073474602615 -77.2861399336747 2150.81398827458 19 20 14
-707.459662166067 -77.5930168236323 2143.72164666803 21 24 17
-717.454905870287 -78.494448912757 2149.53096345916 19 22 15
-723.736900179905 -77.9867575126936 2124.55949848306 17 20 13
-732.697618697209 -78.482247564662 2121.42718444636 18 21 14
-741.782197541291 -79.0236835711403 2119.28698119961 17 20 13
-755.289130333584 -81.3603149059245 2156.91022932913 16 19 12
-762.444718086583 -81.1361703805167 2137.87709489317 14 17 10
-769.69767449161 -80.9184701897344 2118.83158612725 19 22 15
-779.400761450673 -81.7271703064366 2122.66174395024 19 22 15
-787.184358336296 -81.6950508177338 2107.58149177114 20 23 16
-794.462322617636 -81.4039728200018 2086.51729473587 22 25 18
-804.484916180925 -82.347198278599 2093.33123585457 11 14 7
-815.19538760968 -83.6370656242045 2108.12222407444 14 17 10
-822.978951880137 -83.5302269248452 2091.02640499876 15 18 11
-829.9884305131 -82.9960620020879 2063.94847009774 19 22 15
-836.138463537916 -81.9534776823664 2024.88324376998 17 20 13
-844.99293061354 -82.2560307009956 2016.72476516379 23 26 19
-847.964068842939 -79.3094717963446 1932.70218915149 23 25 20
-852.662652674155 -77.1163231899447 1865.5979042328 26 28 23
-972.005547738907 -85.954934689962 1881.96835510807 117 94 86
-981.590288299073 -86.4210180624364 1876.74247490303 140 107 98
-991.531187316459 -87.2501834472546 1880.54300908162 96 48 38
-1001.47834794786 -88.1177732125411 1885.35030986649 113 61 50
-1011.36004600862 -88.943555350896 1889.15822306482 137 88 71
-1021.15521817901 -89.6884089286756 1890.96110659512 137 85 71
-1030.90635259452 -90.3928695626723 1891.76145203657 142 92 81
-1040.81182450146 -91.3718375755628 1899.5977904705 138 94 83
-1050.54090767024 -92.1130482654573 1901.40891192407 134 94 84
-423.550896638574 -65.6942967368625 2088.42212120538 125 109 93
-434.125550575462 -66.5722217853348 2093.15138202177 107 88 71
-444.471442886119 -67.4007032789674 2096.90113336191 71 49 35
-451.483159622579 -67.4208633313435 2083.93319967229 58 36 22
-458.368903132617 -67.3980683176961 2069.97294620902 48 26 15
-466.650253054239 -67.7098376229146 2062.89370060437 54 34 23
-477.389180544834 -68.6342650525228 2068.61027061299 51 33 21
-487.723588523077 -69.4630127711 2072.36169609976 49 29 18
-496.583243582769 -69.9174332632453 2068.23395866293 58 40 28
-554.877680249793 -73.9925728698355 2072.05516822149 19 20 12
-569.12668752892 -75.9494738246725 2100.51490514576 16 17 11
-594.37073278001 -81.0629182575078 2198.15398149503 16 17 11
-603.562324761316 -81.6807625621378 2198.01647959382 20 23 16
-603.202950057767 -79.5150531794314 2136.58214601785 18 19 13
-613.157654136067 -80.3221945651362 2140.38089940704 23 24 18
-624.125451296099 -81.4397136456752 2151.10809209367 25 26 20
-633.861900872797 -82.1983172255645 2153.92626743357 25 26 20
-641.286957476198 -82.2484549573894 2140.90659004861 18 19 13
-650.32194690958 -82.787341482377 2138.77280882192 14 15 9
-661.565862659156 -84.0285742738509 2152.48917089994 20 21 15
-679.445026175908 -85.0601274141643 2147.23737198874 21 22 16
-688.850554262395 -85.7287278194992 2148.08099288895 21 22 16
-696.723003485946 -85.8787969374007 2137.02136118083 24 25 19
-706.139519144118 -86.5485178733471 2137.86337357919 24 27 20
-715.42382315397 -87.1749261038589 2137.71432431772 25 28 21
-729.095615904842 -89.3793912808928 2174.30872347724 24 27 20
-736.296397879843 -89.276962789217 2157.28564380078 22 25 18
-744.71694118912 -89.6033452692272 2150.18930643628 23 24 18
-751.621532174142 -89.3421117782287 2129.17178277548 25 26 20
-763.812864425866 -91.1021856544542 2155.87217257609 22 23 17
-771.540069316147 -91.1394166958515 2141.80706778371 22 23 17
-777.595636474906 -90.4738687386745 2110.81684074116 20 21 15
-785.409621458626 -90.4819794981182 2095.73314252074 17 18 12
-793.008061592835 -90.3713253715306 2077.65272869683 17 18 12
-802.396301232392 -91.0064626093439 2077.49049160202 23 24 18
-812.603321897081 -92.0097719872544 2086.29694973403 19 20 14
-823.111359879874 -93.1728059817597 2099.09725197494 19 20 14
-828.284751604775 -91.8559966103257 2051.08351812444 21 22 16
-837.302543915603 -92.2929944135292 2045.92831311334 15 18 11
-842.46392144556 -90.8005240260216 1992.87669993786 22 25 18
-849.624116024761 -90.2075121048595 1961.74881294479 20 22 17
-972.041551422515 -96.3503381576449 1897.10774580283 123 100 92
-981.304111792127 -96.5610204780217 1884.86710896645 150 120 110
-990.92473350909 -97.0752213385856 1880.64456481905 94 47 39
-1000.83842629349 -97.8887855549549 1884.44821282082 107 57 46
-1010.88412939816 -98.8861777984654 1893.27478684805 145 98 82
-1020.75714181345 -99.7325431373265 1898.0915252669 144 95 80
-1030.48993148489 -100.429920104918 1898.89438163812 148 100 88
-1040.33035331353 -101.309559644088 1904.72296189412 138 94 83
-1050.08910322067 -102.114059359497 1908.54592197991 151 121 111
-424.375108267906 -75.4649520489723 2095.39928536455 125 107 87
-433.931125065375 -76.1003113404886 2095.21611125709 91 68 50
-443.680222153169 -76.7804372627213 2096.01688712914 60 34 19
-449.913622499196 -76.6549167536661 2079.11447014887 55 29 16
-456.810811221611 -76.6688036254667 2065.15288499119 55 31 19
-464.726148829433 -76.9093390465034 2056.10375377118 56 34 23
-474.552146919778 -77.5950682436084 2056.89470734003 169 149 138
-486.023755577774 -78.6768412239311 2066.55148636468 60 40 29
-495.080518302065 -79.1846186633546 2063.4069786684 79 61 49
-551.149518083643 -82.6364821767183 2053.39568776856 19 20 12
-570.323391863068 -85.7952867043567 2111.47677100382 18 19 13
-596.671880243458 -90.9315679382652 2216.03261001343 17 18 12
-604.873913572572 -91.2897298598513 2209.9710719221 21 24 17
-604.780042937088 -89.3730172156671 2150.51987519726 20 21 15
-626.670994036451 -91.5394820670213 2171.98013173264 22 23 17
-633.577235580901 -91.4923699088415 2156.0016417324 22 23 17
-645.150619284469 -92.7778407297511 2171.69261912196 19 20 14
-652.273979762642 -92.7772804211558 2156.69508392195 17 18 12
-660.300759509023 -93.0285583997531 2147.63207367203 22 23 17
-672.426022570191 -94.5115286590508 2168.29337564788 24 25 19
-684.299786563995 -95.9463341405296 2187.97848955081 24 25 19
-689.053697547721 -95.1809797280457 2154.12713710352 24 25 19
-697.670569472717 -95.600021320057 2149.02191729931 23 24 18
-705.438925387703 -95.7387486775552 2136.96731858565 20 23 16
-719.469071140877 -97.9263299062099 2175.5325674109 24 27 20
-726.505104890087 -97.8247284925125 2157.52236241893 25 28 21
-737.583651131871 -99.0806610899439 2173.27501481041 24 27 20
-747.321705643185 -99.895585097215 2178.10851237818 26 27 21
-751.59956475942 -98.7778207560453 2134.23804854242 27 28 22
-759.784281725207 -99.0089484466722 2124.14734822923 22 23 17
-774.022246276834 -101.469720937159 2170.74959952827 21 22 16
-776.812645480006 -99.6755652831328 2108.92317126354 21 22 16
-783.730570577217 -99.3737668748729 2084.88057519479 18 19 13
-792.814346038036 -99.8894439236589 2081.73295754077 16 17 11
-800.869092086233 -99.983941892868 2067.62712835871 20 21 15
-810.462584424297 -100.694208429837 2069.45508925602 16 17 11
-819.861224295048 -101.327574542734 2069.29154960965 17 18 12
-830.549566730286 -102.52843461897 2084.0850649996 20 21 15
-836.7166079791 -101.727293080002 2046.02627934394 21 22 16
-841.464620414304 -100.189154700853 1987.98721539503 22 23 17
-851.137261099149 -100.873174143118 1988.7975428276 20 21 16
-858.910107019737 -100.627854722001 1964.64840642974 2 3 0
-971.910033671886 -106.524230946333 1908.23622991146 100 83 73
-981.060528860735 -106.692864283648 1893.99385294749 131 107 97
-990.656522227117 -107.213304853564 1889.7743987047 111 73 64
-1000.26758457462 -107.734914431738 1885.55306702069 107 67 57
-1010.47350232696 -108.876334973021 1899.39894252892 115 79 63
-1020.39054744493 -109.773258010847 1906.22569326507 123 83 71
-1030.10227794522 -110.46336596079 1907.03115855365 163 123 113
-1039.70548295487 -111.017451432032 1903.81858004125 143 107 95
-1049.53218269798 -111.909109155152 1910.6568317488 128 101 90
-433.737700612194 -85.6180555728261 2097.28092859113 93 67 50
-442.493635111687 -86.0818740175178 2093.1661596162 59 30 14
-448.342699410467 -85.9168741557685 2074.2962273386 62 33 19
-455.828042034505 -86.0929417111054 2063.2849727115 64 38 25
-463.747560300484 -86.35599248456 2054.23513879471 59 35 23
-476.755423685115 -87.7422861670326 2071.76298157917 82 62 51
-485.794969842095 -88.2545806983772 2068.62063430432 96 77 63
-551.213465237942 -92.3075253231611 2057.44416455118 20 21 13
-572.336209778329 -95.781404097829 2127.37607622715 22 23 17
-591.312299479595 -98.7932111474644 2186.48938200038 21 22 16
-601.008106816168 -99.5268024040969 2189.31232311378 22 25 18
-609.448280353589 -99.9437845122881 2184.22914880013 22 23 15
-620.790908383846 -101.108262134271 2197.9329900371 21 22 14
-625.948223112187 -100.665191135587 2171.0864341341 19 20 12
-639.140477743922 -102.332748961637 2197.6619113701 19 20 12
-647.733762206693 -102.789803927564 2193.56742234679 20 21 13
-652.402411277629 -102.168086600227 2161.74270281043 22 23 15
-660.690523358007 -102.517209939124 2154.66271169886 20 21 13
-676.048817915408 -104.856434102969 2199.10921787819 20 21 13
-687.709663002515 -106.190563314103 2217.8127103076 23 24 16
-691.077673195561 -105.131399163282 2174.05594456 24 25 17
-697.47735957239 -104.916886070285 2152.09362567891 20 21 13
-709.593132469377 -106.398967733853 2174.77196436493 23 26 17
-718.290715646644 -106.864115389664 2170.66448079046 23 26 17
