ply
format ascii 1.0
comment KinectMotionCapture
element vertex 764
property float x
property float y
property float z
property uchar red
property uchar green
property uchar blue
end_header
-658.874025092477 616.429078251524 2181.35982094162 97 76 59
-653.28713376563 614.242244321181 2190.40855710359 90 71 54
-649.581750344776 612.545173772705 2198.95953354634 100 81 64
-654.393732327396 613.047538671301 2205.45275624748 99 80 65
-650.677457032461 611.351150158518 2213.96372389816 82 63 48
-648.850112083017 610.143789255247 2222.00309634205 64 45 30
-649.86524335963 609.668894389835 2229.36950546155 70 51 36
-655.630100183616 610.413670459767 2235.65729102923 90 71 57
-659.4989253243 610.669770789676 2242.38959905769 88 69 55
-666.225595764671 611.656638992361 2248.50400496484 87 69 57
-669.149670513533 611.66750397286 2255.47106059988 76 62 51
-669.215738822774 610.947099819665 2263.05510360534 46 36 26
-643.525280833608 603.651476600819 2276.06704606079 23 19 7
-654.066169865311 605.611451391136 2281.37105602815 22 18 6
-668.441039712996 608.542998132224 2285.93707443318 23 19 8
-681.878635780914 611.228812993398 2290.7643571341 24 17 7
-695.333216409638 613.91223756185 2295.65412009722 27 17 8
-716.464949560476 618.538205023168 2299.09978641902 30 17 9
-728.043511781462 620.730278176337 2304.50668793131 29 16 8
-667.719356769574 604.700862764302 2323.69419527141 32 23 14
-579.472303649491 581.640010248278 2347.77182573403 26 23 14
-699.195253480514 622.094494678915 2139.81153199408 58 40 28
-688.00399381003 618.470798184923 2150.52496747104 65 43 29
-673.015838359735 613.881010495801 2162.11847326586 97 71 56
-668.39513958238 611.955395690022 2171.0230926915 101 78 60
-664.709823119451 610.272511045041 2179.65753005284 90 69 50
-663.854955215573 609.315699308461 2187.56845338727 86 65 46
-658.260319544472 607.150578698615 2196.60307399323 89 68 49
-656.445227737928 605.953021780421 2204.6941296781 81 58 42
-651.778919836849 604.031252179349 2213.43183902745 71 48 30
-649.000679515157 602.593273883985 2221.69237298299 65 42 24
-651.914874518983 602.604003341115 2228.62173247623 76 53 37
-656.731344501272 603.09677271903 2235.1264891536 100 77 61
-661.55231776089 603.588797341905 2241.64656639522 102 79 63
-666.377555524687 604.080025479995 2248.18197404625 96 74 60
-671.207049664027 604.570472515016 2254.73269163786 87 70 60
-667.459055567773 602.891832998871 2263.13709938325 28 20 9
-664.656706674829 601.454772709416 2271.30777349725 24 18 6
-674.261338639395 603.148094992606 2276.86454344892 24 18 6
-700.12427558011 608.931227789792 2279.12428482269 29 21 10
-697.33076105619 607.492243245246 2287.32747336597 30 20 8
-712.715658913311 610.623378715579 2291.8722882782 36 22 11
-723.331041674792 612.549746830964 2297.43259039113 38 21 13
-727.249517288681 612.792046423505 2304.34052783227 36 22 13
-725.414910875042 611.592327337872 2312.35776452642 44 34 24
-710.557706579945 617.94171260665 2128.72036308711 141 128 122
-702.209621335542 615.072244234629 2138.77623793766 113 91 80
-679.688463042012 608.612953066425 2152.39329509611 126 100 87
-671.297774744985 605.7478487279 2162.29374838452 133 104 88
-664.78155733633 603.362808153561 2171.6641910557 114 89 69
-667.712066985414 603.370690457892 2178.65325510847 104 82 59
-667.803900279312 602.660852675187 2186.33962950533 113 88 66
-665.050769107792 601.234130285053 2194.699566181 120 95 75
-657.549564194801 598.613367498612 2204.16044102062 113 88 68
-652.88048051003 596.710548593231 2212.89980890634 114 87 68
-651.050029864435 595.524848237451 2220.94132584487 126 99 80
-653.965183457297 595.532874645728 2227.87346685029 130 101 83
-656.881721095518 595.540437708672 2234.81045401287 113 84 66
-661.703242313414 596.024614935686 2241.32761128126 112 84 63
-666.529024326628 596.507981665265 2247.86007634191 108 82 65
-671.359061767502 596.990625167797 2254.40788436373 89 70 56
-674.285412948372 596.995955684004 2261.37989777363 29 15 4
-694.396862886982 601.287653920077 2264.72366181567 28 16 2
-699.249727859296 601.766761925444 2271.35399185982 27 17 5
-708.887153975045 603.434990043016 2277.01667692489 37 25 13
-711.838583681533 603.436373002809 2284.07838068218 40 26 13
-720.536355340537 604.864155812433 2289.9968287209 43 25 13
-721.577910803892 604.388674371222 2297.46097533352 46 26 17
-724.53615860842 604.388445612787 2304.54697579801 53 35 25
-721.737218689705 602.962464992415 2312.73823091072 57 45 33
-674.751594850542 590.613705934495 2329.21973345914 22 18 7
-681.638431273192 602.117934845054 2143.84264029338 121 97 87
-665.699655197968 597.387635143056 2155.71428647964 133 105 93
-663.907536560901 596.209993481966 2163.90321049092 122 90 75
-662.10963073002 595.032818956366 2172.07094271071 112 85 66
-663.144873575516 594.565418374729 2179.51675364216 110 85 63
-664.178887151024 594.097950477384 2186.95702901295 111 84 63
-663.315694628236 593.157763522194 2194.84846970811 118 91 70
-660.55118102642 591.745383889092 2203.17520091692 114 87 66
-655.880551819909 589.861221840415 2211.92153856846 125 97 76
-654.999906096273 588.922259147153 2219.7489518845 128 100 79
-655.065750695248 588.219564521148 2227.34241614344 128 97 77
-657.982747824694 588.224561603447 2234.27948928103 119 88 68
-662.805537589515 588.700779211726 2240.79633112895 117 86 65
-665.726730016737 588.704756747725 2247.74833689676 112 85 66
-673.417425194049 589.886519022893 2253.66870323873 94 72 58
-677.299435586774 590.1248476139 2260.4387453782 37 21 8
-704.105395776353 596.013671466242 2262.37015466244 37 24 8
-699.408302578165 594.130324358044 2271.01782218794 38 25 9
-709.048288123521 595.777301704951 2276.67659328939 70 53 37
-716.785411504701 596.952279049741 2282.76505480279 74 52 38
-723.572977079623 597.890837641122 2289.07598127237 42 18 6
-722.698428270161 596.948007099145 2296.92358927858 53 29 17
-720.860081977783 595.770556246542 2304.94099953255 64 42 31
-719.975839681504 594.828399115174 2312.75304267828 81 67 56
-693.144767423716 587.547533554256 2325.43574550557 21 17 6
-693.961282504093 598.182417510474 2132.5580906128 136 123 117
-674.26320053394 592.564248912738 2145.49782743442 137 115 104
-659.255076105242 588.1199085584 2157.10809113665 144 118 105
-658.400888824483 587.187706101231 2165.03800752454 123 91 76
-657.542367364702 586.255744964738 2172.95198431244 115 88 69
-658.572934711074 585.791571265305 2180.38247331651 96 69 48
-660.549706031501 585.561070379791 2187.57631160032 98 71 50
-663.474838710722 585.563992795872 2194.54135158156 115 88 67
-666.401164761651 585.566409015526 2201.51143175463 114 86 65
-661.731602038922 583.700774863771 2210.27249757309 117 89 68
-660.853411054023 582.76955779664 2218.11391503579 118 87 67
-659.970836567177 581.838587754628 2225.93921337364 119 88 68
-660.987634529573 581.374309581635 2233.31758437209 119 87 66
-663.907916687021 581.376153947067 2240.26486371442 119 87 66
-666.82956023986 581.377595353142 2247.21694324357 110 82 61
-672.614851028029 582.077499203259 2253.55133712231 90 69 52
-682.224481894807 583.707870073257 2259.08692279139 59 42 26
-699.489355619571 587.198856191429 2263.04626972704 35 19 3
-710.084013289686 589.058063222837 2268.48629262273 51 35 19
-711.12234190962 588.589395935249 2275.94276069804 106 85 68
-721.7355443768 590.445894945888 2281.44992708802 97 74 58
-727.569790234043 591.138425652007 2287.96235554867 51 25 12
-729.573449161672 590.900684783155 2295.25145130173 59 35 23
-726.778135575667 589.50141321888 2303.47210395432 89 67 56
-727.817212344444 589.031431868243 2310.93052012904 45 32 23
-695.086841458685 590.697510211942 2132.01149177919 129 116 110
-677.268211629957 585.604081937666 2144.46698981802 122 100 89
-661.309139947045 580.976628610069 2156.32821420749 129 103 90
-659.508853563455 579.821175181487 2164.50082146519 111 82 66
-660.541974371482 579.35968113081 2171.94248276186 111 84 67
-660.626750382314 578.667043468232 2179.61258508279 105 78 59
-661.656233296712 578.205479143766 2187.04069522623 74 47 28
-661.735911455333 577.512940058903 2194.69193245786 131 102 84
-667.5086232436 578.205539987267 2200.97594068406 139 110 92
-666.636550858619 577.281875868001 2208.84484384492 132 104 83
-666.711051107581 576.589213554315 2216.4767787126 122 91 71
-664.879242560464 575.435362418917 2224.53429098185 115 84 64
-664.946398041721 574.743044108348 2232.13917335214 112 81 61
-666.916397704768 574.511680056573 2239.30732484132 115 84 63
-669.839941215213 574.510374443272 2246.26472421646 109 81 60
-676.582689247213 575.429717242467 2252.39619106543 103 80 62
-689.063204553395 577.728982060648 2257.32322242653 81 63 43
-708.250510692449 581.636747440986 2260.89067596887 42 25 5
-714.071843609959 582.321247274945 2267.34916192039 67 49 29
-715.111968488205 581.855202794473 2274.81395505387 98 72 55
-723.814878614138 583.227744304901 2280.71660474879 62 36 19
-724.85786222766 582.760971969707 2288.19062325418 109 83 70
-728.777697880919 582.983112652575 2295.0908829747 86 62 50
-725.978721359205 581.597601625336 2303.30755257014 69 55 46
-692.436652303332 582.296467142095 2132.45409063371 147 136 130
-683.108847845217 579.318598240481 2142.70127105071 113 93 82
-671.87299910456 575.885199991696 2153.36930039913 109 86 72
-666.293620440531 573.825327079816 2162.52701516877 70 43 26
-665.437357580299 572.90914203672 2170.45840887109 67 40 23
-665.524047149279 572.221561549683 2178.13973771678 80 53 36
-664.65958397466 571.305754554497 2186.04185296117 66 39 22
-663.790757539783 570.390221126574 2193.92794099145 126 97 79
-666.716557846822 570.387585825163 2200.89287991455 134 105 87
-668.693348984584 570.156476100526 2208.08640738709 131 102 84
-670.670092381056 569.925155273425 2215.27962432654 121 92 74
-672.646781092454 569.693566380549 2222.47246898833 114 85 67
-674.623398150589 569.461783592348 2229.66492520023 110 82 61
-673.740031389624 568.546567010943 2237.49629886737 114 86 65
-674.760076883114 568.086874017682 2244.89055117722 110 83 62
-679.598049555466 568.537449242462 2251.44757492648 107 86 65
-691.129031491152 570.579648131904 2256.58319740083 84 66 44
-704.586985568438 573.074732272964 2261.36564800868 49 31 9
-716.148094585992 575.112926917338 2266.61059836255 77 56 35
-718.146446350372 574.876882968336 2273.881061005 110 85 65
-723.978354691905 575.549220274336 2280.37206167227 94 67 50
-724.060932128654 574.858302793852 2288.03601617396 114 88 75
-726.060322446452 574.621488859013 2295.30984863296 109 87 76
-721.335394024523 572.79626799209 2303.89086729405 29 19 10
-691.671966676304 574.368435216996 2132.40318824609 228 219 212
-688.008601628002 572.779395011597 2141.17837537391 96 78 66
-677.71580125495 569.60931496367 2151.61768342166 90 68 54
-672.137081942933 567.570645406514 2160.79030390175 99 72 55
-670.335849995132 566.4362849802 2168.97271748227 89 61 47
-670.424678558931 565.753786057682 2176.6651962303 78 49 35
-668.613293197681 564.620166676389 2184.81038003372 84 55 41
-664.897127032275 563.035846790453 2193.39250712507 123 96 79
-666.873285095144 562.80515688246 2200.58394916487 115 88 71
-670.751271657198 563.025017913568 2207.32739215917 115 88 71
-672.728780859593 562.793709608378 2214.52346029159 107 80 63
-675.658505585062 562.787356627046 2221.50062266268 108 81 62
-676.683627868583 562.330376299241 2228.91450771135 110 83 64
-679.614656146599 562.323424865982 2235.89613208634 114 87 68
-680.638179821759 561.866181735657 2243.30391589572 112 87 67
-686.436178437255 562.53325601403 2249.66569359622 103 83 59
-692.239855190541 563.199428080224 2256.0479834999 98 80 56
-704.746097559992 565.437712669738 2261.03110565802 97 79 55
-712.480823718635 566.550731279037 2267.07247827448 111 91 67
-722.14065166651 568.111645175444 2272.74965534781 99 74 52
-725.099840755569 568.099790461455 2279.83273962007 98 71 52
-723.262660187829 566.965746207331 2287.88188263507 65 39 26
-722.379765758134 566.056475566495 2295.71969295374 28 8 0
-699.40890883251 568.461586578031 2130.1235623346 255 253 245
-693.857353032024 566.441408940068 2139.40871043881 93 77 64
-683.562967448289 563.305897676397 2149.86395783068 83 64 49
-676.090683194873 560.841932960211 2159.53120350409 115 89 74
-673.342217603575 559.494988007839 2167.959758885 110 81 67
-672.48340335352 558.594731160153 2175.89266502821 91 62 48
-673.518569300155 558.140705088195 2183.34570539199 72 43 29
-670.752923647389 556.795162127258 2191.71043069337 114 86 72
-670.831517869651 556.11852593547 2199.36861275841 117 89 75
-673.76107524433 556.110127160465 2206.34386218179 115 88 71
-677.644199364829 556.323978407729 2213.10258566076 111 84 67
-682.482831531286 556.759775811151 2219.6527280396 110 83 66
-684.465322591584 556.527515847641 2226.86669200675 107 80 61
-685.493622731919 556.072724147807 2234.29375760005 110 83 64
-686.520166771622 555.617825139151 2241.71516440922 113 88 68
-692.323434497161 556.273863184299 2248.08953758268 114 92 69
-696.219814983135 556.48483819799 2254.89566344518 114 94 69
-708.732487716266 558.693402099588 2259.88482521937 111 91 66
-718.387756489577 560.234148476239 2265.53234225493 118 96 72
-730.929814487783 562.438793927588 2270.62813185464 101 76 54
-736.772966405806 563.089034955544 2277.14692728453 101 76 56
-734.942135467709 561.965029767732 2285.22598337081 58 36 22
-740.790783149936 562.614201935141 2291.76450867345 26 8 0
-694.980566009456 558.972384333806 2138.86342895223 75 61 50
-684.680977141517 555.871874744267 2149.32145579435 109 93 78
-681.941388563739 554.537377132611 2157.79082838592 120 97 81
-676.350520076375 552.542282156744 2166.94585206858 118 89 75
-676.440725730907 551.870325191508 2174.65009932455 90 58 45
-679.376855879136 551.859324854822 2181.64718065554 74 42 29
-678.513213036087 550.967193855803 2189.56728941479 100 71 57
-676.694292471399 549.855285185484 2197.69820349105 114 86 74
-676.772801858315 549.183828897695 2205.3593408993 109 81 67
-678.75329300352 548.952363456708 2212.56638119361 105 79 64
-681.686803596812 548.940532502872 2219.55414124486 104 78 63
-682.714090401836 548.488818528081 2226.97938763722 107 81 64
-687.558166760978 548.915754572113 2233.54414863805 110 85 65
-693.361734209914 549.561547742408 2239.91316654808 115 90 68
-700.127183974238 550.426000826833 2246.09426598737 114 90 66
-703.07255402511 550.411700705978 2253.12449897742 113 89 63
-709.849126262734 551.27435482779 2259.34668723182 117 93 67
-718.549531312507 552.574494191531 2265.19339612232 123 97 72
-732.054202149906 554.968983591229 2270.08671567324 125 101 77
-741.737773139175 556.485010901022 2275.8237069648 120 100 76
-744.709969195996 556.466510657069 2282.95088791935 76 63 46
-697.050121262663 551.720690402484 2138.07262168406 88 75 66
-693.375319576262 550.18041355344 2146.83613344654 128 112 99
-690.639771301856 548.858770951662 2155.32769385041 76 53 37
-680.308945016411 545.79588409065 2165.69349530492 93 64 50
-675.654621916579 544.040857480579 2174.58097466775 96 64 49
-675.739707339063 543.374633904925 2182.26983126769 101 72 56
-678.673862668377 543.361009833891 2189.2588530171 118 89 73
-678.755492780821 542.694831979193 2196.9339805714 117 89 75
-678.833954972125 542.02878230776 2204.59835620612 105 78 61
-679.862454046524 541.580119721293 2212.03003000392 104 77 60
-681.842926884379 541.34856974805 2219.23694895739 104 77 60
-684.777530357915 541.333854051785 2226.22694538343 109 82 63
-689.623579595353 541.752749017641 2232.79395457889 112 85 66
-697.341044984034 542.821659033325 2238.7424644601 113 86 65
-704.110724329491 543.672538857059 2244.93069805893 113 87 64
-704.187186004976 543.005276395394 2252.58688047824 113 87 62
-710.008000705173 543.638012570252 2259.01169054846 118 92 67
-715.834473103078 544.269892221724 2265.45696577736 123 97 72
-728.382109231656 546.416219925917 2270.53571808677 127 103 79
-735.18492321053 547.262133982016 2276.84476798205 124 103 82
-733.348015043648 546.160392963067 2284.91531693963 90 77 60
-702.907650005382 545.324197183101 2136.29860693697 200 190 181
-692.601984372364 542.293175736843 2146.77794311728 101 87 76
-689.862786639254 540.985162139029 2155.26548745838 132 113 98
-679.525302299576 537.957459645169 2165.62878242995 128 102 85
-674.866744168384 536.221509175274 2174.51258162764 110 83 64
-674.949845751861 535.560952218715 2182.19672120632 111 84 65
-680.736210648271 536.189238791772 2188.49081666142 108 81 60
-682.721225603994 535.95785669665 2195.71470559776 108 81 62
-684.706192581459 535.726277968071 2202.93829225616 105 78 57
-685.737714467258 535.279930337084 2210.38357972444 104 76 55
-686.767955114894 534.83362249196 2217.82320630275 102 74 53
-689.705886700974 534.816009044665 2224.82372987007 108 80 59
-696.466962822002 535.655218592138 2230.9726533813 109 81 59
-704.191224755184 536.707601210818 2236.93596296691 105 77 55
-707.139733000502 536.688172414498 2243.97460948068 108 82 57
-708.174588394674 536.240363263766 2251.43042186263 110 84 59
-713.999217928113 536.862245841374 2257.86254326788 118 92 67
-715.034560875258 536.414004821136 2265.31989317868 123 97 72
-722.786444214067 537.462196415963 2271.38310963668 125 103 80
-726.704857249789 537.654369319517 2278.2600963926 125 104 83
-737.354469974625 539.341329879014 2283.79540923042 95 83 67
-698.461817930812 535.903730707536 2145.01786458 105 92 83
-689.084488069798 533.121763776105 2155.20392010863 118 100 86
-677.790885320007 529.916875328951 2165.80271828922 126 103 85
-674.07754758104 528.412371890122 2174.44480967733 115 90 70
-672.256633984361 527.332978001748 2182.58978117009 118 93 73
-678.041992153446 527.950975752178 2188.87271399746 112 85 64
-682.880518437083 528.356003217394 2195.40396574849 109 82 61
-689.6294699083 529.184296357415 2201.50098076314 103 76 55
-691.617306928906 528.952299044417 2208.73495905692 103 75 54
-691.696273713194 528.296560082217 2216.40771778853 102 74 52
-694.637764293301 528.276101526347 2223.41872992801 105 77 55
-698.536123553482 528.466810050334 2230.22033641318 107 79 57
-704.350653372521 529.080105326638 2236.60860896336 103 77 54
-709.213235295357 529.481036451527 2243.22658837312 108 82 57
-714.080269039866 529.881358746869 2249.8597831186 112 86 61
-723.745108999782 531.337280219783 2255.48928209054 121 97 73
-725.745926574268 531.102294156212 2262.76956769611 123 99 75
-734.467551689546 532.344747502541 2268.65957162183 124 103 82
-738.39497192955 532.530860138606 2275.56524520374 123 106 86
-745.209676684265 533.349187465275 2281.9010264024 114 105 90
-697.688232676243 528.018023736822 2144.95971235755 122 112 103
-686.406367997919 524.849008164753 2155.62473995226 125 109 96
-677.003971645528 522.101567399617 2165.73952652523 123 104 87
-677.088228432119 521.451672016885 2173.43561532873 109 87 66
-680.023032018849 521.430448898673 2180.42224629029 107 85 64
-684.863079036193 521.827711339533 2186.95331277514 105 80 58
-689.70741801874 522.224304093993 2193.49989168065 107 81 58
-696.462768017784 523.038729799007 2199.61190800256 103 77 54
-698.454971180868 522.806343052612 2206.86185105976 101 75 52
-699.492419362831 522.364703869278 2214.33118534903 102 74 52
-700.528116178061 521.923029037617 2221.79492367289 104 76 54
-703.475015906868 521.899215424509 2228.82390071384 105 77 55
-708.33676734725 522.292660759476 2235.43407056915 106 80 57
-715.118378861011 523.102966069221 2241.64098934622 110 84 61
-724.782032970119 524.538149444393 2247.25392155977 112 88 64
-732.539071303564 525.554738725733 2253.31632545616 114 92 69
-733.585932685839 525.110783322865 2260.8191467735 113 91 68
-738.473341107802 525.500430824078 2267.52124919686 116 98 78
-740.481131604726 525.264479449609 2274.82681445002 117 102 83
-747.29859911536 526.069460927646 2281.16442734976 168 160 147
-693.219147797513 518.667818804957 2153.63699635661 78 68 58
-681.915966520976 515.538246233918 2164.24685282358 81 68 52
-680.100818615366 514.479739517027 2172.42548924134 87 70 52
-683.037510283623 514.45571298657 2179.41736035182 98 81 61
-688.832459269737 515.051509639808 2185.72281441506 85 65 41
-693.680215542794 515.439879821005 2192.27688974816 107 85 62
-698.532256363326 515.827552290502 2198.84643226764 89 67 44
-699.570837980645 515.388728105861 2206.32175202305 104 79 57
-700.607909451236 514.949890836449 2213.79145663859 106 81 59
-702.599273970284 514.717370017845 2221.03820132869 99 77 54
-705.547102457402 514.690871247555 2228.06986042204 104 82 61
-710.411041637253 515.07634444123 2234.68219071004 105 84 63
-717.195193628032 515.873206940158 2240.89098371585 107 86 67
-723.027748605518 516.46313790477 2247.33235816574 102 84 64
-728.866203762724 517.052278088392 2253.79421054631 94 77 59
-731.829381240996 517.023180959472 2260.88121696788 101 84 68
-732.872104980999 516.582375791378 2268.37066492373 106 92 79
-732.951411437825 515.935955700369 2276.05056824031 149 137 125
-738.802089801708 516.522938550484 2282.55736998666 173 166 156
-742.732294224214 516.698244581213 2289.46655796763 192 189 182
-700.986566395935 512.658188304717 2151.40563241534 49 42 34
-691.583929996264 509.974339999329 2161.55967668979 67 57 45
-688.822312354866 508.721652873889 2169.99891054388 85 72 55
-691.765452434005 508.694382072171 2177.01174605457 84 69 50
-694.709771914615 508.666736664142 2184.02965296746 95 77 55
-699.562390364337 509.046673838979 2190.59645645082 100 79 58
-701.556886919445 508.814390111109 2197.85497946361 100 79 58
-704.506100267512 508.785694909303 2204.89039356237 100 79 58
-707.456691108431 508.75669597758 2211.93073026293 99 78 57
-711.365098008139 508.931020912998 2218.75836890174 96 78 58
-712.405236538066 508.494283994647 2226.24078695919 98 80 60
-717.274746959852 508.871314383015 2232.86847183127 96 79 61
-721.189875465941 509.044306013265 2239.7211537206 86 69 53
-722.230416162317 508.607060451195 2247.20474381222 77 60 44
-724.229245025456 508.373026471965 2254.47824681855 84 68 53
-723.346021615701 507.529532037015 2262.35636335171 73 59 46
-724.381126380148 507.092467478063 2269.81988516939 137 127 117
-725.414421221355 506.655395705534 2277.27761156504 164 156 145
-735.111602679561 508.044004804737 2282.98469067246 170 166 157
-740.965920840922 508.620060430972 2289.49810739634 176 175 170
-744.897500229429 508.789986802051 2296.40900392112 193 195 192
-736.315396846419 512.458827018982 2142.17103625544 246 243 238
-718.375647790464 507.990012026863 2154.57119046973 229 222 214
-708.01853286887 505.136579349469 2164.97162577712 66 58 47
-702.404515939384 503.292303526969 2174.13592314911 87 77 65
-700.590958229433 502.254509973198 2182.33446988103 92 79 63
-704.494694278374 502.424804349822 2189.14222188259 89 73 57
-709.355724342262 502.795768033731 2195.73459064831 91 75 59
-714.221029246102 503.166085674259 2202.34242317895 90 75 56
-715.266507891428 502.731749522776 2209.84711277926 85 72 55
-718.224173467221 502.699318349502 2216.91062062366 74 65 50
-719.268035351147 502.264865910977 2224.40923408821 61 54 38
-723.185040385628 502.432715842416 2231.2647079377 53 45 32
-722.310380094358 501.596787687323 2239.17939460447 78 70 59
-717.592945729151 499.958931893955 2247.90652972814 139 130 121
-717.66672516114 499.324567114822 2255.57352337759 130 123 113
-717.737721254218 498.690459171802 2263.22941616555 136 132 123
-721.652443110606 498.857800622399 2270.07702101659 133 130 123
-723.645092012385 498.624228658592 2277.32787072998 146 143 138
-731.416849033309 499.591458374189 2283.4137591824 148 149 144
-738.233269966523 500.357503506459 2289.72197495243 159 161 158
-742.162547855741 500.522569373598 2296.6221868162 178 182 181
-742.23332883472 499.887648696868 2304.27676781015 188 192 191
-747.092012711869 506.257681175976 2147.09406981173 252 249 244
-738.654583546107 503.83447283882 2157.10090243972 192 187 181
-729.24874532088 501.214285147255 2167.28325094231 89 82 72
-720.77870723458 498.794581025071 2177.1712254174 92 84 73
-720.880927555405 498.16366383717 2184.94506211894 104 92 78
-723.844801803931 498.128334002205 2192.0307205076 97 84 68
-726.810052203396 498.092722254919 2199.12131029028 89 77 61
-722.125712121426 496.470361801564 2207.9811009478 77 68 53
-721.259536111869 495.641944056999 2215.93202976973 50 44 32
-718.473422789113 494.41765874639 2224.29731835648 60 56 44
-722.389576735178 494.580400997833 2231.14733658224 139 136 127
-720.553060725397 493.55493125277 2239.26749523176 135 130 124
-716.790563676449 492.13419192131 2247.78088103167 134 131 126
-716.862334803611 491.505604902858 2255.44313699203 131 128 123
-716.930853568236 490.877191937737 2263.0943564784 124 123 119
-720.845174655701 491.03956842074 2269.93640970985 150 151 146
-724.762023396437 491.201428806975 2276.78845080853 142 143 138
-729.64536698061 491.560323690397 2283.45604569291 161 163 160
-731.639874213141 491.326486255759 2290.71362741977 174 176 175
-735.564408232204 491.487132781453 2297.5925070601 183 187 188
-736.594318466088 491.055709113887 2305.04030396741 189 193 194
-768.363632803826 502.168938716488 2149.4543467124 252 251 249
-756.114884196791 498.990457723458 2160.41986819689 121 116 112
-741.936746739447 495.422509569418 2171.76869862204 111 104 98
-738.234708525386 494.011804516672 2180.51289134455 88 79 70
-739.300750215724 493.580924468487 2188.09518048093 83 75 64
-736.540840680228 492.367263174385 2196.56539506433 97 91 79
-726.119421869747 489.589417467652 2206.77480429174 109 105 94
-722.381670077451 488.182351854268 2215.38869724943 106 106 98
-717.676984126641 486.580750319937 2224.18605377835 110 113 106
-722.551631591299 486.93382729759 2230.81768855424 137 142 136
-719.753179524594 485.724081996057 2239.14634560359 135 137 134
-717.907481820446 484.710216610671 2247.24066982919 137 139 138
-716.056108481061 483.696942569916 2255.31336585509 134 136 135
-717.084383979675 483.269325588147 2262.75749665288 152 154 153
-720.036070709714 483.231607160092 2269.79639714145 134 138 139
-722.989289264355 483.193682601932 2276.83992583227 152 158 158
-724.015448015311 482.765855605982 2284.27699399142 173 177 178
-724.075563074513 482.143490709606 2291.89990157812 179 183 184
-724.132390258673 481.521303973761 2299.51164343292 188 192 193
-722.253935883474 480.510367702141 2307.48526882564 193 197 198
-723.27001161499 480.083251947395 2314.88534975029 195 197 196
-712.673322878925 477.324131748261 2324.45490937869 203 207 208
-791.26532103612 499.614114133861 2135.45633125135 242 242 242
-782.851078961988 497.246596952307 2145.58348446368 187 187 187
-767.74564597956 493.527373571896 2157.29119049737 154 150 147
-751.660136340826 489.617856423687 2169.13531383476 128 125 120
-743.186963466731 487.256757823297 2179.0486499156 114 109 103
-738.520990512467 485.669770731136 2187.99896700687 109 105 96
-734.801227766637 484.276856951711 2196.68858449542 111 108 99
-724.372392629461 481.534384401319 2206.89279111449 113 110 103
-722.545969335978 480.529554197375 2215.06345276727 113 114 108
-717.837740530796 478.947028178288 2223.859698654 124 126 121
-721.7536035602 479.099601002409 2230.70128729667 139 144 140
-717.991440232352 477.711027839742 2239.23622017267 144 148 147
-716.142189743576 476.7083900254 2247.32351308336 142 146 147
-714.286807064443 475.70628099326 2255.38930124103 144 148 149
-716.274694278699 475.47410457593 2262.6233528169 143 147 148
-716.336634118142 474.857370261315 2270.25659030955 160 166 166
-718.322786747074 474.625177833461 2277.48419160187 163 168 171
-716.450925482587 473.624541384068 2285.4897277135 179 184 187
-710.712836303613 471.85656237501 2294.24153895446 186 190 191
-707.860631606415 470.665569141452 2302.38246209606 184 188 189
-703.067536717716 469.091638077493 2310.86997227521 187 191 192
-707.937454133002 469.436243330538 2317.47869670143 200 202 201
-700.227096598358 467.288731603985 2326.46181479387 195 199 200
-623.685596934938 450.934911161302 2355.3710996316 213 217 218
-814.151291852664 496.928280660251 2121.31631892827 184 188 187
-799.090722075046 493.251778630092 2133.21756527253 174 176 175
-778.284716381484 488.433820239394 2146.44532967372 159 161 160
-761.259850773414 484.382358373973 2158.60944134895 155 157 156
-748.024792906225 481.096412238584 2169.7414623811 140 142 141
-741.454516873483 479.146423765476 2179.18586509769 128 130 129
-735.827473534957 477.388253397973 2188.35616044263 126 128 127
-734.016240983387 476.392591378332 2196.58901065444 129 131 130
-723.580706793332 473.685401807181 2206.79062082915 140 142 141
-722.709482351342 472.881779279419 2214.73846021276 152 154 153
-717.038503685398 471.128213762981 2223.74946858249 150 152 151
-721.91343114695 471.465697534897 2230.37229819818 145 149 148
-716.227285221986 469.713756129599 2239.32708986412 138 142 141
-712.451738408021 468.342674359021 2247.82337562854 145 149 148
-705.781572496329 466.403343270264 2256.90363531703 151 155 154
-705.837061916796 465.792943877558 2264.51692320632 156 160 159
-704.92597272489 464.993209827318 2272.31920756792 170 174 173
-705.938471698517 464.572811500362 2279.7102497238 175 179 180
-704.055104741063 463.584387402783 2287.6798486696 186 190 191
-698.303654957492 461.839356063795 2296.39654256187 188 192 193
-689.641421680044 459.527879996334 2305.6392634894 188 192 193
-679.996431497256 457.029127945038 2315.01035575211 196 200 201
-678.075531772277 456.044683659539 2322.84311553332 201 205 206
-673.243106262686 454.493909378396 2331.19921880609 203 207 208
-666.462427232159 452.566550870599 2339.87579478267 207 211 210
-653.849005397411 449.507811985096 2349.5629549448 205 209 208
-640.243178569057 446.262862503507 2359.3442666339 216 220 219
-833.016339079515 493.978289522674 2099.87419986715 194 198 199
-827.50615020394 492.228490679524 2109.48456729489 174 178 179
-805.796920389553 487.280431612963 2123.17301919096 159 163 164
-793.58069779844 484.217671391318 2134.33236343463 164 166 165
-769.898917771466 478.900856754924 2148.25787982952 159 161 160
-758.585108500073 476.031913362074 2158.99282425361 158 160 159
-745.340695400094 472.789471402539 2170.11757739915 147 149 148
-738.763896460513 470.864130961392 2179.55332331814 145 147 146
-730.26104549903 468.564830417833 2189.39455751266 144 146 145
-726.528494449015 467.205369369392 2198.05781483729 150 152 151
-719.913163024085 465.284211012277 2207.35313753926 155 157 156
-717.119803307582 464.114320452421 2215.72586368431 156 158 157
-713.359517546966 462.757792671426 2224.28799937584 154 156 155
-713.431083812926 462.151310634488 2231.96437967733 156 158 157
-704.851775302211 459.860318449267 2241.52698743933 158 162 161
-697.217988374656 457.758193594576 2250.82305208332 167 171 170
-688.607121667154 455.470613069815 2260.27157341221 170 174 173
-686.721852806874 454.493471201472 2268.24123397448 151 155 154
-685.794375968555 453.703784746919 2275.98901774277 153 157 156
-683.897984435978 452.727770413602 2283.91809386938 173 177 178
-680.065101890483 451.378938395875 2292.21555062929 178 182 183
-670.427864781571 448.911422220169 2301.63514923237 183 187 188
-660.772893151453 446.445812798181 2310.99103588106 169 173 174
-655.937498399927 444.914401426566 2319.3474106454 160 164 165
-657.868615167199 444.688595833429 2326.3747068832 168 172 173
-662.7060803846 445.021545159356 2332.85558371694 178 182 183
-661.730266142882 444.236784853419 2340.42701029262 182 186 187
-660.749921295664 443.452476326645 2347.98190084777 183 187 188
-657.822920493199 442.296554625016 2355.8681920619 197 201 200
-653.917065490814 440.955533943156 2363.89871903762 205 209 208
-853.732729645907 491.282960796119 2077.67389551836 175 179 180
-842.546436780072 488.436933183638 2088.89675118782 187 191 192
-828.486345483139 485.036097893552 2100.78937018399 176 180 181
-814.401660968433 481.638005840759 2112.59241131911 163 167 168
-788.86080994291 476.016472658914 2127.21674791804 164 168 169
-773.764733268243 472.439442276384 2139.04896530362 160 162 161
-757.688817197205 468.680055227495 2151.02349196289 161 163 162
-750.178355906558 466.591106184557 2160.78575904332 159 161 160
-741.697708365073 464.318539792253 2170.7272377506 154 156 155
-733.201322363767 462.047786326904 2180.61049820588 155 157 156
-723.731844991338 459.59375150386 2190.66239627332 153 155 154
-718.075857602666 457.881394181587 2199.75415199137 161 163 162
-713.36656059337 456.355133420943 2208.58195478424 158 160 159
-712.483523972418 455.569008296533 2216.49698480697 151 153 152
-706.796679957346 453.859909286605 2225.47716206927 154 156 155
-700.137880203755 451.967549046706 2234.62834798759 168 170 169
-687.697901006127 448.969515295073 2244.99779271108 170 174 173
-678.122197844781 446.527224455187 2254.66270978012 160 164 163
-671.417505046542 444.639933688768 2263.64670441863 158 162 161
-672.407074530887 444.228093885691 2270.9580172788 130 134 133
-669.538577179914 443.079703066721 2279.06534592451 146 150 149
-664.732797042637 441.563915085843 2287.54153773825 180 184 185
-655.088457209269 439.129194159165 2296.95639954342 181 185 186
-651.224794546637 437.799952190398 2305.1519438925 155 159 160
-645.418278735225 436.104029424222 2313.69519299804 146 150 151
-642.50322618012 434.960597003741 2321.63373079111 166 170 171
-640.549455748722 434.001652881822 2329.3605475502 174 178 179
-646.343567905234 434.511958183345 2335.60891986519 181 185 186
-647.293550634182 434.104068492987 2342.77481973324 185 189 190
-654.066064469069 434.796788260666 2348.87372325617 187 191 192
-655.988413436125 434.571946161825 2355.86907467007 187 191 190
-656.938252805604 434.163769861872 2363.03519034471 192 196 195
-653.995289846165 433.023139308166 2370.87094220628 204 208 207
-852.799926506802 483.63244178633 2069.3804430943 162 166 167
-836.867539432022 479.907267657409 2081.90946503235 165 169 170
-824.710845203306 476.917434179014 2093.33586854629 162 166 167
-811.580943837827 473.747044058233 2104.93127107735 165 169 170
-790.80954552406 469.116019139212 2118.40554590479 167 171 172
-766.191127303883 463.757607015197 2132.72449519515 154 158 159
-755.838569535257 461.14491585051 2143.29384190647 165 167 166
-746.421809801299 458.717010313202 2153.5570378738 161 163 162
-744.629136656848 457.751594311508 2161.87789127903 157 159 158
-734.227279602372 455.144366569111 2172.26764872321 162 164 163
-725.719714163214 452.904034850098 2182.12953783739 156 158 157
-715.281579823207 450.300869172198 2192.38716940543 156 158 157
-707.698860954836 448.246517464073 2201.90300120788 158 160 159
-707.772232636269 447.651018777139 2209.59208995287 161 163 162
-707.84238959765 447.055740335592 2217.27031114629 163 165 164
-701.187778324616 445.186861593929 2226.45280208323 165 167 166
-685.871385421514 441.682351697676 2237.51188510947 168 170 169
-668.605361321838 437.817158420003 2248.89822280618 154 158 157
-663.821860888807 436.317787992847 2257.46749997904 159 163 162
-659.991199273881 435.001167437889 2265.79353925016 152 156 155
-660.007159185709 434.411738349485 2273.27423039628 166 170 169
-653.267955866833 432.552238735716 2282.14856913694 176 180 179
-644.585105811311 430.331439342496 2291.3710634909 152 156 157
-641.682476083002 429.200307647151 2299.36256181645 134 138 139
-638.772231240285 428.069923176778 2307.32718749597 153 157 158
-635.854817184256 426.940367777996 2315.26478970148 168 172 173
-632.929782963043 425.811567409133 2323.17550543605 161 165 166
-630.966427383234 424.864566667001 2330.87427484248 166 170 171
-637.723774760925 425.546162299233 2336.91077410812 171 175 176
-638.66611617985 425.142084398704 2344.05070985426 173 177 178
-646.404441589928 426.003168157901 2349.94545828797 178 182 183
-651.235736233602 426.321277539605 2356.39405582696 184 188 189
-657.043620222712 426.819386315982 2362.6858600097 187 191 190
-659.93725146425 426.775363193863 2369.50523139424 195 199 198
-656.988398037559 425.648869861793 2377.32803860706 198 202 201
-868.001714305302 479.052326320916 2056.68796494304 200 204 205
-844.488994218273 473.930980022379 2071.36457623572 155 159 160
-824.739360841308 469.535915158907 2084.88511645516 160 164 165
-805.907893318601 465.325035970378 2098.03366232201 156 160 161
-795.612328588587 462.74041672358 2108.83233615474 161 165 166
-778.629005529027 458.896405653148 2121.28166074224 163 167 168
-753.035777154194 453.43449130374 2135.81230548351 159 163 164
-744.575296626609 451.218185672236 2145.86418045985 163 167 166
-738.008947418688 449.363638784857 2155.38249050565 159 163 162
-735.251673580402 448.229996831686 2163.91301093901 156 160 159
-726.749348247077 446.018386261262 2173.81155954627 158 162 161
-716.316866892126 443.44912914371 2184.11158762972 154 158 157
-704.907819197205 440.702375588178 2194.57007472005 161 165 164
-699.229227635648 439.035141481196 2203.60732303288 160 164 163
-698.33518599438 438.266496226602 2211.49252944682 160 164 163
-697.436710183574 437.49830603947 2219.36155996411 164 168 167
-686.927171903903 434.937643225007 2229.38091678189 166 170 169
-672.55324069093 431.662296403056 2240.18753653013 167 171 170
-660.078924785737 428.748005560757 2250.48143765469 162 166 165
-655.285354614954 427.268494398709 2259.02586596524 146 150 149
-653.371992845236 426.32692560791 2266.91461106222 139 143 142
-650.488740584399 425.207171239317 2274.98523717512 154 158 157
-641.807840772384 423.015430326384 2284.23424742671 165 169 168
-635.042662660265 421.182965563852 2293.02828621826 134 138 139
-635.029176073651 420.602245787242 2300.40514689055 142 146 147
-636.947055263616 420.378920721165 2307.38486067323 168 172 173
-633.057383461721 419.084830227787 2315.50603098724 167 171 172
-626.253250264607 417.256650581044 2324.15814258097 159 163 164
-621.37422693938 415.786441312556 2332.39210182857 166 170 171
-626.185672888867 416.099401650714 2338.76375421975 171 175 176
-627.118190873033 415.699362640843 2345.86976742208 173 177 178
-632.90643928428 416.189589925934 2352.08369259169 175 179 180
-638.700252821822 416.679112199575 2358.31783487717 183 187 188
-646.44559976747 417.523667813224 2364.22821789043 186 190 191
-657.120393964883 418.900507099335 2369.66123026354 192 196 195
-660.987273898255 419.031963118236 2376.30762222573 196 200 199
-664.856565081419 419.163006763005 2382.96363535689 193 197 196
-842.395523854527 466.728296208252 2055.14728418252 192 196 197
-850.205869163051 467.551568066244 2061.2864849512 164 168 169
-839.020689675583 464.816713087881 2072.58366295754 162 166 167
-812.600103630454 459.239777639438 2087.86619291046 161 165 166
-793.749393576277 455.089291179069 2100.98235285885 162 166 167
-778.676611514499 451.652870559264 2112.98890319713 160 164 165
-759.765144412837 447.509288201343 2125.88384302513 159 163 164
-740.822066378622 443.369376163534 2138.6628058816 162 166 167
-736.165217116929 441.893314111523 2147.71795874104 162 166 167
-730.543217888303 440.241157418594 2156.97391336166 159 163 164
-728.733584435079 439.299022371547 2165.24649484053 159 163 164
-717.350584110762 436.586450728921 2175.82420040563 161 165 166
-708.819888457394 434.407264474088 2185.63788659043 161 165 166
-699.314877629317 432.052910163092 2195.62078895839 165 169 170
-691.710328728672 430.054239121998 2205.09072398782 163 167 168
-686.970120544452 428.587492926062 2213.84133402716 164 168 169
-675.497309817686 425.88510603898 2224.09109226929 171 175 176
-667.848378809939 423.891409152686 2233.39938565466 169 173 174
-659.223162838531 421.722844150413 2242.86884212689 160 164 165
-654.431936365328 420.261796292064 2251.43362889059 147 151 150
-647.703907387379 418.449174262717 2260.37905182173 133 137 136
-641.926623648385 416.814273054897 2269.07028872277 154 158 157
-633.243799292739 414.652172178046 2278.32993766565 156 160 159
-629.371838591606 413.372341482829 2286.52586871556 135 139 138
-627.423404322593 412.445519311534 2294.29277771774 152 156 157
-630.303151894998 412.398939114251 2301.05898735653 152 156 157
-629.313938911786 411.64880331133 2308.60252712972 158 162 163
-623.478882772508 410.020363452068 2317.0824167663 161 165 166
-620.538916078901 408.920220069576 2324.95578367853 161 165 166
-617.59177969804 407.820934696686 2332.80214362705 161 165 166
-624.341587771373 408.477479617297 2338.79483522538 164 168 171
-625.271505485423 408.08065493421 2345.89322349208 168 172 175
-628.14345443793 408.034626477503 2352.63082672379 173 177 180
-631.989412685856 408.163685920638 2359.198027496 178 182 183
-640.704663236197 409.168214655614 2364.91415076738 181 185 186
-652.352024675892 410.696801393523 2370.15759970582 188 192 193
-665.963250730182 412.573706070254 2375.11883297211 192 196 197
-672.762761008053 413.224112759468 2381.29218375656 199 203 202
-831.239774666781 456.576871365909 2057.97497678955 171 175 176
-829.544124991158 455.632594211622 2066.67033430258 161 165 166
-814.534199131384 452.236712870873 2078.93585177796 171 175 176
-794.741386409884 447.968380981702 2092.37608811948 163 167 168
-781.579805624778 444.928805800608 2103.93646087914 162 166 167
-763.631211164534 441.017315040331 2116.65563918466 160 164 165
-746.605682993687 437.284110718581 2129.01822204624 160 164 165
-736.23088484893 434.777404443036 2139.57190791061 163 167 168
-732.521993887526 433.495440899645 2148.37193837464 162 166 167
-725.937295417821 431.690706049402 2157.85449894286 160 164 165
-718.383190479716 429.712957584221 2167.52493193758 160 164 165
-708.900207335242 427.388004088509 2177.60818091306 162 166 167
-702.273634267649 425.58803995295 2186.93735226352 162 166 167
-689.88221567195 422.744049020573 2197.58434755618 162 166 167
-680.346960251345 420.425011100319 2207.47725460014 165 169 170
-663.114148883901 416.715368530121 2219.08511123562 165 169 170
-648.734595452785 413.531022198222 2229.9283097353 169 173 174
-645.868126305475 412.43637950365 2238.0771024557 165 169 170
-645.880694282782 411.863964989626 2245.55594212528 153 157 158
-646.853335146694 411.465618209358 2252.81199210142 134 138 137
-640.115139835301 409.678152242051 2261.73555164967 146 150 149
-632.399515070038 407.718607778953 2270.81778623711 156 160 159
-624.669292850322 405.760711869984 2279.84686414795 142 146 145
-622.719371389214 404.844889288578 2287.61519606259 106 110 109
-622.696442963466 404.276320162103 2294.96467232113 152 156 157
-621.703272420483 403.534841288452 2302.49898398249 155 159 160
-618.769791969259 402.447569693947 2310.40363059201 157 161 162
-612.922570210424 400.841863564113 2318.85363357671 158 162 163
-615.788691092267 400.794371712529 2325.5677453909 162 166 167
-616.715460881682 400.400842830947 2332.65745584944 163 167 168
-621.524226660366 400.698750893532 2339.00965407292 162 166 169
-622.450837800014 400.305222224848 2346.09784660788 165 169 172
-625.32026982015 400.257109220942 2352.82478888903 171 175 178
-628.19115774616 400.208856633705 2359.55611951524 176 180 181
-633.984321482754 400.677817015399 2365.77486751501 179 183 184
-645.629921900708 402.180468130456 2370.99540373034 184 188 189
-661.190447347432 404.370661215922 2375.59915672035 191 195 196
-674.819242786453 406.21405844098 2380.6044668178 191 195 194
-675.768560103274 405.817528291655 2387.77599698307 185 189 188
-826.518397994013 448.291913944619 2050.80188175753 170 174 177
-814.375964432144 445.459490834219 2062.37968397576 178 182 185
-806.013056294872 443.319735993686 2072.84122725309 187 191 194
-786.221779719666 439.112133884426 2086.32550860852 164 168 171
-775.91480434794 436.632189247493 2097.14790303388 164 168 171
-768.4464872925 434.67128468331 2107.14748398027 161 165 168
-754.291084405265 431.506452990463 2118.83615906106 162 166 169
-739.157450063702 428.172348688816 2130.68137397818 163 167 170
-729.725465684853 425.873488682831 2140.97044543835 162 166 169
-723.142456388548 424.092545883098 2150.47336960899 163 167 168
-715.589910033369 422.141122993139 2160.16713892918 162 166 167
-704.195857332023 419.504192931962 2170.75063629671 163 167 168
-699.484259622001 418.071577636636 2179.62901988311 165 169 170
-688.054658114063 415.438686764522 2190.08308163166 165 169 170
-678.522572803066 413.151181891788 2200.0076669867 164 168 169
-664.174626944171 410.008360528094 2210.99443489819 166 170 171
-647.881058177868 406.525579834943 2222.3364235537 163 167 168
-634.443411774924 403.55985156726 2232.91844185692 166 170 171
-633.486956615403 402.822549438605 2240.59170751919 147 151 152
-637.339167418781 402.941394001662 2247.17567366379 125 129 130
-639.267420192576 402.717771778722 2254.19371492078 150 154 153
-629.626901235969 400.442576733175 2263.72347918255 158 162 161
-621.898535558462 398.511141543993 2272.77615598398 143 147 146
-616.086651463718 396.922967426437 2281.36750056169 105 109 108
-617.992674397267 396.701780805575 2288.30454449043 143 147 146
-619.89854529841 396.480573858825 2295.24101111993 141 145 146
-615.030663606715 395.065558819096 2303.55025479321 154 158 159
-608.215649765372 393.310771637715 2312.20923387046 161 165 166
-604.294790854215 392.068606068467 2320.24739523908 157 161 162
-614.912580658505 393.38181592327 2325.4285891812 159 163 164
-614.866999986526 392.821199202579 2332.69898282189 156 160 161
-617.732390255968 392.771320531376 2339.40887510248 161 165 168
-615.738720451797 391.871004439646 2347.02549700208 163 167 170
-621.52114205873 392.331060090202 2353.19781057624 167 171 174
-627.308894358677 392.790394601633 2359.39038970179 172 176 179
-634.076290556098 393.418825645618 2365.43063292776 176 180 181
-643.775556489233 394.555566857939 2370.98643508371 181 185 186
-657.388495362334 396.369430821477 2375.91422710446 189 193 194
-675.899979381459 399.028934661581 2380.08071896811 188 192 193
-685.642311163758 400.160505631078 2385.79408098317 187 191 190
-685.618514668294 399.597093182237 2393.14266090279 184 188 187
-810.417421855059 437.98647660029 2046.86064165459 225 229 232
-807.760624489462 436.894763489466 2055.79068321424 179 183 186
-794.646796146845 433.934493645965 2067.5784206721 166 170 173
-782.460726245295 431.146755874505 2079.02242169729 164 168 171
-764.544085317803 427.342787974985 2091.92905053508 160 164 167
-757.071004139089 425.408943765239 2101.92802771666 162 166 169
-750.536275335865 423.646336067047 2111.62271274115 161 165 168
-744.942286984571 422.054760811693 2121.02091420753 163 167 170
-732.656197600618 419.278372447555 2132.10165694199 164 168 171
-724.168782935977 417.181929489634 2142.12827674109 160 164 167
-714.70949240817 414.917999093519 2152.33801854911 163 169 169
-704.276600723129 412.486914215393 2162.72282885343 162 168 168
-689.038408344235 409.212393854424 2174.21838747415 163 169 169
-681.437825526121 407.293068390996 2183.75314243464 165 171 171
-671.905286313171 405.037501259222 2193.69620635837 164 170 170
-662.355553060951 402.783964139833 2203.57578480527 164 170 170
-649.907788873218 400.026059455577 2214.06793030853 162 168 168
-635.516715032207 396.933300093477 2224.92617900231 166 172 172
-624.947159102088 394.517775694528 2234.81433484458 168 174 174
-624.94374174759 393.958122397065 2242.24188087429 139 145 145
-631.678561183271 394.577881390375 2248.15476886747 121 127 127
-629.746872499055 393.681603469433 2256.00313498462 155 159 158
-622.022522248161 391.776363067474 2265.08725829541 151 155 154
-614.283585590874 389.872787993879 2274.11827653927 116 120 119
-614.257128947687 389.315667525651 2281.46188130144 122 126 125
-615.194415922962 388.926922679545 2288.59273137681 155 159 158
-614.19532294725 388.202449576658 2296.11579075961 150 154 155
-608.351304710353 386.639206725525 2304.60449688459 159 163 164
-599.589408330264 384.57403598674 2313.63176351323 159 163 164
-599.53686061129 384.019812133368 2320.8803259957 154 158 159
-605.30289390468 384.471560184703 2326.98654799046 156 160 161
-608.161411345588 384.420044869996 2333.67081853721 156 160 161
-608.10612442975 383.866065610431 2340.90936534232 163 167 170
-609.020299750787 383.479793365402 2347.95596744614 163 167 170
-614.798306904878 383.92998516969 2354.10659252846 165 169 172
-621.555869462985 384.546718468517 2360.10201101259 166 170 173
