ply
format ascii 1.0
comment KinectMotionCapture
element vertex 778
property float x
property float y
property float z
property uchar red
property uchar green
property uchar blue
end_header
-479.394028364772 -324.054501937929 2187.60977073191 26 29 22
-481.129954701601 -324.252208871223 2193.93010318061 26 29 20
-507.606052849879 -327.226971858538 2200.73068481602 19 22 13
-515.363726607491 -328.098752875572 2205.60322976886 20 23 16
-549.1724801535 -331.892927603261 2204.04151953272 21 24 17
-554.961068798159 -332.542950827656 2209.53681344348 11 16 10
-592.01833819167 -342.549693445313 1736.83213462997 30 33 26
-577.622623210174 -340.926089574532 1750.65081651926 30 33 26
-580.462570297523 -341.275907377146 1757.07780640841 30 33 26
-586.182923259412 -341.955529194437 1762.30106760083 28 31 24
-587.107579957744 -342.085471216257 1769.54841848814 26 29 22
-579.381425277169 -341.224082898792 1780.37254684377 23 26 19
-576.449953453747 -340.911614603879 1789.1683735835 24 27 20
-570.623677660437 -340.266933256562 1799.11692167669 23 26 19
-584.050317630644 -341.828078618085 1801.22221818073 24 27 20
-565.684592364638 -339.74566565477 1816.17783760861 26 29 22
-560.793921627277 -339.206806316002 1825.63604401783 25 28 21
-563.616334542168 -339.551816279957 1832.00003935637 24 27 18
-575.134821442111 -340.893109734779 1834.95311027388 23 26 15
-584.734067808884 -342.014250991147 1838.71297961665 22 25 16
-591.442558103586 -342.803690846992 1843.63841828889 20 23 14
-564.269658417793 -339.708166328351 1861.60402138019 18 21 12
-569.998629225089 -340.384502992211 1866.86042399494 17 20 11
-561.187926775952 -339.393134730058 1877.6371509908 18 21 12
-564.976868963723 -339.846106219903 1883.62519844511 17 20 13
-569.739783567844 -340.410384027354 1889.26282122169 16 19 12
-567.704274780158 -340.194654301566 1897.42778705665 14 17 10
-596.784569502049 -343.547263114494 1894.17615714368 13 16 9
-617.145915114965 -345.899671953513 1894.25299346239 12 15 8
-608.314929194951 -344.903235649001 1904.95668258045 18 23 17
-484.988964047337 -330.927340703567 2048.17955610514 21 26 20
-469.028815822361 -329.103922532717 2060.2122766549 30 35 29
-475.708995242659 -329.878657485332 2065.04281552785 22 27 20
-457.741028253583 -327.823629506852 2077.56069462692 25 28 21
-454.548430427618 -327.464092897968 2085.4167281679 26 29 22
-455.298937190861 -327.556628594776 2092.04203989656 28 31 24
-417.501500108246 -323.223424275372 2110.30728610665 29 32 25
-441.959449635475 -326.03646638991 2109.7169795514 28 30 25
-441.705225793624 -326.012167236446 2116.58107823503 29 31 26
-436.495299721594 -325.418476840962 2124.88856961774 31 33 28
-435.240197121113 -325.278206961393 2132.00706888956 31 34 27
-432.98858785353 -325.023049673897 2139.39551751812 28 31 24
-431.72425364573 -324.880722947051 2146.48011120449 27 30 23
-422.507889718898 -323.824934690887 2155.79136805295 29 32 25
-410.293471658283 -322.424457813429 2165.87801700889 28 31 22
-420.940350807831 -323.648203053914 2169.56551335272 26 29 20
-430.60436416173 -324.758638521393 2173.57260889935 25 28 19
-434.302257391622 -325.183460993922 2179.24038123409 23 26 17
-431.023721292818 -324.806944831349 2186.78899183528 25 26 20
-434.722176642876 -325.230965819955 2192.45935722701 26 27 21
-484.351513724809 -330.927816481507 2186.09028069321 26 29 22
-480.095413594788 -330.437607418635 2193.97655875094 26 29 20
-475.830326017138 -329.945730619261 2201.83145012114 24 27 18
-462.551069342906 -328.418535288054 2211.94181481209 20 23 14
-488.301555549538 -331.371871038784 2212.16554917547 20 23 16
-514.086631687126 -334.328449187619 2212.51473307013 16 21 15
-563.384017296457 -346.071604827612 1749.08925596254 30 33 26
-568.130624451774 -346.647744999198 1754.65884310217 29 32 25
-552.736294692548 -344.861814762113 1768.76959782148 27 30 23
-576.67692518877 -347.688100836463 1766.250225553 26 29 22
-572.789414003696 -347.250926014455 1775.47244810104 25 28 21
-550.625981166693 -344.669829135005 1792.22804810351 25 28 21
-553.442942999428 -345.01814390601 1798.57064718274 27 30 23
-555.298611592925 -345.253326085053 1805.31189925328 25 28 21
-576.426523866845 -347.749029366944 1804.2480583474 24 27 20
-575.403768210235 -347.646029523195 1812.20568593353 22 25 18
-575.341758732748 -347.655463570825 1819.76307052433 20 23 16
-569.482564445499 -346.984265704889 1829.60521082057 17 20 11
-574.243196307322 -347.558735219315 1835.22792371216 16 19 8
-562.565828315677 -346.204138507991 1847.27956798019 15 18 9
-593.456821677895 -349.843948199811 1842.77581384067 14 17 8
-557.554898729731 -345.645794090371 1864.09714850441 14 17 8
-551.647204741909 -344.966734102384 1873.76418265038 15 18 9
-544.757833280697 -344.171902289015 1883.75678241779 16 19 10
-553.388366322182 -345.198173460206 1887.87622543595 15 18 11
-588.25990601734 -349.304025633346 1882.27101428015 14 17 10
-591.016234113711 -349.652510503843 1896.1810255567 12 15 8
-642.537403421025 -355.712078240654 1884.91706053861 12 15 8
-637.617373739231 -355.146139171288 1894.2833596656 1 6 0
-536.179022115395 -343.344270841755 2031.67160512115 6 11 7
-471.97411558039 -335.808318658361 2059.12215189071 7 12 6
-449.080879373561 -333.123118032889 2073.23386067394 23 28 22
-458.709831852273 -334.256706507139 2077.09616446636 25 28 21
-452.553047978175 -333.535898357021 2085.86473428891 26 29 22
-445.396516645296 -332.697286263841 2094.89306239148 27 30 23
-435.260647729935 -331.508243352941 2104.7708278329 29 32 25
-415.212761709988 -329.154569016274 2117.54756566814 28 30 25
-431.770832530118 -331.099455138185 2119.34801619437 28 30 25
-448.350657290308 -333.04638794371 2121.227013645 30 32 27
-435.202230300751 -331.501627939399 2131.83421272829 31 34 27
-435.925532594815 -331.585349059669 2138.36315563449 28 31 24
-430.688755075888 -330.968681520284 2146.58545942341 26 29 22
-432.398495884151 -331.167403614058 2152.80792921758 29 32 25
-419.190115100601 -329.613572297367 2163.19825876615 28 31 22
-419.893742643164 -329.693111643305 2169.65679332957 25 28 19
-417.607927075752 -329.421051416788 2176.92798327943 23 26 17
-437.243184135018 -331.722717132355 2178.2382810664 21 24 15
-435.958857147804 -331.56734072826 2185.25781338685 21 22 16
-436.666455179666 -331.645317457288 2191.73207615335 23 24 18
-439.370069241498 -331.957243135135 2197.6768113432 25 28 21
-447.072942892213 -332.855728624101 2202.32903443408 24 27 18
-443.781346003795 -332.462675516165 2209.83866442236 21 24 15
-441.483143901487 -332.185781644758 2217.06784632869 20 23 14
-480.249814108676 -336.730065942974 2213.95686904986 20 23 16
-545.132602302326 -344.339793044453 2204.56372597847 25 28 21
-581.710816044536 -355.050710643569 1733.53214858901 26 33 26
-580.721028227886 -354.946498018815 1741.61294498984 28 31 24
-528.901164277904 -348.743674059001 1771.3418197881 27 30 23
-590.2453009031 -356.117562978924 1752.85557326576 25 28 21
-541.230540541747 -350.250224917722 1781.098478517 25 28 21
-554.613743205101 -351.869254142064 1783.00595597345 26 29 22
-537.234964954323 -349.797047818652 1797.72222288764 25 28 21
-546.77939960799 -350.954885791001 1801.25541869709 21 24 17
-570.784912201209 -353.848117424597 1798.93467501675 20 23 16
-591.931751593482 -356.398165640048 1797.90586722313 18 21 14
-571.623915379301 -353.972736395142 1813.66001263542 16 19 12
-582.177232895937 -355.250828396222 1816.96675029678 16 19 12
-585.980667382296 -355.718415665309 1822.99937717747 17 20 11
-528.873169209161 -348.874652959579 1852.98441759022 18 21 10
-520.05837317921 -347.826712947591 1863.7807333416 18 21 12
-567.390381296608 -353.51811347938 1852.78188593763 19 22 13
-579.90477247275 -355.029853711159 1855.42769366199 19 22 13
-522.612093576516 -348.161381245254 1884.74079479332 19 22 13
-522.490260285417 -348.155455339252 1892.08483373744 18 21 12
-549.55879936771 -351.413251980149 1889.21737866099 16 19 12
-556.254852283021 -352.225053145748 1894.08252202087 13 16 9
-612.56245725497 -358.992715523502 1880.6591406563 12 15 8
-604.709236183593 -358.057074189796 1891.05837587449 13 16 9
-626.063862301121 -360.627695131317 1890.7889799469 11 14 7
-432.292981504655 -337.402365585706 2078.34133439352 16 21 15
-433.0290584969 -337.488950557117 2084.9158991646 31 34 27
-435.738991279907 -337.812004977762 2090.87706842213 27 30 23
-423.623619330849 -336.354472333199 2101.36747820222 30 33 26
-426.325568374571 -336.675621365796 2107.30020836282 31 34 27
-414.180634931563 -335.213629991678 2117.6836771182 26 28 23
-410.931101802032 -334.819260763293 2125.3503125285 29 31 26
-431.465997933603 -337.280131308386 2126.00395988732 31 33 28
-440.12395782572 -338.314593071177 2130.2191332931 30 33 26
-437.87103376361 -338.038372286076 2137.61599873698 27 30 23
-432.632046930646 -337.403195047614 2145.84178583089 25 28 21
-432.354080807426 -337.363152541799 2152.62767360565 29 32 25
-431.078073577205 -337.202788420456 2159.68124453675 28 31 22
-428.801872810612 -336.921911510773 2166.9946277723 24 27 18
-437.480263647772 -337.955732361867 2171.28606191076 22 25 16
-451.153702421603 -339.588695404889 2174.2632610995 19 22 13
-453.868772587501 -339.905462651444 2180.24654482289 19 20 14
-435.615859707469 -337.704784157388 2191.79936080986 21 22 16
-456.304752675329 -340.178201326832 2193.01591793497 24 27 20
-446.022231406722 -338.933428950499 2202.38344757636 24 27 18
-439.724786331795 -338.166610073415 2210.65974771591 21 24 15
-451.440994310827 -339.561387148138 2214.31315149008 20 23 14
-491.230785078187 -344.324850745349 2210.96612160552 20 23 16
-523.052279205313 -348.131199221782 2209.8119905627 17 22 16
-606.713898691171 -364.962149732769 1722.69161745045 27 34 27
-563.559697402877 -359.676815292402 1748.94547391061 31 34 27
-542.403849383813 -357.090064874015 1765.54928782509 29 32 25
-567.298252048976 -360.153158038956 1762.52525670138 25 28 21
-596.070705705529 -363.691979315315 1758.01217942445 24 27 20
-573.921861423006 -360.982486890208 1774.90393511887 22 25 18
-548.850399307333 -357.913815475001 1792.86124060269 21 24 17
-559.36899437771 -359.212030867845 1796.02542674792 20 23 16
-591.101920920309 -363.113369465155 1790.58524042626 19 22 15
-597.804560743303 -363.942807363977 1795.4646337958 18 21 14
-581.35144220629 -361.930395468625 1809.68362234697 18 21 14
-578.393124824769 -361.573577144669 1818.40777707765 18 21 14
-584.126657621239 -362.283144342088 1823.66106646734 16 19 10
-559.880267103879 -359.313114529243 1840.72217453553 16 19 8
-549.147124151654 -358.000992143458 1852.356404862 17 20 11
-584.893961686974 -362.393035050975 1845.92399680134 17 20 11
-546.044459508633 -357.629412426742 1868.34751586362 18 21 12
-555.642422199801 -358.81140653291 1872.06419986679 18 21 12
-541.95088641127 -357.134638972116 1884.63460547066 17 20 11
-562.242455700789 -359.62841949508 1884.36312129604 17 20 13
-583.533659655985 -362.244561598296 1883.8295116317 13 16 9
-591.231202131443 -363.19170524529 1888.43122090003 12 15 8
-612.569949749153 -365.812883879407 1888.07095173435 13 16 9
-614.448020649964 -366.04499589047 1894.89731752456 12 15 8
-485.757376783398 -350.214919367467 2054.44156509793 2 7 3
-480.612958268989 -349.57739315655 2063.01994884198 34 39 33
-428.062287839535 -343.121879970005 2086.29869678123 15 18 11
-438.673399171601 -344.417104695001 2089.80826582453 18 21 14
-443.364251631868 -344.985410164112 2095.17579313005 21 24 17
-405.507637967124 -340.332094616395 2113.42342976051 21 24 15
-419.088588745891 -341.990349424976 2116.04127125401 27 29 24
-398.001435079846 -339.39420410262 2129.00974490382 29 31 26
-423.49274611565 -342.512865995198 2128.16590536135 30 32 27
-441.078767666069 -344.660903956934 2129.75742663297 30 33 26
-453.721769897679 -346.201851902781 2132.86323080009 29 32 25
-438.551761865241 -344.33001288535 2143.96383702489 28 31 24
-434.297832645317 -343.796910538944 2151.88618484256 25 28 21
-423.067965959359 -342.407698997737 2161.72484735796 26 29 20
-435.724361378017 -343.948289641528 2164.88060338541 25 28 19
-447.399797278381 -345.367927616012 2168.36693255198 23 26 17
-452.107173894068 -345.932252013932 2173.79832424787 20 23 14
-443.842139285978 -344.904906628082 2182.72647365526 16 17 11
-448.548613986533 -345.4680869199 2188.15523904574 18 19 13
-443.262943476582 -344.805385951649 2196.22507583885 17 20 13
-445.969869368846 -345.122431503632 2202.1788747855 19 22 13
-458.689137025167 -346.666878281398 2205.56469952513 22 25 16
-471.423844944285 -348.212424743001 2209.00808567403 19 22 13
-493.196969896832 -350.865818170422 2210.24023568291 13 16 9
-487.911482592658 -350.200596669447 2218.31234401558 28 33 27
-646.096185214874 -376.802535419877 1697.77739549243 16 22 18
-617.36187720184 -373.2031851422 1718.05652546954 26 33 26
-583.786511133471 -368.996456864428 1740.2277533252 26 29 22
-576.072187321459 -368.032630633896 1751.16048131264 25 28 21
-596.198190539591 -370.560234398028 1750.25292854123 23 26 19
-608.661701055404 -372.126463047285 1752.67635423435 24 27 20
-584.587571697986 -369.110098042818 1770.40628784143 23 26 19
-554.698788871971 -365.36412384492 1790.38797016049 21 24 17
-561.370813012807 -366.203249391661 1795.14757722895 23 26 19
-588.296218959924 -369.582199919508 1791.67127763069 21 24 17
-594.998115478546 -370.424484386926 1796.5388715834 20 23 16
-592.051743469817 -370.056346135125 1805.31545297437 18 21 14
-588.132315305647 -369.56579371815 1814.45194483119 17 20 13
-578.402284732204 -368.346223302838 1825.85578196213 17 20 11
-581.235027145383 -368.70196651713 1832.25228131343 17 20 9
-590.84830795014 -369.907676332757 1836.00993659016 17 20 11
-604.349384433895 -371.60065350685 1838.30929859737 17 20 11
-610.109141066642 -372.322380712365 1843.6522747589 17 20 11
-568.317377218512 -367.079868108825 1867.14398914688 17 20 11
-590.565265016518 -369.868686755253 1866.15701977204 15 18 9
-597.291615080914 -370.710506712867 1871.11569821461 17 20 13
-572.897918920691 -367.648870987495 1887.68865350202 13 16 9
-576.599010981336 -368.107363662437 1901.14061465621 13 16 9
-471.719356565937 -354.829285892416 2065.64996959383 18 23 17
-455.448750101513 -352.766939594388 2084.47443605111 29 32 23
-448.281003513701 -351.856439866059 2093.50651019972 26 29 20
-449.020206212792 -351.936569906452 2100.09675541323 38 41 32
-412.111464800566 -347.297671669871 2117.95823321962 28 30 25
-417.777326825036 -347.994560027281 2122.96827905182 29 31 26
-424.441200367158 -348.816099057701 2127.70779872796 29 31 26
-438.061881533069 -350.508814110319 2130.45139496791 29 32 25
-441.764317956431 -350.958077313466 2136.12060469174 29 32 25
-440.498021095687 -350.784279113277 2143.21870989562 28 31 24
-431.267383072768 -349.612051022344 2152.54955481642 27 30 23
-426.999350098063 -349.061142915598 2160.43077978178 27 30 21
-435.67643781648 -350.131848450861 2164.69501765962 25 28 19
-439.377799549145 -350.578503405668 2170.36188397897 23 26 17
-445.077583557282 -351.275040296696 2175.49809738547 21 24 15
-441.795566062682 -350.845958438474 2183.0669694748 16 17 11
-439.505748974439 -350.540681870025 2190.34427362149 17 18 12
-429.209668586191 -349.232307342424 2199.70254500037 15 18 11
-442.914555674514 -350.929439585185 2202.7550635212 17 20 11
-467.652743657788 -354.007691249546 2203.03778800214 22 25 16
-492.423895446936 -357.089293211557 2203.44078543102 20 23 14
-467.08241178997 -353.894985199023 2216.57762481847 23 26 19
-512.959653796326 -359.61781205338 2211.84756521096 17 22 16
-612.67801650543 -379.531581219962 1720.04970205578 27 34 27
-602.110513978369 -378.176228269983 1732.32621633133 25 28 21
-593.444641428725 -377.064184055066 1743.71685683721 24 27 20
-608.785760155504 -379.027941968739 1744.88340847986 24 27 20
-603.9531360105 -378.406546927802 1754.60923923122 25 28 21
-580.826029883859 -375.440951636216 1771.92691075953 24 27 20
-563.440072554454 -373.210790421646 1786.71624761107 23 26 19
-575.902664165015 -374.804633527542 1789.1178982443 23 26 19
-585.487420193127 -376.029349275855 1792.75857628764 21 24 17
-576.744883098428 -374.905774032108 1803.87092742902 20 23 16
-580.543528322399 -375.388700294806 1809.87701750208 18 21 14
-588.211897879788 -376.367014252409 1814.35073414103 17 20 13
-576.54161438202 -374.867376750395 1826.52025290856 17 20 11
-561.946990220878 -372.992821844061 1839.75886134536 17 20 9
-595.768310578454 -377.320641954458 1834.01057307536 17 20 11
-596.673342329984 -377.43109986739 1841.19736162792 17 20 11
-573.320802727045 -374.433655428657 1857.69815072669 17 20 11
-563.524375561322 -373.172497041818 1868.88172679194 17 20 11
-586.748095354115 -376.140994284624 1867.50714128965 14 17 8
-605.141392756097 -378.490179994026 1868.07260503445 16 19 12
-603.123750066374 -378.224295750483 1876.33556912638 13 16 9
-465.548562936045 -360.361357549059 2074.31603237812 19 22 15
-457.40262756638 -359.302497731253 2083.7062704775 21 24 15
-467.056220245613 -360.52136147662 2087.60529114063 28 31 22
-448.000130583406 -358.065593368503 2100.23343976621 39 42 33
-429.905038024926 -355.732447920939 2112.45491535237 30 32 27
-422.69102153543 -354.791583998244 2121.33436878741 29 31 26
-431.344785222295 -355.880669589925 2125.49947587956 29 31 26
-432.062187482842 -355.953779658937 2132.01414140246 29 32 25
-432.778333552464 -356.026275174973 2138.52360190873 28 31 24
-431.503497065276 -355.843517561795 2145.59565765768 28 31 24
-434.205870521672 -356.169163692266 2151.52712434719 28 31 24
-435.91355753919 -356.36707059093 2157.74248349038 27 30 21
-437.62117507339 -356.564507322339 2163.95788149461 24 27 18
-433.343293540806 -355.995938991661 2171.8136904357 23 26 17
-441.036169462475 -356.957851023118 2176.38874971962 23 26 17
-439.746504032415 -356.77043228247 2183.40869130196 20 21 15
-440.451991043258 -356.837824676638 2189.8817986561 18 19 13
-467.167336914787 -360.230211993975 2189.51342426662 15 18 11
-454.873183422277 -358.634570426539 2199.42817698241 15 18 9
-465.602145997374 -359.981782122878 2203.34248274071 20 23 14
-466.318013381545 -360.048353235243 2209.85464890086 23 26 17
-459.005739866586 -359.088500232573 2218.38128196921 27 30 23
-517.946317219392 -366.595534610845 2210.3704898474 13 18 12
-618.547547228461 -387.216016020484 1709.71446865106 7 13 9
-584.010148123902 -382.690312827014 1732.41248986668 30 37 30
-577.254485548246 -381.799629270683 1742.96204029254 26 29 22
-586.816124268812 -383.043673246401 1746.50375645038 25 28 21
-573.31790522856 -381.270380491959 1759.85285020566 24 27 20
-578.075293922764 -381.885373525627 1765.43793742291 24 27 20
-567.433176072109 -380.485344710168 1777.46562562881 22 25 18
-578.932064364639 -381.981900447762 1780.24790628095 21 24 17
-594.302063663905 -383.984409344145 1781.49722048695 19 22 15
-579.780591782951 -382.076260928747 1795.02863818562 20 23 16
-560.40657412395 -379.533071561601 1810.42789606194 20 23 16
-570.957501467208 -380.904288251117 1813.66603640236 19 22 15
-576.686084137251 -381.644419028682 1818.88165069834 18 21 14
-565.00071562853 -380.106239676077 1831.01949508355 16 19 10
-534.893961606563 -376.158348617733 1850.31937280845 15 18 7
-574.522845759058 -381.331646083623 1842.21986016589 15 18 9
-560.861813319504 -379.534208637903 1854.97970337421 15 18 9
-560.766823173151 -379.510887342453 1862.4353172144 14 17 8
-547.070225863219 -377.708347476042 1875.06540740834 14 17 8
-552.792090475369 -378.445159555266 1880.25817412446 14 17 8
-594.513369190462 -383.889316440953 1871.96366516814 15 18 11
-614.876362547835 -386.539759383327 1871.85845610849 12 15 8
-435.870966070745 -362.7957149317 2083.38629917152 31 34 27
-466.282779031505 -366.74745135382 2080.8028282945 18 21 12
-450.203470757011 -364.625990434453 2092.58222854631 20 23 14
-459.858638093709 -365.865312301526 2096.47417941693 27 30 21
-426.890856911234 -361.537974420233 2113.1847566917 29 31 26
-435.545653534976 -362.645845158921 2117.34276794012 30 32 27
-437.259980425978 -362.846888414323 2123.58079950072 30 32 27
-447.917159118147 -364.215027741977 2127.21537316012 29 32 25
-436.711049450325 -362.728281356582 2137.20381922222 28 31 24
-435.437053662879 -362.537880277577 2144.28382200872 27 30 23
-429.17951838561 -361.696421673783 2152.75542302087 28 31 24
-441.844691872239 -363.32461223428 2155.88753527024 27 30 21
-448.541852388773 -364.173114764692 2160.73454863848 25 28 19
-447.262537202427 -363.980134413196 2167.79642995706 23 26 17
-447.97629255552 -364.046865623383 2174.30065348237 22 25 16
-442.692095724535 -363.330554579566 2182.40980835184 21 22 16
-454.399692417825 -364.830683649578 2185.96472637525 18 19 13
-454.111463805669 -364.765257253138 2192.72946662216 16 19 12
-475.854775274415 -367.573244322349 2193.75239365413 15 18 9
-466.555906358793 -366.33149538126 2202.87473149105 19 22 13
-473.289242340327 -367.18030429937 2207.85493481097 23 26 17
-530.97165331905 -374.641740177401 2206.89149621727 30 35 29
-576.427459393321 -388.503315341325 1735.65909782945 32 39 32
-566.781007041977 -387.202884086609 1747.42336679654 23 26 19
-566.727063026038 -387.18344348525 1755.02892680704 22 25 18
-552.244882790868 -385.236976679745 1768.73041891107 22 25 18
-540.625669937196 -383.672770750729 1781.13031809516 23 26 19
-549.212335861662 -384.806670707679 1785.01893992466 21 24 17
-574.194753370085 -388.129494056017 1782.15771062278 19 22 15
-580.884922516704 -389.009356744624 1786.95803822012 21 24 17
-578.894377929854 -388.7298614145 1795.33113460696 20 23 16
-559.510228594115 -386.12790003529 1810.72895210246 20 23 16
-574.896786419849 -388.168023640186 1812.01599691406 17 20 13
-570.954464538022 -387.62717331145 1821.10017337512 15 18 11
-566.03551945533 -386.955762711024 1830.53708860922 17 20 11
-564.982095080303 -386.800056674506 1838.41412518568 16 19 10
-552.2892580595 -385.090432544612 1850.81599808539 16 19 10
-573.536259081345 -387.910807773864 1849.98932948901 15 18 9
-570.53582471669 -387.494305238469 1858.59572262512 15 18 9
-559.754233979214 -386.038980071025 1870.14048656004 15 18 9
-571.321144217164 -387.565989546903 1873.15609246751 14 17 8
-580.956227781801 -388.83470237636 1876.95492031377 12 15 8
-591.576467589103 -390.234334073127 1880.43339352278 11 14 7
-446.466579416208 -370.40961656541 2086.74629482159 28 31 24
-453.145566758371 -371.273859956475 2091.51496777735 22 25 16
-407.011219012022 -365.075183159781 2118.97065125657 28 30 25
-419.623996999169 -366.728803741458 2121.89310312402 31 33 28
-436.225794032303 -368.91293198433 2123.70485555833 31 33 28
-444.897046283115 -370.040028679981 2127.91089603961 31 34 27
-443.630400110361 -369.843083522046 2135.02231809383 27 30 23
-434.395345498645 -368.584626437188 2144.39213458117 25 28 21
-426.140807495432 -367.456652881447 2153.42278718371 27 30 23
-429.834981755477 -367.919113290951 2159.05298908927 27 30 21
-445.503515380827 -369.975096551013 2161.37694182307 25 28 19
-444.220011188942 -369.773891023149 2168.42846313088 23 26 17
-445.929356089836 -369.970487738033 2174.65080485155 21 24 15
-452.637731199153 -370.831948966885 2179.53034533849 20 21 13
-451.348939113034 -370.628629941365 2186.56356808318 18 19 13
-450.055757063401 -370.424398829869 2193.58106759709 16 19 12
-457.77579648473 -371.418797784494 2198.23646908877 14 17 8
-471.520203501206 -373.214031635191 2201.37471016008 14 17 8
-456.183635064916 -371.140271733528 2211.98439252594 19 22 13
-460.904690933229 -371.734194907002 2217.4478854884 22 25 18
-582.276922553035 -396.099492492882 1733.09771952295 24 31 24
-577.432398831694 -395.421958663882 1742.81481257151 22 25 18
-583.153105330123 -396.183765183367 1747.98749925727 23 26 19
-569.637544174479 -394.324532154474 1761.32646332732 23 26 19
-538.768312347674 -390.10089907462 1781.86581986579 23 26 19
-542.537689512995 -390.596441631595 1787.75527810573 21 24 17
-559.809909704983 -392.931280716845 1788.06377998669 20 23 16
-575.175131545947 -395.00567613585 1789.2499710393 21 24 17
-557.726871506262 -392.610202678049 1803.91235963475 16 19 12
-558.611922083567 -392.711648766531 1811.0306515978 15 18 11
-582.706830648303 -395.973948804771 1808.80880716885 16 19 12
-580.702837745141 -395.681337693596 1817.13932418804 16 19 12
-572.881671397301 -394.596149402412 1827.75198843223 15 18 11
-568.923359166738 -394.036986287347 1836.78835759707 15 18 9
-581.446592369265 -395.721611306323 1839.35877265091 15 18 9
-565.834780381104 -393.57512933569 1852.88876294649 14 17 8
-640.54171147769 -403.725164423897 1831.60735881694 13 16 7
-600.640849068233 -398.270964712291 1854.46062702966 12 15 6
-592.783434834397 -397.179331282612 1864.94277910057 11 14 5
-581.01709833066 -395.555312006787 1876.83512904584 17 20 13
-621.844241413012 -401.089815959997 1869.06014970652 18 20 15
-485.051801102756 -381.897511038574 2074.68148240247 19 22 15
-454.10736994126 -377.662571461749 2091.05245649595 20 23 16
-423.115463877282 -373.421563511352 2107.25099683474 29 32 23
-402.99120609753 -370.657124958658 2120.00444533901 28 30 25
-410.639715654629 -371.665086824549 2124.38570755213 30 32 27
-429.227734947647 -374.158044756788 2125.58336525897 31 33 28
-445.851392937158 -376.383397676169 2127.44932701457 31 34 27
-436.621950825637 -375.097457470548 2136.85733301881 29 32 25
-430.364547127504 -374.214819507727 2145.35449202752 28 31 24
-429.078474857727 -374.006789366174 2152.40078726925 27 28 22
-429.782772496611 -374.068614162387 2158.8729938083 27 28 20
-431.483533281081 -374.265257876439 2165.06343471432 26 27 19
-426.192694341888 -373.512601677265 2173.17180418874 25 26 18
-447.878047716824 -376.420175770518 2173.91667014433 23 24 16
-458.589509736524 -377.837809636803 2177.72246792151 20 23 14
-470.314904220674 -379.392275697858 2181.30916012253 19 22 13
-443.992622746814 -375.784677991654 2194.96173930785 15 18 9
-459.728617299438 -377.882083486927 2197.51000941181 14 17 8
-453.417260120289 -376.988584222902 2205.81370697708 13 16 9
-457.131940961701 -377.454405486752 2211.51885295508 13 16 9
-443.77306261504 -375.604727213354 2221.53626780672 37 39 34
-625.583945688598 -408.927362105356 1714.33918895369 10 17 9
-618.846107626243 -407.967911305494 1724.99740531897 25 28 21
-601.51534313778 -405.536239299536 1740.11981475839 25 28 21
-583.193749311471 -402.96704236577 1755.54568646531 24 27 20
-592.775483159999 -404.275112090513 1759.1225184111 23 26 19
-564.775095627851 -400.36117179244 1778.42791755237 19 22 15
-585.928031470282 -403.276207117783 1777.19223995195 18 21 14
-574.286867281982 -401.635117056686 1789.55917874897 15 18 11
-563.591707636628 -400.125436312575 1801.45916165446 15 18 11
-577.048505942103 -401.970236652778 1803.49734524246 16 19 12
-588.587473083328 -403.548199248602 1806.37703477598 18 21 14
-590.458313849475 -403.78299880858 1813.17485971556 17 20 13
-568.104782697162 -400.653498087284 1829.57182443049 16 19 12
-579.654737553253 -402.231922737687 1832.4920174787 16 19 12
-577.633426362807 -401.925524335465 1840.7669396653 17 20 11
-629.018405809031 -409.033455799898 1828.33544641038 17 20 11
-584.264003395696 -402.793611552893 1853.14701763113 16 19 10
-626.97161771269 -408.69518956325 1844.32853828955 16 19 10
-605.502570150543 -405.687730064027 1860.03604639776 10 13 6
-610.297406197877 -406.325654850387 1865.74569038954 7 9 4
-496.92263972643 -389.882360400143 2070.85205242193 70 72 67
-478.859118290756 -387.345311652804 2083.31947926829 22 25 18
-431.999547244925 -380.820996964592 2104.39182110956 20 23 14
-409.886876485847 -377.723899528599 2117.76534611246 26 28 23
-417.541968090588 -378.748277334269 2122.16068201345 28 30 25
-423.217268626285 -379.497842693534 2127.17251368664 28 30 25
-426.908484909811 -379.972272377506 2132.78510545434 30 33 26
-422.638324428083 -379.344339537712 2140.70613176475 28 31 24
-414.374154968701 -378.163435599489 2149.73444213081 27 30 23
-431.020512524387 -380.429200196585 2151.66009813139 27 28 22
-432.722643722901 -380.626406770633 2157.85527175583 27 28 20
-429.432622686398 -380.132560259093 2165.43438825184 26 27 19
-414.145131964566 -377.979104845265 2176.27753114928 24 25 17
-434.82895587322 -380.800382648333 2177.25564685773 21 22 14
-458.541824992017 -384.0395347146 2177.52629964565 20 23 12
-447.240133363645 -382.436194594043 2187.2334798024 18 21 10
-453.956378920668 -383.323694461384 2192.1258022859 15 18 9
-433.605259648422 -380.469070844405 2204.09389666053 13 16 7
-436.302250481506 -380.800390984675 2210.00179645189 12 15 8
-434.983886571449 -380.576321911448 2216.93832530407 12 15 8
-440.695397722799 -381.323143241875 2222.08633233225 4 6 1
-420.266580350475 -378.457966621772 2233.77168248091 16 18 15
-600.681751907784 -412.291155842102 1732.76015322027 24 27 20
-598.723856794824 -411.98527539139 1741.27019986589 24 27 20
-589.057099624165 -410.587296763659 1753.02066732315 23 26 19
-575.518522552454 -408.641005125765 1766.32914205599 22 25 18
-604.38820502163 -412.701040273573 1761.84891817396 19 22 15
-594.695869676448 -411.299063607076 1773.50694303478 18 21 14
-589.814953517135 -410.578566696737 1783.11697175679 16 19 12
-582.991430479495 -409.582922291664 1793.47990735021 16 19 12
-581.958167707403 -409.406845851937 1801.44466081299 17 20 13
-582.856421695075 -409.504049478324 1808.61558194191 18 21 14
-581.816371659246 -409.326718789422 1816.55499846946 17 20 13
-563.322962167968 -406.678562630543 1831.39373203099 18 21 14
-562.261266641917 -406.497811407308 1839.25587166457 18 21 14
-593.232136303701 -410.850280586115 1834.59874667812 17 20 11
-602.872633573576 -412.183104805913 1838.37719797528 16 19 10
-560.995271734551 -406.225776183987 1862.00333023524 13 16 7
-602.728757696219 -412.098866852286 1853.48240903502 13 16 7
-636.731582861703 -416.876940982861 1848.12374572555 16 19 12
-648.370559105173 -418.490154352949 1851.35249396099 12 14 9
-452.064146229265 -389.878721866106 2091.33994003205 15 18 11
-451.806187253498 -389.802528004712 2098.22386351988 26 29 22
-435.655810483272 -387.48389378022 2109.86388527879 26 28 23
-439.355955230729 -387.965587719265 2115.50411139026 27 29 24
-432.118934426258 -386.904046487306 2124.37434364806 27 29 24
-416.907045956148 -384.717678143568 2135.51803336694 27 30 23
-423.582003102215 -385.617674952091 2140.24917015842 26 29 22
-428.270627668526 -386.237019313045 2145.57620244596 26 29 22
-433.960829285222 -386.996973016038 2150.63680025597 26 27 21
-438.658647476003 -387.616340870473 2155.99795183671 27 28 20
-444.359480441856 -388.376542113384 2161.09786547871 26 27 19
-427.076175852887 -385.897485862749 2172.52915074782 25 26 18
-424.769724300592 -385.528706458193 2179.78478675606 23 24 16
-444.479156829504 -388.261107753225 2181.09853962824 22 25 16
-456.200776813949 -389.86730032937 2184.63856043793 21 24 15
-426.837135191479 -385.686398866304 2199.05100963638 17 20 11
-432.538925725457 -386.443995836178 2204.15612274281 16 19 10
-431.219321881276 -386.2123314934 2211.09284321818 15 18 11
-433.913844441441 -386.545438618745 2216.98952156464 15 18 11
-421.529823948831 -384.75570634721 2226.69315443231 17 19 14
-413.149865024483 -383.52958149523 2235.32011132667 28 30 27
-556.596404072816 -412.801077477126 1744.10445396094 19 24 17
-570.959112617434 -414.841623103628 1745.48620100267 20 23 16
-572.826839988263 -415.077737809345 1752.27163620147 20 23 16
-587.217743566899 -417.121428799582 1753.75608006043 21 24 17
-592.951059517452 -417.914905489863 1758.95558828265 21 24 17
-600.619790370587 -418.987420457246 1763.37117275581 19 22 15
-591.884114609558 -417.692155442103 1774.61832364042 18 21 14
-587.963977365413 -417.091938164857 1783.82141947401 19 22 15
-585.968740058413 -416.769268498573 1792.20435072632 17 20 13
-583.000512925962 -416.306111456823 1800.95884919357 16 19 12
-560.658162285439 -413.04792942844 1817.4785675982 16 19 12
-568.320909336445 -414.118192646546 1821.87335702345 14 17 10
-559.506174702693 -412.811408518594 1832.83332135105 11 14 7
-573.967520544421 -414.861397983789 1834.5753269992 12 15 8
-612.72778951175 -420.414522541529 1826.90826288324 12 15 8
-603.918289566888 -419.107535101964 1837.88779094502 13 16 7
-590.229664023871 -417.096983295959 1850.67973561869 13 16 7
-607.665971698758 -419.573437975203 1851.50805349099 13 16 7
-614.41020766447 -420.507911371328 1856.47557127151 5 8 1
-467.904775331767 -398.394107898438 2086.32840040209 24 27 20
-518.288154057993 -405.589845440303 2077.91536459014 20 23 16
-457.470969474353 -396.805196537081 2103.14508114644 26 28 23
-441.302461663806 -394.437096923171 2114.74901576356 26 28 23
-425.108268056145 -392.065499583902 2126.25886330846 27 29 24
-426.809666846391 -392.264412209525 2132.45024053289 27 30 23
-436.481840948542 -393.607665818503 2136.34064615197 26 29 22
-432.206332920686 -392.947292361608 2144.26322840155 26 29 22
-437.900400146273 -393.718141722045 2149.33037048952 27 28 22
-439.605871801538 -393.915734636602 2155.53770265999 27 28 20
-442.310436471689 -394.256249089867 2161.46791781606 26 27 19
-429.017047547964 -392.300525633133 2171.79636245921 25 26 18
-423.707554938362 -391.490480232959 2179.87077802606 24 25 17
-442.421292203899 -394.126854904328 2181.44465610368 22 25 16
-440.115126848753 -393.746844152844 2188.70844559032 21 24 15
-440.811637908638 -393.797197141985 2195.1589847861 18 21 12
-428.460493224362 -391.976022483797 2205.00360114103 16 19 10
-428.14018269793 -391.880024279961 2211.66852896686 15 18 11
-436.861836412881 -393.080024078553 2216.0166020259 15 18 11
-452.63332641887 -395.289789024858 2218.62572191599 11 13 8
-455.341580310495 -395.626217239133 2224.5712852432 12 14 9
-550.904645621042 -418.686022082084 1746.53272517582 23 28 21
-567.191868215611 -421.043113635842 1747.06732439492 20 23 16
-584.463884499996 -423.544411889029 1747.26997560252 20 23 16
-584.41199789527 -423.497654667059 1754.90042066183 20 23 16
-594.966232418211 -425.010203852631 1758.06160997306 19 22 15
-601.672896450466 -425.956499320559 1762.88123766881 17 20 13
-597.762139742973 -425.341777159597 1772.1292482432 16 19 12
-589.010049390727 -424.015319015578 1783.33421965387 16 19 12
-557.993994044971 -419.416907147736 1803.56599397243 14 17 10
-535.53430217175 -416.037034988874 1827.5195169246 13 16 9
-545.118715681443 -417.405318381604 1831.06828216936 13 16 9
-575.088569920011 -421.767782399164 1826.5845932765 9 12 5
-590.53662301456 -423.996058121534 1827.98116857138 10 13 6
-606.005054810287 -426.226394773457 1829.45117580408 12 15 8
-615.659421321674 -427.6023642155 1833.25481026454 12 15 6
-613.648871346932 -427.26480345394 1841.58936101822 13 16 7
-614.553941300645 -427.354989780442 1848.78908982644 13 16 7
-596.942291112059 -424.726537175259 1862.99193365966 20 23 16
-475.57402034443 -405.741797901955 2090.68039722481 24 27 20
-450.479747809025 -402.020779870835 2105.06854920916 24 26 21
-420.373948848167 -397.567353045637 2120.79389230008 24 26 21
-425.05840200772 -398.203082749951 2126.09509212388 24 26 21
-420.782653957947 -397.52800886895 2134.02606429734 24 27 20
-439.423791186372 -400.203470960199 2135.30571491572 24 27 20
-437.142264287058 -399.819031203416 2142.66377840194 24 27 20
-438.847686457161 -400.017138292324 2148.87060222093 25 26 20
-431.562699893196 -398.900774845601 2157.59735889119 24 25 17
-427.263658315417 -398.220754062318 2165.44496997569 24 25 17
-423.956439114081 -397.685406282811 2172.9864347844 24 25 17
-427.649204513369 -398.172377138325 2178.59686027613 24 25 17
-437.355820070387 -399.537341219859 2182.60050438847 21 24 15
-452.086251347958 -401.635030715271 2185.31145621863 20 23 14
-453.793305022655 -401.8301493441 2191.52622425166 16 19 10
-443.452816012835 -400.265874816166 2200.88117698618 14 17 8
-435.104436993123 -398.99256791016 2209.65517215586 13 16 9
-464.946015210063 -403.293017987747 2208.63162129809 13 16 9
-503.88289994909 -408.918850322782 2205.46978440413 12 15 8
-480.449802516038 -405.442784943767 2218.07733388993 17 19 14
-440.860326310654 -399.61061781631 2234.53177709688 10 12 7
-640.444572941362 -438.844577335499 1699.96974074377 123 128 122
-600.038877000924 -432.747000650908 1725.25117592442 8 13 6
-577.860796435969 -429.380673441573 1742.44907412935 20 23 16
-602.853621715194 -433.079308436189 1739.38829001861 20 23 16
-598.957366190392 -432.451128613909 1748.69863710502 20 23 16
-608.560149320494 -433.84400767272 1752.30007673403 18 21 14
-627.830242092009 -436.683638850315 1751.91401883846 17 20 13
-607.50911444619 -433.596229189009 1768.03675554993 14 17 10
-576.518023203274 -428.912379726152 1788.41515751428 15 18 11
-568.703242385339 -427.697666732298 1799.13330509604 12 15 8
-575.400662298256 -428.654735182657 1803.91180969134 11 14 7
-639.284481933932 -438.16727459693 1785.71203569169 12 15 8
-607.244386952746 -433.327329935251 1806.18963407359 12 15 8
-558.654056063499 -426.012854893876 1833.0247598928 10 13 6
-574.094659026064 -428.27631520185 1834.37146060239 11 14 7
-594.41564211909 -431.26895994946 1833.89422735967 12 15 8
-601.145519282602 -432.228229687371 1838.79277860977 12 15 6
-612.750012815289 -433.915843957948 1841.84652646486 11 14 5
-597.092272447514 -431.527496752583 1855.35869473606 11 14 5
-617.479534331517 -434.526882711126 1855.12328560627 8 11 4
-616.430741131989 -434.321859894159 1863.04865286309 9 11 6
-437.79239809836 -406.399696367422 2101.9569194283 27 30 23
-412.65942285191 -402.603662268884 2116.24780802739 23 25 20
-413.357614927415 -402.654447878517 2122.70524439328 23 25 20
-407.084494457516 -401.666994709951 2131.21022494258 23 25 20
-414.749984706054 -402.754038615176 2135.60460487525 23 26 19
-422.423809070692 -403.841649174852 2140.03049901412 23 26 19
-432.102297818756 -405.226871173263 2143.91692400931 23 26 19
-431.805972912388 -405.127177189943 2150.67323906307 24 25 19
-415.517867380372 -402.648652952347 2161.90191808499 23 24 16
-414.204217899924 -402.397401256775 2168.87311237502 22 23 15
-415.888469415512 -402.591615693856 2175.00379131971 22 23 15
-424.582936034565 -403.827694551319 2179.2281455912 23 24 16
-433.287387609989 -405.064523854098 2183.4890982568 22 25 16
-440.998963422462 -406.152911903735 2188.05373623343 21 24 15
-455.744438012503 -408.285845742575 2190.79828950101 17 20 11
-462.47360141022 -409.226663216244 2195.70584047226 15 18 9
-458.154481233487 -408.525539027206 2203.49129821726 14 17 10
-456.843779301431 -408.271104480224 2210.47544566252 14 17 10
-477.6714915109 -411.303992404784 2211.85511990027 16 19 12
-481.403977024621 -411.797225178345 2217.60813592221 8 10 5
-485.139237716148 -412.290374550316 2223.37150829082 16 18 13
-472.738559815498 -410.388035353195 2233.08438958497 17 19 14
-597.245674926359 -439.148989763351 1726.42489385658 0 4 0
-593.353197063932 -438.505707686296 1735.75880143604 22 25 18
-580.77793524216 -436.53870669282 1748.76063130595 21 24 17
-595.187776573863 -438.685448054758 1750.25032672041 17 20 13
-618.303554123076 -442.158470474634 1748.15644203924 16 19 12
-627.927468296106 -443.574300514399 1751.82184704121 15 18 11
-616.296387810894 -441.751026145676 1764.34124628581 13 16 9
-588.199705314862 -437.419504497623 1783.55276010319 14 17 10
-578.452419085505 -435.884093554569 1795.09193554049 13 16 9
-628.755154888811 -443.495250812734 1782.22089371572 13 16 9
-627.744013234203 -443.289556908637 1790.28647746861 13 16 9
-586.94800932794 -437.025529728263 1814.22386379968 13 16 9
-573.27618230453 -434.892665238961 1827.15539990931 12 14 9
-598.449314616141 -438.673566457671 1824.71305090591 12 14 9
-542.946495759437 -430.173542389133 1853.90805803905 11 14 7
-590.511422874032 -437.36145112241 1842.82824726305 12 15 8
-601.137164890608 -438.926064571413 1846.22298825524 12 15 8
-611.776121869574 -440.492025960585 1849.66501377136 13 16 9
-592.193949328582 -437.459916259648 1864.60011207155 11 13 8
-362.208610222133 -401.126583146009 2124.6972628287 17 19 14
-420.563364221353 -409.912160595795 2113.70328922801 23 25 20
-404.344163749166 -407.397190351742 2125.21173835506 26 28 23
-409.017844191963 -408.047328830641 2130.46384424697 26 28 23
-404.724116233659 -407.338750564434 2138.34921345886 23 26 19
-424.363384893145 -410.254005622843 2139.28608831942 20 23 16
-426.059263624211 -410.45129779733 2145.45799371404 17 20 13
-419.762976993209 -409.438528056664 2153.8938754284 21 22 16
-403.458209126346 -406.91099712475 2165.09163072802 22 23 15
-404.134884382696 -406.953568196587 2171.47343656819 21 22 14
-418.825888662667 -409.115909041246 2173.99811522888 20 21 13
-428.526492031349 -410.522231718848 2177.95332561187 18 19 11
-429.215149553547 -410.5648022061 2184.37961962575 17 20 11
-435.921943067435 -411.517011958591 2189.19692311426 18 21 12
-440.627920974485 -412.165975656975 2194.56968485574 21 24 15
-479.499345310039 -417.978859291732 2191.0476409377 20 23 14
-492.282003065406 -419.846330800685 2194.46487978626 16 19 12
-472.882341764315 -416.850050036608 2206.15866564967 15 18 11
-478.624940768674 -417.652745420152 2211.38681983092 22 25 18
-445.076426536485 -412.520038959864 2226.44878764939 16 19 12
-511.302246751006 -422.456869985518 2216.67652726781 13 16 9
-567.529597112027 -430.880097686304 2209.70257975581 22 25 18
-598.300192490427 -446.127301195902 1725.93437037284 1 6 0
-585.733814196534 -444.122219777274 1738.99322502755 20 23 16
-583.752315546344 -443.759771179281 1747.45135053242 19 22 15
-587.554469872383 -444.294399846069 1753.4378270224 16 19 12
-601.981728313206 -446.476833392062 1754.96965457286 15 18 11
-616.386514237486 -448.598747845892 1764.24889542894 13 16 9
-661.82833204043 -455.587413199446 1753.20668654986 12 15 8
-664.720835222906 -455.978308675404 1759.80194360448 12 15 8
-616.193013170788 -448.342572402021 1794.86554979917 12 15 8
-617.108402803149 -448.427540181043 1802.1068882693 11 14 7
-519.6459645749 -433.160802383161 1862.92626571964 11 13 8
-592.523361713025 -444.390579525685 1841.96403776437 11 14 7
-594.38518920239 -444.621390569026 1848.73091631441 12 15 8
-596.24709086903 -444.851921359364 1855.49824720721 13 16 9
-660.553086852021 -454.747523939513 1838.62408521149 16 18 13
-412.551389746001 -414.803588100693 2115.93787757406 19 21 16
-421.213669619154 -416.076323110434 2120.01958599087 25 27 22
-401.983400228735 -413.050929158797 2132.35974233872 24 26 21
-408.651002773905 -414.01553183377 2137.02371319912 27 30 23
-419.317760919733 -415.595337583473 2140.56021839444 24 27 20
-429.997402445044 -417.176286761999 2144.1438351516 19 22 15
-413.705977742223 -414.603746456214 2155.42047658902 20 21 15
-397.388885622652 -412.027883850036 2166.60298844275 21 22 14
-403.064050012301 -412.837279448723 2171.57654095134 20 21 13
-424.769762893414 -416.112818872633 2172.16561273897 19 20 12
-437.483635349701 -418.003420475806 2175.31379114549 18 19 11
-423.132599212282 -415.729787652056 2185.81243069324 15 18 9
-408.758736982363 -413.453045608467 2196.22735540947 20 23 14
-408.423467220909 -413.335503420833 2202.85034427112 22 25 16
-465.378504455938 -422.025308189019 2194.51353231043 22 25 16
-460.049059616715 -421.137801133711 2202.56277439311 19 22 13
-474.841036796224 -423.342660116547 2205.43457289054 17 20 11
-461.447173581564 -421.215476690747 2215.4982270323 21 24 15
-470.208048053144 -422.492162793324 2219.94350335589 19 22 13
-500.162393209922 -427.023253804336 2219.19209041035 16 19 10
-614.765050430168 -455.538736908811 1718.77843082626 14 17 10
-615.69857952437 -455.625109410465 1726.08623069462 16 19 12
-616.630746512269 -455.711035545745 1733.38925514162 15 18 11
-588.601789861241 -451.226647755679 1752.94966244952 13 16 9
-594.283214478802 -452.001491774532 1765.76091278455 12 15 8
-632.922745205524 -458.035356622774 1757.34112797041 12 15 8
-659.030205541287 -462.090790465056 1754.29810988655 11 14 7
-649.324292055413 -460.49748081064 1766.02651940439 11 14 7
-659.963071216943 -462.112183608916 1769.43804096766 11 14 7
-626.900505920222 -456.774496560041 1798.12354612808 10 13 6
-557.74637430534 -445.752728784987 1840.57177279664 11 13 8
-595.593293496122 -451.653811443998 1833.190257827 11 13 8
-564.344093121129 -446.669121073913 1852.79935734907 11 14 7
-630.511435276502 -457.027961973193 1834.74997466259 11 14 7
-641.177477803951 -458.643788955035 1838.26108098688 12 15 8
-625.501848757017 -456.111563471491 1851.79859833366 11 13 8
-418.468951016221 -421.831312951381 2113.98915425141 16 18 13
-411.198406800275 -420.625341792929 2122.8251771249 30 32 27
-407.902292066755 -420.042126235366 2130.43902087785 26 28 23
-401.60624847642 -418.988940989893 2138.90039216603 21 24 17
-426.247721350349 -422.780917561684 2138.37342385904 27 30 23
-432.938630740893 -423.760346732734 2143.11456779486 23 26 19
-433.638091989705 -423.801162872388 2149.58208153142 20 21 15
-412.324655782685 -420.396054422931 2162.22114942546 20 21 13
-417.010205577067 -421.060620856938 2167.50821483794 19 20 12
-427.711726712295 -422.665762919832 2171.15779217776 19 20 12
-445.444520228116 -425.369916695675 2172.94407560091 19 20 12
-425.071879951869 -422.112764643495 2185.08547306454 15 18 9
-408.683720067975 -419.47970392933 2196.04116515178 18 21 12
-417.390298915458 -420.770733074834 2200.27579701831 20 23 14
-428.117998549325 -422.376707688847 2204.02204436354 22 25 16
-419.739588251676 -420.995832471445 2212.75245228475 21 24 15
-443.570055666304 -424.647982224238 2213.19897937787 20 23 14
-461.38578998525 -427.358601995875 2215.28819443332 20 23 14
-477.207483484507 -429.75636843731 2217.96501575227 21 24 15
-489.012715821167 -431.525658745215 2221.7125014686 19 22 13
-519.009581206794 -436.134164259025 2221.07008233467 26 29 20
-644.73301515498 -467.201424681845 1705.78149802478 21 24 17
-625.437464515766 -464.036328083098 1721.86472823522 15 18 11
-623.480561660069 -463.655408311784 1730.42583483625 14 17 10
-633.106495151194 -465.133455237787 1734.05945668565 12 15 8
-605.053100442142 -460.564667777203 1753.58148678492 12 15 8
-597.26545179777 -459.248766645083 1764.46425570259 12 15 8
-607.852946204896 -460.880817962584 1767.67441407746 12 15 8
-633.951168802701 -464.999874639854 1764.55600093329 12 15 8
-666.870503641278 -470.211306339964 1758.79727149977 11 14 7
-670.7348135159 -470.76230846326 1765.00418201621 11 14 7
-671.690042735293 -470.846742680362 1772.39377392769 11 14 7
-662.929246597129 -469.373475287314 1783.65911013582 11 14 7
-616.237349501621 -461.821958348955 1809.8997636242 11 13 8
-615.20041233298 -461.587972246664 1817.88650687959 11 13 8
-629.736920555662 -463.848779233358 1819.77447657015 10 12 7
-623.830940045745 -462.834244032397 1829.66060303338 11 14 7
-657.890895851586 -468.220273780592 1824.13022324417 11 14 7
-626.621594032963 -463.143720665632 1843.72268737386 12 15 8
-675.375556113572 -470.879863608454 1832.81601264091 25 27 22
-405.160677739874 -425.750734950597 2124.44846829915 26 28 23
-403.852165795707 -425.471367538361 2131.45648804608 28 30 25
-401.541097684333 -425.032164004593 2138.74037480622 20 23 16
-407.214683663444 -425.864014342064 2143.69296121678 18 21 14
-430.88416338304 -429.559420010034 2143.51539205312 19 22 15
-440.582780907735 -431.02992254547 2147.42270958422 18 19 13
-436.279851440319 -430.27164077404 2155.30529558742 18 19 11
-441.984543992727 -431.105305120906 2160.37315835984 18 19 11
-454.711568673193 -433.055187102612 2163.53181284683 18 19 11
-439.368075161689 -430.540280188113 2174.39522991777 19 20 12
-418.981544776419 -427.224332944225 2186.52217633506 18 21 12
-409.612555439186 -425.660571634774 2195.58747254159 16 19 10
-417.316662580429 -426.81042583566 2200.08557429565 15 18 9
-438.106509676816 -430.038567995383 2201.20046046499 15 18 9
-440.803611709322 -430.390985730658 2207.09545320101 19 22 13
-442.494755073185 -430.583108924661 2213.25304052898 21 24 15
-461.323343443582 -433.49612369558 2215.07868217218 20 23 14
-471.097135783989 -434.970121598404 2219.26290226817 25 28 19
-482.901235908335 -436.765506903705 2222.98970928682 31 34 25
-471.483921125468 -434.874577309909 2232.44917227037 19 22 13
-437.806584984083 -429.452299880368 2247.21659856166 17 20 11
-493.813772834669 -438.178435675222 2247.02756027691 22 21 19
-624.598359654267 -470.83982391532 1714.45392524364 1 3 0
