ply
format ascii 1.0
comment KinectMotionCapture
element vertex 751
property float x
property float y
property float z
property uchar red
property uchar green
property uchar blue
end_header
-1157.39336120523 370.312811514497 2823.06588565945 165 169 172
-1164.55273189232 370.519542298508 2819.14859254199 159 163 166
-1171.67552468046 370.042487862595 2818.26096641742 195 199 202
-1178.83762463549 370.019821202271 2815.35162391165 204 208 211
-1185.96426509419 369.541745259162 2814.46352031065 203 207 210
-1193.19189940784 369.97114111156 2809.52943481744 185 189 192
-1200.38409277726 369.94542260637 2806.61634486839 185 189 192
-1207.58623611375 369.918654679713 2803.70225625462 197 201 204
-1214.69791897041 369.211710825476 2803.82430908762 194 198 201
-1221.83962971457 368.731062319497 2802.93433157884 192 196 199
-1228.90281558418 367.798163593952 2804.07071869141 196 200 203
-1236.03759020712 367.317479181166 2803.18160686412 189 193 196
-1243.08312615551 366.385229583251 2804.3204351418 194 198 201
-1250.58653159908 367.708454583556 2795.31859251316 201 204 209
-1258.13220921931 369.028625766552 2786.31124234016 197 200 205
-1265.61553598989 369.895518855652 2779.32848134143 201 204 209
-1272.63517925901 368.735336862558 2781.47882822245 204 207 212
-1280.04188476598 369.149622076267 2776.5224354963 203 206 211
-1287.5899957743 370.011432482527 2769.53160319277 207 210 215
-1295.54802003259 372.217391617706 2756.4397135133 211 214 219
-1303.24097064234 373.297705429563 2748.42254356466 210 214 217
-1311.0392114282 374.59951744605 2739.38372334994 209 213 216
-1319.09312406932 376.56984575564 2727.28817499076 216 220 223
-1327.13146709376 378.312420142408 2716.20285650773 217 221 224
-1335.45231075966 380.721799170732 2702.05722604518 202 206 209
-1343.1296423838 381.116574504249 2697.0671121581 197 201 204
-1350.6638971164 381.063630007514 2694.11140667185 201 205 208
-1358.03904481233 380.56392967447 2693.19234778386 207 211 214
-1365.76245229713 380.955351655871 2688.19649273271 210 214 217
-1373.59649210547 381.567931516449 2682.1783216433 205 209 212
-1381.54939882768 382.401147169427 2675.13704853106 202 206 209
-1389.72421211309 383.676523250409 2666.05154418151 206 210 211
-1398.13744547782 385.393244138523 2654.91950968462 212 216 217
-1406.3015664846 386.440675026641 2646.84362705197 217 221 224
-1414.91602351524 388.372483994525 2634.67798723746 207 211 214
-1423.69487740128 390.521851573531 2621.48381190498 214 218 221
-1432.64615238988 392.888201843093 2607.25962065513 221 222 226
-1077.67005045359 380.87857934317 2777.56018397922 195 199 198
-1085.0172430719 379.261837583246 2781.68623116819 185 189 188
-1092.3741471031 376.966128097444 2788.83639629965 192 196 197
-1099.68729559875 374.672964697728 2795.99177488949 200 204 207
-1106.98484716742 371.476566727099 2807.18270744996 191 195 198
-1114.19532468529 369.415285689741 2813.3426010187 191 195 198
-1121.37237435928 366.677961807441 2822.53174808283 170 174 177
-1128.50411135958 365.976608441263 2822.65128355491 210 214 215
-1135.62983462623 365.275282355169 2822.77180970229 208 212 213
-1142.76223451515 365.02492585206 2820.87446030047 185 189 192
-1149.86291525021 363.872720189576 2823.01467317945 188 192 195
-1156.94668392024 362.721114145161 2825.15699500509 164 168 171
-1164.05704380984 362.245210089396 2824.27091740327 153 157 160
-1171.14951077159 361.544208451138 2824.39535261774 184 188 191
-1178.29550839194 361.517075664152 2821.48827161826 206 210 213
-1185.49660872183 361.937710499962 2816.55752048118 201 205 208
-1192.76908545754 362.805255397289 2809.60107060376 183 187 190
-1199.9612287274 362.77398591985 2806.68800152513 184 188 191
-1207.1633847059 362.741722746138 2803.77392580525 194 198 201
-1214.27547444633 362.037500191912 2803.89592069511 192 196 199
-1221.48954671595 362.003878156254 2800.98012120233 191 195 198
-1228.55872979992 361.075915152731 2802.1159871687 194 198 201
-1235.69914171657 360.594871611981 2801.22617278622 187 191 194
-1242.75062325572 359.667675461417 2802.36400551251 191 195 198
-1250.21158246172 360.746046243349 2794.37579183644 199 203 206
-1257.65990977755 361.599106232765 2787.39767526047 194 197 202
-1265.13973643128 362.44979869653 2780.41539371941 198 201 206
-1272.21234636296 361.520241268831 2781.55059596556 201 204 209
-1279.67607677824 362.145664472372 2775.5788437454 201 204 209
-1287.1658500378 362.769127482415 2769.60360642561 204 207 212
-1294.99637435523 364.49920084871 2758.5442554096 208 211 216
-1302.68303841656 365.560923492649 2750.52791894422 207 211 214
-1310.54302964503 367.062703016323 2740.47317893382 206 210 213
-1318.52165056673 368.782266779485 2729.3953740138 213 217 220
-1326.99516203827 371.824020178709 2712.20572461295 217 221 224
-1335.17210567367 373.755873223222 2700.09492403627 203 207 210
-1342.53811497229 373.256934225112 2699.1770035613 196 200 203
-1349.82165723609 372.537548885469 2699.27764212051 194 198 201
-1357.35216141332 372.479112494069 2696.32265941285 200 204 207
-1365.50231020114 373.96049620574 2686.23176316608 205 209 212
-1373.34107816196 374.559100977732 2680.21327910283 205 209 212
-1381.29833565802 375.375615858577 2673.17150702063 202 206 209
-1389.38219179652 376.409407311109 2665.10567688799 204 208 209
-1397.69863676026 377.879420613439 2654.99405780517 208 212 213
-1405.56021617577 378.250394422347 2649.98101356347 215 219 222
-1413.85528195733 379.49595029194 2640.88034067504 203 207 210
-1422.51009970628 381.395030847227 2628.70999053935 208 212 215
-1431.87480702737 384.601887700589 2610.4010032729 219 220 224
-1069.81604754645 375.641536714087 2771.49981845018 147 152 148
-1077.30543730505 372.690028883922 2781.65823846228 178 182 181
-1084.73488647717 369.742160446561 2791.82412912099 197 201 200
-1092.06660814372 367.469794099894 2798.97737538935 190 194 197
-1099.32482284122 365.871680459921 2803.11447744032 194 198 201
-1106.56982145224 363.827490498895 2809.27001797199 198 202 205
-1113.76742388506 362.232464323447 2813.41491621326 194 198 201
-1120.93917649749 360.415415519496 2818.57131214618 185 189 192
-1128.08053559532 359.269755907249 2820.70643136718 171 175 176
-1135.21218497143 358.570797010924 2820.82597146849 203 207 208
-1142.35648411171 358.540186591445 2817.91887131877 182 186 189
-1149.466103481 357.395414260419 2820.05794913362 172 176 179
-1156.55882192221 356.251420004552 2822.19913403535 156 160 163
-1163.62023776171 354.88586993803 2825.35249587425 153 157 160
-1170.69348956649 353.9656505074 2826.48783369589 208 212 215
-1177.83413186962 353.933421661475 2823.5811941599 208 212 215
-1185.05196872268 354.565372200791 2817.64011081309 197 201 204
-1192.29602179546 355.195291779404 2811.69552091678 183 187 190
-1199.48277654014 355.158873644147 2808.78337812178 188 192 195
-1206.71003483197 355.342825440701 2804.85767302024 188 192 195
-1213.78667636126 354.420416728933 2805.99235332096 185 189 192
-1221.03114874671 354.602438282121 2802.06474535428 189 193 196
-1228.17538289949 354.121390131762 2801.17445399147 189 193 196
-1235.359958177 353.860483371685 2799.27062119334 185 189 192
-1242.41741112822 352.93828430909 2800.40793583179 186 190 193
-1249.74299510698 353.337073551215 2795.46170740087 193 197 200
-1257.13861563726 353.954172136696 2789.49823654554 191 194 199
-1264.50834588898 354.34955178594 2784.54650789978 196 199 204
-1271.73475027485 354.084668887246 2782.63770581598 199 202 207
-1279.08046432534 354.257968818114 2778.69724618738 200 203 208
-1286.56157351201 354.868426841687 2772.72312434083 202 205 210
-1294.4453191303 356.790948574499 2760.648937717 205 208 213
-1302.25659089078 358.271763764428 2750.60033281701 207 211 214
-1310.11535892633 359.749194835883 2740.54580957463 202 206 209
-1318.02167485104 361.223121560253 2730.48560213411 210 214 217
-1326.19611895522 363.348641038703 2717.36667610356 216 220 223
-1334.35792484822 365.251597348165 2705.25784072617 203 207 210
-1341.71065256482 364.753504463058 2704.3415754859 195 199 202
-1349.14404581088 364.4731035166 2702.40674301354 185 189 192
-1356.66636498854 364.409813559347 2699.45279452713 187 191 194
-1365.06786456411 366.5194349685 2686.30557518309 195 199 202
-1372.99542409177 367.32159734409 2679.26754702859 207 211 214
-1380.86213335751 367.9045068238 2673.24561738866 202 206 209
-1388.65994970804 368.268912155687 2668.24054769835 199 203 204
-1397.06463607939 369.93176811531 2657.10948139833 200 204 205
-1405.02045724385 370.508642322473 2651.07644701395 208 212 215
-1413.51758325158 372.165134073064 2639.93410182246 202 206 209
-1422.17331179042 374.0341760653 2627.76371713106 199 203 206
-1431.86308526323 377.842537035442 2606.38927792765 221 222 226
-1439.99339670732 378.407814928903 2600.33425845768 217 218 220
-1069.27357535727 369.440246597292 2766.54493062069 177 182 178
-1076.90574898033 364.965504506077 2783.74407392741 183 187 186
-1084.36296207132 361.604543512701 2795.92320214285 191 195 196
-1091.67288202494 359.575985735177 2802.07059970798 187 191 194
-1098.91417647077 358.213011084221 2805.20150697797 188 192 195
-1106.14799754032 356.409088710299 2810.3501225664 198 202 205
-1113.33945626306 355.048572214623 2813.48724256654 190 194 197
-1120.50863497102 353.689057028415 2816.6271403439 192 196 199
-1127.6562838113 352.55111894162 2818.76145430787 157 161 162
-1134.78705752582 351.413897564035 2820.89787230033 185 189 190
-1141.931435762 351.37790710839 2817.99077644805 190 194 197
-1149.05944815965 350.680974078124 2818.11100535646 171 175 178
-1156.15836779943 349.544706988461 2820.25139603605 158 162 165
-1163.16950875489 347.311394293114 2827.44430576676 151 155 158
-1170.22116415643 346.177481262581 2829.59058854453 203 207 210
-1177.3733383751 346.35958718219 2825.67425835248 212 216 219
-1184.62982909366 347.416464353174 2817.7116177375 194 198 201
-1191.87342315977 348.032856235507 2811.76712074721 178 182 185
-1199.0325416214 347.772379280751 2809.86670394607 185 189 192
-1206.22659168675 347.729880001737 2806.95342648391 189 193 196
-1213.36451360567 347.249771476634 2806.0639203761 189 193 196
-1220.64452332201 347.641908510084 2801.12339686205 188 192 195
-1227.83009747431 347.378492009955 2799.21968628831 189 193 196
-1234.97905749574 346.896724739294 2798.32880705881 185 189 192
-1242.08356363256 346.197285301985 2798.4517357414 185 189 192
-1249.36765952037 346.367523166973 2794.51897375905 192 196 199
-1256.71624954039 346.753678742281 2789.5699075805 189 192 197
-1263.87822514431 346.270126749238 2788.67740878326 194 197 202
-1271.20293650291 346.436881342746 2784.73958740335 198 201 206
-1278.65745529475 347.03577750429 2778.76905459736 199 202 207
-1286.31767199129 348.28206164639 2769.74760520368 201 204 209
-1294.14531984548 349.95797106496 2758.68875579211 204 207 212
-1301.89539726892 351.197876122785 2749.65634937879 207 211 214
-1309.75559842794 352.650789519421 2739.60171185751 201 205 208
-1317.5219923992 353.668673207731 2731.57554101905 208 212 215
-1325.47196573175 355.115210657563 2721.50971725207 214 218 221
-1333.46943162705 356.558304503226 2711.43797576264 203 207 210
-1341.04214977129 356.706813535092 2707.46949291986 195 199 202
-1348.87445952859 357.499277208975 2700.44337691478 184 188 191
-1356.48597083585 357.645013778859 2696.46981994703 183 187 190
-1364.72010044998 359.292280755529 2685.36031944377 190 194 197
-1372.55997576025 359.863519437262 2679.34152898873 207 211 214
-1380.42601570462 360.432854896753 2673.31971862286 202 206 209
-1387.93877249431 360.144053594303 2671.37500417148 198 202 203
-1395.94370552015 360.924447679658 2664.32761785659 195 199 200
-1404.18058494631 362.130292320281 2655.23431085944 210 214 217
-1413.07678660301 364.614708042364 2640.00899441645 201 205 208
-1421.94191192564 366.880718815435 2625.79581837609 196 200 203
-1431.41727922244 370.208042674136 2606.46501705513 221 222 226
-1440.21217229385 372.037877709383 2594.27712843418 218 219 221
-1061.17231245998 365.888563128859 2752.44900602025 169 174 170
-1068.91847561751 361.23795119701 2770.64183408339 179 183 182
-1076.54326363538 356.812711531068 2787.8417687071 198 202 203
-1083.97660941588 353.706380969666 2799.01527749468 187 191 192
-1091.25421476414 352.134566468462 2803.15013071796 190 194 197
-1098.49387899914 350.782505388088 2806.28121268813 187 191 194
-1105.71887053707 349.213266300073 2810.42262502163 194 198 201
-1112.91621410099 347.645427709643 2814.56724370194 188 192 195
-1120.08380324971 346.297002670855 2817.70731064138 184 188 191
-1127.23071019228 345.602747892131 2817.82517456921 170 174 175
-1134.37154806528 344.908578633121 2817.94355538709 145 149 150
-1141.51814508449 344.649257699265 2816.0446981436 200 204 205
-1148.65211681855 343.954749464214 2816.1639367077 192 196 197
-1155.73466613599 342.39213615329 2820.32310753946 168 172 173
-1162.73338967005 339.963536761349 2828.52576826971 143 147 148
-1169.78316297476 338.837925571522 2830.67226405943 189 193 194
-1176.97130523739 339.445131728935 2824.73495158541 197 201 202
-1184.27387956445 340.915413608751 2814.74985685682 178 182 183
-1191.50026494992 341.301530713472 2809.8160411955 171 175 176
-1198.61000796809 340.606236821184 2809.93830542911 183 187 188
-1205.77380701476 340.342415854492 2808.03731332497 185 189 190
-1212.94226193833 340.078176333448 2806.13550102842 185 189 190
-1220.186370182 340.243916926074 2802.2079813798 183 187 188
-1227.29288088869 339.547634506733 2802.33065159003 184 188 189
-1234.3932044768 338.851447631394 2802.45409366446 181 185 186
-1241.57450143297 338.585018892634 2800.55092479213 179 183 186
-1248.80676646849 338.53285871543 2797.63290376926 186 190 193
-1256.19585750353 339.123202173648 2791.67055848375 184 188 191
-1263.35260530621 338.639923499356 2790.77871136542 189 193 196
-1270.72613448356 339.013083368488 2785.8265671512 194 197 202
-1278.1202795262 339.384688496022 2780.87161402449 194 197 202
-1285.77404262938 340.609707117161 2771.85126627184 196 199 204
-1293.71986406116 342.686127315059 2758.76100030041 198 201 206
-1301.59898218048 344.331166129516 2747.69580900068 203 207 210
-1309.32761977055 345.332821792025 2739.67439267131 197 201 204
-1316.88163386675 345.692632347997 2734.69976016118 203 207 210
-1324.74904165434 346.902425573475 2725.65255064176 208 212 215
-1332.88618726627 348.747350136516 2713.5469455462 202 206 209
-1340.68886550906 349.525576516033 2706.52456487235 197 201 204
-1348.52299891927 350.301679576467 2699.49826437126 184 188 191
-1356.05283267148 350.226802569929 2696.54340862445 180 184 187
-1364.02568468409 351.21116842851 2688.49156131101 187 191 194
-1371.85680366528 351.76934827883 2682.47389798404 205 209 212
-1379.89792282551 352.74888735076 2674.41354404535 200 204 207
-1387.50249113143 352.668828764988 2671.44913524483 197 201 202
-1395.4092301241 353.221775635107 2665.4222890371 191 195 196
-1404.1422050354 355.461327387568 2651.22567426569 207 211 214
-1413.04689590176 357.907039817429 2635.99940034328 199 203 206
-1421.9206812008 360.137083640299 2621.78523830674 192 196 199
-1430.86351587704 362.362489732772 2607.56247152944 217 218 222
-1440.31845120253 365.424505558664 2589.24260577516 218 219 221
-1449.18330815334 367.219723786161 2577.04607723781 205 206 208
-1061.06430993221 355.48812709817 2766.59845372497 169 173 172
-1068.79743733355 350.674818959862 2785.80126439502 188 192 191
-1076.29279587993 347.382377846434 2797.97545183848 189 193 194
-1083.60696139842 345.607139830799 2803.11396537543 188 192 195
-1090.83575204886 344.697374446673 2804.22962506957 188 192 195
-1098.06342556021 343.572075820136 2806.35391914212 182 185 190
-1105.29735510617 341.800754852611 2811.50243533869 194 198 201
-1112.49823551092 340.031180971908 2816.65507127181 184 188 191
-1119.6591723711 338.909118575808 2818.78768516138 183 187 188
-1126.803981157 338.217801900853 2818.90556292063 173 177 178
-1133.94883960585 337.95626255841 2817.00692848254 151 155 156
-1141.08100940179 337.049964978607 2818.13463675576 186 190 191
-1148.18475096428 335.714986285578 2821.28287635477 192 196 197
-1155.24380913016 333.952473959229 2826.45295199977 163 167 168
-1162.26979236202 332.191772588933 2831.62739070064 156 160 161
-1169.34546602895 331.502772445007 2831.75413028225 178 182 183
-1176.60742274502 332.951812745057 2821.77416033032 174 178 179
-1183.89503579124 334.183671397347 2812.7992476584 169 173 174
-1191.15110035708 334.771978299307 2806.85350865301 158 162 163
-1198.187407493 333.439023619087 2810.00991807088 177 181 182
-1205.32142624049 332.959522081558 2809.12089745731 175 179 180
-1212.52000619079 332.905566172926 2806.20708486292 177 181 182
-1219.79931394416 333.276009047469 2801.26670608049 181 185 186
-1226.9089357528 332.582098991232 2801.38922206479 178 182 183
-1233.97151582817 331.676054122574 2802.52561405823 175 179 180
-1241.15297410312 331.406987330423 2800.62243200149 177 181 182
-1248.43127887016 331.561349686751 2796.69043452437 182 186 189
-1255.8225081762 332.137997483307 2790.72761819358 185 189 192
-1263.03378328088 331.866195077281 2788.82072237691 188 192 195
-1270.30375820296 331.805304515381 2785.89825864303 188 192 195
-1277.64060477221 331.954742979071 2781.95896846198 190 194 197
-1285.23103321554 332.947284195899 2773.95458355087 195 199 202
-1293.23194489419 335.202419541781 2759.84952517289 200 203 208
-1301.04204839453 336.609910582318 2749.8012591614 205 209 212
-1308.69677506456 337.38245261153 2742.79735693868 194 198 201
-1316.24217779612 337.732002044057 2737.82382609825 200 204 207
-1324.31949327062 339.551232863382 2725.72551484494 210 214 217
-1332.45494867296 341.366224839775 2713.62019950394 199 203 206
-1340.4920411908 342.757702600125 2703.54364877541 197 201 204
-1348.17122593268 343.09765435131 2698.55344800615 184 188 191
-1355.87100445934 343.436174715824 2693.5606810238 177 181 184
-1363.50503641354 343.5638738218 2689.58436111348 177 181 184
-1371.42188174756 344.317806277569 2682.54779703879 199 203 206
-1379.55375367684 345.487223579507 2673.46793055528 200 204 207
-1387.34970905103 345.818959982725 2668.46317913628 188 192 193
-1395.26371814742 346.357824541792 2662.43522247911 187 191 192
-1404.10254363807 348.769928826419 2647.21725667204 198 202 205
-1412.6056333737 350.344400416516 2636.07438323975 202 206 209
-1421.37206142671 352.331216892725 2622.88194638158 192 196 199
-1430.20217090718 354.313797329937 2609.6815736132 210 211 215
-1440.20200419522 358.368189066724 2586.25241866826 210 211 213
-1448.9597531868 359.925601289943 2575.07781019159 214 215 217
-1060.93671069403 345.376093591187 2779.74190038733 181 185 186
-1068.44653018348 342.543266154134 2789.8974583492 183 187 188
-1075.85914661757 340.141156053001 2798.04863820257 184 188 191
-1083.14277791385 338.808928729341 2801.17418111193 187 191 194
-1090.43074793847 337.051245620148 2806.31591746143 179 182 187
-1097.66454351166 335.721476451769 2809.44767310094 176 179 184
-1104.88390081579 334.179710172063 2813.58971620485 184 188 191
-1112.07051326996 332.852170450666 2816.7273541475 188 192 195
-1119.23227966666 331.738177426475 2818.85984326542 187 191 192
-1126.37791027093 331.261937533906 2817.96936497135 172 176 177
-1133.51986077005 330.573251558105 2818.08759250003 167 171 172
-1140.65006254347 329.672456853822 2819.21577214794 165 169 170
-1147.73547258141 327.92481131312 2824.38276035268 174 178 179
-1154.78778928867 326.179152059244 2829.55363290989 177 181 182
-1161.86185758655 325.281037546641 2830.6888106255 155 159 160
-1168.97352509026 325.017073771288 2828.7943246058 157 161 162
-1176.22334018401 326.230138991839 2819.82417838673 151 155 156
-1183.45004739525 326.807177243485 2813.88213268122 154 158 159
-1190.67851260782 327.171539913803 2808.94787449056 157 161 162
-1197.7918658679 326.481393529574 2809.06991490029 169 173 174
-1204.89906522686 325.791397791509 2809.19248261503 175 179 180
-1212.13011821372 325.94214119409 2805.26639141111 179 183 184
-1219.27091771678 325.461610461593 2804.37652730968 177 181 182
-1226.44873010761 325.190625934265 2802.47380528801 175 179 180
-1233.50923151709 324.29020793024 2803.61044186851 172 176 177
-1240.73139108846 324.228063482769 2800.69394850978 174 178 179
-1247.96348223025 324.165044944605 2797.77597778292 180 184 187
-1255.30275892265 324.519245237561 2792.82815800569 182 186 189
-1262.45738538453 324.036161427045 2791.93657510499 185 189 192
-1269.77323297421 324.17911403907 2787.99992255271 186 190 193
-1277.16115682818 324.529379117939 2783.04604226056 187 191 194
-1284.62912217384 325.08638700687 2777.07370144669 192 196 199
-1292.68225913825 327.51515945451 2761.95374102774 198 201 206
-1300.35613998923 328.482678454454 2753.93924791338 202 206 209
-1308.06677750347 329.447557233026 2745.92017473767 191 195 198
-1315.60365370194 329.786780415659 2740.94773515197 196 200 203
-1323.88988920209 332.199147867848 2725.79848834705 207 211 214
-1332.32592022884 334.813520794546 2709.62256914232 199 203 206
-1340.13772807339 335.558557249067 2702.59913655264 198 202 205
-1347.73810298547 335.680636616804 2698.62703164158 185 189 192
-1355.27015352873 335.594748948965 2695.67192824853 179 183 186
-1362.9847441579 335.921334310277 2690.67710396503 184 188 191
-1371.07596616895 337.071841256103 2681.60236015075 199 203 206
-1379.30094629228 338.425668954961 2671.50246130993 200 204 207
-1387.38478420451 339.364204671981 2663.43688430441 188 192 193
-1395.50544523389 340.30021537852 2655.36671864109 186 190 191
-1404.26117450166 342.467546750069 2641.16745445033 195 199 202
-1412.26675101349 342.986543224055 2635.12812304295 198 202 205
-1420.82380137986 344.530164726034 2623.97859688556 187 191 194
-1429.54149026828 346.275277604169 2611.80080627174 201 202 206
-1439.64286193078 350.475380206155 2587.35066884664 207 208 210
-1448.50939661004 352.210592697787 2575.15432923041 211 212 214
-1456.16041325762 351.691824874404 2574.20089374174 202 204 203
-1052.9266792347 340.88611636716 2769.66780999877 146 148 145
-1060.61971154506 337.023309849557 2784.84213252543 181 185 186
-1068.11831222475 334.221060715084 2794.9992502703 178 182 183
-1075.44413466397 332.687798372558 2799.12774449121 178 182 185
-1082.71011002528 331.577259689717 2801.24721984954 181 185 188
-1090.02628248248 329.414697751199 2808.4021174013 176 179 184
-1097.26646777247 327.885696542736 2812.54128741061 175 178 183
-1104.47099259495 326.568362917199 2815.6766631182 169 173 176
-1111.62665916637 326.30195448186 2813.77669271289 176 180 183
-1118.79746387813 325.195567605463 2815.908033872 185 189 190
-1125.95129315708 323.880209410972 2819.04973088149 175 179 180
-1133.08557695471 322.775492182297 2821.18562523781 164 168 169
-1140.20295239962 321.671434057388 2823.32362792087 146 150 151
-1147.30342320414 320.568094521941 2825.46373831073 164 168 169
-1154.37606461786 319.256594572203 2828.61555692527 161 165 166
-1161.49408427125 318.989956685153 2826.72028523702 142 146 147
-1168.61671543762 318.722664181217 2824.82419951439 151 155 156
-1175.83851145601 319.496511116987 2817.87456130985 151 155 156
-1182.96215255975 319.018805416579 2816.9868310356 154 158 159
-1190.15785540169 319.164813329787 2813.06516379152 158 162 163
-1197.28794517546 318.685980145781 2812.17663173056 164 168 169
-1204.44691182386 318.414521475137 2810.27602252603 170 174 175
-1211.73986253296 318.97234936552 2804.32576061342 170 174 175
-1218.88361349869 318.491630607911 2803.43552868205 171 175 176
-1226.06423610006 318.217719833199 2801.53246366889 169 173 174
-1233.12806002035 317.322584607854 2802.66867170768 168 172 173
-1240.43913524457 317.668369001318 2797.72439346992 172 176 177
-1247.63337114561 317.392754870594 2795.81963408317 177 181 182
-1254.92915327074 317.529460771651 2791.88550203273 175 179 182
-1262.03540463326 316.839943481745 2792.00818679185 180 184 187
-1269.45882745036 317.386891495755 2786.04167138327 183 187 190
-1276.85171665848 317.726028032382 2781.08696048216 183 187 190
-1284.32447661052 318.269176043618 2775.11429809799 186 190 193
-1292.195049199 320.043288711725 2763.04190595165 192 196 199
-1299.86529610563 320.991987835454 2755.02791589353 197 201 204
-1307.63961574059 322.143154124593 2745.99271788593 188 192 195
-1315.24609495188 322.67664622601 2740.0031532885 189 193 196
-1323.38747898955 324.641352183883 2726.88901672423 198 202 205
-1331.81865397318 327.215420873784 2710.713569396 196 200 203
-1339.86120260048 328.557578851006 2700.63646765916 197 201 204
-1347.7088421981 329.283732351649 2693.60885347485 191 195 198
-1355.00376108782 328.579508358777 2693.70803237154 184 188 191
-1362.55084720859 328.487165892781 2690.75082935706 176 180 183
-1370.37438739534 329.005100524581 2684.73445807192 195 199 202
-1378.4985171691 330.131650230803 2675.65543038521 199 203 206
-1386.75888319913 331.45850116061 2665.55142690353 180 184 185
-1395.066782434 332.782082559801 2655.44125990036 180 184 185
-1403.6213917896 334.508440110335 2643.28387003961 189 193 196
-1411.51852578644 334.811451972994 2638.26632750298 195 199 202
-1419.96094509073 336.125868953668 2628.13963759332 185 189 192
-1429.09671404539 338.65158707654 2611.87638843253 191 192 196
-1438.97373101228 342.385022449098 2589.47109256373 201 202 204
-1447.72018815968 343.888747110463 2578.29803462674 189 191 190
-1455.36305505797 343.370438750692 2577.34561496862 197 199 198
-1052.51339520971 333.349816430992 2770.74715934635 169 171 170
-1060.20678367676 329.530464980118 2785.92132298939 180 184 185
-1067.63995722148 327.383320496554 2793.06133862707 178 182 185
-1074.99140761426 325.654978029038 2798.19507573439 170 173 178
-1082.27731628569 324.344523668064 2801.32027710247 171 174 179
-1089.60881187654 321.99577723937 2809.48143982616 183 186 191
-1096.86928335814 320.065148732409 2815.63475037501 174 177 182
-1104.06681002006 318.759130368853 2818.77096961332 162 166 169
-1111.20913829539 318.697891079665 2815.86443634468 161 165 168
-1118.37268152063 317.807153156872 2816.9881884236 170 174 175
-1125.5248880134 316.502827504356 2820.1300588934 180 184 185
-1132.65734503115 315.40634887019 2822.26615952501 173 177 178
-1139.78879729369 314.930355275248 2821.37744995555 125 129 130
-1146.91150239277 314.247615898961 2821.49830380496 149 153 154
-1154.02798713683 313.564911957949 2821.61969355585 129 133 134
-1161.16504633313 313.294254199705 2819.72205643139 123 127 128
-1168.32276156886 313.22886689275 2816.81337361597 145 149 150
-1175.49048950374 313.162483386239 2813.90344389834 150 154 155
-1182.6252243948 312.684011225716 2813.01433120346 151 155 156
-1189.78329745349 312.410581431217 2811.11407897327 154 158 159
-1196.91908355021 311.931385358745 2810.22483700054 156 160 161
-1204.08354624967 311.65683184115 2808.32379034024 163 167 168
-1211.34920220924 311.996073596075 2803.385197388 159 163 164
-1218.46100768936 311.310562197035 2803.50717847671 167 171 170
-1225.67934857702 311.238505745064 2800.59094750129 165 169 168
-1232.66586554074 309.940077135507 2803.75347951512 164 168 167
-1240.0168583938 310.479276860133 2797.7960233427 171 175 176
-1247.16556002429 309.997167717304 2796.90517725917 175 179 180
-1254.410068881 309.922309493864 2793.98568805429 173 177 178
-1261.66450190247 309.846463214905 2791.06520324307 179 183 184
-1269.03627297836 310.176257329236 2786.11339263169 183 187 190
-1276.42872637343 310.504611912859 2781.15876451136 183 187 190
-1283.66445094346 310.222413051114 2779.24884492465 185 189 192
-1291.58452976922 312.170278821668 2766.16213002178 191 195 198
-1299.24581172104 313.100676851722 2758.1493069323 196 200 203
-1306.94379130688 314.028438420907 2750.13191113807 189 193 196
-1314.53885416984 314.548983931098 2744.14404559655 188 192 195
-1322.66777051768 316.481992775902 2731.03130813074 197 201 204
-1331.23643755737 319.419988513256 2712.82237002145 194 198 201
-1339.03842661333 320.133042163997 2705.80024698411 196 200 203
-1346.95250431942 321.045484265657 2697.75592376531 193 197 200
-1354.32013673856 320.545964087916 2696.837802265 185 189 192
-1361.94498397527 320.649941380868 2692.86269102368 171 175 178
-1369.93971383523 321.556588533319 2684.80831815368 190 194 197
-1377.87989000552 322.259883316695 2677.76897588105 197 201 204
-1386.13357633952 323.562790623153 2667.66562877189 176 180 181
-1394.04785010753 324.06079084551 2661.63798696879 176 180 181
-1402.68403324086 325.95861721946 2648.46203825886 184 188 191
-1410.87331572751 326.851795253521 2640.38342184168 192 196 199
-1419.41382807079 328.342182849737 2629.23609972139 183 187 190
-1427.8997351198 329.629340808773 2619.10381431522 185 186 190
-1437.75461631786 333.30721138545 2596.70142718742 197 198 200
-1446.81909630695 335.38314721113 2582.46387341887 186 188 187
-1454.79766465589 335.462977939906 2578.44468346303 191 193 192
-1044.43918284096 328.77416544431 2760.68130397466 145 147 144
-1052.15471026922 325.405699377346 2773.83614321923 173 175 174
-1059.7695507622 322.247725673519 2785.99506590699 178 182 185
-1067.31359290642 319.093903897692 2798.16281287616 174 178 181
-1074.63389555 317.588286239684 2802.29192313364 163 166 171
-1081.92652805659 316.08395605456 2806.42472333886 164 167 172
-1089.17778689062 314.786160470741 2809.55421546536 182 185 190
-1096.43986323196 312.874600548714 2815.70727552076 180 183 188
-1103.63012099221 311.784114670654 2817.83614717971 170 174 177
-1110.80344459744 310.694349262307 2819.96713022376 161 165 168
-1117.95106029028 310.218580130125 2819.07640296264 151 155 156
-1125.09893236353 308.925519488382 2822.21878467637 162 166 165
-1132.23421428685 308.449640255222 2821.32959688671 175 179 178
-1139.36877300984 307.973568205305 2820.44049985596 117 121 120
-1146.53382551324 308.311813425951 2815.51446424463 118 122 121
-1153.67754082727 307.83432193794 2814.62422826349 105 109 108
-1160.84689393955 307.763116845114 2811.71410843081 125 129 128
-1167.99442740952 307.284605730158 2810.82339865153 135 139 138
-1175.2155090756 307.617549627993 2805.89038489278 138 142 141
-1182.37214753199 307.137741806837 2804.99854227986 141 145 144
-1189.50395073518 306.455017547136 2805.11802043112 147 151 150
-1196.54945737082 305.165014284132 2808.27316869478 142 146 145
-1203.66076982399 304.483000684777 2808.39544236775 164 168 167
-1210.92604157513 304.811337754803 2803.45692607955 162 166 165
-1218.14259118419 304.734319031218 2800.54093171309 156 160 159
-1225.33156068926 304.454561235725 2798.63684045361 154 158 157
-1232.40458997905 303.569709014498 2799.77187263678 159 163 164
-1239.68015222721 303.691996101207 2795.84030187888 164 168 169
-1246.87999017167 303.410709813055 2793.93485832765 168 172 173
-1254.03605560956 302.927892664663 2793.043095149 168 172 173
-1261.3440319746 303.047278675398 2789.10748694083 175 179 180
-1268.61360750461 302.964794123473 2786.18512991572 182 186 187
-1276.06191903565 303.482741593431 2780.21534464594 180 184 187
-1283.35928972594 303.397886604459 2777.28928492287 182 186 189
-1291.15976576414 304.912843771982 2766.23425025532 188 192 195
-1298.82010331497 305.824310308666 2758.22159487692 192 196 199
-1306.38311928 306.333698785698 2752.23775798045 191 195 198
-1314.11159849531 307.240227085342 2744.21661192984 187 191 194
-1322.0939393991 308.742105362331 2733.13891604503 195 199 202
-1330.57962827442 311.435320665602 2715.94866483885 194 198 201
-1338.37276411307 312.132813325192 2708.92768761 195 199 202
-1346.35818457302 313.225617687737 2699.86605889277 192 196 199
-1353.8868641949 313.123700330647 2696.9114183844 186 190 193
-1361.42549023647 313.021146825647 2693.95529802819 171 175 178
-1369.23954945583 313.512511852013 2687.94017988185 182 186 189
-1376.89722107116 313.605917492356 2683.9610001922 189 193 196
-1385.13333682136 314.88557749141 2673.85990700897 183 187 188
-1393.03077467721 315.371153042552 2667.8343989481 181 185 186
-1401.84743149792 317.632674115538 2652.61935594677 181 185 188
-1410.22880321701 318.902366313277 2642.50040219597 188 192 195
-1418.86688626569 320.563203636804 2630.33252758826 180 184 187
-1427.45592854839 322.023087111108 2619.17922954996 176 177 181
-1436.86771319078 324.857085332337 2600.86534922207 187 188 190
-1446.1445968774 327.291755344729 2584.58472954895 174 176 175
-1454.46318794571 327.953028773453 2577.4985142647 171 173 172
-1043.96639787783 321.620550744045 2759.75145643448 161 163 160
-1051.76952456973 317.679949984189 2775.91993179976 175 177 176
-1059.43090597766 314.151225000075 2790.08963728191 180 184 187
-1066.90080633057 311.642255835874 2799.2416369486 173 177 180
-1074.25824111125 309.744747412751 2805.3827598304 159 162 167
-1081.51085953187 308.659724909089 2807.50383486 161 164 169
-1088.76055460896 307.372958106742 2810.63349309022 181 184 189
-1096.02148352512 305.480522661612 2816.78664597387 187 190 195
-1103.21844673338 304.196338793457 2819.9228780275 170 174 177
-1110.39312993636 302.913158738055 2823.06212811932 169 173 176
-1117.53304602395 302.43793983711 2822.1723602744 145 149 150
-1124.6722610012 301.962407267765 2821.28268074994 144 148 147
-1131.81061987033 301.486451459882 2820.39310917729 153 157 156
-1138.96319356539 301.613706958072 2816.47687357959 118 122 121
-1146.13108145545 301.739449354417 2812.55873084558 104 108 107
-1153.30402237583 301.663058755667 2809.64817693151 109 113 112
-1160.46075716862 301.18431979679 2808.75631948156 132 136 135
-1167.63246432939 300.905721433896 2806.85437940727 126 130 129
-1174.808753498 300.626472837651 2804.95186923786 130 134 133
-1182.01060335145 300.546568352563 2802.03771691354 134 138 137
-1189.15102221696 299.866102168759 2802.15611393451 142 146 145
-1196.23212522222 298.786213128798 2804.29857955517 133 137 136
-1203.32539299361 297.90658382298 2805.43131260987 161 165 164
-1210.56656441419 298.024313195063 2801.50404562651 162 166 165
-1217.82309439368 298.140765527835 2797.57486534885 154 158 157
-1224.94567473588 297.459823261157 2797.69548976582 152 156 155
-1232.0219896067 296.580139230751 2798.83033858639 158 162 163
-1239.30003166885 296.694205843123 2794.8984800107 163 167 168
-1246.5026872485 296.41011227898 2792.99269222811 167 171 172
-1253.70972193642 296.125438625657 2791.08611921761 165 169 170
-1260.92131283938 295.840178608213 2789.17921943132 174 178 179
-1268.13746366019 295.554389209062 2787.27175198835 180 184 185
-1275.47022528843 295.663536538405 2783.33307768906 178 182 185
-1282.87698482573 295.969004475801 2778.37696478667 183 187 190
-1290.73494236193 297.654456951159 2766.30638040773 186 190 193
-1298.33012161898 298.349811703546 2759.31035288881 189 193 196
-1305.75614167508 298.451942936329 2755.3600589657 190 194 197
-1313.47555996705 299.340056811659 2747.34009215849 186 190 193
-1321.52070242629 301.012210922674 2735.24618322856 195 199 202
-1329.84873471225 303.26956687119 2720.09236891789 195 199 202
-1337.63035359255 303.951548790837 2713.07286978434 196 200 203
-1345.84474722825 305.611728690559 2700.95811111059 190 194 197
-1353.61946942738 306.092398602509 2694.94768988828 186 190 193
-1361.16315512163 305.984030830797 2691.99119369773 174 178 181
-1368.89351191296 306.266014596752 2686.99451934711 180 184 187
-1376.64454733015 306.54650435287 2681.9955086294 186 190 193
-1384.88463446172 307.801484975509 2671.89398483352 178 182 183
-1392.59393128237 307.883123746565 2667.90863387982 176 180 181
-1401.11112957744 309.522338526308 2655.7559019169 175 179 182
-1409.78837559325 311.352155662348 2642.57524817065 182 186 189
-1418.84241953431 313.761067698879 2626.32250541307 175 179 182
-1427.33354657577 314.998920916796 2616.18969842498 170 171 175
-1436.97023915115 318.174552574688 2595.83123677207 183 184 186
-1446.03306490991 320.179825490412 2581.59431579868 169 171 170
-1454.81945711107 321.599363318965 2570.41625563737 163 165 164
-1035.92103924778 316.350976451248 2752.70736954117 124 126 125
-1043.73500508704 312.85397566065 2766.85770957508 163 164 166
-1051.52250315659 308.960655232726 2783.02801078896 178 182 183
-1059.09341646065 306.075135441399 2794.18401073433 174 179 182
-1066.53246995576 303.794189697195 2802.33157231675 169 174 177
-1073.84453745804 302.316389706808 2806.46163701434 156 161 164
-1081.11214120061 301.039772017907 2809.58927389039 154 159 162
-1088.37156537794 299.564549320959 2813.7259013765 150 155 158
-1095.60324563172 298.090618797524 2817.8662280061 133 139 139
-1102.78132409976 297.216274332093 2818.98812300107 168 174 174
-1109.95380917172 296.142985945996 2821.11916729746 187 193 193
-1117.1028119441 295.468542359205 2821.23647723731 170 176 176
-1124.24567178737 294.793955116413 2821.35479442545 155 161 161
-1131.3865838621 294.516659129242 2819.45645369734 139 145 143
-1138.55615536282 295.230945598089 2812.51348965424 141 143 140
-1145.74227302292 295.546346354256 2807.58464512723 88 90 87
-1152.93890856079 295.66171708695 2803.66294217014 115 117 114
-1160.08641973445 294.786157161307 2804.78889525235 121 123 120
-1167.25352140192 294.306399439861 2803.8957467606 106 111 107
-1174.40146778481 293.628798152763 2804.0131968473 117 121 120
-1181.58515659644 293.346092047175 2802.10977235142 139 143 142
-1188.7259786334 292.668287677688 2802.22811204918 124 128 127
-1195.86060984894 291.99052186979 2802.34746449205 136 142 140
-1203.01804483237 291.509707750214 2801.45552512731 149 155 153
-1210.23808054535 291.422075280351 2798.53912366661 153 159 157
-1217.50242506163 291.529847841941 2794.60899103882 146 150 149
-1224.63352880994 290.851109806219 2794.72854598033 147 151 150
-1231.79817965975 290.368641550696 2793.83571047423 151 155 154
-1238.96201505303 289.885926633472 2792.94297738186 161 165 164
-1246.17004861574 289.598743240098 2791.03652659575 168 172 171
-1253.23895715466 288.724308810922 2792.17228585812 167 171 172
-1260.44793870431 288.436644466105 2790.26547776666 172 176 177
-1267.82121365525 288.73403306896 2785.31356481933 178 182 183
-1275.27106060877 289.224831074494 2779.34389970379 178 182 183
-1282.80544479229 289.908468825927 2772.35524963819 183 187 188
-1290.37124349164 290.58980668144 2765.36268528343 188 192 193
-1297.84042204988 290.879831508047 2760.39882352512 188 192 193
-1305.39677206452 291.362647709595 2754.41564820825 188 192 193
-1313.25679832098 292.619984572814 2744.36178782635 183 187 188
-1321.45251303328 294.64961856159 2730.23277276249 193 197 198
-1329.64242792156 296.480797053993 2717.11269120606 189 193 194
-1337.50865166593 297.339611367225 2709.07448110565 191 195 196
-1345.57191508055 298.582565020515 2698.99505553687 178 182 183
-1353.26852890406 298.856130083044 2694.00285454824 181 185 186
-1360.81468436949 298.742227471543 2691.04582445192 167 171 172
-1368.37077513664 298.62751526161 2688.08779688947 172 176 177
-1376.39111646913 299.475436400481 2680.03038251197 184 188 189
-1384.5416504468 300.513229051078 2670.94829347526 167 171 174
-1392.63816513454 301.355760010302 2662.88138730821 171 175 178
-1401.16710980931 302.964308163814 2650.72751049475 168 172 175
-1409.75421666686 304.568969382004 2638.56614535211 175 179 180
-1418.71241088176 306.74479291969 2623.33390527089 168 172 173
-1427.63792487235 308.723992841163 2609.11394838795 159 163 164
-1437.40010854826 312.038377222524 2587.73177368904 185 189 190
-1446.48231179576 314.007057639304 2573.49229061592 155 159 158
-1455.28846460943 315.398046065459 2562.31207989956 154 158 157
-1035.44299558837 309.165324828033 2751.77802235456 121 123 122
-1043.35382081133 305.114476642272 2768.94127527947 158 159 161
-1051.16687139922 301.069735313659 2786.11647354987 180 184 185
-1058.78210039088 297.821728219944 2799.28351222195 172 177 180
-1066.14268513246 296.158794360526 2804.41569689655 168 173 176
-1073.39179693859 295.286914664152 2805.52896112873 158 163 166
-1080.6462921716 294.218196199637 2807.64975900714 153 158 161
-1087.92654869394 292.559128046669 2812.79219825715 155 160 163
-1095.1737597874 290.901866466219 2817.93875662378 139 145 145
-1102.36136336196 289.836272158722 2820.0676536896 129 135 135
-1109.50141444608 289.753737672667 2817.1614606811 155 161 161
-1116.65836789792 289.277552838221 2816.2695692176 179 185 185
-1123.81673678438 288.212629008188 2818.40235310273 175 181 181
-1130.96401649542 287.73622433586 2817.51166944382 159 165 163
-1138.1430809184 288.629796590696 2809.55912123047 140 142 139
-1145.32968225249 288.738221841347 2805.63868877337 82 84 81
-1152.52154895494 288.64981584486 2802.7258046757 114 116 113
-1159.65969958635 287.584268923562 2804.86111332042 122 124 121
-1166.84258705499 287.299643035779 2802.95779388308 107 112 108
-1173.97566740609 286.429777707849 2804.08529258137 120 124 123
-1181.13866264419 285.949744089792 2803.19265727429 140 144 143
-1188.27732380188 285.274827105446 2803.31149930193 117 121 120
-1195.46219561384 284.988758411488 2801.40769576112 138 144 142
-1202.68040683077 284.896108567849 2798.49177546855 145 151 149
-1209.94001492677 284.99635925941 2794.56225372659 149 155 153
-1217.1122033273 284.514067762761 2793.66847711323 143 147 146
-1224.28339918353 284.031540885917 2792.7748249834 144 148 147
-1231.41406855678 283.355338854453 2792.89442745388 149 153 152
-1238.58080752045 282.872618129709 2792.00133202839 160 164 163
-1245.65656194771 282.003421186417 2793.13622317163 165 169 168
-1252.76836015359 281.327764412508 2793.25817921631 167 171 172
-1260.02520508768 281.230261987776 2790.3372101746 171 175 176
-1267.50425442259 281.901839898364 2783.35573759888 177 181 182
-1274.90311060246 282.186547720663 2778.40042539105 178 182 183
-1282.4394623092 282.853758474979 2771.41181331883 184 188 189
-1289.82365778158 282.942847237231 2767.46677320339 188 192 193
-1297.3508533317 283.414322141012 2761.48726605824 189 193 194
-1304.97050236226 284.075387763147 2754.48803488671 188 192 193
-1312.96762381485 285.691239732692 2742.40050723293 183 187 188
-1321.31067849278 288.067866738189 2726.23657675355 190 194 195
-1329.28578366692 289.292729370936 2716.16844072279 186 190 191
-1337.07648054436 289.941644097482 2709.14789579014 184 188 189
-1345.13840641986 291.160316305254 2699.06870108266 172 176 177
-1352.91720229939 291.613675051184 2693.05808368084 178 182 183
-1360.46585334778 291.49417873723 2690.10075688133 170 174 175
-1367.93628050368 291.183769647041 2688.16162209009 172 176 177
-1376.04634907551 292.202759631413 2679.08463241294 180 184 185
-1384.47854453667 293.788028224334 2666.94289063526 164 168 171
-1392.87298064904 295.179803713458 2655.81405765648 167 171 174
-1401.02390923853 295.999697371129 2647.74042057071 161 165 166
-1409.41445023198 297.195523799693 2637.62027680281 167 171 172
-1417.95659201777 298.577172923376 2626.47303769663 159 163 164
-1427.19246892688 301.088460899507 2609.18964655803 151 155 156
-1437.49886151265 305.292065140175 2582.69854031596 171 175 176
-1446.70459465846 307.413177654014 2567.43531265039 141 145 144
-1455.64006537374 308.964354170229 2555.2308548766 136 140 139
-1035.26382766041 300.212964127251 2759.88617476776 137 139 138
-1043.09535114184 296.603097295808 2775.04254830737 176 177 179
-1050.86773275518 292.803249548691 2791.21448980863 178 179 181
-1058.34643238668 290.569287815425 2799.3569800569 164 168 171
-1065.73093215476 288.727746834978 2805.49457800001 157 161 164
-1072.95836574993 288.056309528393 2805.60209231992 159 163 166
-1080.230840433 286.801237351101 2808.72882432332 154 158 161
-1087.48110155518 285.547281694167 2811.85832550748 147 151 152
-1094.73236611875 283.906066042889 2817.00433576861 162 166 167
-1101.91463619156 283.042386213246 2818.12591985989 142 146 147
-1109.04759418927 283.341646892034 2813.20399211753 107 111 112
-1116.20853570001 283.25198600937 2810.29497060566 115 119 118
-1123.38308723808 282.387603450843 2811.41751977505 132 136 135
-1130.54424457945 281.330325587413 2813.54993554211 162 166 165
-1137.7198948314 281.625191799308 2808.62245136275 168 170 167
-1144.92348963264 282.11107332395 2802.68353000737 121 123 120
-1152.13337840861 282.209474757407 2798.76021781256 119 121 118
-1159.33347569724 281.92142333982 2796.85475971244 116 118 115
-1166.50755586899 281.248069677411 2796.96893727083 114 119 115
-1173.69338818745 280.766939539418 2796.07345491878 144 148 147
-1180.85762495529 280.093496292027 2796.1888611117 139 143 142
-1188.01564509942 279.420152972173 2796.30528310809 109 113 112
-1195.11533702558 278.363682750579 2798.44512699996 138 144 142
-1202.28414256493 277.882263705716 2797.55177025011 140 146 144
-1209.54632274062 277.974350271166 2793.62218929648 139 145 143
-1216.72146631614 277.491930235101 2792.72804423326 136 140 139
-1223.96924136368 277.391063949509 2789.80821591838 142 146 145
-1231.10843785536 276.717125634697 2789.92674829347 145 149 148
-1238.19916583027 275.852827565321 2791.05975792548 143 147 146
-1245.23336778583 274.798680546654 2793.20800872917 160 164 163
-1252.29797512269 273.935566230413 2794.34403467628 168 172 173
-1259.70279472919 274.402835527409 2788.38005066947 171 175 176
-1267.186504824 275.057929302855 2781.3977996001 176 180 181
-1274.70156669307 275.710667457188 2774.4116422181 177 181 182
-1282.0729682521 275.792747657965 2770.4682171642 183 187 188
-1289.52060770485 276.062883548773 2765.50709573573 186 190 191
-1296.98888883469 276.331405835318 2760.54340259735 189 193 194
-1304.74323976793 277.353945973344 2751.51079502932 188 192 193
-1312.7468576995 278.93952298377 2739.4225363814 182 186 187
-1321.09573322351 281.27505113674 2723.25822799594 189 193 194
-1329.15200325879 282.663403365589 2712.17136489065 184 188 189
-1336.95269935023 283.29543915241 2705.14985683404 176 180 181
-1344.78457011869 283.925128096342 2698.12422427363 168 172 173
-1352.40035186711 283.989250988777 2694.15034930679 175 179 180
-1359.86088327872 283.676963982221 2692.21245439135 170 174 175
-1367.32598944798 283.364383033459 2690.27374907855 172 176 177
-1375.42941991404 284.361999806984 2681.19788435209 177 181 182
-1383.94778828439 286.105066461188 2668.03704578229 163 167 170
-1392.52986018167 287.843778728035 2654.86850912479 166 170 173
-1401.17545849915 289.578142882465 2641.69181592749 158 162 163
-1409.37814096166 290.375508975488 2633.61177958987 163 167 168
-1417.82546966899 291.543052435355 2623.48462353319 155 159 160
-1426.96017789812 293.824337981368 2607.22239071791 148 152 153
-1437.26799428403 297.96006432571 2580.73104527927 163 167 168
-1446.58886573569 300.228771035794 2564.44537325157 135 139 138
-1455.1864735262 301.192755878566 2555.30792668506 136 140 139
-1034.98680775367 291.881164022181 2764.98136247313 146 148 147
-1042.83869391261 288.122896915233 2781.14351304473 183 184 186
-1050.54208230716 284.755191870034 2795.30731199427 177 178 180
-1057.96125083349 282.930971447573 2801.44053786824 164 168 171
-1065.25143225164 281.877358726191 2803.55684254128 158 162 165
-1072.46491827027 281.400140497045 2802.65789886907 163 167 170
-1079.72942901996 280.347327033886 2804.77740498495 157 161 164
-1087.00609071828 278.911858691303 2808.91201690742 135 139 140
-1094.29055667968 276.903605724879 2816.07022460648 140 144 145
-1101.47624151949 276.045262518858 2817.19136850121 159 163 164
-1108.61814123755 276.142500803831 2813.27654400199 127 131 132
-1115.77165184069 276.429221887664 2808.35184416982 104 108 107
-1122.94917025595 276.14213109636 2806.44920124984 101 105 104
-1130.1279376681 275.473137160832 2806.56278238715 117 121 120
-1137.3178680945 275.565586174331 2802.6422168206 162 164 161
-1144.52314964567 275.656636673842 2798.71949893863 142 144 141
-1151.72431966863 275.36630469192 2796.81367270466 115 117 114
-1158.9423762892 275.265004979082 2793.89779448392 117 119 116
-1166.12507212327 274.593909392571 2794.01089091203 120 125 121
-1173.33712154813 274.301752112542 2792.10395206861 146 150 149
-1180.51269303627 273.630453443643 2792.21793810777 129 133 132
-1187.6587748323 272.769974847812 2793.34402985171 117 121 120
-1194.7414466867 271.532309475163 2796.49440228582 141 147 145
