ply
format ascii 1.0
comment KinectMotionCapture
element vertex 780
property float x
property float y
property float z
property uchar red
property uchar green
property uchar blue
end_header
-1119.28205473852 -169.57986969547 2486.61108571717 15 21 11
-1126.54273672244 -169.991383025335 2493.82623595116 19 22 15
-1062.99658904192 -168.099347550918 2531.84831283963 8 11 4
-1071.25754805991 -168.546235659574 2538.85771246193 10 13 6
-1063.03133167378 -168.361512422468 2547.39799880639 10 13 6
-1023.84027668125 -166.987785429991 2558.62055580506 11 14 7
-1054.79414420118 -168.304366183672 2563.61057601008 11 14 7
-1110.58246747102 -170.578215603062 2566.6825722693 12 15 8
-1102.34796608998 -170.392129800144 2575.19295830423 12 15 8
-1084.78798681702 -169.845594307065 2584.37691226087 12 13 7
-1051.67195104842 -168.697018887346 2594.6328956998 12 13 7
-1080.66751202447 -170.072639690936 2607.90104328781 12 14 9
-1186.48121408768 -174.296484162427 2608.43902772465 12 13 8
-1128.41658444896 -172.178825826733 2620.19672153862 11 10 5
-1067.1523835133 -169.931870285084 2631.84655588831 11 10 5
-926.432007425727 -164.955133684223 2669.73519379026 46 37 28
-922.13475203511 -164.907688210294 2677.19006170302 54 45 36
-934.518397927255 -165.510966763175 2683.82124236551 45 36 27
-955.266752759659 -166.442149405595 2690.12857626705 37 30 22
-978.129531704957 -167.457727650361 2696.44042875024 36 29 21
-1003.11095396189 -168.558016169699 2702.77226620547 28 24 15
-994.653215016141 -168.349115679843 2710.46821891496 23 20 13
-991.414525158731 -168.344306238353 2717.9291656137 20 20 12
-1007.02122100801 -169.079655187917 2724.75362655664 16 19 10
-1032.0789847262 -170.188137548247 2731.36373173273 13 18 11
-1067.65625010239 -171.712830331069 2737.80099139423 13 20 12
-1087.53614776604 -172.621804230368 2744.79518488568 14 21 13
-1079.08387428533 -172.414286811983 2752.51055659676 16 22 12
-1068.51550050585 -172.122468763958 2760.21512641575 17 20 11
-1075.80780343357 -172.536137287652 2767.54631833995 17 20 11
-1090.41373058158 -173.36633747674 2782.28512730853 18 19 13
-1118.80326733775 -174.618995332931 2789.48360870669 18 19 13
-1118.75647632288 -174.744855766188 2797.02399094154 19 20 14
-1239.03080863964 -179.787179557902 2811.76872539826 15 18 11
-1060.86467807705 -174.833662941283 2476.81893978461 21 24 17
-1083.46673899353 -175.87818286592 2482.14452506457 18 23 16
-1148.17773493478 -178.633822450355 2482.97080854244 17 22 15
-1160.5950752068 -179.269187927421 2489.70683182931 16 19 12
-1091.96254128216 -176.989052695539 2528.57263933387 10 13 6
-1081.69362608205 -176.6958800639 2537.38989537896 9 12 5
-1111.63005473549 -178.045511285791 2542.47781853411 10 13 6
-1096.19358620421 -177.539935047732 2551.72652235744 12 15 8
-1165.42103438608 -180.501961157465 2553.60592461945 13 16 9
-1151.02765238819 -180.03942585121 2562.80298110396 12 15 8
-1106.61851243746 -178.343009374768 2574.33900058318 12 15 8
-1121.13588215535 -179.064456089954 2581.02503365214 11 13 8
-1097.35147940607 -178.211130774741 2590.67146555614 12 13 8
-1100.47625374553 -178.463627050745 2598.2174069248 14 15 10
-1121.23269857291 -179.442940486346 2604.52439012895 13 14 9
-1152.39217351572 -180.852909271719 2610.21883008285 12 13 8
-1137.8973363546 -180.379571568423 2619.04695252143 10 11 5
-1099.47742462127 -178.915656658442 2629.29323284703 10 11 5
-1064.12160259712 -177.575182982145 2639.14712418699 14 14 6
-1095.31511271689 -178.988510441796 2644.96580959113 17 17 9
-963.996237936368 -173.782278640284 2667.24938937216 35 31 22
-937.822910643808 -172.811496023781 2675.89486786806 48 44 35
-958.568636690274 -173.789454246036 2682.16290995028 50 46 37
-982.472291519498 -174.900623372195 2688.38265912182 26 22 13
-1012.67528738174 -176.275943214184 2694.44407562758 27 23 14
-1025.14082013045 -176.913878539365 2701.35740566741 22 19 12
-1026.11063678833 -177.0728432909 2708.75410320119 22 19 12
-1020.79640267426 -176.969194656095 2716.36493255395 19 19 11
-1009.18533013381 -176.601742510814 2724.14316705316 15 18 9
-1031.10733964136 -177.637229429649 2730.84587808946 13 19 9
-1064.59747285882 -179.159194729043 2737.32931689363 13 20 12
-1080.28167802543 -179.937012527531 2744.41474213247 14 21 13
-1078.12360486187 -179.966883098497 2751.96959129175 14 20 10
-1082.26758505073 -180.261514047615 2759.37672220921 16 19 10
-1072.73780613386 -179.981319562877 2767.0337323004 15 18 9
-1101.09193744948 -181.295562994314 2774.06187832893 17 18 10
-1108.4117705049 -181.72564401929 2781.48492222742 18 19 13
-1113.63037676327 -182.067714568251 2788.9547288334 18 19 13
-1085.0961786841 -180.985131122033 2796.69798277629 17 18 12
-1120.91342084339 -182.620242130046 2803.95651691232 15 18 11
-1228.60659934665 -187.299288826239 2811.18616717162 16 19 12
-1068.03580813988 -182.505611779926 2451.8407126385 31 30 25
-1114.39235361779 -184.999011735036 2478.20520469615 20 23 16
-1146.2921793554 -186.500480992821 2482.6934040314 19 22 15
-1064.2136375042 -183.19928531714 2507.35020506501 9 12 5
-1083.82486452698 -184.290370910951 2521.02547112567 11 14 7
-1084.8885061296 -184.457356432662 2528.76545839572 12 15 8
-1066.36054143924 -183.77334567456 2538.33858728721 12 15 8
-1093.20089978422 -185.059141778753 2543.66160052715 11 14 7
-1142.78978433942 -187.336357581451 2547.09395088827 10 13 6
-1142.85099721616 -187.460671970253 2555.03630649602 10 13 6
-1121.19728467516 -186.638398838793 2564.78132804771 12 15 8
-1101.5797242263 -185.902899368676 2574.23782910444 13 16 9
-1086.07315491268 -185.345024332664 2583.25928118543 11 13 10
-1116.12787755216 -186.776501191247 2588.73473367546 11 13 8
-1099.56691815889 -186.171266922235 2597.76766257025 14 15 10
-1128.62849331333 -187.561665967329 2603.47893688765 13 14 9
-1158.76551645066 -189.001152226266 2609.25396925712 12 13 7
-1090.24159748174 -186.23332335131 2629.34841609578 12 13 7
-1072.54988445971 -185.573111117686 2638.11410898166 14 15 9
-1039.21481318848 -184.223484910915 2647.68471849347 14 15 9
-986.993394440374 -182.152377930777 2665.52057943508 17 18 12
-988.99048725835 -182.352793268108 2672.80886189651 18 20 9
-997.250800878478 -182.829529725973 2679.79702059794 19 21 10
-1025.36688211016 -184.183661996302 2685.91707861919 18 20 9
-1033.65746942526 -184.663495393448 2693.01568237121 16 16 6
-1024.17385376878 -184.357677132561 2700.86026511132 20 20 10
-1035.60935431319 -184.977296278105 2707.85717171861 18 18 10
-1039.72504767772 -185.273277026303 2715.15842700892 18 18 10
-1059.56622639183 -186.267079732604 2721.95530816157 15 18 9
-1049.01388876937 -185.913168946794 2729.75861919262 15 18 9
-1062.58490075699 -186.630251566481 2736.83008713584 14 19 12
-1059.36641391119 -186.601790963436 2744.38190478476 13 20 12
-1050.88560841429 -186.338810620019 2752.0263590992 13 19 9
-1042.39046344801 -186.0746339765 2759.61832905552 15 18 9
-1051.77289144823 -186.606959548719 2766.84033305832 15 18 9
-1072.74967939333 -187.657399355793 2773.92143062755 17 18 10
-1104.291087403 -189.181315276502 2780.96104392333 18 19 13
-1065.21454648099 -187.551342344364 2788.87422910912 21 22 16
-1085.17936869714 -188.559733871282 2796.12096373374 16 17 11
-1098.83223244806 -189.287207318588 2803.489771007 16 19 12
-1079.49621454764 -190.908741911878 2457.91323787688 28 29 23
-1034.45021572377 -188.971272342787 2471.13323386872 27 28 22
-1075.49847617182 -190.962676924271 2474.20878819855 23 26 19
-1112.49490703773 -192.771579959632 2477.94305493116 21 24 17
-1121.80670755122 -193.316078018366 2484.8960768701 20 23 16
-1035.53686144088 -189.483546385651 2502.12041416141 15 18 11
-1077.71618426263 -191.531466565918 2505.46338002793 15 18 11
-1044.81249307039 -190.137854090927 2516.66246082932 16 19 12
-1057.1802337452 -190.81987724723 2523.18487331693 16 19 12
-1060.28536424596 -191.076744750606 2530.65512119844 13 16 9
-1076.80039029991 -191.950236939614 2536.86849736969 14 17 10
-1096.43188297516 -192.968131743783 2542.8707158455 13 16 9
-1063.41063477331 -191.5616813136 2553.64236474611 9 12 5
-1038.60934058427 -190.531438303469 2563.52222401722 10 13 6
-1123.40650967848 -194.555735601394 2564.08790612784 11 14 7
-1165.88207489373 -196.631967755572 2568.51288724132 12 15 8
-1143.16194577932 -195.697928466963 2578.26632577525 11 13 10
-1073.76747818042 -192.603186123322 2591.43774281695 11 13 8
-1086.20960946533 -193.291155671104 2598.2325988194 14 15 10
-1100.74160739241 -194.076674781476 2604.93156258343 13 14 9
-1103.87364074096 -194.446891676547 2620.22277336249 10 11 5
-1073.71765426216 -193.158801749818 2629.86796066382 11 12 6
-1057.04688823914 -192.495059044198 2638.5301382278 12 13 7
-1063.26170997787 -192.894281832172 2645.76629434339 13 14 8
-1022.58521849953 -191.111000037973 2655.6286086535 15 16 11
-1016.264419831 -190.925209624289 2663.45137052264 16 19 12
-1007.8449555205 -190.64090262907 2671.33703717106 14 17 6
-1022.38559892418 -191.427190566417 2678.06761449817 13 16 5
-1021.26793403131 -191.483220496374 2685.57245961796 20 22 11
-1032.69457227625 -192.125383361941 2692.52222931963 15 17 6
-1039.94791494218 -192.57307612232 2699.68728830597 16 16 6
-1033.59554635076 -192.384436081827 2707.39370732162 17 17 9
-1033.51855081456 -192.489299993577 2714.83520219319 18 18 10
-1051.26451038457 -193.429580380109 2721.67937727487 17 18 10
-1058.538634656 -193.879849936158 2728.91996743546 17 18 10
-1046.91985186887 -193.443688314408 2736.71295486635 17 20 11
-1047.89106938606 -193.598251537103 2744.11763241112 15 21 11
-1064.63192272834 -194.494453562754 2751.15512324097 14 20 10
-1041.41154206912 -193.511331039115 2759.08128539824 16 19 10
-1075.01073800352 -195.202687983 2765.86270767816 17 20 11
-1116.0275091512 -197.24615444209 2772.68572867015 19 20 12
-1073.80905152095 -195.366466275814 2780.78114021856 20 21 15
-1080.06049241839 -195.771996705583 2788.14834475595 20 21 15
-1037.75496383268 -193.884029106617 2795.92570611256 18 19 13
-1242.61743338273 -203.796616964825 2809.92685824119 14 17 10
-1089.82610156976 -199.071495212432 2448.24930836188 29 28 24
-1045.85647266318 -197.178343275013 2469.33399544551 25 26 20
-1072.56112691905 -198.578361146153 2474.08105235578 24 25 19
-1089.03152428921 -199.485568588895 2480.10744492489 21 24 17
-1092.16351776327 -199.748893380241 2487.6733529677 19 22 15
-1096.32507978416 -200.061898508833 2495.13323226405 16 19 12
-1019.19993263199 -196.439742919963 2511.10755352815 14 17 10
-1025.36935475074 -196.846770220413 2518.17022239226 16 19 12
-1028.45296156463 -197.10432555362 2525.56012278319 17 20 13
-1055.25353520952 -198.512317595904 2530.65827511104 16 19 12
-1093.4385656628 -200.474787967595 2534.81137536876 15 18 11
-1077.98051485461 -199.833101959381 2544.06588101134 15 18 11
-1052.16042267892 -198.793378492414 2561.85901867634 11 14 7
-1136.99771694399 -203.031726786322 2562.43946611142 10 13 6
-1155.68286283299 -204.052140098805 2568.82374380128 9 12 5
-1141.23442738126 -203.457602813179 2577.90066576375 11 13 8
-1085.28927417561 -200.836393234885 2590.05190626995 12 13 8
-1090.47963048859 -201.196974467523 2597.40513968888 14 15 10
-1083.21496749472 -200.948930436084 2605.65821334738 13 14 9
-1064.50797726375 -200.140588704064 2614.64608058527 10 11 5
-1054.05874980356 -199.839875127771 2630.59220329758 12 13 7
-1067.55919463879 -200.606555561892 2637.36942674872 14 15 10
-1053.98705210904 -200.046116015529 2645.78200466996 11 13 8
-1026.84007768036 -198.81820455391 2654.87118025532 15 17 12
-1019.47527638533 -198.559965421208 2662.75889668136 17 20 13
-1011.05328255318 -198.249139930771 2670.65191410133 16 22 10
-1016.19782932052 -198.605000724579 2677.83804589374 15 21 9
-1021.34625258262 -198.961374757822 2685.03917534136 19 22 11
-1032.77576249053 -199.62738066839 2691.98455371438 17 20 9
-1048.40519725306 -200.501168281894 2698.80603686047 18 20 9
-1017.96113836429 -199.10315596491 2707.45013798444 18 18 8
-1024.16155324566 -199.511976974923 2714.62674444742 18 18 8
-1049.24917044628 -200.854277286487 2721.19914031629 18 20 9
-1042.87727829782 -200.643168147847 2728.84818702595 18 20 9
-1041.74592094224 -200.69085580786 2736.30746158787 18 19 11
-1046.91691617197 -201.050468695202 2743.58942246193 17 20 11
-1045.781036582 -201.098095467379 2751.03194529531 15 21 11
-1046.74598555776 -201.249854111718 2758.41511963828 17 20 11
-1081.41319007641 -203.073675544098 2765.18189693979 17 20 11
-1090.8297744055 -203.646575360906 2772.5051002433 19 20 12
-1051.74093198567 -201.810397828232 2780.50279916857 19 20 14
-1038.87456985998 -201.379541249627 2795.35030988301 21 22 16
-1100.06023643507 -204.530128603983 2802.32184699017 14 17 10
-1152.86541703979 -207.267688034629 2809.61239657033 11 16 10
-1099.19560381439 -207.350703045866 2446.63695430056 28 29 23
-1059.28519292518 -205.43315954601 2459.42834150264 24 25 19
-1041.88315811704 -204.655802423302 2469.34444099416 21 24 15
-1065.51413813381 -205.962803876698 2474.42816375044 20 23 14
-1068.63053887383 -206.227322005951 2481.93449659423 21 24 15
-1102.58614205383 -208.061558253133 2486.05266222661 21 24 15
-1104.69746740543 -208.275705051155 2493.756398371 20 23 14
-1071.80975190607 -206.705211018204 2505.12646754474 19 22 13
-1050.21200730583 -205.811568556024 2522.91791574121 16 19 10
-1134.8015740186 -210.2357525463 2522.46127239783 15 18 9
-1070.86342309669 -207.073196973109 2536.45027760894 12 15 6
-1067.77758182179 -207.018420784963 2544.51026752507 11 14 7
-1077.08818901749 -207.597787266006 2551.43684481252 10 13 6
-1087.45763270438 -208.33446358024 2566.09260667873 10 13 6
-1124.79309951998 -210.455485928501 2578.68123241724 10 13 6
-1154.90423944803 -212.105086033817 2584.22843964311 9 12 5
-1097.86581124975 -209.277957012187 2596.3468915185 11 14 7
-1052.17094010999 -207.030044058183 2607.35374947831 11 14 7
-1083.32446595425 -208.733290848534 2612.84001219372 9 12 5
-1086.43497610362 -208.994477584435 2620.32750671886 10 13 6
-1093.70984005318 -209.470192135433 2627.5547785216 10 13 6
-1055.12667224177 -207.681542443093 2645.19258233656 13 16 9
-1024.83992394659 -206.217442711517 2654.46247099637 15 18 11
-1025.81838223403 -206.366322899864 2661.89854909478 15 18 11
-1023.66228132687 -206.353096775761 2669.48792985268 17 20 13
-1025.68062861117 -206.555623699922 2676.8537928364 17 20 13
-1013.05756539066 -206.000318007364 2684.88962556506 16 19 12
-1026.5771408074 -206.798101323441 2691.71916940696 15 18 9
-1028.59279293276 -207.000547604589 2699.07507670758 17 20 11
-1020.12887565082 -206.659687309472 2706.83140297855 16 19 12
-1030.52623013158 -207.296971730583 2713.85997319918 16 19 10
-1044.08326561059 -208.099022586529 2720.82497558652 16 19 10
-1039.80418385094 -207.975232219168 2728.39551879816 16 19 10
-1036.56717876595 -207.905406506939 2735.90469761887 17 20 11
-1032.27171570068 -207.780349853041 2743.41429069787 17 20 11
-1036.38500078355 -208.092804326035 2750.69620386302 13 19 7
-1021.54834713556 -207.418534530479 2758.38208668418 15 18 7
-1015.11812884913 -207.181551868771 2765.82998604064 17 19 8
-1022.38311109725 -207.658484836779 2773.01887075548 17 19 8
-1038.09543300657 -208.57698786817 2780.12079568065 17 18 10
-1103.38392814743 -212.186984013629 2794.24171466862 18 19 13
-1102.42292908353 -215.343666657306 2445.77947190797 30 33 26
-1078.95372188232 -214.296622995011 2464.51203651934 27 30 21
-1071.81069414853 -214.016498476319 2473.23790102137 25 28 19
-1125.28455455263 -216.975321124699 2475.07786383556 25 28 19
-1141.80928210996 -217.961193418124 2481.25630887265 24 27 18
-1137.77280846689 -217.847373872586 2489.72038439377 19 22 11
-1103.86372210183 -216.133295184298 2501.28620496783 19 22 13
-1100.81897612557 -216.070454870052 2509.50479396291 17 20 11
-1128.70308985144 -217.665210212159 2514.61075626621 16 19 10
-1066.84553159621 -214.447039838553 2528.56706576865 16 19 10
-1106.09729260051 -216.651987403396 2532.63131969862 16 19 10
-1097.89285328279 -216.408519445804 2549.08311816208 13 16 9
-1088.60358866805 -216.007046575611 2557.70967954112 12 15 8
-1078.2626505477 -215.548022310913 2566.36516766062 11 14 7
-1143.59332781016 -219.26103230434 2576.68134266359 10 13 6
-1134.33027524638 -218.958105638028 2593.13657712722 10 13 6
-1085.52440683368 -216.421761298708 2604.46397358139 11 14 7
-1087.58879698275 -216.725070193032 2619.73072602889 10 13 6
-1124.01956054211 -218.790319630308 2625.099257606 10 13 6
-1106.31728931971 -217.929310529829 2633.95345161564 12 15 8
-1061.47920367207 -215.598341823394 2644.29750285208 13 16 9
-1042.66044111523 -214.67354854636 2652.94297373753 15 18 11
-1029.03338832833 -214.028882116724 2661.20392805834 15 18 11
-1069.71280020885 -216.327766607537 2666.6131426381 17 19 14
-1066.53451448027 -216.249705682393 2674.34460518029 18 20 15
-1052.88665179409 -215.603101752176 2682.53044868267 16 19 12
-1032.93596243947 -214.613259007703 2690.91068643217 15 18 11
-1038.09812175626 -214.986927006714 2698.15096763155 17 20 13
-1043.26413294491 -215.361047631005 2705.40619333479 16 19 12
-1045.28739642975 -215.564605269478 2712.78965846854 16 19 12
-1039.96211889776 -215.368119671887 2720.41809817323 16 19 10
-1043.03075328912 -215.628673076983 2727.74958704571 17 20 11
-1031.38380705838 -215.087412057618 2735.50436338801 17 20 11
-1014.4585094046 -214.25750557715 2743.32735102495 17 20 11
-1032.24417470984 -215.320857006788 2750.24124510566 14 20 8
-1005.8110710063 -213.970998254055 2758.16062450746 16 19 8
-1035.20355107012 -215.669437170299 2764.90600364923 16 19 8
-1040.37386913715 -216.045897294174 2772.17481388768 17 19 8
-1102.54394259677 -219.540229507297 2778.68698890332 17 18 10
-1185.91865794889 -224.199139234367 2785.2615371953 17 18 10
-1208.10492699527 -225.612911819459 2800.50013213064 14 17 10
-1197.52076514348 -225.132855644804 2808.26492763028 14 19 13
-1084.12305478003 -222.14280098137 2447.57866925986 28 31 24
-1128.28970841158 -224.709775439557 2450.17893142761 28 31 22
-1109.89211365058 -223.778185953254 2460.39333558561 27 30 21
-1127.42180359927 -224.856585977709 2466.3473424423 26 29 20
-1090.48707603207 -222.8845775002 2478.53228378373 23 26 17
-1133.73979145737 -225.404319861886 2481.6654127761 22 25 16
-1134.84134232914 -225.5625261789 2489.55262148523 20 23 12
-1118.42855423098 -224.737644206533 2499.27435541916 20 23 14
-1105.08212736186 -224.083444533857 2508.5841665846 19 22 13
-1093.77729318414 -223.542815932017 2517.60873865229 18 21 12
-1083.48610166007 -223.058170820042 2526.46417277295 17 20 11
-1103.13514065097 -224.25619587662 2532.41874149086 18 21 12
-1123.84193681828 -225.514793727486 2538.36599241449 17 20 11
-1130.09199255096 -225.960311600672 2545.70280812824 14 17 10
-1082.51803086529 -223.374078638676 2557.74013851557 13 16 9
-1071.13147436524 -222.824229507615 2566.46711297703 12 15 8
-1121.9223710606 -225.779587954269 2570.03783467817 12 15 8
-1136.47410196917 -226.693146724798 2576.72922559644 10 13 6
-1141.70037266767 -227.080930427194 2584.19862787445 9 12 5
-1109.53572445312 -225.356979621379 2594.45386834795 10 13 6
-1091.87608704211 -224.450586803965 2603.4950062463 11 14 7
-1042.98382449627 -221.776998320093 2614.58921600744 10 13 6
-1126.21454124207 -226.574628524481 2616.64429544312 9 12 5
-1134.56087964128 -227.138605614495 2623.89676812083 10 13 6
-1127.28065204125 -226.817889228794 2632.13886398979 12 15 8
-1049.01274222229 -222.563337245026 2652.06316321585 16 19 12
-1058.36120786503 -223.182319745632 2659.10529001625 16 19 12
-1054.13221685939 -223.031280246153 2666.87901405553 17 20 13
-1081.27128449998 -224.661013247961 2673.09300359026 18 21 14
-1069.7200560686 -224.094256342086 2681.21925812941 16 19 12
-1065.48126929859 -223.942430511895 2688.95710886352 16 19 10
-1051.80147507263 -223.253545587625 2697.05109082332 16 19 10
-1059.07512969034 -223.755974510047 2704.25607753583 16 19 10
-1051.66328489538 -223.422924258049 2712.01729151374 16 19 10
-1024.28524670762 -221.952127267759 2720.40191785647 17 20 9
-1015.78308814483 -221.555489852185 2728.05147650067 17 20 9
-1017.78247776884 -221.757152855324 2735.34749884185 17 20 9
-1045.03722083977 -223.399744400924 2741.98285036631 17 20 9
-1039.68240232582 -223.182858921026 2749.5144896126 15 21 9
-1027.99510328574 -222.604061818839 2757.1431422004 16 19 8
-1076.39240310733 -225.457830935501 2763.58093620138 16 19 8
-1095.30805956864 -226.629159463134 2770.72577450108 17 19 8
-1123.74917831975 -228.346686414964 2777.82320474836 17 18 10
-1178.64077940364 -231.579804532638 2784.75285601468 17 18 10
-1188.13968613995 -232.217283858714 2792.34186318258 13 14 8
-1236.81177278091 -235.195683701681 2807.51384223953 8 11 4
-1147.94933516859 -233.735610775587 2447.33442044237 27 30 23
-1147.01564718949 -233.7738684715 2455.5335562427 26 29 20
-1086.47047487397 -230.320892403511 2470.61349213504 24 27 18
-1077.25860213932 -229.871477528661 2479.55859149088 22 25 16
-1070.08906051803 -229.54080256961 2488.21793002689 22 25 14
-1034.07056286221 -227.51744579656 2499.93982267205 21 24 13
-1085.59729951355 -230.628423610774 2502.24707458033 21 24 15
-1088.72185160744 -230.900534757324 2509.77980699234 20 23 14
-1112.48756159448 -232.384922077651 2515.25176357174 19 22 13
-1094.97469506872 -231.444662481468 2524.85828568937 19 22 13
-1103.26998032746 -232.020411537684 2531.91377585948 17 20 11
-1100.19781386941 -231.927654066785 2540.04944610648 15 18 11
-1124.02460155326 -233.417430102387 2545.74477005051 14 17 10
-1098.17369545303 -231.983268623386 2555.87895937378 13 16 9
-1137.57013440376 -234.391072240661 2560.35230147087 11 14 7
-1125.16762137232 -233.74787884546 2569.26248151936 11 14 7
-1093.02818287222 -231.940020777115 2579.66429537459 10 13 6
-1113.80124070173 -233.251686506809 2585.82405858249 9 12 5
-1114.8561715344 -233.400450198703 2593.54320878039 10 13 6
-1075.35489052349 -231.154213316349 2604.16481444346 11 14 7
-1121.12330581452 -233.943284641278 2608.67556299711 11 14 7
-1120.1009863659 -234.055021969641 2624.29280612015 9 12 5
-1102.37936010192 -233.092416162235 2633.13928149602 12 15 8
-1096.10829363636 -232.806542353244 2641.20894768134 13 16 9
-1075.20738932442 -231.65373215279 2650.06136205841 16 19 12
-1050.0955149756 -230.250213247982 2659.02376492694 16 19 12
-1078.27055916255 -232.003911462299 2665.10954680268 18 21 12
-1058.3520806447 -230.906998116072 2673.67697584871 18 21 12
-1070.8602236141 -231.732807699616 2680.62989531516 17 20 11
-1061.38045024333 -231.254199536219 2688.59876323031 16 19 10
-1071.80516314166 -231.9570864311 2695.68656290314 17 20 11
-1008.80135686717 -228.297643132503 2705.66567479249 17 20 9
-980.354047979473 -226.688978941772 2714.0636711149 17 20 9
-992.837222989825 -227.512940651244 2720.92505609395 17 20 9
-991.66792833659 -227.525335651862 2728.26575884275 17 20 9
-1031.52191158331 -229.979875548234 2734.40836639466 18 22 8
-1058.79458179991 -231.687339666385 2741.07024977365 18 22 8
-1095.58220475397 -233.963521577865 2747.63055861901 15 21 9
-1073.38557795265 -232.725505025739 2755.6223245618 17 20 9
-1029.00457388599 -230.163403521193 2763.91210586489 17 19 8
-1149.15974403551 -237.591530699878 2784.50171298064 17 18 10
-1127.96775030268 -236.412910783576 2792.28966429333 12 13 7
-1137.43820060968 -237.066392957442 2799.76291495619 18 21 14
-1143.74152909109 -237.531300594622 2807.28528026288 11 16 10
-1118.19134704923 -239.663106290332 2434.41829477353 31 34 27
-1126.47637847385 -240.256270218655 2441.42471962867 28 31 24
-1090.67428795543 -238.242718481771 2461.73746896478 27 30 21
-1092.77901745972 -238.456680101055 2469.41683293302 24 27 18
-1065.04760277954 -236.845780517808 2480.47421544628 23 26 17
-1025.94346024963 -234.619448838409 2500.35132114014 21 24 13
-1043.46087605212 -235.774182864437 2506.21156320518 20 23 14
-1082.66472508193 -238.258204199084 2509.92173679584 20 23 14
-1096.10973928996 -239.165149818665 2516.40553011967 19 22 13
-1102.33868798467 -239.630062254848 2523.65173482653 19 22 13
-1105.47137010577 -239.905135503486 2531.21278231992 16 19 10
-1111.70881033386 -240.370517267424 2538.49114713948 16 19 10
-1085.85885899438 -238.865760143589 2548.67345169668 14 17 10
-1097.26503473699 -239.647950582632 2555.4588420584 13 16 9
-1111.79368517127 -240.622447919154 2562.02699530139 13 16 9
-1103.51656076301 -240.195283526785 2570.53133479089 13 16 9
-1106.64433604173 -240.468973408002 2578.07410850354 10 13 6
-1083.8021896883 -239.144474151685 2587.62103692649 9 12 5
-1149.28704991355 -243.256374285813 2590.46425490761 8 11 4
-1133.71861400606 -242.379463301679 2599.45743104701 10 13 6
-1132.69918763937 -242.397984637602 2607.35069752293 11 14 7
-1109.79972064033 -241.067606925428 2616.68851697259 8 11 4
-1110.83777980044 -241.292430755628 2632.0905753585 12 15 8
-1118.13827973404 -241.82332392041 2639.37726263484 14 17 10
-1049.19406182672 -237.646459969522 2651.00724308367 16 19 12
-1066.90888005524 -238.819229961396 2657.58901470208 17 20 13
-1052.21979293056 -237.990345244959 2665.92039886891 18 21 10
-1067.86150088729 -239.035905414026 2672.67900178038 19 22 11
-1076.18984361562 -239.629861564126 2679.84573285005 17 20 9
-1076.14162376878 -239.705993178776 2687.41220628462 16 19 8
-1075.04162918106 -239.71698715573 2695.01109112722 17 20 9
-1067.64019487531 -239.337649814928 2702.83925143339 17 21 7
-1009.81355699297 -235.833674062499 2712.45948985172 17 21 7
-1003.40287023356 -235.513802652981 2720.03223755604 17 21 7
-1039.04731290245 -237.801509812733 2726.23811502811 18 22 8
-1062.10907501384 -239.310659372596 2732.97620889529 18 22 8
-1073.61474900527 -240.103844520635 2740.12500429255 18 22 8
-1085.1333734339 -240.898578080764 2747.31997551609 16 22 10
-1043.93851909794 -238.419625853924 2755.69692002458 17 20 9
-1110.31930896166 -242.623829649737 2761.80920247855 17 20 9
-1055.35276220549 -239.287577190166 2770.25168778128 17 19 8
-1185.21308266523 -247.527587327663 2783.49972414919 17 18 10
-1178.84920184004 -247.215042686343 2791.24255639815 13 14 8
-1185.15889703176 -247.775854716255 2806.52158083044 9 14 8
-1084.50306251108 -245.367606254916 2438.22295765424 31 34 27
-1104.05588302089 -246.692333782388 2443.74029270304 28 31 24
-1089.7393772827 -245.862290905737 2453.45572973563 27 30 21
-1075.39969466345 -245.029625273413 2463.08677142207 26 29 20
-1074.40735020888 -245.04584872661 2471.08203849267 24 27 18
-1064.1476311213 -244.471088699772 2480.11121744123 24 27 18
-1047.69060029501 -243.500493566116 2489.76161148131 20 23 12
-1039.45286218816 -243.052813780748 2498.4251369336 20 23 12
-1055.95324366069 -244.182539205179 2504.42236839339 19 22 13
-1070.40932871974 -245.182256898501 2510.70424878511 19 22 13
-1089.01346766849 -246.447300193242 2516.63331701853 19 22 13
-1092.13745321548 -246.724255959403 2524.16088731375 18 21 12
-1118.01564833268 -248.455073296001 2529.52693434307 16 19 10
-1098.38916168721 -247.277957170723 2539.22910781839 15 18 11
-1092.19566977817 -246.958661849705 2547.60882274346 14 17 10
-1080.80876132906 -246.306525494533 2556.39906928556 14 17 10
-1110.88659236179 -248.307356153749 2561.59992950439 14 17 10
-1119.20860000868 -248.916530282161 2568.73446084601 14 17 10
-1110.9229660902 -248.462271311812 2577.22431228997 11 14 7
-1119.25044602529 -249.07184013505 2584.37798295297 9 12 5
-1137.98567563161 -250.34880980104 2590.78623541841 8 11 4
-1155.70291499235 -251.561198724058 2597.3519829072 10 13 6
-1133.8692404654 -250.237149083813 2606.74563629596 11 14 7
-1094.28710960582 -247.77285152686 2617.20473441141 8 11 4
-1090.10267738336 -247.579019365248 2625.17091352595 9 12 5
-1161.04229321292 -252.209723903132 2628.45649307825 12 15 8
-1050.38081672447 -245.17605289298 2642.86607083768 14 17 10
-1061.77524248672 -246.055576189085 2657.33995474569 17 20 11
-1048.12183050567 -245.250974794762 2665.6049461314 18 21 10
-1044.91785060911 -245.118067987884 2673.27563808235 19 22 11
-1078.37917362744 -247.345263846943 2679.20686460768 17 20 9
-1072.04008036711 -247.011085922712 2687.05445732659 17 20 9
-1068.83680830629 -246.878556949607 2694.72846781092 17 20 9
-1049.87749324998 -245.730588846428 2702.99299571522 17 21 7
-1037.19340193419 -244.986318571421 2710.92154543222 17 21 7
-1043.4135501067 -245.460676037834 2718.1300414499 18 22 8
-1079.09743208001 -247.836467620505 2724.42580841357 18 22 8
-1085.34877506826 -248.314375156789 2731.7478833398 18 22 8
-1098.98015804775 -249.269274498338 2738.8933519151 18 22 8
-1074.6757915776 -247.774509546901 2747.01423184021 17 23 11
-1054.55508409743 -246.549021942458 2754.91292846312 18 21 10
-1073.46315322486 -247.84575029686 2761.95042559334 17 20 9
-1206.47982787821 -256.522953131005 2767.15790590591 18 20 9
-1178.98166067141 -254.900682727285 2782.98478989758 17 18 10
-1171.55131551522 -254.498021666542 2790.72126428068 15 16 10
-1172.58190401298 -254.64321908267 2798.35228771986 10 13 6
-1076.43836573031 -252.586871825738 2438.79212332262 34 37 30
-1048.76071877232 -250.830322895253 2450.14109022319 31 34 27
-1084.74447660154 -253.28694213786 2453.60288672843 28 31 22
-1086.84502036953 -253.500708487807 2461.26683316098 27 30 21
-1088.94530686473 -253.714156250896 2468.93002552918 25 28 19
-1071.48254805701 -252.630777232923 2478.81387491604 22 25 16
-1063.26535377001 -252.159131966746 2487.5688060949 22 25 14
-1073.59258411076 -252.916829272964 2494.26006771317 20 23 12
-1088.05797108718 -253.949220997652 2500.55585562806 19 22 13
-1073.63075565224 -253.064204523079 2509.89495670698 19 22 13
-1076.74463296445 -253.342937307546 2517.38387519124 19 22 13
-1089.16487472069 -254.239626929117 2523.96568473602 17 20 11
-1106.77241548671 -255.481382597366 2530.1056022174 16 19 10
-1115.08280937554 -256.105734725662 2537.18743135702 16 19 10
-1086.10383159767 -254.250506672343 2547.66343319381 15 18 11
-1081.96409249255 -254.046131033519 2555.80220569295 14 17 10
-1107.90251897926 -255.842720619153 2561.35035483745 12 15 8
-1126.60621160581 -257.158732241924 2567.61686763042 11 14 7
-1134.94345093279 -257.78514224707 2574.79614036212 10 13 6
-1121.4569937036 -256.957962230226 2583.69432795699 10 13 6
-1138.11852195609 -258.138963097997 2590.25749319625 9 12 5
-1164.1693320777 -259.946528588559 2596.21597113874 10 13 6
-1143.37320562111 -258.631266424275 2605.55996882233 10 13 6
-1099.59978820859 -255.851843267834 2624.03637559352 10 13 6
-1059.87266623379 -253.338281081702 2641.78182301443 12 15 8
-1082.82266004867 -254.939877121603 2648.04750625727 17 20 13
-1033.62383683973 -251.721499922458 2658.34653841289 18 21 14
-1072.2826031753 -254.373504502511 2663.82412037274 18 21 10
-1054.42753729467 -253.248334728386 2672.27779498369 18 21 10
-1075.32839229813 -254.714741678055 2678.81341952286 18 21 10
-1081.56999143491 -255.201284810028 2686.09386537531 17 20 9
-1071.02324383994 -254.564394675611 2694.09751845185 17 20 9
-1053.10720621645 -253.433610237676 2702.32743271399 17 21 7
-1039.36782751893 -252.581864804681 2710.30301080847 18 22 8
-1059.26318581173 -253.983236797119 2717.04373220713 19 23 9
-1070.76309129125 -254.822942795733 2724.14081039809 19 23 9
-1082.27571813959 -255.664120084197 2731.28419164278 18 22 8
-1089.58527950356 -256.224027320985 2738.58713329048 17 21 7
-1100.06599643844 -256.997165462711 2745.83851201497 16 22 10
-1097.89388094557 -256.921786192277 2753.40860302022 17 20 9
-1196.02432954487 -263.800828908654 2782.1932709281 17 18 10
-1184.36576422455 -263.090701537555 2790.01152124227 14 15 9
-1138.16408448564 -264.553975106596 2430.51259154693 33 36 29
-1055.0509486227 -258.911360310418 2448.91007686349 31 34 27
-1066.38232238369 -259.759598612642 2455.3769719876 27 30 21
-1077.72653545928 -260.608852577514 2461.88996671161 26 29 20
-1068.49737811151 -260.042418620981 2470.84384238628 24 27 18
-1089.1224208708 -261.530367559449 2476.34275865915 22 25 16
-1101.52722978644 -262.452884632804 2482.85096299056 21 24 15
-1096.41153304702 -262.168686826949 2491.31291199783 21 24 13
-1087.15695410157 -261.598677305312 2500.17465968748 20 23 14
-1086.14930302974 -261.596493749954 2508.12471750979 20 23 14
-1067.56607667838 -260.382092734159 2517.82753132742 20 23 14
-1082.05182052052 -261.447397255098 2524.17812087835 17 20 11
-1090.34409222957 -262.085828053423 2531.18377738104 16 19 10
-1098.64490513778 -262.724950715063 2538.21977985344 16 19 12
-1124.57366809966 -264.581250679887 2543.69435221668 15 18 11
-1108.01137949725 -263.503853466294 2553.02044498361 14 17 10
-1108.02901883858 -263.57096530323 2560.83713529124 11 14 7
-1108.04379181867 -263.637680727718 2568.64250461293 11 14 7
-1134.03775645746 -265.500084569355 2574.35623337758 10 13 6
-1130.94413448441 -265.352097805125 2582.44618336455 9 12 5
-1154.90203387394 -267.074874640596 2588.48119486728 9 12 5
-1162.22673404769 -267.647790066356 2595.83120223653 9 12 5
-1189.35925209398 -269.591772864768 2601.82340256343 9 12 5
-1104.91688871397 -263.941159574053 2630.87698702084 10 13 6
-1093.40650936662 -263.208023006315 2639.2599496112 12 15 8
-1071.42007875589 -261.748174083811 2648.17218615792 17 20 13
-1080.79400873764 -262.461834697947 2655.24908225376 19 22 15
-1042.00837371716 -259.835531660653 2664.87137470578 18 21 12
-1081.75754939013 -262.656550991501 2670.3934763486 18 21 12
-1050.25390254558 -260.534025398048 2679.45820422715 18 21 12
-1066.97254735144 -261.758017772423 2686.2053604254 17 20 11
-1057.46031411923 -261.161104702291 2694.12840276176 17 20 9
-1040.5774407884 -260.051829239021 2702.284353523 17 20 9
-1025.77152479541 -259.08627472588 2710.2682611545 16 19 8
-1025.67278101331 -259.142525761012 2717.659700677 16 19 8
-1060.3159352336 -261.614528026322 2723.92702746675 16 20 6
-1074.98490410855 -262.698835451601 2730.94682723686 16 20 6
-1092.83404348438 -264.005272633245 2737.94291648297 17 21 7
-1086.43908745398 -263.625302122556 2745.6129417497 14 20 8
-1053.63981202666 -261.406952021491 2753.82407359862 16 19 8
-1049.31731235108 -261.17057199041 2761.30356879511 16 19 8
-1191.90778429942 -271.304751538436 2781.65429228336 15 16 8
-1169.13159512172 -274.638109487359 2426.12064218857 29 32 25
-1038.73883197613 -265.405791717941 2450.48823248477 32 35 28
-1048.0051505774 -266.130055330051 2457.15889443832 27 30 21
-1075.80275888338 -268.176655354645 2461.65933701653 26 29 20
-1067.59664275767 -267.654243811114 2470.48745040686 25 28 19
-1098.53171955044 -269.925717821393 2474.80390568938 24 27 18
-1108.92887494922 -270.794295524906 2489.47835105591 21 24 13
-1080.05884219026 -268.793914619091 2500.45141533 20 23 14
-1074.91120033176 -268.487768019768 2508.80861569037 20 23 14
-1083.19509438524 -269.141339587573 2515.77267948824 20 23 14
-1084.24444278883 -269.277731065439 2523.47891438934 18 21 12
-1066.65445078579 -268.080336459576 2532.96235533244 16 19 10
-1085.30179315392 -269.475209625534 2538.96986161034 16 19 12
-1107.08231042282 -271.09487170433 2544.77842208223 15 18 11
-1123.7018012135 -272.345644912209 2551.14145986198 14 17 10
-1150.72384763391 -274.342011609004 2556.69042824279 12 15 8
-1165.31216466491 -275.448351261172 2563.39594450649 11 14 7
-1169.56935428927 -275.876133677154 2578.93197577239 10 13 6
-1167.53314545554 -275.791279405387 2587.01171456337 9 12 5
-1193.62079255877 -277.723259378829 2593.02841220743 9 12 5
-1174.91096222855 -276.442399523995 2602.30312889705 9 12 5
-1077.83014850373 -269.713424130011 2639.66657616426 11 14 7
-1108.12966862172 -271.948842427707 2645.5433471752 16 19 12
-1049.48574283749 -267.794235991092 2656.43625033519 18 21 14
-1038.94680313483 -267.094987538659 2664.5073333406 17 20 11
-1102.78444462959 -271.801939635893 2676.44620594535 18 21 12
-1054.46233694754 -268.385199311834 2686.22922672906 17 20 11
-1052.28938901633 -268.287368170819 2693.81040198962 16 19 8
-1056.41765364228 -268.643024237466 2701.11972701517 18 21 10
-1057.39312152853 -268.771910859564 2708.55639620864 17 20 9
-1054.15665969183 -268.597706334253 2716.13349132207 16 19 8
-1056.17940360511 -268.802243676792 2723.51440885456 16 19 8
-1079.28161413713 -270.525943749249 2730.26815284059 17 21 7
-1089.75614149061 -271.340535503438 2737.47037922166 18 22 8
-1071.74586966991 -270.102158601422 2745.41927765076 15 21 9
-1023.0810220071 -266.652660024601 2753.95138292953 17 20 9
-1014.50735752806 -266.093400784738 2761.43812502795 18 20 9
-1081.00513175983 -270.950716797305 2767.57147762685 17 19 8
-1181.4539272218 -278.261331655737 2773.51881987588 16 17 9
-1145.67850350175 -280.854540418239 2428.63830203143 29 32 25
-1045.02769435208 -273.479284016335 2449.25783457476 31 34 27
-1077.95957569707 -275.970992003524 2453.05634882448 28 31 22
-1057.40659729964 -274.510140439543 2463.39409609873 27 30 21
-1072.87477120984 -275.711363040437 2469.4110530193 26 29 20
-1090.42324625563 -277.066730397015 2475.25994258564 25 28 19
-1072.92088509845 -275.829560570789 2485.0938516761 22 25 14
-1066.74588957483 -275.429618067808 2493.59222744131 21 24 13
-1061.59208057647 -275.104735092662 2501.93835958696 20 23 14
-1066.76468312604 -275.543731602345 2509.17616946118 20 23 14
-1085.38810755553 -276.978708341496 2515.07048284656 20 23 14
-1084.36767794523 -276.959096222207 2522.98317092041 17 20 11
-1065.73339985462 -275.634356312349 2532.56703085999 17 20 11
-1085.42233745005 -277.148580640313 2538.46917458739 16 19 12
-1106.17227513443 -278.741956373136 2544.36524027955 16 19 12
-1112.4162700312 -279.260317038479 2551.63449319436 15 18 11
-1122.82066917879 -280.087305185634 2558.5685208582 12 15 8
-1146.7480819067 -281.91758309791 2564.4224708094 12 15 8
-1154.06383586031 -282.516094156794 2571.72310287387 11 14 7
-1153.05984310594 -282.497292617549 2579.69723503694 11 14 7
-1186.42187103595 -285.029333283574 2585.06733530842 10 13 6
-1203.15056031316 -286.327453445389 2591.80591327827 9 12 5
-1154.19263738507 -282.747772499903 2603.22839825495 9 12 5
-1133.34390486361 -281.254275186783 2612.48867924991 12 15 8
-1130.2178522681 -281.076780983881 2620.47777916648 11 14 7
-1103.04740619094 -279.112167954826 2629.94399490171 10 13 6
-1080.01978194755 -277.454567552105 2639.01258289767 10 13 6
-1055.91154272006 -275.715778249502 2648.01570903534 13 16 9
-1028.62541313289 -273.739699272746 2657.0605825929 14 17 10
-1046.36150588426 -275.112028709767 2663.59535095839 16 19 12
-1098.72469089626 -279.061473606154 2668.47973649151 16 19 12
-1078.74905968976 -277.628912879124 2677.04687899105 17 20 13
-1035.64112755964 -274.473589019616 2686.54153603427 17 20 13
-1035.55483224473 -274.52041969987 2693.98514179452 17 20 11
-1063.85685935924 -276.681615611201 2700.28511367917 17 20 11
-1097.45550976216 -279.238538893214 2706.5180372347 16 19 10
-1091.08465296876 -278.818435148056 2714.3028762683 16 19 10
-1060.46827947849 -276.591071057585 2722.83081634237 16 19 8
-1068.81950863788 -277.268027193437 2730.03011839904 16 19 8
-1076.1239246116 -277.8672559192 2737.28913069158 17 20 9
-1071.73710145819 -277.650035896414 2752.31127858671 16 19 8
-1053.6765406673 -276.35755011743 2760.10762543811 16 19 8
-1056.64447059359 -276.689782487969 2774.81353381397 15 16 8
-1125.28934792414 -287.177815855056 2430.77348065895 32 35 28
-1049.26389640296 -281.4213968907 2448.28189804737 28 31 24
-1055.45416535278 -281.947523349533 2455.34677413565 27 30 23
-1047.2330631047 -281.371446596836 2464.15312839449 27 30 21
-1053.42420644252 -281.897096519058 2471.22155177435 26 29 20
-1059.62107365403 -282.423112466831 2478.31006666349 23 26 17
-1059.63160681308 -282.475711802635 2486.10953554255 21 24 13
-1044.14953293796 -281.342081572462 2495.58543607418 20 23 12
-1052.41005489028 -282.025356987704 2502.44397038695 19 22 13
-1087.56443056666 -284.767964647361 2506.54312480513 19 22 13
-1089.65144294565 -284.978895163884 2514.15862223916 19 22 13
-1076.20587353114 -283.999723796967 2523.30457765775 17 20 11
-1074.1368533686 -283.89149192316 2531.27725380977 17 20 11
-1096.94807702565 -285.689907667306 2536.90344899721 17 20 13
-1086.58305175371 -284.945677697237 2545.64957019548 16 19 12
-1084.50759514234 -284.836412583996 2553.5990014078 15 18 11
-1072.03552294738 -283.929673558247 2562.4173108297 13 16 9
-1125.04941333845 -288.045579089635 2565.71622298565 12 15 8
-1092.80568656424 -285.671237361619 2583.88112381442 10 13 6
-1187.61126353859 -292.997531697381 2584.4526132181 9 12 5
-1153.25601867249 -290.410703242485 2594.91294323609 8 11 4
-1205.44937936318 -294.468741368008 2599.09731524638 8 11 4
-1161.65631933421 -291.155980313107 2610.04487369258 11 14 7
-1150.18870936828 -290.325139353763 2618.64831605156 10 13 6
-1164.83990626102 -291.500734718056 2625.54356848676 10 13 6
-1106.27330396039 -287.049768593058 2636.90973555648 10 13 6
-1071.70277507442 -284.441449683182 2646.58432615147 14 17 10
-1066.41615219158 -284.083587368331 2654.45816780343 15 18 11
-1062.16767128104 -283.805402817644 2662.23980237493 16 18 13
-1084.1372358802 -285.543745642821 2668.67532972152 16 18 13
-1075.69012133051 -284.942800299149 2676.65824532816 17 20 13
-1053.57218945602 -283.289648802312 2685.20428458199 17 20 13
-1044.03560754171 -282.604136588645 2693.09286189494 17 20 13
-1061.8334490896 -284.022830964753 2699.82761904417 16 19 12
-1081.75773843273 -285.605989372348 2706.56098533647 16 19 12
-1099.59960285702 -287.02948638204 2713.45615866608 17 20 11
-1097.43534618765 -286.912615489749 2721.08162358062 17 20 11
-1091.04650608035 -286.470379808328 2728.81273801782 16 19 10
-1098.36733187368 -287.084677149797 2736.1231632192 16 19 10
-1096.189549426 -286.967274591734 2743.69781621328 15 21 9
-1082.38008647035 -285.953180152046 2751.51475483471 16 19 8
-1128.83361700507 -289.586149387103 2758.03733806988 15 18 7
-1121.3720561933 -289.062316328642 2765.73348747537 15 17 6
-1087.40692968211 -292.008059794439 2435.14431717104 25 27 22
-1076.13474184104 -291.166200338029 2444.4802800801 28 30 25
-1052.49005345139 -289.345972310534 2455.25682479522 29 30 25
-1049.41280319575 -289.150091521629 2463.43872656256 28 29 23
-1042.20489057995 -288.62734637683 2472.07593515423 24 25 19
-1059.7420335523 -290.060261388968 2477.83472044539 22 23 17
-1064.91268963711 -290.515553969296 2485.05501499156 21 24 13
-1032.89809402981 -288.029862125451 2496.34829480002 19 22 11
-1061.8273536826 -290.363757711744 2500.97170424698 17 20 11
-1081.48328002085 -291.964517902015 2506.69757845579 18 21 12
-1078.38948302115 -291.765445401752 2514.81913146248 19 22 13
-1049.39080228985 -289.515647013873 2525.47109114805 20 23 14
-1041.08116648295 -288.902585071889 2533.97208816744 23 26 17
-1077.36197508744 -291.819702417641 2538.24604158593 20 23 16
-1101.23314149285 -293.754906538032 2543.82491505083 17 20 13
-1076.31270687283 -291.825960934367 2553.82982302244 12 15 8
-1085.65736432006 -292.610639150639 2560.75319913875 10 13 6
-1110.62144351733 -294.677799499206 2574.20285372447 11 12 6
-1053.33674564004 -290.1815647699 2586.46074051427 10 13 6
-1093.94887093858 -293.444991194834 2591.01117192015 8 13 6
-1216.0377432238 -303.216030764124 2597.81758387377 8 13 6
-1172.23364952064 -299.786980716912 2608.79759523219 6 11 4
-1084.46911843059 -292.868826356497 2622.42056080002 16 19 12
-1200.53119130865 -302.122601320434 2622.76436115024 8 9 3
-1113.68825378167 -295.319535349758 2643.6326825902 11 8 3
-1078.03362800069 -292.53281549837 2653.29118729056 19 18 13
-1091.61866995649 -293.655423388963 2660.15871832931 17 20 11
-1089.4774257335 -293.52924922019 2667.87456852614 18 21 14
-1071.57760779489 -292.151316877329 2676.32166857059 18 21 12
-1062.05778470939 -291.438737038497 2684.28862818929 18 21 12
-1069.34766588351 -292.061875255139 2691.47858041877 17 20 11
-1069.27857856086 -292.100406570259 2698.99038684377 17 20 11
-1080.78958037332 -293.059708629565 2706.05408587485 18 21 12
-1092.31359575632 -294.020566402648 2713.16419052402 19 22 13
-1096.46919989748 -294.395905609815 2720.56259490664 19 22 13
-1108.01372856927 -295.359309146401 2727.74725411478 18 21 12
-1105.84427777172 -295.232132772851 2735.35994059076 18 21 12
-1102.61278068819 -295.020600553757 2742.97810658887 16 22 12
-1102.5458532902 -295.061121803867 2750.49760507255 14 20 10
-1109.67113764139 -295.815020192013 2780.37273775959 24 25 19
-1105.02872513751 -301.162973578085 2432.44581438351 30 32 27
-1087.58808076201 -299.784128234944 2442.59738327025 27 29 24
-1083.50789077438 -299.494213516756 2451.01125486804 28 29 24
-1067.05191745913 -298.194298937901 2460.87349029697 27 28 23
-1032.00686435269 -295.376872486958 2472.81460540433 24 25 19
-1065.02241599119 -298.11220412491 2476.76903081314 23 22 17
-1071.22974134821 -298.660174882376 2483.88344265187 22 25 16
-1068.14153977221 -298.449221350121 2492.03420045418 21 24 13
-1073.31929436818 -298.9127867737 2499.27562734087 20 23 14
-1081.60568031398 -299.630016276796 2506.2087527587 21 24 15
-1065.04636371044 -298.318033997636 2515.69491372719 21 24 15
-1057.78802770116 -297.765195249534 2524.16390966729 19 22 13
-1058.81230580712 -297.888643006546 2531.78616447717 16 19 10
-1090.96678079481 -300.55559764948 2536.48400010983 15 18 11
-1114.85511262489 -302.547715741724 2542.08974390734 14 17 10
-1148.12538302486 -305.307141739133 2546.9756072593 13 16 9
-1089.93006709843 -300.589784828921 2559.88940208482 11 14 7
-1105.53293770548 -301.90483927677 2566.33366494945 11 14 7
-1135.73225819182 -304.413919445873 2571.66563858742 12 13 7
-1098.23956470513 -301.387082973201 2582.44399598085 10 13 6
-1175.39176334481 -307.737495416823 2584.33016397956 10 13 6
-1175.43217890014 -307.780842194091 2592.24642192034 8 13 6
-1231.8538393281 -312.437845063011 2596.16527658855 8 13 6
-1115.94655957861 -302.992276512858 2612.10442079788 10 15 8
-1119.07412621274 -303.287373595891 2619.63290446749 6 11 4
-1107.55469600677 -302.383472582143 2628.09007472529 11 12 6
-1122.16037688332 -303.696944748709 2650.3164265002 23 20 15
-1099.05908380156 -301.84376945223 2659.23404326499 17 20 11
-1075.92339442188 -299.98730924882 2668.02602723534 18 21 12
-1071.66358187018 -299.677082414999 2675.78581946426 18 21 12
-1064.24118706529 -299.107702773325 2683.65706932769 18 21 12
-1077.84586961876 -300.261811993104 2690.57763376602 18 21 12
-1073.57030204684 -299.950564604968 2698.27864599485 18 21 12
-1074.55283135532 -300.070512532094 2705.74810531157 18 21 12
-1074.48003993067 -300.104109670492 2713.24927431272 19 22 13
-1056.47156437156 -298.666646451778 2721.33053458709 20 23 14
-1076.43641320543 -300.344206978775 2728.15488976289 19 22 13
-1094.31302490714 -301.851093711631 2735.12642501761 19 22 13
-1117.49590474937 -303.794335504786 2742.04107119235 16 22 12
-1115.32231152124 -303.657141446187 2749.6437732549 14 20 10
-1111.02603635514 -303.345874680604 2757.26884350149 13 19 9
-1106.72123188306 -303.034199122131 2764.86250419714 13 19 9
-1120.42527624602 -304.201590789764 2772.14359371747 13 18 11
-1157.47744736327 -307.287233323827 2779.17506698139 14 19 12
-1130.81992561297 -311.049203943617 2420.65007633812 32 29 20
-1073.31074580247 -306.289796800978 2443.93054916696 26 28 23
-1074.36876950806 -306.41627377217 2451.67525326456 26 28 23
-1055.83661041011 -304.894222946361 2461.76190376955 25 27 22
-1032.11707955948 -302.935133559692 2472.34824288845 23 26 19
-1054.81956226715 -304.88150568202 2477.47729233189 22 25 18
-1071.35168598538 -306.308875440729 2483.40445947791 21 24 15
-1097.20811221489 -308.521257488219 2488.38564814561 20 23 12
-1109.64810015586 -309.604505655273 2494.92298810498 19 22 13
-1087.93853653294 -307.812345128614 2505.0729816631 18 21 12
-1075.51972258397 -306.801951767841 2514.15447043477 17 20 11
-1086.92452464374 -307.797487930137 2520.80006526047 13 16 7
-1128.42649102473 -311.32828001778 2524.58918113445 16 19 10
-1102.50495951156 -309.179756176072 2534.91216314014 15 18 11
-1092.12725805164 -308.340182612339 2543.67048606817 14 17 10
-1122.27432226994 -310.915022712203 2548.76692504716 13 16 9
-1153.4999724213 -313.581381155317 2553.91384192335 11 14 7
-1117.10209051348 -310.548408104014 2564.86457406213 11 14 7
-1123.36033840124 -311.110297835458 2572.15926356541 11 14 7
-1158.81161774742 -314.133725958749 2577.18253875585 11 14 7
