ply
format ascii 1.0
comment KinectMotionCapture
element vertex 756
property float x
property float y
property float z
property uchar red
property uchar green
property uchar blue
end_header
-1201.19416713715 283.400326967239 2549.00002479553 122 124 121
-1194.21374797821 283.388406038284 2549.00002479553 124 126 123
-1188.16864490509 283.599644899368 2551.00011825562 122 124 121
-1180.72772026062 283.478200435638 2549.99995231628 127 129 126
-1175.59742927551 283.913373947144 2553.99990081787 132 134 131
-1170.44925689697 284.349381923676 2558.00008773804 133 135 132
-1166.64731502533 285.119593143463 2565.00005722046 134 136 133
-1160.0980758667 285.223573446274 2565.99998474121 134 136 133
-1153.54657173157 285.328328609467 2566.99991226196 130 132 129
-1147.43995666504 285.545021295547 2569.00000572205 127 129 126
-1141.76952838898 285.873591899872 2572.00002670288 126 128 125
-1136.5270614624 286.314010620117 2575.99997520447 129 131 128
-1133.4582567215 287.310928106308 2585.00003814697 135 137 134
-1130.77926635742 288.419634103775 2595.00002861023 138 140 137
-1128.04853916168 289.529025554657 2605.00001907349 136 138 135
-1122.68435955048 289.972245693207 2608.99996757507 131 133 130
-1117.72882938385 290.527313947678 2614.00008201599 126 128 125
-1112.74862289429 291.083008050919 2618.99995803833 132 134 131
-1108.16597938538 291.750550270081 2625 134 136 133
-1103.97267341614 292.529910802841 2631.99996948242 134 136 133
-1100.1603603363 293.421030044556 2640.00010490417 134 136 133
-1097.1348285675 294.535100460052 2650.00009536743 134 136 133
-1092.00084209442 295.094072818756 2654.99997138977 126 126 124
-1085.61599254608 295.320272445679 2657.00006484985 123 123 121
-1079.62834835052 295.658200979233 2660.00008583069 119 119 117
-1075.23882389069 296.441346406937 2667.00005531311 125 125 123
-1074.41747188568 298.225492238998 2683.00008773804 124 124 122
-1076.2951374054 300.788372755051 2706.00008964539 119 121 118
-1076.0749578476 302.79615521431 2723.99997711182 118 120 117
-1076.54333114624 305.026888847351 2743.99995803833 123 125 122
-1074.17786121368 306.480169296265 2756.99996948242 120 122 119
-1070.96946239471 307.711750268936 2767.99988746643 77 79 76
-1065.01364707947 308.165729045868 2772.0000743866 82 84 81
-1057.51156806946 308.175593614578 2772.0000743866 84 85 80
-1051.14710330963 308.51948261261 2775.00009536743 113 114 109
-1044.01528835297 308.641523122787 2776.00002288818 111 112 107
-1037.25290298462 308.875292539597 2778.00011634827 117 118 113
-1030.48038482666 309.109479188919 2779.99997138977 117 118 113
-1024.06620979309 309.455424547195 2782.99999237061 111 112 107
-1017.27151870728 309.690684080124 2785.00008583069 75 76 71
-1011.91687583923 310.37113070488 2790.99988937378 98 99 94
-1006.53064250946 311.052143573761 2796.99993133545 167 168 163
-1003.61299514771 312.512159347534 2809.99994277954 145 146 141
-1439.23318386078 269.14456486702 2470.00002861023 204 206 203
-1431.03921413422 268.872618675232 2467.99993515015 170 172 169
-1428.6367893219 269.691407680511 2476.0000705719 182 184 181
-1421.03099822998 269.531071186066 2474.99990463257 175 177 174
-1414.58380222321 269.589960575104 2476.0000705719 159 161 158
-1405.29727935791 269.105732440948 2471.99988365173 139 141 138
-1400.56824684143 269.493788480759 2476.0000705719 130 132 129
-1396.95143699646 270.100653171539 2482.00011253357 127 129 126
-1390.50936698914 270.164489746094 2483.00004005432 124 126 123
-1385.7421875 270.555943250656 2486.99998855591 122 124 121
-1379.85217571259 270.730972290039 2489.00008201599 119 121 118
-1377.82001495361 271.668404340744 2497.99990653992 121 123 120
-1374.09973144531 272.280603647232 2503.99994850159 121 123 120
-1370.89955806732 273.002505302429 2510.99991798401 122 124 121
-1367.66827106476 273.725420236588 2517.99988746643 111 113 110
-1364.94588851929 274.55797791481 2526.00002288818 103 105 102
-1361.64879798889 275.282829999924 2532.99999237061 94 96 93
-1358.8547706604 276.117265224457 2540.99988937378 92 94 91
-1355.49175739288 276.844024658203 2548.00009727478 86 88 85
-1351.56738758087 277.46307849884 2553.99990081787 58 58 56
-1345.51119804382 277.648538351059 2555.99999427795 76 77 72
-1337.88001537323 277.509331703186 2555.0000667572 81 82 77
-1327.1359205246 276.71954035759 2548.00009727478 87 86 81
-1316.95556640625 276.039600372314 2542.00005531311 97 96 91
-1306.81455135345 275.36079287529 2536.00001335144 96 97 92
-1299.27623271942 275.226086378098 2535.00008583069 99 100 95
-1291.74911975861 275.092363357544 2533.99991989136 109 109 107
-1285.24768352509 275.176793336868 2535.00008583069 111 113 110
-1278.24246883392 275.153666734695 2535.00008583069 117 117 115
-1270.23983001709 274.914443492889 2532.99999237061 115 115 113
-1262.75253295898 274.784773588181 2532.00006484985 116 116 114
-1255.77223300934 274.764567613602 2532.00006484985 122 122 120
-1248.79705905914 274.745285511017 2532.00006484985 149 149 147
-1238.88432979584 274.075955152512 2526.00002288818 163 163 161
-1231.9358587265 274.058550596237 2526.00002288818 140 140 138
-1226.447224617 274.36751127243 2529.00004386902 123 123 121
-1222.39351272583 275.002807378769 2535.00008583069 111 111 109
-1217.35239028931 275.421917438507 2539.00003433228 120 120 118
-1213.24753761292 276.058822870255 2545.00007629395 120 120 118
-1207.69226551056 276.371091604233 2548.00009727478 120 122 119
-1201.1821269989 276.467263698578 2549.00002479553 124 126 123
-1194.2024230957 276.455789804459 2549.00002479553 126 128 125
-1187.69240379334 276.553571224213 2549.99995231628 124 126 123
-1180.71794509888 276.543736457825 2549.99995231628 129 131 128
-1176.04887485504 277.076900005341 2555.0000667572 134 136 133
-1170.44115066528 277.393937110901 2558.00008773804 133 135 132
-1164.82055187225 277.711719274521 2561.00010871887 133 135 132
-1158.28311443329 277.813374996185 2562.00003623962 132 134 131
-1153.09143066406 278.241097927094 2565.99998474121 129 131 128
-1147.88138866425 278.669476509094 2569.9999332428 127 129 126
-1141.76523685455 278.881758451462 2572.00002670288 124 126 123
-1136.52336597443 279.31159734726 2575.99997520447 128 130 127
-1133.01682472229 280.175864696503 2584.00011062622 134 136 133
-1130.34117221832 281.257629394531 2594.00010108948 137 139 136
-1128.04698944092 282.448470592499 2605.00001907349 138 140 137
-1121.82295322418 282.664209604263 2607.00011253357 134 136 133
-1116.44566059113 283.097386360168 2611.00006103516 130 132 129
-1109.77494716644 283.205986022949 2611.99998855591 128 130 127
-1107.32269287109 284.399479627609 2622.99990653992 131 133 130
-1103.55484485626 285.268366336823 2631.00004196167 136 138 135
-1100.16274452209 286.246329545975 2640.00010490417 134 136 133
-1096.30990028381 287.116467952728 2648.00000190735 131 133 130
-1091.59326553345 287.770360708237 2654.00004386902 127 127 125
-1086.43734455109 288.316458463669 2658.99991989136 124 124 122
-1080.85083961487 288.754761219025 2663.00010681152 120 120 118
-1077.26001739502 289.73576426506 2671.99993133545 125 125 123
-1077.62706279755 291.801780462265 2690.99998474121 127 127 125
-1080.67691326141 294.627517461777 2717.00000762939 117 119 116
-1080.0324678421 296.477973461151 2733.99996757507 115 117 114
-1078.90522480011 298.220604658127 2750 124 126 123
-1075.355052948 299.31315779686 2759.99999046326 122 124 121
-1070.97840309143 300.189465284348 2767.99988746643 84 86 83
-1065.02318382263 300.632536411285 2772.0000743866 79 81 78
-1057.52158164978 300.642281770706 2772.0000743866 84 85 80
-1050.77886581421 300.869464874268 2773.9999294281 110 111 106
-1044.02637481689 301.097184419632 2776.00002288818 107 108 103
-1036.89086437225 301.216900348663 2776.99995040894 112 113 108
-1030.4924249649 301.554024219513 2779.99997138977 114 115 110
-1024.44672584534 302.000164985657 2783.99991989136 106 107 102
-1017.28439331055 302.121341228485 2785.00008583069 80 81 76
-1010.48004627228 302.351415157318 2786.99994087219 111 112 107
-1003.30579280853 302.473455667496 2788.00010681152 164 165 160
-998.984277248383 303.463906049728 2796.99993133545 148 149 144
-994.968950748444 304.563343524933 2806.99992179871 167 168 163
-1443.25768947601 263.131648302078 2476.99999809265 183 185 182
-1435.62531471252 262.972831726074 2476.0000705719 181 183 180
-1428.58552932739 262.921631336212 2476.0000705719 182 184 181
-1418.11048984528 262.234687805176 2470.00002861023 167 169 166
-1412.82117366791 262.504637241364 2473.00004959106 157 159 156
-1404.68156337738 262.245148420334 2470.99995613098 141 143 140
-1401.65340900421 262.941956520081 2477.9999256134 134 136 133
-1396.34358882904 263.21542263031 2480.99994659424 125 127 124
-1391.5855884552 263.59611749649 2484.99989509583 123 125 122
-1388.48555088043 264.296114444733 2492.00010299683 118 120 117
-1383.69131088257 264.67889547348 2496.00005149841 114 116 113
-1381.08932971954 265.486925840378 2503.99994850159 114 116 113
-1376.25563144684 265.871822834015 2507.99989700317 113 115 112
-1372.49934673309 266.469746828079 2513.99993896484 116 118 115
-1368.71755123138 267.068654298782 2519.99998092651 109 111 108
-1367.0711517334 268.092423677444 2529.99997138977 104 106 103
-1366.98925495148 269.434928894043 2542.99998283386 95 97 94
-1364.16876316071 270.248532295227 2551.00011825562 86 88 85
-1359.18247699738 270.639270544052 2555.0000667572 61 63 60
-1351.53555870056 270.501494407654 2553.99990081787 59 59 57
-1344.95425224304 270.576685667038 2555.0000667572 76 77 72
-1338.37413787842 270.652860403061 2555.99999427795 83 84 79
-1329.19073104858 270.200699567795 2552.00004577637 91 90 85
-1316.92814826965 269.11449432373 2542.00005531311 97 96 91
-1305.75776100159 268.241226673126 2533.99991989136 106 107 102
-1297.71339893341 268.004208803177 2532.00006484985 110 111 106
-1291.72492027283 268.191576004028 2533.99991989136 119 119 117
-1285.73131561279 268.379896879196 2536.00001335144 124 126 123
-1279.22856807709 268.463343381882 2536.99994087219 131 131 129
-1270.21849155426 268.018662929535 2532.99999237061 140 140 138
-1262.73202896118 267.892390489578 2532.00006484985 158 158 156
-1253.27289104462 267.343878746033 2526.99995040894 169 169 167
-1246.31249904633 267.325341701508 2526.99995040894 157 157 155
-1236.41455173492 266.672968864441 2520.99990844727 137 137 135
-1231.43172264099 267.07935333252 2525.00009536743 122 122 120
-1225.94666481018 267.380744218826 2528.00011634827 122 122 120
-1221.89617156982 268.000245094299 2533.99991989136 124 124 122
-1216.37940406799 268.303275108337 2536.99994087219 120 120 118
-1210.373878479 268.501371145248 2539.00003433228 123 123 121
-1204.36191558838 268.700271844864 2540.99988937378 124 126 123
-1198.81427288055 269.005715847015 2543.99991035461 126 128 125
-1192.31760501862 269.100457429886 2545.00007629395 130 132 129
-1185.81938743591 269.196003675461 2546.0000038147 131 133 130
-1179.31973934174 269.292294979095 2546.99993133545 136 138 135
-1174.65949058533 269.812285900116 2552.00004577637 138 140 137
-1169.06070709229 270.121544599533 2555.0000667572 132 134 131
-1164.35861587524 270.642936229706 2559.99994277954 132 134 131
-1158.27667713165 270.847946405411 2562.00003623962 131 133 130
-1153.08582782745 271.265089511871 2565.99998474121 130 132 129
-1147.87662029266 271.682918071747 2569.9999332428 129 131 128
-1142.20488071442 271.995723247528 2572.99995422363 129 131 128
-1137.40241527557 272.520691156387 2578.00006866455 131 133 130
-1132.57563114166 273.046284914017 2582.99994468689 132 134 131
-1129.46760654449 273.995369672775 2592.00000762939 135 137 134
-1127.17950344086 275.156557559967 2602.9999256134 140 142 139
-1121.39177322388 275.472730398178 2605.99994659424 138 140 137
-1116.44566059113 276.0009765625 2611.00006103516 137 139 136
-1109.77554321289 276.107013225555 2611.99998855591 131 133 130
-1106.90188407898 277.165055274963 2621.99997901917 132 134 131
-1102.71787643433 277.906566858292 2628.99994850159 137 139 136
-1100.16512870789 279.071599245071 2640.00010490417 135 137 134
-1095.48485279083 279.708623886108 2645.99990844727 134 134 132
-1092.41950511932 280.769199132919 2655.99989891052 127 127 125
-1086.85028553009 281.196027994156 2660.00008583069 124 124 122
-1082.07321166992 281.834930181503 2665.99988937378 119 119 117
-1077.26550102234 282.474398612976 2671.99993133545 124 124 122
-1077.63314247131 284.488797187805 2690.99998474121 128 128 126
-1080.68370819092 287.243843078613 2717.00000762939 118 120 117
-1080.03973960876 289.048075675964 2733.99996757507 115 117 114
-1077.7360200882 290.430009365082 2746.99997901917 128 130 127
-1075.36363601685 291.812598705292 2759.99999046326 127 129 126
-1072.53515720367 293.090015649796 2772.0000743866 91 93 90
-1066.56956672668 293.522119522095 2776.00002288818 67 69 66
-1058.67612361908 293.426066637039 2775.00009536743 83 84 79
-1051.54693126678 293.541967868805 2776.00002288818 103 104 99
-1044.7895526886 293.764114379883 2778.00011634827 102 103 98
-1037.27579116821 293.775290250778 2778.00011634827 112 113 108
-1030.87496757507 294.104099273682 2780.99989891052 115 116 111
-1024.45912361145 294.433444738388 2783.99991989136 114 115 110
-1017.66240596771 294.657498598099 2786.00001335144 80 81 76
-1010.49327850342 294.776201248169 2786.99994087219 105 106 101
-1002.59983539581 294.683784246445 2786.00001335144 158 159 154
-997.926890850067 295.543819665909 2793.99991035461 142 143 138
-994.274616241455 296.721637248993 2805.0000667572 171 172 167
-1447.86643981934 257.184743881226 2484.99989509583 171 173 170
-1440.79232215881 257.133513689041 2484.99989509583 174 176 173
-1432.57427215576 256.876736879349 2483.00004005432 188 190 187
-1418.06209087372 255.483478307724 2470.00002861023 172 174 171
-1411.05997562408 255.436420440674 2470.00002861023 159 161 158
-1404.63554859161 255.494028329849 2470.99995613098 137 139 136
-1401.60882472992 256.173133850098 2477.9999256134 130 132 129
-1396.86286449432 256.543129682541 2482.00011253357 127 129 126
-1392.66324043274 257.017523050308 2486.99998855591 126 128 125
-1389.00148868561 257.596284151077 2493.00003051758 121 123 120
-1386.97719573975 258.485972881317 2502.00009346008 115 117 114
-1382.70473480225 258.963406085968 2506.99996948242 112 114 111
-1378.41272354126 259.441822767258 2512.00008392334 109 111 108
-1373.55422973633 259.81792807579 2516.00003242493 114 116 113
-1371.39737606049 260.711371898651 2525.00009536743 108 110 107
-1371.35899066925 262.018620967865 2538.00010681152 104 106 103
-1372.33078479767 263.533085584641 2552.99997329712 90 92 89
-1369.48311328888 264.325767755508 2561.00010871887 77 79 76
-1361.81044578552 264.190524816513 2559.99994277954 55 57 54
-1351.50480270386 263.540506362915 2553.99990081787 68 68 66
-1343.34540367126 263.304382562637 2552.00004577637 82 83 78
-1336.77434921265 263.378798961639 2552.99997329712 85 86 81
-1329.1631937027 263.247966766357 2552.00004577637 98 97 92
-1318.45581531525 262.499302625656 2545.00007629395 101 100 95
-1307.27815628052 261.648625135422 2536.99994087219 109 110 105
-1299.73900318146 261.520981788635 2536.00001335144 110 111 106
-1292.2111749649 261.39435172081 2535.00008583069 115 115 113
-1286.21578216553 261.577934026718 2536.99994087219 126 128 125
-1278.70285511017 261.453241109848 2536.00001335144 145 145 143
-1269.19496059418 260.917067527771 2530.99989891052 160 160 158
-1261.21640205383 260.691165924072 2529.00004386902 165 165 163
-1251.76632404327 260.15692949295 2523.9999294281 162 162 160
-1244.81511116028 260.139048099518 2523.9999294281 148 148 146
-1236.39762401581 259.812831878662 2520.99990844727 131 131 129
-1230.4402589798 260.002791881561 2523.00000190735 135 135 133
-1225.44646263123 260.399699211121 2526.99995040894 139 139 137
-1219.95317935944 260.694324970245 2529.99997138977 132 132 130
-1213.96863460541 260.886698961258 2532.00006484985 133 133 131
-1207.50093460083 260.976850986481 2532.99999237061 130 130 128
-1202.45409011841 261.376857757568 2536.99994087219 128 130 127
-1197.38936424255 261.777639389038 2540.99988937378 129 131 128
-1192.30711460114 262.17919588089 2545.00007629395 133 135 132
-1185.80985069275 262.272417545319 2546.0000038147 136 138 135
-1179.77404594421 262.469440698624 2548.00009727478 140 142 139
-1174.65150356293 262.87317276001 2552.00004577637 141 143 140
-1169.51084136963 263.277649879456 2555.99999427795 135 137 134
-1165.26174545288 263.88880610466 2562.00003623962 134 136 133
-1159.17491912842 264.088660478592 2563.99989128113 131 133 130
-1153.080701828 264.289230108261 2565.99998474121 129 131 128
-1148.31876754761 264.799475669861 2571.00009918213 128 130 127
-1142.64500141144 265.104413032532 2573.99988174438 133 135 132
-1138.28158378601 265.718996524811 2579.99992370605 133 135 132
-1133.45003128052 266.231238842011 2585.00003814697 132 134 131
-1129.46581840515 266.950130462646 2592.00000762939 134 136 133
-1126.74534320831 267.978608608246 2601.99999809265 140 142 139
-1120.10025978088 268.080800771713 2602.9999256134 139 141 138
-1115.16308784485 268.595606088638 2608.00004005432 136 138 135
-1107.65194892883 268.493115901947 2607.00011253357 134 136 133
-1104.37023639679 269.421070814133 2615.9999370575 133 135 132
-1101.04203224182 270.349681377411 2625 136 138 135
-1098.91760349274 271.587878465652 2637.00008392334 137 139 136
-1095.07405757904 272.414714097977 2644.99998092651 139 139 137
-1091.6006565094 273.345142602921 2654.00004386902 129 129 127
-1087.26322650909 274.070143699646 2661.00001335144 125 125 123
-1082.0779800415 274.589747190475 2665.99988937378 117 117 115
-1077.27098464966 275.212913751602 2671.99993133545 121 121 119
-1077.23867893219 277.072697877884 2690.00005722046 130 130 128
-1079.09941673279 279.448091983795 2713.00005912781 132 134 131
-1079.25689220428 281.412065029144 2732.00011253357 124 126 123
-1076.95925235748 282.758623361588 2744.99988555908 131 133 130
-1076.15113258362 284.517854452133 2762.00008392334 132 134 131
-1074.09167289734 285.968631505966 2776.00002288818 102 104 101
-1068.11583042145 286.389768123627 2779.99997138977 66 68 65
-1060.21201610565 286.296397447586 2779.00004386902 83 84 79
-1052.69372463226 286.306470632553 2779.00004386902 96 97 92
-1045.92859745026 286.523044109344 2780.99989891052 101 102 97
-1038.40708732605 286.534041166306 2780.99989891052 110 111 106
-1031.25762939453 286.648571491241 2782.00006484985 109 110 105
-1024.10340309143 286.763489246368 2782.99999237061 91 92 87
-1016.57927036285 286.775827407837 2782.99999237061 79 80 75
-1009.78124141693 286.99466586113 2785.00008583069 101 102 97
-1001.89340114594 286.904752254486 2783.99991989136 148 149 144
-996.512174606323 287.536710500717 2789.99996185303 157 158 153
-992.16216802597 288.478225469589 2799.00002479553 145 146 141
-989.523112773895 289.935618638992 2812.99996376038 175 174 172
-1446.70188426971 249.028861522675 2470.99995613098 178 180 177
-1447.81529903412 250.38880109787 2484.99989509583 171 173 170
-1440.1627779007 250.238358974457 2483.99996757507 191 193 190
-1430.79507350922 249.787107110024 2480.00001907349 193 195 192
-1418.01512241364 248.733013868332 2470.00002861023 169 171 168
-1411.58545017242 248.788058757782 2470.99995613098 151 153 150
-1405.72798252106 248.944982886314 2473.00004959106 134 136 133
-1402.13108062744 249.505639076233 2479.00009155273 131 133 130
-1397.38345146179 249.865993857384 2483.00004005432 122 127 121
-1393.74196529388 250.428646802902 2489.00008201599 120 125 119
-1389.5183801651 250.891655683517 2493.99995803833 120 122 117
-1388.60130310059 251.959204673767 2505.00011444092 117 119 114
-1383.21816921234 252.222955226898 2507.99989700317 110 112 107
-1378.37564945221 252.588361501694 2512.00008392334 115 117 112
-1374.06432628632 253.055244684219 2516.99995994568 112 113 108
-1372.44856357574 254.025757312775 2526.99995040894 92 93 88
-1373.48639965057 255.499660968781 2542.00005531311 96 97 92
-1373.91018867493 256.873697042465 2555.99999427795 91 92 87
-1372.65944480896 257.94705748558 2566.99991226196 57 58 53
-1363.90721797943 257.614552974701 2563.99989128113 42 44 39
-1352.00417041779 256.680458784103 2555.0000667572 73 74 69
-1342.26381778717 256.149351596832 2549.99995231628 100 99 95
-1334.12873744965 255.920708179474 2548.00009727478 106 105 101
-1327.05307006836 255.89394569397 2548.00009727478 122 121 117
-1318.43018531799 255.566954612732 2545.00007629395 115 114 110
-1309.82995033264 255.240947008133 2542.00005531311 123 122 118
-1302.27768421173 255.116760730743 2540.99988937378 128 127 123
-1294.22760009766 254.893213510513 2539.00003433228 140 141 136
-1286.19396686554 254.670590162277 2536.99994087219 150 152 147
-1276.66521072388 254.147827625275 2532.00006484985 164 164 162
-1267.16935634613 253.626018762589 2526.99995040894 162 162 160
-1257.2078704834 253.004819154739 2520.99990844727 155 155 153
-1247.78079986572 252.484947443008 2516.00003242493 152 152 150
-1241.83893203735 252.668410539627 2517.99988746643 141 141 139
-1236.38129234314 252.95302271843 2520.99990844727 137 137 135
-1230.91244697571 253.238469362259 2523.9999294281 139 139 137
-1226.88663005829 253.825664520264 2529.99997138977 137 137 135
-1219.45714950562 253.711372613907 2529.00004386902 131 131 129
-1212.9967212677 253.798514604568 2529.99997138977 130 130 128
-1206.05862140656 253.786146640778 2529.99997138977 127 127 125
-1201.96866989136 254.376381635666 2536.00001335144 126 126 124
-1195.49381732941 254.465818405151 2536.99994087219 128 128 126
-1189.01789188385 254.556059837341 2538.00010681152 135 135 133
-1182.54029750824 254.646986722946 2539.00003433228 140 140 138
-1176.98740959167 254.939258098602 2542.00005531311 142 142 140
-1171.42176628113 255.232214927673 2545.00007629395 142 142 140
-1167.21618175507 255.826771259308 2551.00011825562 134 134 132
-1164.80052471161 256.823092699051 2561.00010871887 133 133 131
-1158.71739387512 257.017821073532 2562.99996376038 131 131 129
-1152.62651443481 257.213264703751 2565.00005722046 130 130 128
-1146.52788639069 257.409334182739 2566.99991226196 130 130 128
-1142.19748973846 258.007198572159 2572.99995422363 133 134 129
-1136.95514202118 258.405148983002 2576.99990272522 134 135 130
-1132.57074356079 259.004294872284 2582.99994468689 136 137 132
-1128.59261035919 259.704321622849 2589.99991416931 137 138 133
-1125.44512748718 260.605543851852 2598.99997711182 139 140 135
-1119.66955661774 260.905742645264 2601.99999809265 139 140 135
-1116.01841449738 261.707901954651 2609.99989509583 138 139 134
-1108.50238800049 261.608272790909 2608.99996757507 134 135 130
-1103.52730751038 262.110829353333 2614.00008201599 134 135 130
-1099.78568553925 262.914836406708 2621.99997901917 137 138 133
-1098.50335121155 264.320999383926 2635.99991798401 138 139 134
-1095.90542316437 265.427023172379 2647.0000743866 135 137 134
-1092.42701530457 266.332983970642 2655.99989891052 129 131 128
-1087.6761674881 266.938745975494 2661.99994087219 123 125 122
-1082.48889446259 267.444789409637 2667.00005531311 121 123 120
-1076.87330245972 267.851114273071 2671.0000038147 122 124 121
-1076.84421539307 269.661903381348 2688.99989128113 130 132 129
-1077.51488685608 271.673917770386 2709.00011062622 127 129 126
-1078.07898521423 273.686558008194 2729.00009155273 124 126 123
-1075.39749145508 274.897426366806 2740.9999370575 130 132 129
-1075.38020610809 276.81091427803 2759.99999046326 134 136 133
-1073.71354103088 278.323858976364 2775.00009536743 124 126 123
-1069.66185569763 279.235571622849 2783.99991989136 61 63 60
-1062.12937831879 279.245048761368 2783.99991989136 90 92 87
-1053.46155166626 278.954118490219 2780.99989891052 91 93 88
-1045.56334018707 278.864234685898 2779.99997138977 102 104 99
-1038.04492950439 278.875052928925 2779.99997138977 105 107 102
-1031.63981437683 279.187321662903 2782.99999237061 99 101 96
-1024.48332309723 279.299378395081 2783.99991989136 94 95 90
-1016.59178733826 279.211193323135 2782.99999237061 80 81 76
-1008.70633125305 279.123425483704 2782.00006484985 95 96 91
-1002.26664543152 279.437363147736 2785.00008583069 141 142 137
-996.882915496826 280.052751302719 2790.99988937378 148 149 144
-993.239760398865 281.170338392258 2802.00004577637 137 138 133
-988.834202289581 282.087653875351 2811.00010871887 141 141 139
-1446.06590270996 242.172330617905 2470.00002861023 189 191 188
-1442.52240657806 242.711335420609 2476.0000705719 192 194 191
-1438.37511539459 243.153348565102 2480.99994659424 186 188 185
-1428.44033241272 242.616578936577 2476.0000705719 178 180 177
-1417.96958446503 241.983249783516 2470.00002861023 152 154 151
-1410.39884090424 241.841092705727 2469.00010108948 146 148 145
-1404.54804897308 241.993933916092 2470.99995613098 133 135 132
-1399.26099777222 242.245823144913 2473.99997711182 125 127 124
-1394.52850818634 242.596641182899 2477.9999256134 121 126 120
-1392.02225208282 243.340030312538 2486.00006103516 122 124 119
-1388.92257213593 243.986457586288 2493.00003051758 121 123 118
-1388.56339454651 245.12305855751 2505.00011444092 118 120 115
-1381.52706623077 245.086327195168 2505.00011444092 110 112 107
-1379.43720817566 245.931103825569 2513.99993896484 104 106 101
-1377.30503082275 246.776729822159 2523.00000190735 107 108 103
-1378.38923931122 248.209998011589 2538.00010681152 79 80 75
-1378.31616401672 249.448344111443 2551.00011825562 88 89 84
-1376.02829933167 250.296324491501 2559.99994277954 72 73 68
-1373.16310405731 251.047372817993 2568.00007820129 102 103 98
-1365.47303199768 250.919550657272 2566.99991226196 36 41 35
-1355.15022277832 250.304132699966 2561.00010871887 53 55 50
-1345.92056274414 249.885231256485 2556.99992179871 101 102 97
-1334.10203456879 248.978853225708 2548.00009727478 110 111 106
-1324.94413852692 248.562172055244 2543.99991035461 116 115 111
-1315.81521034241 248.146548867226 2539.99996185303 120 119 115
-1308.77542495728 248.122647404671 2539.99996185303 127 126 122
-1300.20499229431 247.806668281555 2536.99994087219 141 140 136
-1290.63761234283 247.296363115311 2532.00006484985 158 159 154
-1280.59661388397 246.689319610596 2526.00002288818 160 161 156
-1272.1072435379 246.376261115074 2523.00000190735 161 161 159
-1263.13865184784 245.966508984566 2519.00005340576 156 156 154
-1255.19478321075 245.752885937691 2516.99995994568 149 149 147
-1247.76363372803 245.637819170952 2516.00003242493 149 149 147
-1241.82224273682 245.816439390183 2517.99988746643 143 143 141
-1236.85622215271 246.191158890724 2522.0000743866 139 139 137
-1231.38511180878 246.468961238861 2525.00009536743 140 140 138
-1226.87232494354 246.942758560181 2529.99997138977 138 138 136
-1218.47939491272 246.636524796486 2526.99995040894 133 133 131
-1212.50474452972 246.819078922272 2529.00004386902 132 132 130
-1207.00025558472 247.099936008453 2532.00006484985 134 134 132
-1202.90565490723 247.674331068993 2538.00010681152 144 144 142
-1195.48368453979 247.566312551498 2536.99994087219 144 144 142
-1188.53974342346 247.556611895561 2536.99994087219 147 147 145
-1182.06584453583 247.645273804665 2538.00010681152 148 148 146
-1176.51617527008 247.929736971855 2540.99988937378 143 143 141
-1170.95398902893 248.214915394783 2543.99991035461 141 141 139
-1167.20950603485 248.891055583954 2551.00011825562 131 131 129
-1164.3397808075 249.762937426567 2559.99994277954 133 133 131
-1159.16407108307 250.147670507431 2563.99989128113 134 134 132
-1153.52034568787 250.435471534729 2566.99991226196 133 133 131
-1147.86398410797 250.723987817764 2569.9999332428 132 132 130
-1141.75033569336 250.91552734375 2572.00002670288 137 138 133
-1135.18762588501 251.010149717331 2572.99995422363 136 137 132
-1131.69181346893 251.788318157196 2581.00008964539 135 136 131
-1127.28381156921 252.371937036514 2586.99989318848 135 136 131
-1124.57823753357 253.34644317627 2596.99988365173 139 140 135
-1118.80874633789 253.638654947281 2599.99990463257 140 141 136
-1114.73608016968 254.321664571762 2607.00011253357 137 138 133
-1108.07847976685 254.419922828674 2608.00004005432 134 135 130
-1102.68461704254 254.811465740204 2611.99998855591 134 135 130
-1099.36845302582 255.691349506378 2621.00005149841 137 138 133
-1097.67270088196 256.9620013237 2634.0000629425 138 139 134
-1095.90864181519 258.233249187469 2647.0000743866 142 144 141
-1092.01955795288 259.017288684845 2654.99997138977 137 139 136
-1088.0891084671 259.801894426346 2663.00010681152 131 133 130
-1082.49378204346 260.196775197983 2667.00005531311 118 120 117
-1077.28183269501 260.68976521492 2671.99993133545 116 118 115
-1076.04944705963 262.158989906311 2687.00003623962 128 130 127
-1076.72595977783 264.116585254669 2707.00001716614 130 132 129
-1078.08601856232 266.269892454147 2729.00009155273 131 133 130
-1076.58219337463 267.740815877914 2743.99995803833 136 138 135
-1075.38843154907 269.309908151627 2759.99999046326 129 131 128
-1074.88310337067 271.074742078781 2778.00011634827 122 124 121
-1070.05548477173 271.766692399979 2785.00008583069 57 59 56
-1063.28356266022 271.971225738525 2786.99994087219 76 78 73
-1053.85053157806 271.493136882782 2782.00006484985 92 94 89
-1045.94993591309 271.405816078186 2780.99989891052 90 92 87
-1038.05601596832 271.318942308426 2779.99997138977 94 96 91
-1031.65113925934 271.622836589813 2782.99999237061 101 103 98
-1024.49524402618 271.732002496719 2783.99991989136 88 89 84
-1015.50805568695 271.353513002396 2779.99997138977 80 81 76
-1007.26866722107 271.170616149902 2778.00011634827 100 101 96
-1000.12040138245 271.280944347382 2779.00004386902 135 136 131
-996.182084083557 272.270262241364 2789.00003433228 142 143 138
-992.190182209015 273.260027170181 2799.00002479553 146 147 142
-988.144934177399 274.250239133835 2809.00001525879 152 152 150
-1441.91884994507 234.750106930733 2463.00005912781 190 192 189
-1440.14406204224 235.560238361359 2471.99988365173 194 196 193
-1434.27038192749 235.704377293587 2473.99997711182 181 183 180
-1425.51028728485 235.373333096504 2470.99995613098 182 184 181
-1416.77749156952 235.04364490509 2467.99993515015 165 167 164
-1409.78455543518 235.00083386898 2467.99993515015 149 151 148
-1404.50632572174 235.244810581207 2470.99995613098 132 134 131
-1400.91705322266 235.775396227837 2476.99999809265 131 133 130
-1397.86529541016 236.402049660683 2483.99996757507 122 127 121
-1395.90299129486 237.219929695129 2493.00003051758 122 124 119
-1393.34177970886 237.943530082703 2500.99992752075 121 123 118
-1391.2980556488 238.763093948364 2509.99999046326 119 121 116
-1384.24873352051 238.72746527195 2509.99999046326 108 110 105
-1381.59739971161 239.453688263893 2517.99988746643 103 105 100
-1381.09242916107 240.561082959175 2529.99997138977 113 115 110
-1382.70103931427 242.049515247345 2546.0000038147 84 85 80
-1383.14700126648 243.348434567451 2559.99994277954 79 80 75
-1379.22215461731 243.887692689896 2565.99998474121 119 120 115
-1375.27179718018 244.42782998085 2572.00002670288 206 208 203
-1366.50788784027 244.113638997078 2569.00000572205 61 66 60
-1357.76782035828 243.800491094589 2565.99998474121 54 56 51
-1348.52540493011 243.393421173096 2562.00003623962 82 83 78
-1335.64674854279 242.32243001461 2551.00011825562 97 98 93
-1325.96075534821 241.822496056557 2546.0000038147 112 111 107
-1314.23711776733 240.943714976311 2536.99994087219 120 119 115
-1308.23743343353 241.110607981682 2539.00003433228 137 136 132
-1298.13301563263 240.518748760223 2532.99999237061 145 144 140
-1289.08705711365 240.117728710175 2529.00004386902 158 159 154
-1277.0277261734 239.148080348969 2519.00005340576 156 157 152
-1269.56689357758 239.033788442612 2517.99988746643 150 150 148
-1261.61599159241 238.825455307961 2516.00003242493 148 148 146
-1254.678606987 238.807797431946 2516.00003242493 146 146 144
-1248.24273586273 238.885909318924 2516.99995994568 147 147 145
-1242.29967594147 239.059701561928 2519.00005340576 142 142 140
-1235.86010932922 239.139348268509 2519.99998092651 139 139 137
-1230.39555549622 239.409610629082 2523.00000190735 138 138 136
-1225.40414333344 239.775478839874 2526.99995040894 136 136 134
-1218.46663951874 239.762544631958 2526.99995040894 133 133 131
-1212.0133638382 239.845275878906 2528.00011634827 133 133 131
-1206.98893070221 240.213334560394 2532.00006484985 139 139 137
-1202.89492607117 240.77183008194 2538.00010681152 147 147 145
-1195.47379016876 240.666970610619 2536.99994087219 147 147 145
-1187.59381771088 240.467980504036 2535.00008583069 147 147 145
-1180.19437789917 240.364551544189 2533.99991989136 146 146 144
-1176.50854587555 241.020679473877 2540.99988937378 140 140 138
-1170.94695568085 241.298019886017 2543.99991035461 137 137 135
-1165.83037376404 241.670906543732 2548.00009727478 133 133 131
-1161.6051197052 242.234095931053 2553.99990081787 135 135 133
-1157.35065937042 242.797955870628 2559.99994277954 135 135 133
-1153.06663513184 243.362411856651 2565.99998474121 133 133 131
-1146.9669342041 243.548169732094 2568.00007820129 131 131 129
-1141.30330085754 243.829369544983 2571.00009918213 138 139 134
-1135.18512248993 244.016319513321 2572.99995422363 136 137 132
-1131.25133514404 244.67808008194 2579.99992370605 133 134 129
-1125.97548961639 245.055958628654 2584.00011062622 133 134 129
-1121.97947502136 245.718896389008 2591.00008010864 137 138 133
-1117.08736419678 246.192753314972 2595.99995613098 139 140 135
-1113.8813495636 247.046530246735 2605.00001907349 137 138 133
-1107.22982883453 247.14221060276 2605.99994659424 134 135 130
-1102.68616676331 247.7126121521 2611.99998855591 133 134 129
-1098.53172302246 248.378410935402 2618.99995803833 135 136 131
-1098.09219837189 249.898329377174 2634.99999046326 135 136 131
-1097.56791591644 251.418799161911 2651.00002288818 138 140 137
-1094.07997131348 252.276003360748 2660.00008583069 137 139 136
-1088.09351921082 252.564638853073 2663.00010681152 133 135 132
-1081.28106594086 252.664148807526 2664.00003433228 119 121 118
-1076.48098468781 253.238379955292 2670.00007629395 115 117 114
-1074.45347309113 254.477083683014 2683.00008773804 127 129 126
-1075.53923130035 256.475120782852 2703.9999961853 134 136 133
-1076.90799236298 258.568614721298 2726.0000705719 132 134 131
-1075.80518722534 260.093539953232 2742.00010299683 130 132 129
-1073.83787631989 261.429280042648 2756.00004196167 130 132 129
-1074.11789894104 263.334810733795 2776.00002288818 107 109 106
-1070.44875621796 264.2922103405 2786.00001335144 38 40 37
-1064.43762779236 264.680951833725 2789.99996185303 71 73 68
-1055.37569522858 264.311134815216 2786.00001335144 90 92 87
-1046.71251773834 264.036655426025 2782.99999237061 85 87 82
-1038.81371021271 263.952344655991 2782.00006484985 93 95 90
-1032.77456760406 264.342814683914 2786.00001335144 100 102 97
-1026.71480178833 264.733701944351 2789.99996185303 81 82 77
-1016.98124408722 264.176100492477 2783.99991989136 78 79 74
-1007.28106498718 263.618886470795 2778.00011634827 100 101 96
-1000.13315677643 263.726234436035 2779.00004386902 129 130 125
-995.837986469269 264.593213796616 2788.00010681152 137 138 133
-992.203712463379 265.650421380997 2799.00002479553 149 150 145
-986.751675605774 266.233563423157 2805.0000667572 151 151 149
-1441.83945655823 226.950898766518 2450.99997520447 201 203 200
-1440.70076942444 227.829769253731 2460.99996566772 189 191 188
-1431.94198608398 227.506160736084 2457.99994468689 185 187 184
-1429.58760261536 228.201806545258 2466.00008010864 171 173 170
-1421.42844200134 227.973088622093 2463.99998664856 156 158 155
-1415.01247882843 228.023126721382 2464.99991416931 136 138 135
-1407.45830535889 227.889269590378 2463.99998664856 137 139 136
-1403.89740467072 228.403881192207 2470.00002861023 128 130 127
-1400.87759494781 229.011848568916 2476.99999809265 123 125 122
-1397.8271484375 229.620695114136 2483.99996757507 126 128 123
-1396.42548561096 230.507701635361 2493.99995803833 123 125 120
-1394.41931247711 231.303051114082 2503.00002098084 122 124 119
-1391.26253128052 231.914415955544 2509.99999046326 122 124 119
-1385.8687877655 232.15714097023 2513.00001144409 105 107 102
-1382.66110420227 232.770264148712 2519.99998092651 99 100 95
-1382.69746303558 233.938381075859 2532.99999237061 102 103 98
-1384.84132289886 235.476553440094 2549.99995231628 80 81 76
-1386.35754585266 236.92299425602 2565.99998474121 71 72 67
-1386.17956638336 238.093093037605 2578.9999961853 232 233 228
-1384.8671913147 239.079281687737 2589.99991416931 218 219 214
-1370.73504924774 237.851068377495 2576.99990272522 81 86 80
-1360.91554164886 237.362399697304 2572.00002670288 73 75 70
-1352.18369960785 237.059339880943 2569.00000572205 75 76 71
-1340.33381938934 236.20368540287 2559.99994277954 52 53 48
-1330.10292053223 235.625877976418 2553.99990081787 93 92 88
-1317.32201576233 234.587863087654 2542.99998283386 101 100 96
-1308.73036384583 234.288856387138 2539.99996185303 141 140 136
-1297.59931564331 233.529627323151 2532.00006484985 140 139 135
-1288.04743289948 233.048066496849 2526.99995040894 139 140 135
-1276.50117874146 232.198551297188 2517.99988746643 138 139 134
-1269.54829692841 232.179895043373 2517.99988746643 134 134 132
-1261.59811019897 231.977686285973 2516.00003242493 135 135 133
-1256.15775585175 232.237264513969 2519.00005340576 134 134 132
-1249.71437454224 232.313215732574 2519.99998092651 134 134 132
-1243.27051639557 232.389941811562 2520.99990844727 138 138 136
-1234.86483097076 232.098773121834 2517.99988746643 141 141 139
-1228.43110561371 232.177063822746 2519.00005340576 131 131 129
-1221.51172161102 232.163935899735 2519.00005340576 129 129 127
-1216.04359149933 232.428058981895 2522.0000743866 131 131 129
-1211.04288101196 232.784986495972 2526.00002288818 131 131 129
-1206.50136470795 233.234778046608 2530.99989891052 142 142 140
-1202.88491249084 233.869582414627 2538.00010681152 141 141 139
-1195.93560695648 233.859986066818 2538.00010681152 139 139 137
-1188.05348873138 233.666822314262 2536.00001335144 136 136 134
-1181.11789226532 233.658641576767 2536.00001335144 134 134 132
-1177.42729187012 234.296068549156 2542.99998283386 130 130 128
-1172.78146743774 234.749868512154 2548.00009727478 128 128 126
-1166.73946380615 234.927892684937 2549.99995231628 127 127 125
-1161.14497184753 235.198691487312 2552.99997329712 129 129 127
-1156.89384937286 235.746502876282 2559.00001525879 133 133 131
-1152.16386318207 236.202791333199 2563.99989128113 134 134 132
-1145.62344551086 236.291199922562 2565.00005722046 134 134 132
-1139.52469825745 236.472338438034 2566.99991226196 138 139 134
-1133.85927677155 236.746206879616 2569.9999332428 136 137 132
-1129.49585914612 237.297028303146 2575.99997520447 130 131 126
-1125.5384683609 237.94050514698 2582.99994468689 130 131 126
-1121.9789981842 238.676726818085 2591.00008010864 133 134 129
-1117.51770973206 239.229202270508 2596.99988365173 134 135 130
-1113.45446109772 239.874452352524 2604.00009155273 139 140 135
-1107.65588283539 240.151718258858 2607.00011253357 138 139 134
-1103.95431518555 240.890130400658 2615.00000953674 136 137 132
-1099.37286376953 241.444855928421 2621.00005149841 134 135 130
-1098.09494018555 242.737114429474 2634.99999046326 135 136 131
-1097.15735912323 244.122013449669 2650.00009536743 136 138 135
-1094.08390522003 245.046868920326 2660.00008583069 137 139 136
-1087.68939971924 245.235249400139 2661.99994087219 137 139 136
-1081.28607273102 245.424151420593 2664.00003433228 124 126 123
-1076.48646831512 245.982065796852 2670.00007629395 117 119 116
-1072.85749912262 246.816828846931 2678.99990081787 121 123 120
-1074.35238361359 248.849883675575 2700.99997520447 127 129 126
-1074.54454898834 250.607073307037 2720.00002861023 133 135 132
-1075.42026042938 252.549111843109 2740.9999370575 128 130 127
-1072.67701625824 253.662437200546 2753.00002098084 136 138 135
-1074.51319694519 255.882024765015 2776.99995040894 115 117 114
-1071.22611999512 256.904274225235 2788.00010681152 151 153 150
-1065.5916929245 257.374167442322 2792.99998283386 71 73 68
-1056.14328384399 256.922960281372 2788.00010681152 85 87 82
-1048.22719097137 256.840735673904 2786.99994087219 85 87 82
-1040.31789302826 256.758987903595 2786.00001335144 101 103 98
-1033.89775753021 257.046222686768 2789.00003433228 101 103 98
-1026.72624588013 257.149547338486 2789.99996185303 84 85 80
-1016.6277885437 256.515890359879 2782.99999237061 82 83 78
-1006.56795501709 255.882531404495 2776.00002288818 103 104 99
-997.986316680908 255.618214607239 2773.00000190735 125 126 121
-992.636203765869 256.183862686157 2779.00004386902 135 136 131
-986.899673938751 256.657749414444 2783.99991989136 151 152 147
-981.840372085571 257.316410541534 2790.99988937378 153 153 151
-978.48904132843 258.436471223831 2802.99997329712 170 170 168
-1446.49875164032 220.966562628746 2459.00011062622 198 200 197
-1437.72804737091 220.651507377625 2456.00008964539 193 195 192
-1427.81960964203 220.158040523529 2450.99997520447 186 188 185
-1423.74694347382 220.563977956772 2456.00008964539 168 170 167
-1417.92500019073 220.701515674591 2457.99994468689 156 158 155
-1415.54534435272 221.378713846207 2466.00008010864 137 139 136
-1409.1317653656 221.428468823433 2467.00000762939 132 134 131
-1407.26864337921 222.197189927101 2476.0000705719 126 128 125
-1401.97062492371 222.428366541862 2479.00009155273 127 129 126
-1400.60341358185 223.28844666481 2489.00008201599 125 127 122
-1397.50909805298 223.880246281624 2496.00005149841 123 125 120
-1394.94121074677 224.562540650368 2503.99994850159 122 124 119
-1392.33684539795 225.245669484138 2512.00008392334 124 126 121
-1389.14406299591 225.839912891388 2519.00005340576 107 108 103
-1386.46936416626 226.524665951729 2526.99995040894 102 103 98
-1383.21173191071 227.120563387871 2533.99991989136 100 101 96
-1382.63821601868 228.165358304977 2546.0000038147 89 90 85
-1382.00545310974 229.210868477821 2558.00008773804 73 72 68
-1395.82479000092 232.676073908806 2596.99988365173 212 211 207
-1373.36730957031 231.276646256447 2582.00001716614 78 85 78
-1363.00575733185 230.712935328484 2575.99997520447 73 78 72
-1351.63199901581 229.971155524254 2568.00007820129 83 85 80
-1341.8802022934 229.499071836472 2562.99996376038 63 65 60
-1332.16285705566 229.027956724167 2558.00008773804 64 65 60
-1321.44391536713 228.378802537918 2551.00011825562 80 79 75
-1313.34614753723 228.178188204765 2549.00002479553 118 117 113
-1302.19101905823 227.441415190697 2540.99988937378 132 131 127
-1290.0664806366 226.526603102684 2530.99989891052 137 138 133
-1279.01721000671 225.791797041893 2523.00000190735 137 138 133
-1270.53892612457 225.505322217941 2519.99998092651 139 139 137
-1264.08803462982 225.577607750893 2520.99990844727 139 139 137
-1258.13603401184 225.740134716034 2523.00000190735 141 141 139
-1249.69875812531 225.456103682518 2519.99998092651 143 143 141
-1242.26951599121 225.351795554161 2519.00005340576 145 145 143
-1233.37960243225 224.979877471924 2515.00010490417 146 146 144
-1227.44250297546 225.145444273949 2516.99995994568 129 129 127
-1221.01426124573 225.222259759903 2517.99988746643 128 128 126
-1215.0673866272 225.389271974564 2519.99998092651 130 130 128
-1210.07287502289 225.735828280449 2523.9999294281 128 128 126
-1205.53767681122 226.172477006912 2529.00004386902 139 139 137
-1202.87525653839 226.967513561249 2538.00010681152 140 140 138
-1196.39778137207 227.047771215439 2539.00003433228 138 138 136
-1188.98224830627 226.949840784073 2538.00010681152 132 132 130
-1181.57601356506 226.852580904961 2536.99994087219 131 131 129
-1178.34615707397 227.560728788376 2545.00007629395 127 127 125
-1173.69556427002 228.001236915588 2549.99995231628 126 126 124
-1167.19126701355 228.084728121758 2551.00011825562 123 123 121
-1160.23015975952 228.079423308373 2551.00011825562 125 125 123
-1154.17671203613 228.253573179245 2552.99997329712 130 130 128
-1149.91307258606 228.785932064056 2559.00001525879 132 132 130
-1143.3869600296 228.8718521595 2559.99994277954 133 133 131
-1138.19015026093 229.226559400558 2563.99989128113 138 139 134
-1133.85713100433 229.760676622391 2569.9999332428 136 137 132
-1129.05585765839 230.205953121185 2575.00004768372 131 132 127
-1126.40905380249 231.098771095276 2585.00003814697 130 131 126
-1121.97852134705 231.634572148323 2591.00008010864 132 133 128
-1117.94817447662 232.260301709175 2598.00004959106 133 134 129
-1113.88266086578 232.886582612991 2605.00001907349 138 139 134
-1108.50691795349 233.245208859444 2608.99996757507 138 139 134
-1105.64482212067 234.140738844872 2618.99995803833 136 137 132
-1099.79462623596 234.411016106606 2621.99997901917 135 136 131
-1098.51455688477 235.665261745453 2635.99991798401 137 138 133
-1095.91865539551 236.651808023453 2647.0000743866 137 139 136
-1092.85378456116 237.549483776093 2657.00006484985 137 139 136
-1088.10245990753 238.090068101883 2663.00010681152 137 139 136
-1081.69674873352 238.273471593857 2664.99996185303 127 129 126
-1078.1044960022 239.083275198936 2674.00002479553 120 122 119
-1074.46527481079 239.893570542336 2683.00008773804 124 126 123
-1075.15430450439 241.687923669815 2703.00006866455 130 132 129
-1074.55158233643 243.214577436447 2720.00002861023 138 140 137
-1075.42765140533 245.099440217018 2740.9999370575 129 131 128
-1072.68476486206 246.180042624474 2753.00002098084 124 126 123
-1073.74775409698 248.155415058136 2775.00009536743 136 138 135
-1073.54032993317 249.863028526306 2793.99991035461 145 147 144
-1067.50845909119 250.229775905609 2798.00009727478 68 70 65
-1057.66820907593 249.702572822571 2792.00005531311 78 80 75
-1048.61342906952 249.354600906372 2788.00010681152 83 85 80
-1041.82195663452 249.543681740761 2789.99996185303 100 102 97
-1035.39144992828 249.822571873665 2792.99998283386 99 101 96
-1027.47356891632 249.744102358818 2792.00005531311 87 88 83
-1017.73536205292 249.218702316284 2786.00001335144 83 84 79
-1007.30514526367 248.514696955681 2778.00011634827 100 101 96
-998.358488082886 248.168811202049 2773.9999294281 120 121 116
-990.505695343018 248.091652989388 2773.00000190735 131 132 127
-984.785735607147 248.551622033119 2778.00011634827 142 143 138
-979.039311408997 249.011963605881 2782.99999237061 136 136 134
-976.059079170227 250.188529491425 2796.0000038147 142 142 140
-1462.93413639069 215.681523084641 2474.99990463257 196 198 195
-1455.2766084671 215.548977255821 2473.99997711182 201 203 200
-1442.95227527618 214.720740914345 2464.99991416931 194 196 193
-1429.52430248261 213.719740509987 2453.9999961853 194 196 193
-1422.5457906723 213.678076863289 2453.9999961853 175 177 174
-1418.46084594727 214.072734117508 2459.00011062622 171 173 170
-1417.80149936676 214.990571141243 2470.00002861023 155 157 154
-1413.66231441498 215.386956930161 2474.99990463257 147 149 146
-1408.93578529358 215.697273612022 2479.00009155273 136 138 135
-1401.93367004395 215.660497546196 2479.00009155273 134 136 133
-1397.75395393372 216.059669852257 2483.99996757507 122 124 119
-1395.79439163208 216.80760383606 2493.00003051758 119 121 116
-1395.46418190002 217.817097902298 2505.00011444092 116 117 112
-1393.96619796753 218.653425574303 2515.00010490417 115 116 111
-1391.86906814575 219.403564929962 2523.9999294281 129 130 125
-1388.08381557465 219.89369392395 2529.99997138977 113 114 109
-1384.81867313385 220.471560955048 2536.99994087219 105 104 100
-1381.52241706848 221.050232648849 2543.99991035461 79 78 74
-1379.81534004211 221.890315413475 2553.99990081787 62 61 57
-1371.74534797668 223.980620503426 2578.9999961853 131 141 133
-1361.92202568054 223.521023988724 2573.99988174438 71 78 71
-1350.55506229401 222.801983356476 2565.99998474121 97 99 94
-1341.85671806335 222.518026828766 2562.99996376038 86 88 83
-1331.6193819046 221.974551677704 2556.99992179871 75 76 71
-1321.94030284882 221.518889069557 2552.00004577637 78 77 73
-1314.35608863831 221.411317586899 2551.00011825562 76 75 71
-1304.22103404999 220.870643854141 2545.00007629395 102 101 97
