ply
format ascii 1.0
comment KinectMotionCapture
element vertex 779
property float x
property float y
property float z
property uchar red
property uchar green
property uchar blue
end_header
-1188.03450145735 -160.173147872436 2599.00079887516 17 20 13
-1210.29507392015 -160.557556704593 2589.01259785602 17 20 13
-1210.48736254347 -160.610958859481 2581.43995321109 17 20 13
-1214.69120683765 -160.724276495893 2573.45945572735 16 19 12
-1201.84655690035 -160.582968111522 2567.18119440618 15 18 11
-1169.95134966989 -160.158110266341 2562.65813649293 13 16 9
-1200.22738349837 -160.66006522573 2552.16499543005 11 14 7
-1187.38657668847 -160.519708718621 2545.73550932414 11 14 7
-1163.51944293517 -160.216021654099 2540.20136969831 12 15 8
-1151.6857190956 -160.091685107786 2533.51187802584 9 14 7
-1131.83429858577 -159.84895600278 2527.41559867674 12 13 7
-1143.05806002405 -160.066785471526 2518.73598666435 13 14 8
-1137.24179971435 -160.032323310714 2511.42497031877 16 15 11
-1137.43963725156 -160.086823874142 2503.63427551003 17 18 13
-1133.62903678145 -160.082186450137 2496.12874963514 18 19 13
-1068.69327479836 -159.177528304366 2492.79761380155 16 16 6
-1308.5578232953 -162.806543148056 2461.69495787236 92 76 63
-1306.74016990881 -162.828215287685 2454.48623054445 155 127 113
-1301.91769290381 -162.805890979854 2447.43917394663 164 135 119
-1294.09054073673 -162.739727266619 2440.5291676909 158 129 111
-1288.267901585 -162.703124236039 2433.46975729102 156 125 105
-1283.44785952822 -162.68133189381 2426.32696329779 147 119 98
-1278.62829525856 -162.659689875161 2419.15600953498 144 119 99
-1275.81240832954 -162.66736730283 2411.86857171086 145 124 107
-1278.00389208997 -162.747946562685 2404.35692332723 139 129 119
-1103.0078028934 -165.280743780544 2826.88600300625 18 20 15
-1101.19607931845 -165.311477614042 2819.44511314098 18 19 13
-1116.46900717666 -165.560095693558 2808.91896411579 23 23 15
-1143.79888817819 -165.96162240307 2796.3363785485 30 30 22
-1169.11554278407 -166.336545989356 2784.24989540137 25 26 20
-1169.3094220948 -166.391639532915 2776.61326509917 24 25 19
-1162.47046028408 -166.357588983131 2770.16436243711 24 25 19
-1147.59530852981 -166.222084377706 2765.01326602269 24 25 19
-1141.76339752875 -166.20141625795 2758.2991219335 23 24 18
-1126.89208545326 -166.066899507659 2753.0062216767 21 22 16
-1145.16865528774 -166.350571093608 2742.38351162322 16 17 11
-1177.5039255836 -166.810423922831 2729.66980555883 17 18 12
-1199.79195239733 -167.142843063864 2718.66441592428 20 21 15
-1202.99679112244 -167.235054511026 2710.64301717297 18 19 13
-1189.1305347389 -167.113325879323 2705.15416493804 17 18 12
-1174.26248953581 -166.979566327717 2699.73277096888 15 18 11
-1181.48459878949 -167.122204969814 2691.09035073352 14 17 10
-1189.70964397858 -167.277066775072 2682.34475734309 12 15 8
-1196.93005960514 -167.419085105947 2673.77852075321 13 16 9
-1199.13017619467 -167.498422162588 2665.92148049614 14 17 10
-1197.31541360843 -167.527821758118 2658.60079832163 17 20 13
-1187.47152219028 -167.457755951398 2652.29981442774 18 21 14
-1182.6468982046 -167.45014302253 2645.31154853869 19 22 15
-1190.86883124224 -167.603917452356 2636.68875634817 18 21 14
-1195.07616024598 -167.707838925242 2628.59147800816 16 19 12
-1205.30308825397 -167.88573182986 2619.80628862538 15 18 11
-1208.50547849782 -167.976811269238 2611.88180046639 16 19 12
-1232.77558060432 -168.326527401963 2601.60779363296 16 19 12
-1229.95664013532 -168.343081215649 2594.43016794996 16 19 12
-1192.02927618825 -167.9297787902 2590.98466304648 16 19 12
-1190.21686828294 -167.95945640808 2583.57165326502 16 19 12
-1189.40766849431 -168.001410895566 2576.04477487604 16 19 12
-1170.54631539783 -167.823307956289 2570.29200248504 16 19 12
-1210.85464666936 -168.366079430446 2558.75836603685 14 17 10
-1202.02213773102 -168.310102875937 2552.02208510984 12 15 8
-1206.2259122001 -168.412621001203 2544.05591231616 12 15 8
-1193.38462794157 -168.308418898935 2537.60626674159 14 17 10
-1159.49166629911 -167.949983980728 2532.87472832138 9 15 5
-1133.62322165719 -167.689693500163 2527.29583152872 12 13 7
-1138.83338029047 -167.805160878592 2519.10026202259 12 13 7
-1139.03103810483 -167.860041230409 2511.31618361783 15 14 9
-1122.19009828088 -167.710000255536 2504.79417915825 16 17 11
-1118.37998941322 -167.71698797393 2497.24763278588 17 18 12
-1121.58562098818 -167.808176358587 2489.19634520117 13 13 3
-1301.34116487212 -170.061671911632 2462.18118788398 33 19 6
-1301.52778547069 -170.113182455594 2454.83210034743 140 114 101
-1300.712405329 -170.152715676679 2447.54004654691 150 121 107
-1294.88861423302 -170.132651946728 2440.51722427968 145 114 96
-1291.06873254279 -170.136568962819 2433.35593075192 145 112 93
-1282.24155188309 -170.081200074641 2426.42007456025 145 114 94
-1272.41390087115 -170.014265047616 2419.48099774185 138 111 92
-1264.59053630633 -169.971343008436 2412.39800374926 135 112 96
-1262.77722424918 -169.999602041523 2405.02185452129 126 113 104
-1087.71317911054 -172.983033721025 2829.72303125018 19 21 16
-1084.0913019256 -173.057329527622 2814.74746840519 25 26 20
-1100.37067199704 -173.27560106821 2804.03614159718 17 18 10
-1143.7805246415 -173.764210243204 2788.67627128754 25 26 20
-1145.98590271229 -173.840419752948 2780.62627702373 25 26 20
-1125.08116919628 -173.686613283939 2776.49347870171 23 24 18
-1144.36740687838 -173.932702633273 2765.55796624608 26 27 21
-1140.54460493756 -173.949012009757 2758.50682505373 24 25 19
-1120.64924806082 -173.806461301302 2754.02016728048 22 23 17
-1119.84225620785 -173.853122411346 2746.40194150852 18 19 13
-1165.23903584444 -174.355094829999 2731.58805653728 18 19 13
-1185.52096305239 -174.608318407765 2720.85669939812 21 22 16
-1160.60666587136 -174.417113129756 2717.02039796888 18 19 13
-1181.89015488209 -174.679437528312 2706.23360128019 17 18 12
-1181.07954173634 -174.724898222159 2698.75819708926 16 19 12
-1187.2976688129 -174.838965061348 2690.27739466949 15 18 11
-1173.43470293622 -174.757195494919 2684.62635784895 13 16 9
-1182.66424789762 -174.900400339859 2675.74211177769 12 15 8
-1175.83075104268 -174.887400936395 2669.05701661268 13 16 9
-1181.04404179322 -174.991285732765 2660.75146959805 16 19 12
-1182.24153117173 -175.05613732335 2652.98796556438 16 19 12
-1169.38760823831 -174.98539588405 2646.99635570399 18 21 14
-1184.63644313642 -175.185630795873 2637.47311792971 18 21 14
-1189.84769573156 -175.288823545561 2629.23864736694 16 19 12
-1202.08272931378 -175.459143985129 2620.20351490786 16 19 12
-1209.2990559807 -175.580943262556 2611.80947389956 15 18 11
-1219.52443441959 -175.731182481812 2603.11453944319 15 18 11
-1210.68659459459 -175.699298540679 2596.56073924144 15 18 11
-1178.77680300913 -175.448244320387 2592.42107149798 15 18 11
-1179.97449827045 -175.512673705723 2584.65929897047 15 18 11
-1185.18397636751 -175.615033919227 2576.49507585329 16 19 12
-1201.42568321207 -175.821481616719 2567.26845395665 17 20 13
-1219.67110538257 -176.046189109905 2557.93573840274 15 18 11
-1197.80038799071 -175.892346028774 2552.43948897112 12 15 8
-1198.99640715299 -175.956112235705 2544.73461148186 13 16 9
-1176.12764260784 -175.79404087917 2539.14617526162 15 18 11
-1158.2753609649 -175.679759795155 2533.00435449865 10 16 6
-1129.39730687422 -175.463087570733 2527.6707765522 12 13 7
-1107.54070913602 -175.312928519411 2521.61872651466 12 13 7
-1145.8325705887 -175.723248808118 2510.82160819855 14 13 8
-1119.96862887662 -175.536296281597 2504.98797666188 14 15 9
-1129.18824293875 -175.675427419021 2496.50556335818 15 16 10
-1151.43515296009 -175.93464970812 2487.17642876047 15 17 6
-1126.57867978947 -175.758204260108 2481.07364151049 22 20 8
-1283.10050843736 -177.253500447191 2463.36433678869 16 2 0
-1292.3064568441 -177.388573264911 2455.42038214909 137 111 98
-1296.50139709696 -177.477279583205 2447.81431118346 138 110 96
-1291.67921129408 -177.483222998847 2440.72552169363 133 101 86
-1288.86118531146 -177.50760893337 2433.50374518657 134 101 84
-1281.03486502584 -177.486384633515 2426.51297364072 135 104 84
-1271.2065173479 -177.447176743257 2419.57135367874 127 98 80
-1263.38284680255 -177.42648470899 2412.48577438643 121 98 82
-1254.55862925608 -177.396959503648 2405.39703572064 118 105 96
-1081.46353546157 -180.833641815171 2830.88375597281 9 14 8
-1072.61633152484 -180.825433186477 2824.67051696916 13 16 9
-1057.73983069007 -180.773546704957 2819.49168938105 21 24 17
-1071.00675007026 -180.927205336787 2809.24361251893 18 19 11
-1100.35203186868 -181.197133046379 2796.25913144246 15 18 11
-1110.59978147532 -181.327561179056 2786.71112587118 18 21 14
-1111.80269248734 -181.39223503253 2778.74524124704 21 24 17
-1126.06745563782 -181.550964942902 2768.61001461439 25 28 21
-1136.31151540453 -181.680245682799 2759.20745275177 24 27 20
-1133.49383290859 -181.715500233775 2751.96058171241 20 23 16
-1102.54860300876 -181.549814951576 2749.14832591996 16 19 12
-1144.93640317631 -181.908017567266 2734.75634087086 16 19 12
-1175.26533376905 -182.17883668736 2722.43466209079 18 21 14
-1168.42858080772 -182.184998022202 2715.85625351792 17 20 13
-1150.54562372903 -182.113311375114 2710.86760042421 17 20 13
-1192.91893675136 -182.467108810741 2697.05587792766 16 19 12
-1170.01596557613 -182.360304857318 2692.74501342811 14 17 10
-1152.13654888267 -182.289580133395 2687.60763218753 12 15 8
-1140.28407557264 -182.261676635282 2681.54739239262 12 15 8
-1151.52398400799 -182.395213026312 2672.32720721318 12 15 8
-1174.8090937669 -182.612024520756 2661.58465443616 13 16 9
-1151.91558422022 -182.50773201973 2656.90130011165 15 18 11
-1168.1713942304 -182.674975746776 2647.1655718502 18 21 14
-1172.38082818289 -182.75850408227 2638.9985966133 17 20 13
-1181.60788838291 -182.876333953592 2630.24803410507 15 18 11
-1187.82310586652 -182.973124688994 2621.89949840647 15 18 11
-1207.0823778696 -183.158820617671 2612.08274390494 15 18 11
-1202.25779663562 -183.179536192274 2605.07171495424 14 17 10
-1182.38390345246 -183.09808605872 2599.68057659028 14 17 10
-1183.58117766353 -183.160213269112 2591.92840727479 14 17 10
-1173.74333871707 -183.147655293376 2585.32912434066 14 17 10
-1201.02233200628 -183.385635388131 2574.91101061486 16 19 12
-1207.23361956931 -183.480918470395 2566.71768862862 16 19 12
-1219.46204199171 -183.616243282574 2557.97851880672 14 17 10
-1202.60408392239 -183.556652327788 2552.01520327728 13 16 9
-1175.72033711983 -183.430852802955 2546.86526423909 13 16 9
-1161.8764414741 -183.39268500192 2540.42208051284 13 16 7
-1167.08595133297 -183.481252425282 2532.28075045794 12 15 4
-1158.25773559313 -183.476819838977 2525.32133251753 12 13 5
-1184.52066455429 -183.703849382068 2515.51812857798 13 14 6
-1119.55283236638 -183.330539587659 2512.86988650959 16 15 10
-1153.83422082656 -183.609728055778 2502.50544804263 17 18 12
-1167.06151529826 -183.75004965882 2493.82969493528 14 17 8
-1164.25040797796 -183.785374175289 2486.32576813061 16 18 7
-1155.42663558581 -183.781711287711 2479.20118711509 20 20 10
-1248.8229806003 -184.440081493595 2465.56172041761 25 13 1
-1287.09203997591 -184.739013409774 2455.76606173143 105 81 69
-1291.28786067311 -184.817146331447 2448.14625763793 140 114 101
-1286.46539396855 -184.837195079356 2441.04397675141 136 104 89
-1278.63825615826 -184.838147123002 2434.07067044008 124 91 76
-1270.81201732287 -184.839331612876 2427.05265470468 134 103 85
-1263.98881032458 -184.847137395895 2419.94305728869 121 94 77
-1258.16818750359 -184.86149467367 2412.75012444397 122 99 83
-1248.34210905841 -184.85068348873 2405.68932480977 114 101 92
-1111.40534317469 -188.884115924811 2825.33898603552 0 4 0
-1072.39720133328 -188.761793151378 2824.71343187017 21 26 19
-1052.49341404035 -188.728539678014 2820.43890901313 12 17 10
-1068.77730959476 -188.861093442916 2809.64274779908 17 20 11
-1084.05379713602 -188.988426666425 2799.10770036618 14 17 10
-1110.38337686473 -189.165101426848 2786.75362062712 17 20 13
-1133.69459612936 -189.327141924988 2775.04942679575 20 23 16
-1122.83755258531 -189.335128880048 2769.15396883698 23 26 19
-1136.09694800781 -189.451121235505 2759.24972224067 23 26 19
-1152.36876951359 -189.579950383141 2748.92945588126 19 22 15
-1125.43841954992 -189.517090184515 2745.53335042056 16 19 12
-1113.58043984546 -189.521624603846 2739.64416546947 16 19 12
-1160.99045061532 -189.786327041188 2724.62664432077 18 21 14
-1147.12304375315 -189.781808801805 2719.06623007235 16 19 12
-1183.47630050744 -189.995912864176 2706.02153244236 16 19 12
-1153.54046024955 -189.921994856365 2702.76846194659 17 20 13
-1163.77822678106 -190.022100179843 2693.64318783193 14 17 10
-1139.8730431115 -189.97552859913 2689.32942472939 13 16 9
-1146.09388772418 -190.058314381682 2680.76667398504 12 15 8
-1170.38681888898 -190.217511496556 2669.81431790541 12 15 8
-1169.57714319463 -190.269689435106 2662.28573761822 12 15 8
-1168.76788295896 -190.321861077764 2654.7502513144 13 16 9
-1167.95879573606 -190.374033767058 2647.20800194842 16 19 12
-1183.20970085941 -190.493078253812 2637.6817038372 17 20 13
-1172.36304349017 -190.503305137495 2631.37791312417 15 18 11
-1185.60458048092 -190.613312679699 2622.17806193709 14 17 10
-1174.7593790576 -190.623844651428 2615.81704023352 15 18 9
-1191.0092502416 -190.745476434858 2606.35307167679 14 17 8
-1178.15839375217 -190.748084391198 2600.16285763092 14 17 8
-1154.27276945892 -190.706495001641 2595.07929685172 13 16 7
-1192.59303294944 -190.916320686947 2583.38740416996 14 17 8
-1201.81507228333 -191.007985346308 2574.85184390437 16 19 10
-1223.07374470817 -191.147242784923 2565.17642997366 15 18 9
-1205.21001103675 -191.130340335051 2559.36831169018 13 16 7
-1134.19069872693 -190.904163067362 2558.4166007826 13 16 7
-1168.48753264635 -191.094569072835 2547.54382803363 12 15 6
-1165.67430850634 -191.138471683092 2540.11342337977 13 16 7
-1167.87554714699 -191.201939214375 2532.23889374056 11 14 3
-1186.11969625094 -191.327378247852 2523.05319607617 12 13 5
-1195.33778224114 -191.41727332131 2514.68337101016 14 15 7
-1155.42862837148 -191.318456406942 2510.13908755176 18 17 12
-1163.6450079142 -191.404663862805 2501.80589339381 17 18 12
-1182.88721659263 -191.5323019482 2492.72769555919 19 22 13
-1181.07704643328 -191.579685113864 2485.19889127202 16 18 7
-1145.18953350344 -191.499083963808 2479.90668645975 21 21 11
-1225.56469103772 -191.854179978741 2467.06256358665 28 16 4
-1291.89864897333 -192.153912729569 2455.50504213075 105 83 70
-1292.08588902904 -192.206454715674 2448.13063658005 145 119 106
-1283.25495603351 -192.225752729942 2441.2519383143 126 97 81
-1273.42342780498 -192.241654596434 2434.37545267518 120 88 73
-1265.59715971412 -192.265165270455 2427.34393299562 134 103 85
-1261.77919937355 -192.303428927591 2420.07999247768 120 93 76
-1255.95825262299 -192.334546562974 2412.88172394168 121 98 82
-1111.38673162883 -196.771613457975 2817.59740234332 6 11 5
-1071.37314858794 -196.755504600786 2817.04576711738 13 18 11
-1076.59944595353 -196.824177969289 2808.26035906025 13 18 11
-1088.86129059677 -196.905421989187 2798.27300085694 13 16 9
-1131.27366584412 -197.040368639847 2783.16957640518 14 17 10
-1109.35991793548 -197.059234311949 2779.1696672775 15 18 11
-1148.75035968816 -197.186698029547 2764.84809660015 18 21 14
-1135.88240363774 -197.221770344745 2759.29133490561 19 22 15
-1159.18896129003 -197.319444753999 2747.83844438229 20 23 16
-1161.39319583192 -197.380371319836 2739.84955283726 17 20 13
-1152.54580022765 -197.422640200854 2733.5896060028 18 21 14
-1134.65832183185 -197.450267369082 2728.66170133029 20 23 16
-1157.95880385964 -197.545986667043 2717.44836650753 18 21 14
-1157.14940083628 -197.601781457557 2709.91457058426 17 20 13
-1160.35764697082 -197.663975238964 2701.79222912595 16 19 12
-1145.48777332149 -197.697527775716 2696.25332554687 15 18 11
-1129.61608170576 -197.730092640283 2690.77116200435 14 17 10
-1153.91330682651 -197.824926503298 2679.71076676582 13 16 9
-1175.19491099373 -197.914183082781 2669.18346318611 12 15 8
-1186.43354231924 -197.987517355697 2660.08715706953 13 16 9
-1171.56731252757 -198.021867436287 2654.40498256899 12 15 8
-1185.81624101599 -198.099125939076 2644.97610710671 15 18 11
-1187.01373723755 -198.15704653538 2637.22910237906 18 21 14
-1180.1806939873 -198.203512345226 2630.45310481651 18 21 14
-1168.33057928748 -198.243206781635 2624.22810090793 16 19 12
-1168.52543802202 -198.299877743577 2616.55149761989 15 18 9
-1153.66697992275 -198.336101807939 2610.56356631831 15 18 9
-1195.00577174744 -198.44789817526 2598.33619625992 15 18 9
-1202.22277693411 -198.513103824577 2589.97640222859 16 19 10
-1168.30171039941 -198.524699517399 2585.93666519869 17 20 11
-1211.63773635264 -198.636108580533 2573.87653094946 16 19 10
-1191.76560860749 -198.66638563404 2568.28710431509 16 19 10
-1179.92173182282 -198.707320647633 2561.81696903709 15 18 9
-1146.01183458235 -198.721837407768 2557.33756087857 15 18 9
-1149.21766635278 -198.782022983373 2549.31173739001 14 17 8
-1136.37628314382 -198.823141918953 2542.70992460277 13 16 7
-1141.58826123798 -198.885582956074 2534.5001798636 11 14 3
-1166.85527899358 -198.970536461906 2524.66502431663 15 17 6
-1165.04531511216 -199.024194018599 2517.12142101576 16 17 9
-1156.21716088775 -199.070152547703 2510.10549274061 17 16 11
-1161.42655181974 -199.131514684809 2501.99802170121 16 17 11
-1185.68274188197 -199.212737995026 2492.55603266629 12 15 6
-1165.82842056831 -199.247151069734 2486.27555285169 18 20 9
-1150.98862883978 -199.287376846021 2479.5537783879 14 14 4
-1295.70363372323 -199.540144630545 2455.30426216559 126 104 91
-1294.8884978698 -199.59193739277 2447.99882217076 139 113 100
-1282.04835413925 -199.632380993703 2441.34929139547 116 88 74
-1273.21807569913 -199.676948734206 2434.41787815091 122 93 77
-1260.38131936717 -199.718174118943 2427.63511668499 134 105 89
-1255.56158549679 -199.766884925397 2420.40457684849 121 95 78
-1250.74233168031 -199.815705395815 2413.1458323061 117 96 79
-1138.31699908501 -204.577974378808 2812.68235778925 0 2 0
-1094.27714093604 -204.674821167705 2812.92824629688 13 18 11
-1091.46002604523 -204.737044092753 2805.63023471929 14 19 12
-1099.7006685139 -204.789378228894 2796.38513192569 13 16 9
-1112.9660969041 -204.836716932538 2786.31881105626 13 16 9
-1121.20449855512 -204.888232563097 2777.1714908156 13 16 9
-1126.42654011196 -204.942306140029 2768.56809063937 15 18 11
-1131.64816774899 -204.996152616911 2759.9904365139 17 20 13
-1144.90801204541 -205.041652063965 2750.14433622579 21 24 17
-1148.11808431582 -205.096904657367 2741.95807596482 17 20 13
-1133.24244379337 -205.170965232363 2736.60106735314 19 22 15
-1137.45759409156 -205.22519563998 2728.24213538248 21 24 17
-1152.72293091456 -205.267202219948 2718.24383861357 18 21 14
-1154.92714196559 -205.323025279765 2710.25202013649 18 21 14
-1153.11357861275 -205.383267583075 2702.85135124202 16 19 12
-1134.22554045499 -205.463205724607 2697.86445884883 15 18 11
-1134.42227088981 -205.521522850746 2690.11293550549 15 18 11
-1146.67011402598 -205.565421101064 2680.71290371326 13 16 9
-1166.94966941563 -205.599030596928 2670.30072534843 13 16 9
-1158.10723709366 -205.66767879799 2663.81847216562 13 16 9
-1173.36324905562 -205.706445094086 2654.18810243678 13 16 9
-1188.61698006087 -205.744533477882 2644.63828350001 15 18 11
-1188.81026126924 -205.801437164626 2637.02308551744 17 20 13
-1183.98453526167 -205.864885377408 2630.01091526832 17 20 13
-1178.1556065218 -205.929829390572 2623.08829036633 17 20 13
-1168.31281787477 -206.000381709992 2616.5932214433 18 21 12
-1165.49679910741 -206.061613547118 2609.25343371803 17 20 11
-1164.68843692868 -206.120101206823 2601.67606658555 16 19 10
-1181.94289631239 -206.152978228856 2592.16209576764 15 18 9
-1200.19837597948 -206.183647744735 2582.63531665342 15 18 9
-1176.31095985984 -206.274928642614 2577.47912077558 18 21 12
-1180.51858542818 -206.325602760112 2569.41809978459 18 21 12
-1160.64874365522 -206.412084184092 2563.6883063022 18 21 12
-1159.84141637304 -206.470389717458 2556.07068738073 18 21 12
-1138.97263852972 -206.55949534627 2550.26247172224 17 20 11
-1154.21508814077 -206.593112970462 2541.16769389703 15 18 7
-1176.47597344711 -206.61498124863 2531.55653399372 13 16 5
-1175.66776927114 -206.672750097391 2523.96443858142 16 18 7
-1164.83206217886 -206.746691553286 2517.16426131025 16 18 7
-1151.99237565867 -206.824266122856 2510.45699279582 15 16 10
-1171.23949384592 -206.849085711191 2501.29731293229 15 16 10
-1166.42182188914 -206.913437113323 2493.96006791415 14 17 8
-1149.57485895885 -206.998320186749 2487.42122396578 20 23 12
-1155.78651710265 -207.044182461358 2479.26648265643 13 15 4
-1205.09948031383 -207.014819383429 2468.41638130805 34 24 14
-1283.47255833799 -206.932324759588 2456.07398869482 125 105 94
-1282.65793262302 -206.987401199993 2448.73576017284 120 96 84
-1276.83276206948 -207.051432642112 2441.66723217881 105 77 63
-1274.01476204617 -207.110141379136 2434.40758791007 120 91 75
-1262.1791357927 -207.185435626932 2427.57810099162 130 101 85
-1257.35863498938 -207.248088609586 2420.3532407281 121 95 78
-1250.53522218164 -207.314609503035 2413.188643295 112 93 76
-1092.04876548274 -212.558108528793 2813.33076321441 21 26 20
-1098.27986406594 -212.596564908408 2804.42417406767 14 19 12
-1099.4835897659 -212.652974829013 2796.42599700299 14 17 10
-1103.70314824978 -212.698321263266 2787.91364157868 13 16 9
-1106.91662958767 -212.747148485779 2779.59171743102 11 14 7
-1110.12997396974 -212.795822343938 2771.2846354503 10 13 6
-1144.49858862224 -212.728773779736 2757.89218266656 14 17 10
-1137.65957488696 -212.813978510534 2751.31726226093 19 22 15
-1128.81171411697 -212.906967188275 2745.02103670272 16 19 12
-1116.95068620496 -213.011679640712 2739.1434228056 19 22 15
-1135.23376695226 -213.002480497912 2728.59003054491 20 23 16
-1138.4442267764 -213.049996280841 2720.39693053265 17 20 13
-1144.66789471916 -213.085773555788 2711.77430838302 16 19 12
-1153.90462909813 -213.109630825795 2702.74654598979 16 19 12
-1145.05969115262 -213.203165068772 2696.33550053985 16 19 12
-1132.19851098801 -213.312686874302 2690.43397562644 15 18 9
-1150.47337405347 -213.300677253103 2680.20477651486 14 17 8
-1140.62651194057 -213.398646645989 2673.83947440692 13 16 9
-1140.82292251079 -213.457201217458 2666.10019752973 11 14 7
-1145.03578745037 -213.499704668708 2657.84317679292 13 16 9
-1157.28065286379 -213.509837199325 2648.59577975027 15 18 11
-1168.51974796568 -213.523430308213 2639.53616831853 13 16 9
-1174.73793119716 -213.556827739329 2631.13978776739 15 18 11
-1172.92446499854 -213.622554506057 2623.72010816681 17 20 13
-1167.09628215294 -213.704674986052 2616.74988836563 15 18 9
-1160.26533778946 -213.791105220378 2609.85827310484 15 18 9
-1166.48262433221 -213.823903813143 2601.49758124183 15 18 9
-1175.70982054322 -213.843908834702 2592.8467397423 15 18 9
-1186.94264323603 -213.855081811678 2584.03487433747 16 19 10
-1171.08158519417 -213.979220167595 2578.02946454094 17 20 11
-1156.22630453282 -214.099697262913 2571.83620833076 18 21 12
-1163.44523719545 -214.127363983973 2563.441388272 18 21 12
-1150.59894552231 -214.239919234367 2556.95471245525 17 20 11
-1152.80178367176 -214.288672795244 2549.03346719949 16 19 10
-1144.97338448017 -214.380289771395 2542.00278622938 14 17 8
-1169.24241456482 -214.333767331283 2532.19612818578 16 19 8
-1170.44081831301 -214.386100186848 2524.41965385895 18 20 9
-1159.60437284571 -214.49069172232 2517.60610035845 16 17 9
-1148.76972676085 -214.595622894645 2510.73118087086 13 14 6
-1130.91756703308 -214.731739980562 2504.31573697141 13 16 9
-1153.17404060701 -214.691488752631 2494.93437720659 21 24 15
-1159.3862523736 -214.721368297903 2486.77515942443 16 17 9
-1152.56488090146 -214.808959167816 2479.50815620638 15 15 5
-1219.92575553085 -214.564842175889 2467.50727874391 23 13 3
-1258.20847421036 -214.448604548467 2457.63286901153 107 87 76
-1272.43028182552 -214.439342534205 2449.35687029595 95 71 59
-1270.61449751785 -214.502137053837 2442.0402636369 94 66 54
-1270.80321731866 -214.555778214027 2434.60684431307 117 89 75
-1257.96460989905 -214.668916267061 2427.81921548039 119 93 78
-1251.13983882581 -214.754848693019 2420.6775363715 112 91 74
-1245.31843391806 -214.836316007219 2413.45243738619 97 81 65
-1116.9689733885 -220.280907335125 2808.84920797674 20 25 21
-1095.04641672555 -220.481093659161 2804.99888733135 14 19 13
-1114.34716520871 -220.420559536754 2793.83479595909 14 17 10
-1113.53936244082 -220.487246182523 2786.22676167307 15 18 11
-1168.01921829227 -220.20066783163 2769.2629088472 11 14 7
-1163.18713520304 -220.291972352445 2762.45996062543 11 14 7
-1179.46285781266 -220.247702315999 2752.17308618574 13 16 9
-1132.41999991242 -220.611337323199 2752.1663409467 15 18 11
-1134.62643800223 -220.658063342947 2744.10657456835 16 19 12
-1130.80304636339 -220.743815930903 2736.99459325696 19 22 15
-1138.03361212881 -220.757664980759 2728.16927238121 21 24 17
-1138.22981351151 -220.817169179632 2720.4371516401 19 22 15
-1141.43986747611 -220.856838820953 2712.25901381907 17 20 13
-1153.69131924888 -220.836809698436 2702.78658429683 18 21 12
-1152.88212954189 -220.902459389624 2695.23386979761 15 18 9
-1142.02818979304 -221.034653688457 2689.07441570215 15 18 7
-1135.19360111718 -221.140527682238 2682.30435558217 16 19 8
-1138.40332017996 -221.17967616034 2674.14919125714 15 18 9
-1141.61266107557 -221.218633931001 2666.00901178273 13 16 7
-1141.80902565878 -221.277611397527 2658.27107816493 13 16 7
-1148.03020760848 -221.29597714854 2649.77363717774 12 15 6
-1152.24239321516 -221.327586341754 2641.55486453916 12 15 6
-1162.47801225773 -221.318155358698 2632.63113338124 14 17 8
-1169.70051444148 -221.328699151665 2624.1151893528 15 18 9
-1155.8414050208 -221.48253698627 2618.06045179109 14 17 10
-1139.97662585872 -221.65058642529 2612.1533279244 15 18 11
-1165.26623080453 -221.537060880848 2601.64849825575 16 19 12
-1168.47229243216 -221.574275340841 2593.63835576645 18 21 14
-1167.66351015013 -221.638980031506 2586.06140756878 19 22 15
-1151.8027854188 -221.807804413024 2580.00431521794 17 20 13
-1155.00929638538 -221.844868414112 2571.97677255686 16 19 12
-1151.19169279492 -221.930623957125 2564.63857109118 16 19 12
-1158.41103733198 -221.939381794658 2556.24795645539 13 16 9
-1143.55873298093 -222.10231199102 2549.8927928579 12 15 8
-1155.79360118734 -222.075542113049 2541.0757442618 11 14 7
-1156.99276724528 -222.12592159849 2533.26224881956 15 16 8
-1157.18888699511 -222.183220871452 2525.53568605369 17 18 10
-1152.37020311891 -222.275976972604 2518.20749157392 17 18 12
-1116.46324568984 -222.589772828436 2513.24244723316 15 16 10
-1121.67644535511 -222.611861171937 2505.0282868779 12 15 8
-1110.84518378393 -222.748333122747 2497.98722281256 12 15 8
-1126.08457205704 -222.698268796545 2489.09261912422 20 20 12
-1169.39471229081 -222.445677368723 2478.4256993695 18 14 5
-1243.77736231473 -221.967177344961 2466.0262845062 70 57 48
-1252.9897411397 -221.95672100641 2457.97794005763 95 75 66
-1253.17958273759 -222.01120099235 2450.49977635114 83 59 49
-1252.36720390112 -222.072865651193 2443.07598290054 100 74 61
-1255.56393079967 -222.105224188213 2435.43588787721 95 69 56
-1247.736380799 -222.217957007563 2428.35866980631 81 59 45
-1240.91176503684 -222.323542006086 2421.18981918336 90 77 61
-1245.11097741029 -222.348249395376 2413.49482085476 98 91 75
-1111.9227805328 -228.199807206261 2802.00974211788 16 21 15
-1096.03315390807 -228.406608442452 2797.03213447267 18 20 15
-1077.12986642043 -228.641480375082 2792.48420753384 19 22 15
-1096.43048469148 -228.529074499841 2781.37157640673 16 19 12
-1173.02716826201 -227.892508848432 2760.82610311159 13 16 9
-1137.03487169838 -228.283302281266 2759.12305850047 14 17 10
-1122.35143732383 -228.542383584748 2746.05530678165 15 18 11
-1143.65265499633 -228.408271786141 2735.00127523209 18 21 14
-1158.92186006626 -228.328944366916 2724.98207307657 20 23 16
-1158.11184525751 -228.397832990245 2717.45812869656 18 21 14
-1146.24956756159 -228.569359025959 2711.5576214043 16 19 10
-1149.45934737031 -228.601066309491 2703.40807269946 18 21 12
-1146.64102041073 -228.688812250412 2696.13002831953 15 18 7
-1152.86411615096 -228.692097558888 2687.5739819867 15 18 7
-1136.98787396088 -228.902154514847 2682.06976852798 16 19 8
-1129.14927347549 -229.037340940898 2675.40033272698 15 18 7
-1150.43740997351 -228.898598697066 2664.86253060715 13 16 7
-1166.70145942691 -228.806266666371 2655.08348881878 13 16 7
-1163.88349366646 -228.893658625909 2647.79170760375 12 15 6
-1160.06192418516 -228.990597854861 2640.60582349823 12 15 6
-1155.23671691735 -229.097192186797 2633.5177273346 13 16 7
-1158.44430549956 -229.127423320116 2625.45540432906 15 18 9
-1144.5848839036 -229.320317967254 2619.37093146139 14 17 10
-1159.83896496617 -229.235257931073 2609.93965836018 14 17 10
-1176.09494909245 -229.139870892657 2600.47911772756 15 18 11
-1172.2744954049 -229.236597015739 2593.24985335372 17 20 13
-1164.44010289946 -229.372055956731 2586.41566251365 18 21 14
-1152.59237041066 -229.546486533338 2579.94355946707 16 19 12
-1147.77084617008 -229.653371172869 2572.71120613046 16 19 12
-1141.94692404783 -229.770104738653 2565.54662242366 15 18 11
-1147.16058033726 -229.779782536695 2557.31861631402 13 16 9
-1160.40009095165 -229.711001526029 2548.38993231352 13 16 9
-1161.59900964551 -229.759049437007 2540.58860818119 12 15 8
-1158.78524019407 -229.846170632907 2533.13311139838 16 15 10
-1144.93802420186 -230.041421975749 2526.56907081553 17 18 12
-1137.11094249102 -230.178054513053 2519.44788867924 16 17 11
-1139.51170380991 -230.27393845438 2503.73119055688 12 15 8
-1135.69798968254 -230.371213444906 2496.23793149215 12 15 8
-1115.84096766744 -230.627405633889 2489.82487511361 13 10 3
-1180.21106556918 -230.04845149653 2477.7396247786 33 23 14
-1255.60107207731 -229.3571359641 2465.30589559383 77 62 55
-1248.77296754343 -229.481909171459 2458.26212022307 70 50 41
-1242.94825561474 -229.596816321068 2451.12104116432 74 52 41
-1240.1316043776 -229.681782363094 2443.78048858783 97 71 58
-1242.3271312494 -229.716480610614 2436.16008490355 101 79 66
-1236.50423297469 -229.831548004135 2428.94794990689 75 57 43
-1233.68876912248 -229.916455042762 2421.56105356732 77 68 53
-1033.27105241434 -236.94915216428 2815.94627410952 18 23 17
-1064.64492152843 -236.644930542589 2802.51037436271 18 21 14
-1038.70396056054 -237.016150712658 2799.0875993 18 21 14
-1077.11115961502 -236.627121204832 2784.64096820146 18 21 14
-1093.39596591821 -236.498613868515 2774.08019428664 15 18 11
-1114.70516977637 -236.309658272605 2762.78224676941 13 16 9
-1101.83543399453 -236.526414587048 2757.09996485842 12 15 8
-1124.14629067056 -236.32433136432 2745.77621259072 12 15 8
-1146.45390588409 -236.121239491511 2734.57090612879 14 17 10
-1175.7934913297 -235.833000246659 2722.40837494055 16 19 12
-1169.95760492538 -235.965053819105 2715.68562259201 15 18 11
-1161.1083196206 -236.133492946739 2709.37338469433 14 17 8
-1140.20288405516 -236.44731866728 2704.75659267863 18 21 12
-1146.42720947263 -236.435011298025 2696.16922851572 15 18 7
-1136.57677873201 -236.616484925297 2689.85374032588 15 18 7
-1108.64571415735 -237.017036831422 2685.95396566006 16 19 8
-1115.87577195557 -236.99265355446 2677.18954883006 15 18 7
-1134.15311929576 -236.833752852475 2667.01165119714 14 17 8
-1155.44106348868 -236.637378636204 2656.5432458002 14 17 8
-1176.726375766 -236.4400217739 2646.18808465988 12 15 6
-1161.85717265778 -236.68297923337 2640.39813113356 12 15 6
-1144.98195649754 -236.951051021869 2634.76682735258 13 16 7
-1150.19867764777 -236.949146472308 2626.4407968867 14 17 8
-1149.39047290869 -237.020869600098 2618.83374045249 15 18 11
-1183.72025207229 -236.660582135059 2607.27397045606 12 15 8
-1172.87139264235 -236.855093308611 2600.8490488378 12 15 8
-1171.05850152341 -236.938516880331 2593.39721645306 14 17 10
-1173.26051166569 -236.972327195034 2585.51505270438 16 19 12
-1171.44796587503 -237.055640138676 2578.04984247844 14 17 10
-1144.54586855251 -237.450081216739 2573.04918624999 14 17 10
-1138.72168559862 -237.583760742175 2565.87660148061 14 17 10
-1149.95661099521 -237.505277385371 2557.07882119395 13 16 9
-1172.22730282529 -237.288629908974 2547.34048821849 13 16 9
-1189.47833928178 -237.133613804896 2538.16204242178 13 16 9
-1181.64609885736 -237.291534504022 2531.2102983062 14 15 7
-1163.78360418383 -237.575367889676 2525.04017350282 16 17 11
-1153.94830105998 -237.759083352313 2518.13103853484 15 16 10
-1142.10827158822 -237.968335092143 2511.32048661454 12 15 8
-1165.37349187923 -237.735853025204 2501.83769996687 13 16 9
-1107.40187641397 -238.52712192409 2498.28774457876 14 17 10
-1144.70577175764 -238.116734692378 2487.86749019056 17 14 7
-1191.02934208426 -237.590491340225 2477.05292001985 16 7 0
-1231.33043354101 -237.138530266915 2466.87030781151 48 35 27
-1235.53206909304 -237.143218082326 2459.09277395786 84 65 58
-1234.7206028114 -237.211405182257 2451.62631140844 87 67 58
-1231.90427069737 -237.305031405594 2444.26398775962 82 60 49
-1232.09560109379 -237.360282871127 2436.72680829398 71 53 39
-1230.2822024206 -237.441017372587 2429.28837541624 80 67 51
-1036.06595298098 -244.944983912926 2815.45105514165 18 23 17
-992.022518494759 -245.650604597759 2815.18306477478 16 19 12
-1006.3055410297 -245.510705602305 2804.65484286279 16 19 12
-1039.69040175307 -245.092159484733 2790.97082590072 16 19 12
-1100.21640311584 -244.276483870927 2772.94771086786 13 16 9
-1084.32972167372 -244.573467572361 2767.75816429808 11 14 7
-1092.57120984455 -244.518375191319 2758.59535485485 12 15 8
-1129.96190501966 -244.036056380422 2744.85989695255 11 14 7
-1142.21988435784 -243.920586738501 2735.23482424086 12 15 8
-1180.60736123779 -243.420748123741 2721.67798232927 13 16 9
-1174.77066282872 -243.569638429776 2714.96888795131 14 17 10
-1167.92999785938 -243.73353867148 2708.37400631419 13 16 7
-1149.03223733928 -244.07557245056 2703.48567941144 18 21 12
-1152.24205871673 -244.09173086236 2695.35120123738 15 18 7
-1143.3950643286 -244.28610480069 2688.91225479088 15 18 7
-1117.47073007328 -244.733939386259 2684.75738754404 16 19 8
-1110.63668794423 -244.899467773659 2677.90191418794 15 18 9
-1127.91131058022 -244.706819544886 2667.84204526642 14 17 8
-1130.11745794649 -244.737690658191 2659.81066514832 14 17 8
-1153.41462815399 -244.453898083312 2649.13425835551 12 15 6
-1150.59732336908 -244.558946561437 2641.79768571649 12 15 6
-1131.71305116855 -244.904338741217 2636.37858256708 13 16 7
-1127.8936916673 -245.024838620841 2629.08102717314 14 17 10
-1133.11140280319 -245.009870269426 2620.72100675456 15 18 11
-1135.31666322459 -245.039845043223 2612.72525393505 12 15 8
-1151.57670080449 -244.858194428133 2603.19891347735 11 14 7
-1156.79188386963 -244.842132898996 2594.9388725915 13 16 9
-1179.07113546253 -244.56826289013 2584.92743558061 15 18 11
-1162.20200800531 -244.884860551613 2579.00606084795 13 16 9
-1143.32786826854 -245.232432617296 2573.18860532024 13 16 9
-1135.49601749124 -245.413409970802 2566.20620077368 13 16 9
-1147.73541507054 -245.290026760035 2557.30653976239 13 16 9
-1156.96305131839 -245.211770207863 2548.74400580874 13 16 9
-1182.24357151663 -244.888700306216 2538.8192321383 13 16 9
-1189.46094958415 -244.839698947778 2530.56749132101 13 14 6
-1171.59628474612 -245.173089851849 2524.41964822947 15 16 10
-1148.71842208306 -245.583773870895 2518.57181736401 13 16 9
-1155.93703560755 -245.534691930578 2510.28120191909 12 15 8
-1157.13623714667 -245.577413428581 2502.47454230653 13 16 9
-1132.25828432187 -246.020232212037 2496.53701132538 14 17 10
-1139.47647306008 -245.970666429566 2488.25419272418 25 22 15
-1146.6937173828 -245.920684164434 2480.00873233847 18 14 5
-1194.02036976167 -245.252055677285 2469.26060953176 34 21 13
-1228.30536808876 -244.782552265131 2459.55897263972 86 69 61
-1231.50470846308 -244.791929068856 2451.84140994491 75 57 47
-1228.68834600133 -244.894144941568 2444.47104948607 73 55 43
-1224.8700231427 -245.011874838209 2437.13595270192 71 57 44
-1225.06185474844 -245.067402285168 2429.57888791233 75 63 49
-1122.14146341491 -251.425469092599 2807.91736820182 14 19 13
-1047.31140442202 -252.913711708169 2797.61072980061 13 16 9
-1076.87381422906 -252.537342850241 2776.83407745242 13 16 9
-1093.15993456265 -252.322037686741 2766.31514349879 12 15 8
-1091.34838518409 -252.419750389734 2758.79552868345 11 14 7
-1086.52112195003 -252.569858849456 2751.74106468426 10 13 6
-1147.03203069712 -251.584129954556 2734.49041147203 9 12 5
-1164.31439672288 -251.348191342429 2724.17438593331 11 14 7
-1162.49847385623 -251.444316429807 2716.81808205433 13 16 9
-1154.65318749692 -251.645686956819 2710.33888997715 13 16 7
-1169.92174065909 -251.443421383108 2700.46784336901 16 19 8
-1162.07715344035 -251.644842998376 2693.96127160169 15 18 7
-1143.18105826618 -252.040249438968 2688.95054975783 15 18 7
-1141.36753758541 -252.136698956579 2681.50001178495 16 19 10
-1132.52216822182 -252.356679146738 2674.97938451663 15 18 9
-1132.71898378953 -252.417929861562 2667.22138402332 15 18 9
-1140.95169347844 -252.33755811725 2658.42881109738 14 17 8
-1132.1081339793 -252.557896971451 2651.82773816263 12 15 8
-1136.32274384619 -252.54796881778 2643.56814142903 12 15 8
-1130.49373636595 -252.715314375518 2636.53864308172 12 15 8
-1112.614896679 -253.096187799458 2630.89381911761 13 16 9
-1117.83424849672 -253.068320145829 2622.49285023457 15 18 11
-1126.06496434045 -252.986667345075 2613.77957918494 14 17 10
-1124.25475409478 -253.082981006163 2606.2091286005 13 16 9
-1154.57078378327 -252.607652311406 2595.19281790744 13 16 9
-1140.71244266382 -252.917856753363 2588.94015805204 13 16 9
-1153.95868018152 -252.745068056772 2579.86023880952 13 16 9
-1131.06876371621 -253.217018474264 2574.41772915248 13 16 9
-1131.26632791416 -253.276998029054 2566.63183447012 13 16 9
-1130.46016674408 -253.354824477501 2558.93835500453 13 16 9
-1143.70369538466 -253.180699405476 2549.96574296113 12 15 8
-1135.87299337469 -253.384137125082 2542.9143243965 12 15 8
-1172.19230217668 -252.794371007592 2532.0595642317 12 13 5
-1159.34413671579 -253.087572395301 2525.45215862225 12 15 8
-1142.48487396848 -253.453483641207 2519.09228772402 12 15 8
-1160.73904723649 -253.186651043764 2509.93600206814 12 15 8
-1163.94427062909 -253.190661874188 2501.99427220797 14 17 10
-1153.10663600211 -253.448326139469 2495.07216226712 13 14 8
-1142.27032260318 -253.706294003687 2488.08876338797 11 10 5
-1150.49094150807 -253.619210374256 2479.78527167958 14 11 4
-1196.81786496829 -252.840136693477 2469.11111916627 32 25 17
-1219.07201268436 -252.496267588367 2460.1466634766 57 47 38
-1221.26957757074 -252.516121029623 2452.46254633182 65 52 43
-1219.45622009575 -252.608787782869 2445.0096913527 62 52 42
-1211.62805529152 -252.811070397847 2437.86035026055 47 39 28
-1035.82535429963 -261.071353315753 2807.5392316317 18 21 14
-1101.59525428701 -259.894311550582 2780.50453368109 13 16 9
-1087.71601330584 -260.239389688999 2775.03126813359 15 18 11
-1112.04645869857 -259.819439041216 2763.22524554512 14 17 10
-1095.15231529779 -260.225309694429 2758.18572608378 12 15 8
-1122.49505331229 -259.743451596054 2746.04915448138 10 13 6
-1165.91832619701 -258.936926429039 2731.55539020112 9 12 5
-1166.11240448119 -258.998558753502 2723.90396248758 11 14 7
-1165.30146590077 -259.080383126212 2716.40223289289 13 16 9
-1169.51585508387 -259.060790037078 2708.15231392174 13 16 9
-1166.69485716526 -259.183048572209 2700.94160290772 16 19 8
-1162.86946930155 -259.325681064158 2693.85589250804 15 18 7
-1142.96707975029 -259.793921258521 2688.98827578742 15 18 7
-1125.07714602814 -260.222230261683 2683.73543726754 16 19 10
-1141.34952950311 -259.95801359238 2673.80590474418 15 18 9
-1162.64328937664 -259.590973651702 2663.30277490116 15 18 9
-1160.82881286414 -259.69285550462 2655.88376132009 14 17 8
-1128.8798793739 -260.408317546076 2652.24544887529 12 15 8
-1120.03711688212 -260.65413660604 2645.58586744959 12 15 8
-1133.29169315942 -260.449342061736 2636.21440600926 12 15 8
-1129.47155744032 -260.592667600218 2628.92267946339 13 16 9
-1126.65616359944 -260.715517814581 2621.49230637882 15 18 11
-1125.84938610096 -260.797276478979 2613.81869305142 14 17 10
-1154.1615484165 -260.282062542801 2602.94696306548 14 17 10
-1160.38143223122 -260.218809398309 2594.58789377418 13 16 9
-1177.64385331678 -259.928300240861 2585.10997924036 13 16 9
-1130.65589815333 -260.95834378882 2582.24190668751 14 17 10
-1129.84943842766 -261.039526843839 2574.55649174328 13 16 9
-1116.99844062223 -261.368915905626 2568.02092843293 13 16 9
-1115.18980220196 -261.470914702936 2560.38294120525 12 15 8
-1127.43157530115 -261.282600614271 2551.46015442306 12 15 8
-1142.68256649817 -261.031413636902 2542.33734307475 12 15 8
-1110.76866745152 -261.755794580379 2537.31086199058 12 13 5
-1157.12386243204 -260.859407960463 2525.65772212485 12 15 8
-1171.36632519435 -260.627054882823 2516.81398670696 12 15 8
-1123.4054075859 -261.685824277724 2512.83365157683 12 15 8
-1160.72156449377 -260.973609591369 2502.25825185846 14 17 10
-1151.88937570957 -261.220067982661 2495.18472684634 18 19 13
-1138.0433707985 -261.571248637261 2488.40592813144 10 11 5
-1130.21723256044 -261.79734316816 2481.15181441181 17 17 9
-1161.50533238791 -261.206968747858 2471.37532434356 15 11 2
-1196.8006818549 -260.531294579801 2461.52452177608 29 22 14
-1201.00530199883 -260.504479227645 2453.66416540705 59 50 41
-1190.16907825952 -260.792333574076 2446.65449730461 47 38 29
-1175.32371621551 -261.164579723259 2439.7939321611 31 25 13
-1193.56485481082 -260.842885614108 2431.20599273483 36 32 20
-959.959595974404 -270.74446670926 2828.9323519216 16 21 15
-1069.80185346359 -268.327022212673 2801.6094404687 22 25 18
-1101.18035809471 -267.684386897974 2788.35573121768 16 19 12
-1133.56047006567 -267.017488952942 2775.09927535247 14 17 10
-1118.67216673987 -267.423572278775 2769.88067250404 15 18 11
-1104.79168272966 -267.807406893295 2764.41437511842 16 19 12
-1118.0609735964 -267.573339257225 2754.49924773984 14 17 10
-1140.37723253684 -267.132287969352 2743.22094176825 13 16 9
-1145.59954769681 -267.080328210577 2734.72069866318 10 13 6
-1168.91617379922 -266.614575953115 2723.47926239139 9 12 5
-1175.14130259647 -266.538644705191 2714.92881378412 7 10 3
-1159.25269307038 -266.968740006518 2709.67169843126 7 10 3
-1160.45257846658 -267.007782975726 2701.85158582374 13 16 7
-1152.60713017166 -267.254256585368 2695.32096974657 15 18 9
-1155.81713638654 -267.247086786477 2687.20431552181 16 19 10
-1138.92970717479 -267.701799882473 2681.84993904064 16 19 10
-1118.02534373681 -268.249647718676 2676.93996964571 15 18 9
-1141.33155179745 -267.779801462939 2666.11010235606 13 16 9
-1147.55566615993 -267.702759876919 2657.60049356975 13 16 9
-1141.72398213568 -267.903633730057 2650.63960373283 12 15 8
-1122.83479513705 -268.406440961673 2645.25289254808 12 15 8
-1151.15657202691 -267.817904480529 2634.07479500415 12 15 8
-1154.36542366525 -267.809482000482 2626.00461066253 13 16 9
-1151.54805450911 -267.940479082323 2618.64269226223 13 16 9
-1144.71426750972 -268.164676491686 2611.71425327798 14 17 10
-1155.95627487757 -267.969278351608 2602.76521911133 14 17 10
-1167.19703212283 -267.773265438121 2593.87502895033 14 17 10
-1149.3193635319 -268.254262320008 2588.07692963901 14 17 10
-1143.49174789682 -268.455273994093 2580.95688507832 15 18 11
-1131.64189452047 -268.796828786511 2574.3975533411 14 17 10
-1099.71723365967 -269.607367883567 2569.69917124498 14 17 10
-1094.89835240098 -269.785954328219 2562.29585793288 13 16 9
-1120.190201026 -269.260452035386 2552.13636162291 13 16 9
-1124.40297485845 -269.227119669776 2543.96432832766 13 16 9
-1111.55514117131 -269.59321249181 2537.26569064205 12 15 6
-1121.78889578449 -269.41839030923 2528.59241217562 12 15 6
-1138.04172408063 -269.101630605028 2519.49290523642 12 15 6
-1138.23907389707 -269.161313009166 2511.71570838312 13 16 9
-1151.67534245532 -268.973155048336 2495.22522010454 12 13 7
-1129.8034084641 -269.552172660866 2488.99895500849 12 13 7
-1136.01961135546 -269.469465552145 2480.79531233405 13 12 7
-1120.16983486355 -269.907306623678 2474.02147545659 16 16 8
-1110.33958305429 -270.20344714536 2466.79420424604 20 17 8
-1173.10575869326 -268.907052561177 2439.94047603338 27 25 13
-949.464349736985 -279.166241945268 2838.97068588867 1 6 0
-967.987224131238 -278.84272954037 2819.37348779893 23 26 19
-1145.41538991725 -274.476611534756 2773.09414989629 11 14 7
-1104.37715309467 -275.589567285603 2772.25974479468 12 15 8
-1089.49101456394 -276.038168387416 2766.92020673046 13 16 9
-1120.86211923203 -275.307885799203 2754.04982256164 13 16 9
-1111.00431336742 -275.628335690929 2747.87335775699 12 15 8
-1085.06127759109 -276.360175619034 2744.1444676734 10 13 6
-1119.44247442161 -275.550564412023 2731.04824157336 9 12 5
-1161.05060697397 -274.621891456626 2709.41127865455 8 11 4
-1163.25523834563 -274.632894657033 2701.451156704 12 15 6
-1143.34830181131 -275.211304665705 2696.64295997159 13 16 7
-1140.52910939257 -275.351539429129 2689.34238227898 14 17 8
-1128.66617885319 -275.724408752386 2683.26052824353 15 18 9
-1126.85330013809 -275.839064903821 2675.76535114694 15 18 11
-1121.02162250235 -276.057255953462 2668.78561775314 14 17 10
-1135.28547038975 -275.757421114208 2659.18785907123 14 17 10
-1127.44474800845 -276.027359944759 2652.44734277121 13 16 9
-1135.67877529992 -275.882266464903 2643.68209137599 13 16 9
-1148.93417590924 -275.606853898395 2634.354236378 13 16 9
-1152.14337816089 -275.590707280428 2626.27864243806 13 15 10
-1148.32136266939 -275.756441506764 2619.02699839815 12 15 8
-1135.46135852333 -276.15659604538 2612.76745156037 14 17 10
-1148.71337434737 -275.879562124116 2603.57362658256 16 19 12
-1139.87210299269 -276.175672137158 2596.81109258949 15 18 11
-1132.03589981403 -276.445958836608 2589.89357667999 14 17 10
-1122.19293264078 -276.76867867687 2583.13472711734 16 19 12
-1141.46625475831 -276.33340625609 2573.44491824724 15 18 11
-1144.67470018198 -276.315902782279 2565.40036065389 14 17 10
-1102.71075910914 -277.476722937503 2561.58612950383 13 16 9
-1063.76395816465 -278.560540985896 2557.26809946941 12 15 8
-1108.12838109606 -277.468464915788 2545.41502025039 12 15 8
-1144.45745263346 -276.584410554022 2534.48535782896 11 17 7
-1133.61534845643 -276.933659343222 2527.63959697959 11 17 7
-1138.83041202122 -276.862456643025 2519.45275771177 10 16 6
-1127.99007738923 -277.211978338282 2512.52821909841 12 15 8
-1152.26833796306 -276.63991387156 2502.93441290232 12 14 9
-1185.57250390205 -275.829431929417 2492.82505815853 11 13 8
-1152.66122080085 -276.758569925844 2487.45178684742 11 13 8
-1142.82645521967 -277.081702701364 2480.37194727651 12 13 7
-1143.02366582265 -277.140822876235 2472.60079504619 14 15 7
-1092.06844694416 -278.548420941914 2467.93044588214 16 16 8
-1029.08549309024 -280.275544694989 2463.67664724519 18 18 10
-994.511236316701 -286.157427027223 2830.86421689978 3 8 1
-1123.88282397416 -282.739320659542 2784.4528867398 10 13 6
-1094.91015238716 -283.624871390385 2781.63380620329 11 14 7
-1082.03379528432 -284.058334259924 2775.97762564598 13 16 9
-1073.18224611271 -284.378881650152 2769.59054536916 12 15 8
-1107.57368184701 -283.479551990136 2756.19048020502 12 15 8
-1100.73269816004 -283.743006504232 2749.50116144634 12 15 8
-1101.93652256413 -283.779343823576 2741.52067909556 11 14 7
-1100.12420881231 -283.900860648345 2734.00537960241 12 15 8
-1128.47245991249 -283.168364427539 2721.94715108835 13 16 9
-1175.9172817656 -281.893220398269 2707.22246075513 13 16 9
-1171.08479250518 -282.098523634991 2700.32230885743 10 13 4
-1128.05748189865 -283.388285143541 2698.82163365106 10 13 4
-1122.22383592557 -283.623282666231 2691.90078420294 11 14 5
-1102.32105482449 -284.25852665669 2686.86915479188 14 17 10
