ply
format ascii 1.0
comment KinectMotionCapture
element vertex 763
property float x
property float y
property float z
property uchar red
property uchar green
property uchar blue
end_header
-1124.45567131037 -52.2690432527849 2714.4121174048 150 154 153
-1131.8922213946 -52.8842632836293 2715.5013145439 157 161 160
-1139.30701191555 -53.6285350436537 2718.60894119737 158 162 161
-1146.72193540304 -54.1775714609985 2718.69273554876 155 159 158
-1154.13032131825 -54.7264277823478 2718.77758554499 154 158 157
-1161.53205808023 -55.2749973932955 2718.86302429245 150 154 153
-1168.8801047093 -56.0156741284544 2721.97897072168 142 146 145
-1176.16849871621 -56.882926361381 2727.11830924268 135 139 138
-1183.44448675495 -57.6843882906439 2731.25109533181 142 146 145
-1190.71597412407 -58.4206331740962 2734.37682450168 154 158 161
-1198.07079007979 -58.9018830588744 2733.46025430607 155 159 162
-1205.57031615826 -59.0670308943985 2727.48587667073 149 153 156
-1213.12743476371 -59.1710094642877 2720.49646364322 144 148 151
-1220.81937903642 -59.0885249828208 2710.46667283113 146 150 153
-1228.26035748433 -59.5109059541478 2708.53126766977 150 154 157
-1235.82526977418 -59.746144932881 2703.55684217127 152 156 159
-1243.41050743294 -59.9828429902975 2698.57988402932 162 166 169
-1251.37887535579 -59.7236078746528 2685.49158988133 170 174 177
-1259.55472281989 -59.2827173429886 2669.35386383556 182 186 189
-1267.75925067358 -58.9089425772268 2654.22018222315 176 180 183
-1275.82409538134 -58.7867518678466 2643.13582370947 168 172 175
-1283.82914267805 -58.7910826407063 2634.07487521411 169 173 176
-1292.1111426813 -58.5530967852181 2620.94749759583 177 181 182
-1300.64087832045 -58.1360499190808 2604.76567118942 201 205 206
-1309.50679602537 -57.4805641885542 2584.51003439818 183 187 188
-1319.00854805375 -56.3457192575601 2556.11180954397 193 194 196
-1329.00206137938 -54.9175383730956 2522.61252726889 191 192 194
-1357.59585753321 -45.5901260268924 2345.68495228169 152 154 153
-1366.29506744423 -45.8364037306168 2339.56107484912 95 97 96
-1374.45743716488 -46.5036258295986 2340.55983093419 76 78 77
-1382.44161720042 -47.2895011752968 2343.596510704 78 78 78
-1389.97433250103 -48.3716080688187 2351.72922674738 70 72 69
-1397.89918535265 -49.1537487240454 2354.77330036383 70 75 71
-1406.16544436847 -49.697780816047 2353.74315279743 89 94 90
-1415.46153947137 -49.5928475675636 2341.49749986222 109 114 110
-1424.52585335829 -49.6682007455194 2332.30430792496 133 138 134
-884.072869034224 -37.7726061608087 2639.5653876063 157 159 156
-891.984375258388 -38.4052757173663 2640.59511871101 136 138 135
-899.805546616919 -38.9699650302803 2640.62825695115 119 121 118
-907.92636400267 -39.8039539723114 2644.65593925983 110 112 109
-915.651205222056 -40.3005797192113 2643.69323259067 108 110 107
-923.446479029922 -40.8644254591078 2643.72960047051 108 110 107
-930.553250310679 -40.759876328004 2633.77277768184 96 98 95
-937.904811263465 -40.8586430250237 2626.80900330886 78 80 77
-944.911212194182 -40.5608643155941 2613.84065545122 75 77 74
-952.703518703974 -41.0631765296708 2612.86954448778 57 59 56
-1015.97771908445 -46.7116081944126 2630.182272902 117 119 116
-1024.23204731553 -48.1822938362873 2644.27232208398 96 100 99
-1032.53667105442 -49.9060954371175 2662.38799018605 105 109 110
-1040.49462911542 -51.1084043031958 2672.48332919095 132 136 137
-1048.5027922842 -52.5638532303243 2686.60429846079 130 134 135
-1056.17934275292 -53.3739020438503 2690.68711934001 146 150 153
-1063.87236178264 -54.3101027240458 2696.7840719905 163 167 170
-1071.38969398519 -54.798241939338 2695.84723887088 153 157 160
-1078.99023853773 -55.6040161006039 2699.93953358196 146 150 153
-1086.49204864693 -56.0915994553569 2699.00463606398 142 146 149
-1094.03853264617 -56.8319282130869 2702.09581776618 139 142 147
-1101.55364003084 -57.507987914506 2704.1830587359 140 143 148
-1109.07561585298 -58.4343398029503 2710.30109036232 144 148 149
-1116.54200761602 -59.0452498120137 2711.38655208604 140 144 143
-1123.99900804145 -59.9053713754651 2716.50483074443 148 152 151
-1131.43484238321 -60.3898714862775 2715.57815849258 154 158 157
-1138.83624149053 -61.3091690289723 2721.71121880279 156 160 159
-1146.24344995491 -61.8545785399724 2721.79596639213 158 162 161
-1153.63393529868 -62.4615188462605 2722.89089033414 154 158 157
-1161.05095679212 -62.8831773677977 2720.95871322526 155 159 158
-1168.40998562909 -63.5508044591775 2723.0651693993 161 165 164
-1175.69688732447 -64.4011348956302 2728.204649589 171 175 174
-1182.97121229443 -65.1884088671571 2732.33784612454 174 178 177
-1190.28815887613 -65.7914282940743 2733.44169667507 171 175 176
-1197.61950325454 -66.3331370451508 2733.53614217676 170 174 177
-1205.11841272827 -66.5114889955442 2727.5618762626 164 168 171
-1212.64295371665 -66.6917400665068 2721.58465695696 157 161 164
-1220.33094941635 -66.6331193772832 2711.55518147915 156 160 163
-1227.84342108697 -66.9376645043802 2707.59516987337 162 166 169
-1235.37078743519 -67.2433227439552 2703.63330243122 170 174 177
-1242.91301709023 -67.5501219586052 2699.66958314097 167 171 174
-1250.78643002143 -67.4418494749188 2688.60915083442 167 171 174
-1258.90403762704 -67.1000404233295 2673.48664080442 196 200 203
-1267.04500296562 -66.8223180513271 2659.36907173561 179 183 186
-1275.04162328412 -66.7849411597259 2649.30113767473 169 173 176
-1282.97335888992 -66.8682373572695 2641.25723309581 169 173 174
-1291.1173799285 -66.778338884796 2630.16307888458 213 217 218
-1299.49797600954 -66.516808060398 2616.01564795566 191 195 196
-1308.39529062281 -65.8523984620321 2594.74838241699 193 197 198
-1317.932601932 -64.7307257953675 2565.33782729652 189 190 192
-1357.01249472705 -54.0638176492632 2346.78775477457 89 91 90
-1365.63087820654 -54.380322948598 2341.68207631162 78 80 79
-1373.86849983174 -54.9840244718397 2341.66334675778 80 82 81
-1381.85079720187 -55.7582833589392 2344.70023088157 67 67 65
-1389.72445195082 -56.5879186306193 2348.75874616087 68 70 67
-1397.83462455966 -57.2458905503079 2349.76375150815 69 74 70
-1406.1143156988 -57.7902557764754 2348.73192856947 90 95 91
-1415.0478419731 -57.940611718177 2340.56318303709 125 130 126
-873.830838965353 -43.5766376881985 2617.68033197948 151 153 150
-883.081282691 -45.1850035250608 2633.66204887773 144 146 143
-891.173605681307 -45.9430845345038 2636.68515985073 135 137 134
-898.84754381464 -46.3760188036523 2634.72095075834 117 119 116
-906.832617052432 -47.068057964785 2636.74958484935 106 108 105
-914.579396920259 -47.565932024024 2635.78414365395 98 100 97
-922.610208276401 -48.3210947360528 2638.81492323 108 110 107
-930.208216077134 -48.6905074567634 2635.85209514556 118 120 117
-937.356467087941 -48.6133432445565 2625.88992778028 108 110 107
-944.489809542254 -48.4758257510812 2614.9217748783 76 78 75
-952.34000617526 -49.0413314288621 2614.95153335439 68 70 67
-1015.61585592891 -54.6791130434555 2633.27171498825 157 159 156
-1023.90077987396 -56.1700773908483 2648.36568650745 154 158 157
-1032.23120001546 -57.9029800106403 2667.48608670513 152 156 155
-1040.1166452452 -58.9508093158022 2675.57445360112 152 156 155
-1048.00817200266 -60.1186343323112 2685.67823229671 152 156 157
-1055.68845592938 -60.9149161344586 2689.76055100751 159 163 164
-1063.40802334841 -61.8930407963676 2696.86198807947 162 166 167
-1070.92555212841 -62.380878993262 2695.92512963542 159 163 164
-1078.51021780379 -63.1119345932218 2699.01152206963 151 155 158
-1086.04354388121 -63.7205417650125 2700.08838445344 140 144 147
-1093.59983650278 -64.5098776605775 2704.18639852304 144 148 151
-1101.11921099956 -65.2373262680083 2707.28092941145 149 153 156
-1108.62827627983 -66.0836542534542 2712.39267435888 145 149 150
-1116.08624858941 -66.6285202840866 2712.47108548921 150 154 153
-1123.53934515803 -67.2925670446672 2714.56603340652 166 170 169
-1130.97893802396 -67.8366056018579 2714.64673600364 172 176 175
-1138.38438354574 -68.7366441941741 2720.77948089623 172 176 175
-1145.7800426107 -69.3975394947506 2722.88158837518 171 175 174
-1153.1583977422 -70.0574693142725 2724.98561247142 172 176 175
-1160.57005222237 -70.4810852306622 2723.0541102888 171 175 174
-1167.9244219968 -71.139798082899 2725.1613646797 175 179 178
-1175.26136793259 -71.7975651726416 2727.27079097203 172 176 175
-1182.5393728903 -72.5709816470266 2731.40325150489 168 172 171
-1189.88302244329 -73.110189587775 2731.49615480774 166 170 171
-1197.1677310182 -73.7650469131657 2733.61209235112 164 168 169
-1204.72374548478 -73.8410252177304 2725.61505627772 158 162 163
-1212.22151428887 -74.0923694730514 2720.64881203322 153 157 158
-1219.91086757079 -74.0580501146739 2710.61947140261 147 151 152
-1227.27790253964 -74.5995416635651 2710.70922208887 149 153 154
-1234.79684963583 -74.9123826418115 2706.74842423509 138 142 143
-1242.33060193765 -75.2263459632066 2702.78578173482 153 157 158
-1250.14950660383 -75.2010437333889 2692.7400573349 149 153 154
-1258.15870240417 -75.0093101764008 2679.64708614087 178 182 183
-1266.23116363347 -74.8218334524494 2666.54599073681 181 185 186
-1274.26064945105 -74.7510505685592 2655.46618018425 170 174 175
-1282.06365151843 -74.9639145382014 2649.45405619837 158 162 161
-1290.12622301578 -74.9551779185001 2639.37820751214 171 175 174
-1298.60285190815 -74.6156291305291 2623.20297233345 175 179 178
-1307.92534226239 -73.615444684274 2594.82747289999 177 181 180
-1317.65776049856 -72.4035394598761 2562.36927066968 182 184 183
-1343.73339849674 -65.3404902400811 2410.95576938879 178 180 177
-1356.50351715844 -62.4779025061282 2346.87343035908 108 110 107
-1364.96670859944 -62.9139587734346 2343.80280797465 105 107 104
-1373.03927450761 -63.6229040058015 2345.82056801918 90 92 89
-1381.09418974093 -64.3307397194248 2347.84052784171 73 73 71
-1389.13151147249 -65.0374994176549 2349.86268039559 90 92 89
-1397.5915843975 -65.4736680552156 2346.79268774819 89 94 90
-1406.33323253767 -65.7493003459947 2340.66359157977 96 101 97
-1415.56733706682 -65.7589165720571 2329.43366346184 119 124 120
-873.955889826825 -51.8816778127351 2624.74088762365 193 195 192
-882.172338159336 -52.6933337353152 2628.75633667358 137 139 136
-890.607724003459 -53.6902299443822 2635.76849327217 112 114 111
-898.363880563669 -54.1880145475315 2634.80188168542 106 108 105
-906.272998385547 -54.8098118156475 2635.83188221683 106 108 105
-913.800723574843 -55.1225401341431 2631.86998861224 105 107 104
-921.914589659575 -55.9289126409317 2635.89846567528 95 97 94
-929.657844247717 -56.4268905916794 2634.93346468754 79 81 78
-936.939317594887 -56.4967113372239 2626.97067350706 71 73 70
-944.258097338239 -56.5691476030893 2619.00323359677 66 68 65
-1007.13656895561 -61.5367950342092 2627.29340884136 166 168 165
-1015.29344509126 -62.6904538585313 2637.36403619712 162 164 161
-1023.57049730215 -64.1368541800625 2652.45911297317 150 155 151
-1031.92710612927 -65.8732888617493 2672.58370110872 143 148 144
-1039.80077448038 -66.895446323549 2680.67371035239 172 177 173
-1047.65286666061 -67.9733334756816 2689.77424603498 136 140 139
-1055.32339493286 -68.7550038631144 2693.85774371515 158 162 161
-1063.01110526635 -69.6518702612435 2699.95501500537 157 161 160
-1070.48103262335 -70.0224078195932 2697.00841383406 146 150 149
-1078.0466140412 -70.6840500293545 2699.08931797489 142 146 147
-1085.59500680935 -71.3447763900545 2701.17236474574 152 156 157
-1093.17323421534 -72.2353549025498 2707.28328229913 155 159 160
-1100.68537276233 -72.9510251830184 2710.37868517349 147 151 152
-1108.16838952031 -73.6080794247399 2712.46988081351 144 148 147
-1115.62676240104 -74.1498504895085 2712.54823380445 141 145 144
-1123.08155291632 -74.8623600793022 2715.65078505057 139 143 142
-1130.51014270392 -75.6872422249552 2720.77251638685 149 153 152
-1137.89633194608 -76.6234051829088 2727.91544657972 173 177 176
-1145.27384468269 -77.2745146014414 2730.01979284239 175 179 178
-1152.65362995352 -77.8120705034632 2730.10794200196 160 164 163
-1160.06433444674 -78.1810026588453 2727.16848699742 161 165 164
-1167.45424031704 -78.6626365846171 2726.24753879928 171 175 174
-1174.78918442528 -79.3116462896763 2728.35719184559 171 175 174
-1182.08611642788 -80.0152788995008 2731.47941952363 164 168 167
-1189.47678119251 -80.4404840379628 2729.55054091857 159 163 162
-1196.89758489815 -80.8109230390393 2726.61006982898 156 160 159
-1204.38535533409 -81.0719622801828 2721.64509885312 144 148 147
-1211.79918796866 -81.499136053015 2719.71333421919 136 140 141
-1219.38761322404 -81.6532003314905 2712.72014620579 131 135 136
-1226.85999903242 -82.0275524915783 2709.7732482799 133 137 136
-1234.34182023105 -82.4026575495467 2706.82493458707 151 155 156
-1241.79094289441 -82.8327065827742 2704.88877353808 161 165 166
-1249.4684614869 -82.9931035622778 2697.88448387986 151 155 154
-1257.36723992423 -82.9403761465112 2686.82103238406 174 178 177
-1265.51947866411 -82.6765756894421 2671.6944060261 188 192 193
-1273.74584514365 -82.4177091263965 2656.55830168895 189 193 192
-1281.48986919507 -82.6968474249115 2651.5616397088 180 184 183
-1289.48732589058 -82.7648810590248 2642.50180623481 187 191 190
-1298.07562983763 -82.3592374654522 2624.29708641482 183 187 186
-1307.64585045077 -81.2208069917109 2591.85907871336 172 176 175
-1317.31499755485 -80.1458699988712 2560.41682014544 177 179 178
-1355.62154482399 -71.1530099322868 2352.04525690733 148 150 147
-1364.61117899755 -71.2297919608663 2341.85370122143 121 123 120
-1372.68966135085 -71.9303498730327 2343.87070084088 112 114 109
-1380.75055205856 -72.6298020269579 2345.88989288172 104 105 100
-1389.04950751995 -73.1741104738846 2344.85566571998 126 128 125
-1397.78651132888 -73.4624364709217 2338.72718256507 105 110 106
-1406.45818085006 -73.803507914091 2333.6149190132 76 81 77
-1415.61635616733 -73.8917735082477 2323.40236063053 92 97 93
-873.118160046644 -59.4907521330116 2620.83424064376 191 193 190
-881.686637876768 -60.5281180998644 2628.83758182318 154 156 153
-889.794372343075 -61.2650239754578 2631.85871377112 152 154 151
-897.720810134919 -61.8820693463386 2632.88678062747 124 126 123
-905.405299488155 -62.3211403693427 2630.92127096614 114 116 113
-913.02047444234 -62.7017845783902 2627.95633010016 111 113 110
-920.931882562707 -63.318574208696 2628.98627189716 113 115 112
-928.62556543676 -63.7589500819359 2627.01937810632 100 102 99
-935.861719944914 -63.7906229328946 2618.05445488971 69 71 68
-943.584016147027 -64.2333118435525 2616.08423668473 49 51 48
-1014.58224034388 -70.1134718238422 2631.42573547196 160 162 159
-1022.95100712364 -71.6300702223235 2648.52492587255 152 157 153
-1031.25504103677 -73.1968992571953 2666.64025419973 95 100 96
-1039.23925811037 -74.3638605104733 2677.74015051534 165 170 166
-1047.07317425569 -75.3587306799254 2685.83504873917 153 157 156
-1054.80652731206 -76.2388263191175 2691.92657992222 147 151 150
-1062.54656837337 -77.2280172217838 2700.03293797666 153 157 156
-1070.09657946326 -77.8256657295529 2701.10792957905 148 152 151
-1077.66942398697 -78.5334231267326 2704.19573586811 143 147 148
-1085.20500978996 -79.1847485451128 2706.28035611545 153 157 158
-1092.73530517499 -79.8900939289146 2709.37346593352 153 157 158
-1100.22438211405 -80.4845921784082 2710.45605346159 147 151 152
-1107.69502972667 -81.0238754240216 2710.53286808698 133 137 136
-1115.15533317387 -81.5084860941254 2709.60314252658 136 140 139
-1122.61796680449 -82.15598522057 2711.69685669733 159 163 162
-1130.05542695799 -83.0730335382943 2718.83333824585 175 179 178
-1137.44861052155 -83.9873383397475 2725.97509775734 190 194 193
-1144.81126086209 -84.7914617863725 2731.10500327949 190 194 193
-1152.1983502176 -85.2721697565846 2730.18440412728 175 179 178
-1159.62127904273 -85.592779229577 2726.23560924413 179 183 182
-1167.05921874779 -85.9145390788999 2722.28494412137 186 190 189
-1174.42344176753 -86.5026212635999 2723.38309578397 183 187 186
-1181.67333782227 -87.3544113185765 2729.53488500091 179 183 182
-1189.02307905089 -87.8876494244381 2729.62677210856 170 175 171
-1196.44374800936 -88.2630965054941 2726.68633102323 171 176 172
-1204.01664979138 -88.377584016853 2718.68704865659 156 161 157
-1211.46979207992 -88.7554581685647 2715.74256148325 149 154 150
-1219.03426945942 -88.9780906229671 2709.76022969322 156 161 157
-1226.40465404684 -89.5133878527794 2709.84978632311 161 166 162
-1233.92558833038 -89.841868265701 2705.88878166599 173 178 174
-1241.50341275864 -90.1199618184389 2700.9126173962 177 182 178
-1249.23562671257 -90.2456709250721 2692.89372363276 174 179 175
-1257.24115717313 -90.1183680685561 2679.80137952742 140 145 141
-1265.30992540417 -89.9952904219776 2666.70091458038 135 140 136
-1273.60034141717 -89.7242051534155 2650.54909796441 142 147 143
-1281.13806044263 -90.2170920829369 2649.60973319275 106 111 107
-1289.25600661359 -90.2059932152451 2638.5190404868 69 74 70
-1298.03498540949 -89.6961459064404 2617.26694959283 69 74 70
-1307.61900673791 -88.6428302657433 2584.82768405933 97 102 98
-1317.23602288446 -87.7001364780247 2554.39996648268 121 123 118
-1327.83452804588 -86.1713208636109 2511.75525536398 134 136 131
-1355.63225224934 -79.2092737966342 2345.01060607452 124 126 121
-1364.63925114167 -79.3112126665005 2334.81718989277 59 61 56
-1372.73716671105 -80.0042592849018 2336.83174458101 76 79 72
-1381.06461325196 -80.5497556940954 2335.79396502944 69 70 64
-1389.22042060721 -81.1925091236991 2336.79323535281 65 67 64
-1397.97812573409 -81.495260430812 2330.66244705308 71 76 72
-1406.58042379193 -81.8963177678729 2326.56668571863 84 89 85
-1415.56963285478 -82.1059567587022 2318.39114742324 88 93 89
-872.630503814116 -67.350943129507 2620.91579679181 175 177 174
-880.774823254031 -68.0788747491238 2623.93257978669 125 127 124
-888.979501186603 -68.8623832739808 2627.94942358778 105 107 104
-896.997141590676 -69.5311301493646 2629.97393214956 100 102 99
-904.843923994687 -70.0861784690807 2630.00384889343 93 95 92
-912.387394561361 -70.4160622075983 2626.04027580575 86 88 85
-919.731667299919 -70.5789093628105 2619.07757971243 83 85 82
-927.38356728744 -70.9676862199079 2616.10807719644 83 83 81
-934.847085648434 -71.1901254705917 2610.138584255 76 78 75
-1022.22048358197 -78.9843466613089 2641.58116789216 144 146 143
-1030.58057878834 -80.55393574264 2660.69719446804 0 4 0
-1038.7074234211 -81.9028111207189 2675.81075943336 40 45 39
-1046.57682879722 -82.9264387505859 2684.90899164094 27 32 28
-1054.36547721387 -83.8936105350357 2693.00946606698 28 33 29
-1062.08163646934 -84.8047959619679 2700.11091190677 24 29 25
-1069.59173164361 -85.2911453182449 2699.17497721197 42 47 43
-1077.17088558451 -85.9880146632896 2702.26220771851 60 65 61
-1084.68299065411 -86.5263108636738 2702.33384609901 62 67 63
-1092.24915579191 -87.3256469492864 2707.43834157028 37 42 38
-1099.70656377901 -87.7063932697292 2704.49308935799 145 149 148
-1107.20044824102 -88.2955540388594 2705.57506287956 159 163 162
-1114.67850976897 -88.832368275463 2705.6509457901 156 160 159
-1122.15915475417 -89.729771892728 2712.78198639331 153 157 156
-1129.59824716555 -90.5216870949007 2717.90207997822 141 145 144
-1136.99969389801 -91.3628237486018 2724.03516877992 102 106 105
-1144.36217574524 -92.2015702026569 2730.17287360569 94 98 97
-1151.75215307772 -92.6820590287785 2729.25191347391 92 96 95
-1159.18965423509 -92.9599326238615 2724.2932601395 86 90 89
-1166.63271634278 -93.2898249723792 2720.34221745657 61 65 64
-1174.00276522256 -93.8723981657525 2721.43938730981 44 48 47
-1181.27967718607 -94.6548898021263 2726.57993550793 31 35 34
-1188.70683101696 -95.0356347998789 2723.63845883199 28 33 29
-1196.22051804785 -95.2677798017259 2717.6627306969 31 36 32
-1203.67480584562 -95.65056693041 2714.71787324019 24 29 25
-1211.20068903037 -95.9352479773032 2709.74844854719 22 27 23
-1218.74689758404 -96.2213881028799 2704.77649121074 28 33 29
-1226.3863080781 -96.4107712509178 2697.77703355196 29 34 30
-1233.82175390538 -96.8957990414058 2696.85041117404 17 22 18
-1241.46518592979 -97.1371825335068 2690.85827569129 5 10 6
-1249.0896282941 -97.4289336848528 2685.87657001423 5 10 6
-1257.11221498181 -97.3350569749992 2672.78218541915 0 2 0
-1265.44758501578 -97.0043639559956 2654.6089873671 0 2 0
-1274.29406745246 -96.2954612451426 2628.30927245283 7 12 8
-1282.05709484287 -96.6481584712422 2624.31811978132 8 13 7
-1290.06673410589 -96.8112046941065 2616.2647033054 9 14 8
-1299.44785032674 -95.9316590768527 2585.86659094331 7 12 6
-1308.47658178618 -95.4409376440531 2563.57569566257 18 23 17
-1346.09079842023 -87.5546668553576 2356.30089218763 131 134 127
-1355.63998311354 -87.3042097496682 2337.97666880926 75 78 71
-1364.35716990048 -87.6171155634732 2331.85096370035 40 43 36
-1372.30476043479 -88.3944586404156 2335.89987425237 58 61 54
-1380.79928886056 -88.8473497143913 2332.82562580011 63 64 58
-1389.21825920481 -89.3468305557 2330.76837607167 74 76 73
-1397.72865629086 -89.8008967904404 2327.69215039916 73 78 74
-1405.61661707035 -90.5746053457923 2331.74849282067 89 94 90
-1414.21973766663 -90.9833744544279 2327.65264914696 107 112 108
-870.909796522755 -74.4502180425316 2607.0406461272 186 188 187
-879.092937486379 -75.1695468532461 2610.0523215015 154 154 154
-887.501954039097 -76.0498329582137 2616.05977464501 142 144 143
-895.872581195831 -76.927884969887 2622.07177240604 138 143 139
-904.050334038002 -77.6962705797935 2626.09193647357 127 132 128
-911.529840149892 -77.9813565142842 2621.12830043134 116 121 117
-918.886870782479 -78.161275787407 2614.16405718708 107 108 103
-926.48313143517 -78.5030205431202 2610.19368717559 89 88 84
-933.96227718913 -78.7399973555189 2604.22228231205 81 82 77
-1029.22561115984 -86.9260207929084 2634.6815206426 9 12 5
-1037.33205206275 -88.0832522465313 2646.77358535326 11 14 7
-1045.62377731302 -89.6911893032108 2667.91385954862 10 12 7
-1053.66651792571 -91.0395988621896 2684.0456060699 10 12 7
-1061.29306718931 -91.6791608505635 2686.11884363655 5 7 2
-1068.90240107282 -92.317760495353 2688.19422704656 5 7 2
-1076.54754654886 -93.105047534826 2693.28883450782 7 9 4
-1084.12925132149 -93.7909586280744 2696.37547755873 3 5 0
-1091.70051564244 -94.5250945155601 2700.4714778815 3 5 0
-1099.1958893306 -95.0108792923819 2699.53737885433 3 5 0
-1106.69010266752 -95.4967394536504 2698.60342483066 6 8 3
-1114.19154228751 -96.080695494782 2699.68420153797 4 6 1
-1121.67372614052 -96.4199656095547 2695.72806111979 5 7 2
-1129.16722815822 -96.9063030248885 2694.79419712138 9 11 8
-1136.63997599968 -97.635058680092 2698.90247754972 10 12 9
-1144.10445570795 -98.2172548807551 2699.98810226977 8 10 5
-1151.57558731083 -98.7026150887147 2699.05702739344 11 13 8
-1159.15364478967 -98.7565843938166 2689.04156805739 10 12 9
-1166.69078172548 -99.1003556820797 2685.07858167303 9 11 6
-1174.05127350851 -99.9687268098277 2692.22429996076 7 9 4
-1181.12600226508 -101.40332271166 2711.50037717084 9 11 8
-1188.20555919005 -102.594766972045 2725.73653576315 11 13 8
-1195.86628878663 -102.557367788096 2713.69514462351 12 15 8
-1203.58500069399 -102.523888872234 2701.64628768942 12 15 8
-1211.4235152315 -102.400914185981 2687.56687021504 12 14 9
-1219.56604860302 -101.956752500305 2666.39437692816 11 14 7
-1227.30699058364 -102.168728778669 2659.38230823831 10 13 6
-1234.26021636968 -103.352737172912 2673.63421262781 17 19 14
-1241.5064447599 -104.117417847522 2678.77854304994 10 12 7
-1249.25146792778 -104.329997523544 2671.76596664107 13 16 9
-1257.73339007597 -103.859863393682 2649.54336414561 10 13 6
-1267.12315849929 -102.669391638402 2611.08113563513 12 14 9
-1274.03587117991 -103.802583644607 2624.33027489933 18 20 15
-1283.13260499221 -103.080494220789 2595.98344063224 18 19 14
-1291.96842600031 -102.682574282777 2574.72455092299 14 16 11
-1299.215912048 -103.545550389029 2581.88459771955 19 24 17
-1308.56812829893 -102.889164073522 2554.51398114825 23 28 21
-1347.00604285567 -95.0683464366419 2336.05127852442 121 117 108
-1355.49680085063 -95.525625782434 2332.97751215599 88 81 73
-1363.76685899189 -96.1147759979219 2332.95469639635 77 68 61
-1371.79198949276 -96.8341914079599 2335.98609077031 84 75 68
-1380.45041355208 -97.2051759681951 2330.87555894891 83 76 66
-1388.78991170936 -97.750335273964 2329.83627453912 87 84 77
-1397.12798852416 -98.2954786847994 2328.7971674626 73 70 65
-1404.92409929244 -99.0976386327515 2333.87297451516 109 108 103
-1412.59379567821 -99.9403390628566 2339.97235119541 168 169 163
-870.242985851435 -82.2466745622513 2605.1290176512 190 186 185
-878.175884256446 -82.8008037603643 2605.14818520678 110 106 105
-886.931091035931 -83.8680166221521 2615.14367651437 99 98 96
-895.385959053724 -84.7781533072244 2622.15317337474 97 99 94
-903.564778828619 -85.5327662688161 2626.1731680256 102 104 99
-910.894447834699 -85.7269927884578 2619.21237702819 107 109 104
-918.040210497185 -85.7716053363096 2609.25108115757 101 100 95
-925.441903315214 -85.9708830331335 2602.28131531633 81 78 73
-933.075221931271 -86.3232601174284 2598.30634868995 58 59 54
-1027.24816623811 -92.5732033880007 2590.60156964984 13 16 9
-1036.44857566844 -95.1907955448567 2633.80190236379 11 14 7
-1045.23802765932 -97.5060902293962 2671.00588065163 13 16 9
-1052.91222333789 -98.1399830583441 2673.07315729784 16 19 12
-1060.5226958088 -98.6779763856115 2673.13251921059 13 16 9
-1067.9417527937 -98.7899070424253 2664.14498220227 11 14 7
-1075.8493444671 -100.083198181091 2680.29344935979 12 15 8
-1083.51250262705 -100.90104078151 2686.39357650976 11 14 7
-1091.11188041575 -101.622947873615 2690.48603623386 9 12 5
-1098.71240529311 -102.483020221174 2697.60177795594 10 13 6
-1106.26852997252 -103.340425753435 2704.72329380601 9 11 6
-1113.72391975365 -103.593644099552 2698.75465605019 9 11 6
-1121.23145380727 -104.58613589268 2708.90565276254 10 12 7
-1128.68475238751 -105.299393844919 2713.01631953104 10 12 7
-1136.13245466162 -105.736533984816 2711.0803544124 10 12 7
-1143.62313891141 -105.900698323264 2703.09146312987 11 13 8
-1151.06802497098 -106.475883104499 2704.17951455713 11 13 8
-1158.7024123708 -106.281822349558 2688.10976927499 11 13 8
-1166.16917786562 -106.858729448449 2689.19509481373 10 12 7
-1173.53762728574 -107.659305396053 2695.33195440102 8 10 5
-1180.40825038034 -109.485308330281 2724.71212533568 10 12 7
-1187.84038461758 -109.876461155104 2721.77029481186 13 16 9
-1195.3074737207 -110.223996726376 2717.816059896 13 16 9
-1203.32214452103 -109.733569605367 2694.64378679859 13 16 9
-1211.26976406614 -109.514826327215 2677.52719989779 14 17 10
-1219.06829980441 -109.608414887789 2667.48457078305 14 17 10
-1226.73343213581 -109.923349953238 2662.49760802393 15 18 11
-1233.17661215044 -111.630459005085 2689.91543402876 11 14 7
-1240.33940978039 -112.418784794583 2696.0779254833 12 15 8
-1248.65661629008 -112.040739998831 2674.88380813791 16 19 12
-1257.08023769438 -111.669713331389 2653.67642932478 9 12 5
-1265.90771716868 -111.049161084008 2626.37139116873 7 10 3
-1274.4033077821 -110.821017971352 2608.17870886586 12 13 7
-1281.94456837755 -111.404569519199 2609.25451508563 15 14 10
-1289.70416480613 -111.818524536285 2606.27187926503 19 20 15
-1297.65431237162 -112.106994429879 2600.2415914964 19 22 15
-1305.75612334765 -112.313462848244 2592.17678688641 18 21 12
-1346.42064584086 -103.559912205321 2337.15462221418 96 87 78
-1354.90853535582 -104.021848813934 2334.08098581109 64 51 43
-1363.1762040999 -104.607502368341 2334.05845902577 49 36 28
-1371.35779307617 -105.233605809911 2335.05470837684 69 56 47
-1380.26394427604 -105.493092052159 2326.88966648268 84 74 64
-1388.61428098182 -106.038359544299 2325.84902977101 105 98 90
-1396.87597292202 -106.623871230766 2325.82724848187 102 97 91
-1404.59128437221 -107.449769278835 2331.92088842328 97 94 87
-1412.82313146582 -108.033466756684 2331.90306708564 120 117 112
-869.044905407759 -89.7609995651176 2597.23610212328 192 186 186
-877.599732425949 -90.6550635984807 2604.23308236459 134 128 128
-886.359728542791 -91.6923024170777 2614.22789705562 128 124 121
-894.497768481065 -92.3869594334567 2617.24513579896 99 100 94
-902.613645626958 -93.0803986498851 2620.26513712073 83 84 79
-909.809086543638 -93.1957465180944 2611.30551507482 77 78 72
-916.975167040798 -93.2661569618827 2601.34151132765 87 84 79
-924.18943193024 -93.3398460556802 2591.3715030874 78 73 69
-931.985704537613 -93.7972511551321 2589.39209181895 50 51 46
-1027.51578291709 -101.461435320026 2612.76237755428 24 27 20
-1035.90731386655 -102.867984760344 2631.87405177618 18 21 14
-1045.08361764317 -105.666065937307 2682.13191800071 17 20 13
-1052.31065023556 -105.570577280502 2668.12888224152 11 14 7
-1060.12247980721 -106.464483513976 2676.22627085424 13 16 9
-1068.05034953371 -107.712035254615 2692.37208697753 9 12 5
-1075.83122149667 -108.820506252183 2705.5128199939 9 12 5
-1083.29029126608 -109.216408430143 2702.56740031342 15 18 11
-1090.78436389431 -109.701199558548 2701.6334610341 11 14 7
-1098.21786844674 -109.922764599151 2694.6597839694 11 14 7
-1105.76202599079 -110.627358018335 2698.75908925863 10 12 7
-1113.24646701827 -111.025533435163 2695.81050938163 12 14 9
-1120.75868703477 -111.858089568925 2702.93743883406 13 15 10
-1128.22298900705 -112.86064744105 2714.10154426142 12 14 9
-1135.65721989335 -113.428987110244 2715.19090736494 13 15 10
-1143.11723786119 -113.739676663522 2710.2297707541 14 16 11
-1150.58864447768 -114.094474781668 2706.27501616376 13 15 10
-1158.15693084364 -114.152962849414 2695.25310100664 15 17 12
-1165.69153022356 -114.468913809215 2690.28243066348 16 18 13
-1173.09282639761 -115.165525930301 2694.39954318864 15 17 12
-1180.4855791988 -115.818496931217 2697.50967958195 14 16 11
-1187.6082769338 -116.929750314321 2711.7402432764 16 19 12
-1194.87536053451 -117.661284950062 2716.88188380265 15 18 11
-1202.44332092539 -117.893520806543 2709.89145554541 14 17 10
-1210.68423910828 -117.261408859427 2681.65165896183 15 18 11
-1218.33762643449 -117.542691398903 2675.65862645773 18 21 14
-1225.33340858194 -118.603061283343 2688.89696710037 20 23 16
-1231.94325837176 -119.984423766347 2710.24653273397 20 23 16
-1239.88032082711 -119.938497945873 2696.1550199675 21 24 17
-1248.23842227797 -119.574067336588 2673.9481479295 21 24 17
-1256.61479364098 -119.2974323358 2653.75460131748 17 20 13
-1264.49906665974 -119.507854481593 2645.71695457048 23 26 19
-1273.0449431242 -119.242450914514 2625.50228430148 32 33 27
-1280.59574964516 -119.777389705728 2625.56908412803 30 27 22
-1288.71461810257 -119.916859317899 2615.48635994111 16 15 10
-1297.48246554728 -119.666206224818 2595.24426811964 23 24 16
-1307.6715538188 -118.599845737752 2553.65955476566 23 25 14
-1336.13078743589 -112.279082887496 2359.62456801024 43 41 29
-1346.04797344085 -111.930600565596 2335.20755897122 86 77 68
-1354.68824644808 -112.320838858837 2330.09934299783 72 59 51
-1363.27215087378 -112.750734817566 2326.00595302542 62 48 39
-1371.87074708701 -113.181671241319 2321.9107323448 44 31 22
-1380.97408891956 -113.386022387211 2311.70532256402 39 29 19
-1388.94289476058 -114.122072851803 2315.7517170973 43 34 25
-1397.14465184931 -114.743610846937 2316.74519729549 66 57 50
-1405.15464554486 -115.439200782631 2319.77865817846 93 88 82
-868.641105095795 -97.7355354663465 2598.31518176962 188 177 175
-877.795831764985 -98.9297320979108 2612.2923786944 113 99 98
-885.954157214781 -99.6143789929173 2615.30705956453 120 109 105
-893.607710474216 -100.023668728236 2612.33764501866 112 105 99
-901.038403736977 -100.297276600589 2606.37214293743 102 97 91
-907.820465406946 -100.164681640544 2591.41685210239 87 82 76
-914.677863069602 -100.037124904382 2576.45217304883 59 52 46
-921.819293302171 -100.049570138315 2564.47547839451 55 46 41
-930.491538906311 -101.052071811917 2574.48139262045 14 13 9
-1027.03338518742 -109.290069662675 2612.84319436894 16 19 12
-1035.90411363656 -111.280087267427 2647.01287166636 19 22 15
-1043.62740165477 -111.859391191446 2648.06619102268 18 21 14
-1052.23306369005 -113.873155862174 2683.27693694548 12 15 8
-1059.48687545542 -113.814833244028 2669.27065717926 16 19 12
-1067.14422750426 -114.430886031618 2671.33998882977 11 14 7
-1075.25724513042 -116.129761306134 2699.55709438749 13 16 9
-1082.93368282196 -117.071424719645 2709.68687906964 17 20 13
-1090.51127914105 -117.885331821663 2716.80560083445 13 16 9
-1097.72198029885 -117.37941385516 2691.71800313569 13 16 9
-1105.23099300604 -117.824595583341 2689.7744080147 14 17 10
-1112.73020346349 -118.147800320897 2684.80841337115 13 16 9
-1120.30330137987 -119.569604410084 2707.04556493295 15 18 11
-1127.76911201416 -119.971923169597 2704.09932093022 18 21 14
-1135.20684917702 -120.818168414871 2712.24326855043 21 24 17
-1142.66219492802 -121.220089251122 2709.29832945534 20 23 16
-1150.15369271253 -121.502958144453 2703.32550398658 19 22 15
-1157.64780315887 -121.867160608982 2699.36794085851 20 23 16
-1164.98631660321 -122.707487858704 2707.52425542735 22 25 18
-1172.46113718349 -123.111201783631 2704.57689071075 21 24 17
-1179.94545312085 -123.515654992234 2701.62834297659 20 23 16
-1187.17152760919 -124.389574501255 2710.80646482462 20 23 16
-1194.24237776062 -125.415591178035 2724.03558722495 19 22 15
-1201.7075211811 -125.778635081976 2720.08163595943 17 20 13
-1209.79550740289 -125.37204547 2695.89274721576 18 21 14
-1217.41044686 -125.66402004573 2689.90430066678 21 24 17
-1224.65733126041 -126.377829343065 2695.04841525476 22 25 18
-1231.60118916989 -127.35561527541 2707.28533115524 21 24 17
-1239.62665030731 -127.269482009292 2691.16706640585 24 27 20
-1247.51223274817 -127.376924963106 2680.10568349536 26 29 22
-1253.82061181175 -128.799846397621 2704.51628190067 34 37 30
-1262.89913161848 -128.01273230587 2669.11749943756 45 48 41
-1271.58790774879 -127.645999097316 2644.85374062555 60 57 52
-1280.6177625645 -127.139471556678 2616.5158201364 35 32 25
-1289.10343192457 -127.083818274508 2600.34044465824 16 16 8
-1297.54848058682 -127.106654767107 2586.18571929944 26 27 19
-1306.06205293148 -127.134005917039 2572.02245447937 25 27 16
-1336.50397663749 -120.201835826074 2346.49796714056 41 37 26
-1345.81542486797 -120.240858551753 2331.22747576542 67 54 45
-1354.90666682486 -120.427691921277 2320.01584274695 67 50 42
-1363.74559616277 -120.760200992887 2312.86706914496 62 45 35
-1372.53641190939 -121.130191191042 2306.73208563813 54 40 29
-1381.84160624875 -121.290645816559 2294.48599606153 49 37 25
-1389.77287210917 -122.050487820148 2299.54482511482 47 33 22
-1397.84423483101 -122.738463435821 2302.57036718534 52 38 29
-1405.62379911313 -123.529053041721 2308.65589576966 71 61 52
-866.995127508112 -105.096458466369 2585.43932168765 170 156 153
-876.703990491644 -106.511689356149 2605.39431062017 114 99 96
-884.882153119093 -107.186506596016 2608.40649004175 115 100 95
-892.393316557274 -107.516415165176 2603.43902139117 94 83 77
-898.990809567481 -107.334434974584 2586.49101911435 87 78 71
-905.524111890558 -107.072946600166 2567.53544387742 74 67 59
-912.444318567666 -106.987586004538 2552.56279748348 49 40 35
-920.137564794731 -107.329930403081 2547.57263872662 46 37 32
-1026.96560224804 -117.599280338117 2624.96650127414 31 34 27
-1044.63903010415 -121.609311032786 2699.36150814741 17 20 13
-1051.63077258801 -121.304809204186 2678.33275428043 15 18 11
-1058.80106189154 -121.12528290547 2660.30558977657 13 16 9
-1066.75720122063 -122.243087653158 2675.43984923831 26 29 22
-1074.7359727481 -123.589093438562 2696.61848842143 30 33 26
-1082.43820136573 -124.539708216669 2707.75300548851 19 22 15
-1090.02267116346 -125.331794255455 2714.87057175009 17 20 13
-1097.41938352668 -125.583101170225 2707.90156445725 13 16 9
-1104.78703215478 -125.530512827767 2692.87340652638 11 14 7
-1112.27767746766 -125.863712883387 2687.90850708455 12 15 8
-1119.81021883013 -126.577447681757 2693.01673290752 15 18 11
-1127.30142232939 -127.817406702683 2712.24056423132 17 20 13
-1134.73876600354 -128.411951062856 2714.3370547159 20 23 16
-1142.17666116019 -128.893342530475 2713.41011710003 20 23 16
-1149.69121669263 -129.039909330843 2703.40306655242 16 19 12
-1157.16227693322 -129.485945562991 2701.46396965646 16 19 12
-1164.60946537669 -130.006083913194 2701.5439016988 19 22 15
-1171.81554534154 -131.039503504636 2715.76361454265 20 23 16
-1179.30889356715 -131.374025403511 2710.79838127432 19 22 15
-1186.44612505635 -132.327669944361 2723.01110171976 17 20 13
-1193.73554112926 -132.951363369545 2726.13405682439 17 20 13
-1200.83690025789 -133.789581905519 2735.32764839477 19 22 15
-1209.00160960357 -133.299364871089 2707.09797616746 20 23 16
-1216.91549093873 -133.246239209921 2690.99396311084 21 24 17
-1224.19649058486 -133.907568741727 2695.12575474731 21 24 17
-1231.41083421454 -134.602463346989 2700.27388041993 24 27 20
-1239.16570736739 -134.803708988093 2691.24443047827 25 28 21
-1246.08822155338 -135.706502869796 2702.47612536216 28 31 24
-1253.77999610458 -135.97938402135 2695.47035286764 35 38 31
-1262.43537735649 -135.597230509218 2669.19534673383 42 45 38
-1271.6382831463 -134.948543309006 2634.78909327588 47 44 37
-1281.01749168249 -134.31137128602 2600.36086860228 30 27 20
-1290.05833736026 -133.99229225794 2575.04537172083 21 18 11
-1297.73065800005 -134.528758584057 2575.09725159518 26 26 16
-1306.70959582802 -134.356941663844 2553.82109718716 22 22 10
-1336.80447701575 -128.229184828951 2334.38839995451 39 31 20
-1346.28713514103 -128.241455094971 2317.08109794864 52 38 27
-1355.41449270039 -128.457344777779 2305.86503443527 61 43 33
-1364.51804947177 -128.709532161949 2295.65972380642 64 46 36
-1373.35367997686 -129.095486338625 2289.51918972324 66 50 37
-1382.05214408847 -129.54813352409 2285.41156329384 57 43 30
-1390.09260948637 -130.26029148913 2289.44895221802 51 35 22
-1398.36497852287 -130.874246553336 2290.43384076194 53 36 26
-1405.99925368393 -131.711171509174 2298.55299678851 71 58 49
-866.500398104609 -113.058712004266 2585.52202930369 137 118 114
-875.868225631293 -114.254156421203 2601.48800998368 123 102 97
-883.807617910418 -114.797411822034 2601.5063385064 108 91 84
-891.014126716563 -114.978397731843 2592.54550810877 72 59 53
-896.936231494196 -114.481365739612 2566.61105592286 54 43 37
-902.767217709836 -113.873495529994 2537.66438134297 43 34 27
-910.275116856562 -114.109375544621 2529.6737708725 42 33 28
-918.729642006723 -114.861806702486 2534.66728074371 47 36 32
-1035.59131519365 -127.489306936282 2667.25001731088 18 21 14
-1043.90700146709 -128.865933221028 2690.40206635991 18 21 14
-1050.91991356524 -128.617259084346 2669.37105793919 24 27 20
-1058.4468970434 -128.997426228822 2665.40943449351 19 22 15
-1066.30745220068 -129.924730184074 2676.5238916875 35 38 31
-1074.17619633679 -130.992847586855 2691.66892670279 40 43 36
-1081.79921965453 -131.694935082158 2696.76607050865 22 25 18
-1089.48052791074 -132.646138023792 2708.91088696025 21 24 17
-1096.86132712557 -132.807388354626 2698.92032681013 13 16 9
-1104.3282746431 -133.14948531667 2693.95840814275 13 16 9
-1111.78560040283 -133.280917364016 2682.95053230867 15 18 11
-1119.34440037528 -134.154662651651 2693.09481862272 17 20 13
-1126.8460817736 -134.709576745035 2694.17572894534 16 19 12
-1134.28946098354 -135.786319632122 2710.38155680178 19 22 15
-1141.71512859642 -136.406629179567 2713.48749960841 21 24 17
-1149.23681257993 -136.542848020354 2702.47160485433 18 21 14
-1156.71059282445 -136.991354332877 2700.53241529157 17 20 13
-1164.04971494689 -137.781568647949 2708.68852193035 21 24 17
-1171.17316547331 -138.908262754846 2726.95002100499 22 25 18
-1178.50139160456 -139.487813097252 2729.06032949635 19 22 15
-1186.00993133087 -139.763869568857 2722.07743198679 20 23 16
-1193.20410547823 -140.510106649363 2729.24358409653 21 24 17
-1200.87399989035 -140.621663638122 2717.20144151287 24 27 20
-1208.39134159707 -140.968665616454 2712.23324686579 25 28 21
-1216.19106642446 -141.053795122812 2699.16690525109 27 30 23
-1223.66419605124 -141.503230472875 2697.22779932816 27 30 23
-1231.71359173805 -141.464598262484 2680.09898568266 26 29 22
-1239.684530731 -141.561112871387 2667.01130753456 28 31 24
-1245.9771987969 -142.950272839148 2694.44707923318 29 32 25
-1253.22731657067 -143.560772464718 2697.57490378782 35 38 31
-1261.8242780921 -143.277733765426 2672.31513620452 38 41 34
-1271.16862813369 -142.622846110963 2634.86791344816 42 39 32
-1280.16228969117 -142.295635335246 2607.54290925492 28 25 16
-1288.43946118768 -142.447561550212 2595.42484812349 15 15 5
-1346.75343855982 -136.318721461327 2302.93535651383 56 36 27
-1356.42883062552 -136.351653656955 2284.59612949715 62 40 29
-1365.20830196196 -136.781979458672 2279.47064796424 59 37 26
-1373.69372989001 -137.333434288224 2278.41316896082 61 41 30
-1381.85283004846 -138.003886793767 2281.42771577147 55 37 23
-1389.98890694192 -138.672902446288 2284.44513196557 43 24 10
-1398.01544324187 -139.369899443899 2288.48421923296 58 36 23
-1405.92444325923 -140.094326127558 2293.54573366684 54 37 27
-1413.89156660615 -140.787540682955 2297.59198508985 64 50 41
-854.522683880676 -119.026569118973 2547.72981331224 135 120 115
-866.183683716567 -121.097497563562 2587.59809743895 129 110 104
-874.599072362863 -121.829750267333 2592.59643817523 115 95 88
-882.563192088184 -122.371706817904 2592.61167743838 103 83 76
-889.550037885118 -122.463474330478 2580.65472316887 84 65 58
-894.796454594931 -121.700706927563 2545.73422863324 38 25 17
-901.359558071244 -121.507147575142 2525.7671859103 35 25 16
-909.117455235468 -121.874991154262 2520.76902624989 51 40 36
-918.298669912055 -122.980438268121 2535.7501307387 36 25 23
-1034.44076885881 -134.447311601277 2646.24881140592 23 26 19
-1042.28631652968 -135.146263204546 2651.3181772298 21 24 17
-1050.23246932216 -136.013301077953 2661.41410653819 19 22 15
-1058.06990396447 -136.808871016841 2669.50804082433 16 19 12
-1065.92186793731 -137.702427086835 2680.62372154223 21 24 17
-1073.44616686718 -138.122872400068 2677.67022628162 23 26 19
-1081.06021093765 -138.710687240609 2679.74488814817 23 26 19
-1088.82965806158 -139.728478528674 2694.90218231151 21 24 17
-1096.35283150478 -140.246106768433 2694.97238499608 17 20 13
-1103.69602931688 -140.041830234611 2672.89258869221 13 16 9
-1111.30181046813 -140.791086971941 2680.00738263342 15 18 11
-1118.83348629202 -141.148184402863 2675.03742575927 17 20 13
-1126.38317039354 -141.861779353188 2681.1514392684 16 19 12
-1133.86756367671 -142.86191124893 2696.34425996047 17 20 13
-1141.33183341123 -143.473332756549 2699.4453620442 18 21 14
-1149.01462641556 -143.162527189368 2673.29191706607 18 21 14
-1156.4895195622 -143.839451114103 2678.40724010544 18 21 14
-1163.75243950848 -144.92259413872 2696.65121953079 20 23 16
-1170.84594523221 -146.124063256272 2718.9476411186 20 23 16
-1178.27281375016 -146.572164007384 2717.01430479394 20 23 16
-1185.59473147192 -147.175039443962 2720.13314906151 18 21 14
-1192.86927985278 -147.807266441156 2724.26590940601 25 28 21
-1200.25169029548 -148.285078422404 2723.34588652797 23 26 19
-1208.02142572979 -148.368227909644 2709.27559509972 23 26 19
-1215.07772014418 -149.180353432361 2719.48242886318 30 33 26
-1223.13211447738 -149.088359842464 2699.32954932755 26 29 22
-1231.09758353809 -149.15217428253 2684.22709348354 27 30 23
-1238.77110614334 -149.48782015709 2678.23145111083 28 31 24
-1245.94977014703 -150.179067986282 2684.39194715312 31 34 27
-1253.31973034042 -150.721278258413 2685.48902177958 32 35 28
-1262.77398005041 -150.009897981153 2642.98925966331 34 37 30
-1270.13249182908 -150.61611994645 2646.10354602188 37 37 29
-1278.33436915607 -150.760328233339 2632.9871737346 76 73 64
-1286.54256285602 -150.937330564761 2620.87802693019 23 23 13
-1337.99960932117 -144.230020454437 2301.0253152117 36 23 14
-1347.7767948029 -144.250739758338 2280.6579786199 44 24 15
-1357.14367737971 -144.471002023446 2267.39642085032 59 37 26
-1365.58999160397 -145.051523134098 2267.35158664911 63 41 30
-1373.79440670692 -145.713303713598 2270.36069585411 55 36 22
-1381.65171717995 -146.481816776001 2277.44415113384 49 31 17
-1389.79925665967 -147.139991486308 2280.46010831571 43 21 7
-1397.57826390947 -147.90352861064 2287.55356253955 56 34 21
-1405.84728771681 -148.505089741218 2288.53859564057 60 42 32
-1414.10400207814 -149.105894046645 2289.52540316335 60 43 35
-865.8675083143 -129.125863571815 2589.6743111412 131 110 105
-873.932465392197 -129.700815285955 2590.68474048868 118 95 89
-881.650880413523 -130.135431000745 2587.70729827345 100 80 71
-888.000606964314 -129.979811100153 2567.76698364154 60 41 34
-892.884562877951 -129.139024174996 2527.85260058035 222 209 201
-900.628947021271 -129.516615051525 2522.85615293421 198 188 179
-909.051376427259 -130.203957455784 2526.8455693887 39 30 25
-1027.27575025306 -142.582260005017 2675.38178763389 44 47 40
-1034.319092345 -142.532895850099 2657.37080816891 16 19 12
-1040.32572856242 -141.293778239013 2601.19107733856 24 27 20
-1049.21827908793 -143.077936635741 2641.40409237359 20 23 16
-1057.86382361386 -144.816779581736 2680.64012586227 17 20 13
-1065.27843812112 -145.087372711805 2672.66124817907 20 23 16
-1073.08827903581 -145.945099484539 2683.78209125041 21 24 17
-1080.67056873399 -146.492741503826 2684.85292298301 21 24 17
-1088.4428219494 -147.496067023569 2701.01751596583 20 23 16
-1095.7779888787 -147.525595474411 2684.98570044365 18 21 14
-1103.34611915055 -148.131786104465 2688.07382757101 13 16 7
-1110.76842396738 -148.048972255873 2668.0000935134 15 18 9
-1118.3452472888 -148.567293475769 2668.06360283529 16 19 10
-1125.9150969027 -149.292141560994 2675.18281654061 16 19 10
-1133.43780511556 -150.043638368164 2683.31591075949 17 20 11
-1141.02523674781 -150.178780526838 2670.27619378701 18 21 12
-1148.65176397707 -150.405237127642 2660.25538022055 19 22 13
-1156.14116256717 -151.125340749888 2667.38462124366 19 22 13
-1163.23389110559 -152.588324407391 2700.76710739517 18 21 12
-1170.88920481269 -152.728288713304 2687.71917210876 18 21 12
-1178.26705520966 -153.382387858219 2692.84678567008 18 21 12
-1185.11345168202 -154.681986564989 2721.22066631024 21 24 17
-1192.21590310563 -155.495798219373 2732.42967175913 27 30 23
-1199.68502327614 -155.860533927811 2727.46754157583 29 32 25
-1206.847258597 -156.530618745992 2733.62979181983 29 32 25
-1214.45693951201 -156.786395605662 2724.61884488585 32 35 28
-1222.70551775101 -156.581123079744 2698.39483090409 29 32 25
-1230.78491773718 -156.601464534926 2680.25474110627 26 29 22
-1238.54946583578 -156.897067802908 2672.23225964296 23 26 19
-1246.09124417134 -157.355664214262 2670.28437062361 24 27 20
-1253.82057193871 -157.708270326207 2664.2820490295 28 31 24
-1261.62403260531 -158.036178653049 2657.26248368017 32 35 28
-1268.8943636887 -158.654789074222 2661.39573445968 40 40 32
-1276.78405221896 -158.958867183176 2653.35741825977 108 108 98
-1285.38998731939 -158.954697305869 2633.13618124643 93 93 83
-1295.87740189629 -158.185671153823 2582.44511686266 18 16 4
-1328.57895808315 -152.411856404978 2309.27703385922 22 12 2
-1338.21725889223 -152.504380152554 2289.93466517739 41 27 18
-1347.6001191673 -152.728233473091 2275.66343584425 67 44 36
-1356.68740272835 -153.080799739376 2266.46834772699 67 43 33
-1364.83469439302 -153.756825398388 2270.49206994275 50 26 16
-1372.87550234334 -154.455532701552 2275.53706779476 47 27 16
-1380.96331926045 -155.127811765554 2279.56844250962 56 38 24
-1389.27339844858 -155.725807112623 2280.54834275147 50 31 17
-1397.05380431523 -156.466933000947 2287.64156341701 56 34 21
-1405.5011117785 -157.014809685904 2286.58883219931 60 42 30
-1413.94682266769 -157.562629451573 2285.53630007472 60 43 35
-853.979533180166 -135.330430425835 2552.87920670674 136 123 115
-865.015313606822 -136.948438955296 2585.77027181491 109 90 84
-873.091614305357 -137.518491971832 2586.77927264505 97 74 66
-880.652684670033 -137.894706786718 2581.80569785094 70 50 41
