ply
format ascii 1.0
comment KinectMotionCapture
element vertex 777
property float x
property float y
property float z
property uchar red
property uchar green
property uchar blue
end_header
-308.513928230446 -101.634045838108 1962.45569863427 10 13 6
-312.114934403721 -101.886379063259 1967.872648998 10 13 6
-330.058815890636 -102.448285066342 1967.89791437459 13 16 9
-317.412195282953 -102.349514653405 1979.45530007292 18 21 14
-296.127264258895 -102.060252822395 1994.12934007042 19 22 15
-326.548478353812 -102.895472121417 1989.6520591375 19 22 15
-327.287774891395 -103.084733735169 1996.17375279262 22 25 18
-289.641409269992 -102.429877196518 2016.5748309109 22 23 17
-273.06345119451 -102.233203662737 2029.18302355474 23 26 19
-286.250245359567 -102.692017429781 2031.09470307623 26 29 22
-261.94574732307 -102.319722884557 2046.29999525981 26 31 25
-257.814533694709 -102.392543278196 2054.29541411974 24 29 22
-271.01259372346 -102.851526416889 2056.24788563018 23 26 17
-279.408260077739 -103.204083704587 2059.92066234804 27 30 21
-268.521101702731 -103.123289194889 2070.20566763579 33 31 19
-260.511384970555 -103.105219541984 2079.44455841398 33 29 17
-225.436837334834 -102.472303779305 2097.68962119536 51 43 30
-211.577244328315 -102.315573992947 2108.67639101136 84 70 57
-210.272580827545 -102.442460598457 2115.44221175522 79 47 34
-210.899978339917 -102.61266443015 2121.56140736977 77 45 32
-208.619243943051 -102.715575873462 2128.61472522767 120 91 75
-207.30238771604 -102.839723702188 2135.33700588899 108 81 64
-208.892488918077 -103.030067802216 2141.12056670063 87 61 44
-211.453901977296 -103.242529776869 2146.59920459113 70 44 29
-208.185327539464 -103.319303305115 2153.89861750631 113 90 74
-210.74507231492 -103.530741858746 2159.37263654313 98 76 62
-217.199635408309 -103.83284178445 2163.6629742046 96 77 63
-227.557454621329 -104.226759392388 2166.80115738347 35 15 6
-235.003737198234 -104.552947345995 2170.86295583396 57 39 29
-242.458891989002 -104.879778796828 2174.95635978264 74 61 52
-261.636992114122 -105.484157804287 2175.63997242436 85 75 66
-294.517683421472 -106.415569331936 2172.43994780831 23 14 5
-321.578437290264 -107.212425869448 2171.09729650942 18 14 3
-316.391297134481 -107.242937190989 2179.09529924649 15 15 5
-321.963952400321 -107.529468428749 2184.0174356323 17 20 9
-318.723892339105 -107.604658526696 2191.42371653419 14 20 10
-314.496117244588 -107.654960007775 2199.07483885833 24 29 22
-337.7343011416 -108.366637344667 2199.17879368268 26 31 25
-352.166468606819 -108.867683398992 2201.79038751907 18 23 17
-514.560493173688 -109.411776120885 1748.40505673415 91 82 77
-509.828807484835 -109.500624133361 1758.05724190756 94 80 77
-462.632292147849 -108.61260739321 1786.01000234982 99 85 82
-401.198843073759 -107.388307114119 1819.76465186509 67 60 54
-334.944653729351 -106.042086188098 1855.18127187622 29 26 21
-324.377481495594 -105.977301589403 1866.64421517117 22 21 16
-321.362452948686 -106.086106849974 1874.8638421043 13 14 8
-325.916400287849 -106.370809570219 1879.90304847919 16 19 12
-285.93040203324 -105.61132629208 1903.3725461847 6 11 4
-378.523147662785 -108.145092774196 1879.2705177369 17 22 15
-391.673876684003 -108.636994752084 1881.02740428376 23 25 20
-368.717854558169 -108.272419781412 1897.33812911002 22 24 19
-371.411425821144 -108.515099125643 1903.2883668435 18 19 14
-357.921036776388 -108.370540081883 1915.63823463779 20 23 16
-331.068593988647 -107.902691508033 1933.13372533023 21 24 15
-370.919460194179 -109.035591453752 1924.51296363581 18 21 12
-346.894016719673 -108.631681329515 1940.77429113634 15 18 9
-340.018988572165 -108.638804030658 1950.31383271871 12 15 6
-341.732324077663 -108.853018898262 1956.53986759284 12 15 6
-348.227666212696 -109.183353183726 1960.9647131693 14 17 8
-333.673770613427 -108.999420981951 1973.28716810332 17 20 11
-330.589692716034 -109.093914919949 1981.25946375126 16 19 10
-323.664072154109 -109.09284681664 1990.61633685988 16 19 10
-321.522111262233 -109.208111059721 1998.17709463184 19 22 13
-310.734363292725 -109.108457619339 2008.84309781286 20 21 15
-287.438501033301 -108.696086779542 2023.92223863959 26 29 22
-287.179911756264 -108.853138490735 2030.65656289837 27 30 23
-265.75096214587 -108.480875485958 2044.84829270764 25 30 24
-263.545262896814 -108.586284114651 2052.17862477075 27 32 26
-269.042647134711 -108.884133075015 2056.81507818748 31 34 27
-266.83129459671 -108.987992493477 2064.12539878699 31 34 25
-272.334553222546 -109.285741009816 2068.78372606988 29 26 17
-267.220203627516 -109.314648453753 2077.05299849681 36 32 21
-234.067427836531 -108.629931764995 2094.67328710505 40 32 21
-211.502057100495 -108.209494323316 2108.57337223156 77 63 50
-209.227482635629 -108.303528971937 2115.65516505313 81 52 38
-210.821749712512 -108.495741269684 2121.45301345934 79 50 36
-208.538579788357 -108.587973080969 2128.50403124235 115 87 73
-209.159970871299 -108.753980235129 2134.60264670164 101 75 58
-211.721444219572 -108.969604588107 2140.08044089596 86 63 45
-217.198998911252 -109.260365551599 2144.64774608423 60 37 21
-209.070708611322 -109.197966083841 2153.47438396954 93 72 55
-210.657820193832 -109.38672244194 2159.24784732696 89 71 57
-213.218565232659 -109.60050068724 2164.72410298679 92 74 62
-232.346180532624 -110.247564644425 2165.1933263248 30 13 3
-248.57403581373 -110.820462508546 2166.6339528366 47 33 22
-257.016884864255 -111.190080619124 2170.47020932514 51 38 29
-270.352393406823 -111.689229388058 2172.90857077446 71 62 53
-294.455733521642 -112.474181808558 2172.28209863348 24 17 7
-327.394553743666 -113.495961975759 2169.2408412565 20 16 5
-329.059317688871 -113.690262116984 2175.29911256272 16 18 7
-317.011467707583 -113.518822400722 2185.22824642807 19 22 11
-319.646143833573 -113.737136381092 2190.97613009877 17 23 13
-337.976890244539 -114.375441229679 2192.38951488336 21 26 19
-357.313866128391 -115.042386304562 2193.62350113885 25 30 24
-369.800017567762 -115.52687160286 2196.81394426545 15 20 14
-521.263281424584 -116.485646003278 1745.44534432639 118 110 107
-500.499915810888 -116.144234645937 1762.08877894938 74 65 60
-425.90285064196 -114.410690110949 1801.84414255917 63 54 49
-366.302506037861 -113.052761517363 1834.69647484653 35 30 26
-332.131675235577 -112.34488493098 1856.3441874466 24 23 18
-335.746262682068 -112.614364078776 1861.80166640047 23 24 18
-329.89688924448 -112.636834471613 1871.24232376207 14 17 10
-426.035577828574 -115.868759098787 1859.86490601475 20 25 18
-402.163715086575 -115.415782771289 1876.72835552867 24 26 21
-382.057465777148 -115.05851179819 1891.92522674499 21 23 18
-367.628857528258 -114.848864293292 1904.72908435149 16 17 11
-366.510634287398 -114.991999137821 1912.17686295158 16 19 10
-352.996560121247 -114.802242491011 1924.46732793273 20 23 14
-366.169569250164 -115.326694896682 1926.28545649411 18 21 12
-365.994798161565 -115.493007352096 1933.32513450955 15 18 9
-362.951381598787 -115.581112828684 1941.4524310636 14 17 8
-369.461510404835 -115.926963434958 1945.92238045876 13 16 7
-351.102198953177 -115.597744254414 1959.79400932616 13 16 7
-348.033194582756 -115.681503979746 1967.82904704535 16 19 10
-330.583056511184 -115.371620568704 1981.16865952549 16 19 10
-331.324864263575 -115.556464655786 1987.70246582409 16 19 10
-334.944411414694 -115.819809379301 1993.18130312102 20 23 14
-327.041940610849 -115.76593719696 2002.84098085426 21 22 16
-312.397269591147 -115.524282336318 2014.8628475087 27 30 23
-280.414719492835 -114.800270451406 2032.9564433013 28 31 24
-272.446187194473 -114.737053818574 2042.37674724995 25 30 24
-277.94933141297 -115.046573447747 2047.0272180964 29 34 28
-269.962182339145 -114.980221663119 2056.38038097727 35 38 31
-268.713783389428 -115.100444806916 2063.35930793253 32 35 28
-265.530339648811 -115.165539006286 2070.98123913563 21 21 11
-268.136615980187 -115.392237220369 2076.61838656888 33 30 21
-245.605020989109 -114.910863333739 2090.68234649783 24 20 9
-214.32902234546 -114.178897241111 2107.50700182485 84 74 62
-211.0856681359 -114.235047808708 2114.9130727623 89 66 52
-212.680550211791 -114.427417883755 2120.71310492698 76 53 39
-214.275449878615 -114.619298978923 2126.51351111963 88 65 51
-211.988411450169 -114.700165529676 2133.55734133493 72 49 33
-211.638153385011 -114.835401469893 2139.96416166323 76 57 42
-219.060240779588 -115.192497821383 2143.91661419951 40 21 6
-216.764566320312 -115.271008061745 2150.92986817598 45 27 13
-218.356613116123 -115.46039296831 2156.72125818052 60 46 33
-219.948651816369 -115.649343690619 2162.51289224902 73 61 49
-242.012216543122 -116.429500023151 2162.10880264465 22 14 3
-258.252473904987 -117.043228931366 2163.56969706786 26 18 7
-262.799242554909 -117.318949201564 2168.5869924028 20 14 2
-270.28130146321 -117.679999451779 2172.75868210827 25 18 8
-276.794092599729 -118.013044998168 2177.24660065912 21 17 6
-316.580949320052 -119.318840676985 2172.1753473612 21 18 9
-319.216255356814 -119.540830772322 2177.92231983808 17 18 10
-317.933268204584 -119.647464396124 2184.78140728801 20 23 14
-344.102473597081 -120.560933213353 2183.95130873096 21 26 19
-371.289121896474 -121.506938634318 2182.98098495878 11 16 10
-377.890481084494 -121.847476477454 2187.79208005955 15 20 14
-380.567767384592 -122.072047164397 2193.69421679835 10 15 9
-483.613645156694 -122.512703035862 1769.4083095175 176 175 171
-416.524270154063 -120.777369521876 1805.86603457359 61 60 55
-366.339396766348 -119.51615853721 1834.64911276005 22 21 17
-340.663480044919 -118.951601560155 1852.67755038264 18 19 14
-390.658803990304 -120.564280875954 1838.55502412226 8 10 5
-414.807942427941 -121.962296004986 1857.19499644393 22 27 21
-407.086773416386 -121.910791501328 1867.52631736938 24 29 23
-392.69629357481 -121.66225782402 1880.49628897282 25 28 21
-366.864045368163 -121.075201200555 1897.95850352981 23 26 19
-362.890024486683 -121.126920571875 1906.5508703308 19 20 14
-366.530732340804 -121.402041909214 1912.10083803314 17 20 11
-393.060969004078 -122.354042793867 1908.68960128734 17 20 11
-349.008416783982 -121.216866480509 1932.88637633392 21 24 15
-338.313616693926 -121.063986644037 1943.93108113411 19 22 13
-360.096486312057 -121.876406430898 1942.46445615011 14 17 8
-357.997190444423 -121.978213637353 1950.19304588592 10 13 4
-360.678629888012 -122.222233779841 1956.09739404196 14 17 8
-343.244958620851 -121.862402360264 1969.52875007475 17 20 11
-338.245033318689 -121.873465224651 1978.23412360789 18 21 12
-338.991157724752 -122.056360619557 1984.78611612027 17 20 11
-340.696179644608 -122.267707688413 1990.98309485833 20 23 14
-333.754157464535 -122.21676052779 2000.30963397647 25 28 21
-315.260541980958 -121.813555960223 2013.73025781892 27 30 23
-287.114430711275 -121.113463166446 2030.46555821663 28 31 24
-276.25714503476 -120.936014420728 2040.92249740371 30 32 27
-275.98175059418 -121.079829200556 2047.60278448948 31 33 28
-267.023961955095 -120.957059153039 2057.28409282663 30 33 26
-255.154941700461 -120.743018902058 2067.90408216483 31 34 27
-260.651124189084 -121.061033762017 2072.52334202873 30 30 20
-259.38708886929 -121.170610223046 2079.45093596467 22 22 12
-255.216858713895 -121.189614542162 2087.3354707589 36 34 22
-224.90150631683 -120.397695860039 2103.86834786014 54 46 35
-220.694574206918 -120.411386736469 2111.61997012019 80 58 45
-218.418032655981 -120.483906965141 2118.70804261517 73 51 38
-220.016427780636 -120.67627897706 2124.52111681853 79 57 44
-215.789373317114 -120.686285092493 2132.20035508869 79 60 45
-220.298364204928 -120.968496258085 2137.07329098562 80 62 48
-232.590361226267 -121.494820625908 2139.51646181311 49 31 17
-240.033001335243 -121.86965272554 2143.53309610432 28 12 0
-235.798745460172 -121.877006320306 2151.18727160753 62 52 40
-232.530499938624 -121.913663107665 2158.51230431196 63 55 42
-246.809064142721 -122.504158606983 2160.4971256484 47 43 32
-269.889979299841 -123.374816562485 2159.91680042553 15 11 0
-281.282439703299 -123.876572534084 2162.93199967867 20 16 5
-279.005607692178 -123.944185046251 2170.0230212497 23 19 8
-289.438694822892 -124.416011906262 2173.39147163171 22 20 8
-302.821245788119 -124.982721987307 2175.96090867821 17 19 8
-318.180016388119 -125.613655568789 2178.03447377555 17 20 11
-325.716811182155 -125.995044648436 2182.39654622466 19 22 13
-349.939108780229 -126.912724986943 2182.12794244494 19 24 17
-362.413804906252 -127.454604961716 2185.23961824418 15 20 14
-378.83421709371 -128.124515572213 2187.33299301725 16 21 15
-400.523913406271 -126.87667722984 1812.74840342137 12 13 8
-369.211490946149 -126.062523737908 1833.38603346229 7 7 5
-392.062794166405 -127.798360120934 1866.47664627972 29 34 28
-376.71610178653 -127.474663454839 1879.84109152406 30 35 29
-349.930221662225 -126.781281365029 1897.72610639506 30 33 26
-354.512357014681 -127.091823693269 1902.85272654034 28 31 24
-364.81440168594 -127.586649542261 1905.72012159638 25 26 20
-377.036001842696 -128.144315492141 1907.88213522892 21 24 15
-346.34325010785 -127.314564044606 1926.93400856899 18 21 12
-323.239394470923 -126.72591439603 1942.83732556432 18 21 12
-307.74173378781 -126.380627194287 1955.65488622166 20 23 14
-318.991168939353 -126.90367856989 1958.12561594337 20 23 14
-354.177523543727 -128.2089004929 1951.56017276177 20 23 14
-347.279321844968 -128.141943792658 1961.06044534617 15 18 9
-349.95181217007 -128.387095164708 1966.93085298012 17 20 11
-343.994076817503 -128.348574092297 1976.00861963049 16 19 10
-342.823893589354 -128.466145579979 1983.27962034691 16 19 10
-329.163039205332 -128.170972716769 1995.09167342767 19 22 13
-317.401738764627 -127.93611735674 2006.12474689265 24 27 20
-311.391988657338 -127.889407141241 2015.01363412708 26 29 22
-289.005434590544 -127.297837425444 2029.68567445836 28 31 24
-281.033680905356 -127.181969635508 2039.12725921338 29 31 26
-272.083547857042 -127.031750578477 2048.85432112624 29 31 26
-254.434193898514 -126.589294632682 2061.53705439905 30 31 26
-250.273549849476 -126.595081566881 2069.46552529226 27 28 22
-259.63189493787 -127.052786624226 2072.74983428852 27 28 20
-262.232986366125 -127.284170803521 2078.36477271958 27 28 20
-253.223284208195 -127.124607209605 2087.87656585507 29 29 19
-234.513534720856 -126.636148177643 2100.54762268585 34 30 19
-226.434039343926 -126.503689225606 2109.59965844742 52 38 27
-224.159152860519 -126.566010057034 2116.70124427174 55 41 30
-223.820012590629 -126.693058137003 2123.15451218117 64 48 35
-221.535294467232 -126.753281607575 2130.21999019449 74 58 45
-224.104844033779 -126.97784066127 2135.72212890207 78 64 51
-241.267158369864 -127.699608373589 2136.64098070053 55 41 30
-257.478915527996 -128.390451912948 2137.94737331207 31 19 7
-262.022164565336 -128.683383872896 2142.94073445546 32 26 14
-258.770531357856 -128.708877868854 2150.33449302821 35 31 20
-261.365278987313 -128.934184964576 2155.92971493011 45 45 35
-282.512207276534 -129.797558509197 2155.96704430456 22 24 13
-297.825462578723 -130.4617870879 2157.85059930366 21 21 9
-300.447748371669 -130.688885579247 2163.54600499334 21 21 11
-298.178754407866 -130.746479614995 2170.67152381688 19 21 10
-314.509269084028 -131.447736486816 2172.41226538405 17 19 8
-316.162121523551 -131.640687886106 2178.4271631293 18 21 12
-323.699026931562 -132.0377733351 2182.77973640053 19 22 13
-321.430547673179 -132.093549491257 2189.90831393843 11 14 7
-347.637515988595 -133.142024481826 2189.13318588266 14 19 13
-361.103742699777 -133.747555227234 2191.9887852387 15 20 16
-387.468411061994 -132.81356551376 1811.18352264894 24 26 21
-397.799903729137 -134.489608130258 1864.0703749976 29 34 28
-388.154387898811 -134.316892359582 1875.12706958621 29 34 28
-380.394912555293 -134.20804351931 1885.35237082105 30 33 26
-371.668997589679 -134.063798114038 1895.90813907844 28 31 24
-381.033923712078 -134.550880412586 1899.19740588943 26 27 21
-374.197531453239 -134.470507446145 1908.93563513805 24 27 18
-327.262886074089 -132.979618870011 1934.34496874089 21 24 15
-275.479340309394 -131.311007115492 1961.34602162555 20 23 14
-316.333239453493 -132.902450586742 1952.26257485919 20 23 14
-334.288380241739 -133.689647981524 1952.18740662429 20 23 14
-340.78049817761 -134.072725572604 1956.56698201917 20 23 14
-346.322209572825 -134.422369300374 1961.33438395597 17 20 11
-338.447323401385 -134.295175828165 1971.1427692469 19 22 13
-344.949840803225 -134.678387491122 1975.56087117472 17 20 11
-338.017248097469 -134.582498216417 1984.95172320346 17 20 11
-324.345521354318 -134.244129507673 1996.75068094125 21 24 15
-308.727732181266 -133.833674033229 2009.16244287326 23 26 19
-308.481296238621 -133.971941983142 2015.95374916417 26 29 22
-271.635923192673 -132.794119679359 2035.76167952458 28 31 24
-258.827572001326 -132.476447737029 2046.85586520761 29 31 26
-259.500371955207 -132.642746614246 2053.14609657267 28 30 25
-248.589284723006 -132.389813542055 2063.45093798039 32 33 28
-244.421303286274 -132.379032274172 2071.36169786411 30 31 26
-260.544328688931 -133.102909455951 2072.31779114603 28 29 23
-259.276230659348 -133.196476883999 2079.24040830214 29 30 22
-257.035807399471 -133.253822631071 2086.47216130612 28 30 19
-239.288413067906 -132.744947568607 2098.83282344242 31 29 17
-237.024988737049 -132.798622215008 2105.98149571872 49 39 27
-231.844989812032 -132.744638489899 2114.05935819506 49 39 27
-230.538830388944 -132.831406622262 2120.84495357626 47 35 23
-227.284848957923 -132.845862738798 2128.23789141697 60 46 33
-230.830875566268 -133.109253870771 2133.44373204834 69 57 43
-236.325947721166 -133.444239168058 2138.04815521503 69 57 45
-265.199864107493 -134.641652125648 2135.39003180579 30 20 8
-274.622084687097 -135.123237008445 2138.89642150999 29 25 14
-279.179382822191 -135.425245681703 2143.93621363818 29 26 17
-276.908777327021 -135.474017259721 2151.06131919956 28 28 18
-277.562437699078 -135.630448501333 2157.2867189571 17 19 8
-298.741760066672 -136.549616104979 2157.40909574747 21 23 10
-301.364326686123 -136.77943321269 2163.10382769887 19 21 10
-314.756071748783 -137.410641275981 2165.66760900018 18 20 9
-326.205950756715 -137.97027678852 2168.85945016587 17 19 8
-320.023830195395 -137.870617574142 2177.14178891416 17 20 11
-306.962362229613 -137.511720905726 2187.32315777968 18 21 12
-340.024000815522 -138.882144175034 2184.51778591308 14 17 10
-350.533707977927 -139.407774779885 2188.1367425878 16 21 15
-365.972414257389 -140.119612535199 2190.45601453605 9 14 10
-386.432074124084 -140.564697647983 1868.68423930691 28 33 27
-396.747979197781 -141.109621410496 1871.5714661207 28 33 27
-406.124896675692 -141.619933403639 1874.8915174939 29 32 25
-360.259534642826 -140.047451818264 1900.42515473547 29 32 25
-372.478165260938 -140.662829553309 1902.53970685314 29 30 24
-399.024336432949 -141.821628513545 1899.0570703363 27 30 21
-318.668576530366 -138.929862119603 1937.6453006654 28 31 22
-281.188331248116 -137.655372526784 1959.05342589395 25 28 19
-315.36827922687 -139.10211353506 1952.5592938267 19 22 13
-339.070633148247 -140.153379396299 1950.27590217584 16 19 10
-349.398528773866 -140.696512774303 1953.20877791388 16 19 10
-330.986741425384 -140.141141665636 1967.02928357209 19 22 13
-326.932213286382 -140.132823938455 1975.3597179634 19 22 13
-333.427286993398 -140.528287672625 1979.74244759491 15 18 9
-324.560585409622 -140.333417469772 1989.80746457943 15 18 9
-312.794190733104 -140.025100628422 2000.86800387883 21 24 15
-276.685254929339 -138.916264464091 2027.26387655142 27 30 23
-248.470390096372 -137.964301373689 2043.90292616371 30 32 27
-264.563087178937 -138.725511775134 2044.72284609684 29 31 26
-251.730636278034 -138.365222651543 2055.75446053892 29 30 25
-248.532614687025 -138.377254778253 2063.35669667804 29 30 25
-249.192993784364 -138.538586234202 2069.60301898442 30 31 26
-257.588400758846 -139.00107185653 2073.20542968026 25 26 20
-260.187192636518 -139.237533472866 2078.80862470277 23 24 16
-254.071074219874 -139.13268359649 2087.33929359041 25 28 17
-244.066357867717 -138.873973250087 2097.11663951611 26 28 17
-241.804092190407 -138.917355066231 2104.27611200013 28 24 12
-248.271940094815 -139.303084631281 2108.56390320745 30 26 14
-242.119152932602 -139.191943124282 2116.96240043589 28 20 7
-234.982581826582 -139.040691211322 2125.63087371466 36 26 14
-229.778800192041 -138.964287439502 2133.63459049561 47 37 25
-234.300437201897 -139.271269932728 2138.53883964563 67 57 47
-250.517757974231 -140.04142762502 2139.81488503974 45 37 26
-272.606481229596 -141.045861630394 2139.36353596212 19 15 6
-271.308366017544 -141.123017748829 2146.18506644468 16 13 6
-279.770253621306 -141.587675497283 2150.03293532046 22 23 15
-269.67642290695 -141.313365867527 2159.48833663362 18 21 12
-268.365984320772 -141.387681449505 2166.26590620937 15 21 9
-295.430576628367 -142.595058423866 2164.67739614613 16 19 8
-314.697925208794 -143.492850817571 2165.508053981 16 19 8
-327.130928521878 -144.118291394867 2168.41217674739 16 19 10
-318.983865869334 -143.918634095659 2177.25577397596 15 18 9
-303.951994243029 -143.440701950724 2187.98921377538 12 14 9
-329.165948237388 -144.579952051736 2187.36529888021 21 23 18
-337.704550421435 -145.049351927354 2191.4950000261 17 19 14
-346.253171879864 -145.519448450941 2195.66146094699 15 20 16
-421.647762676805 -148.447262544078 1854.17879691706 28 35 28
-393.928360161786 -147.482849223541 1872.66526143143 28 33 27
-387.115794679044 -147.359654256991 1882.51899039888 27 30 23
-382.196622667446 -147.311632347739 1891.56148810563 27 30 23
-361.053298319475 -146.604373627726 1907.02518729059 27 28 22
-367.555856259309 -147.016993074244 1911.42487319301 26 29 20
-325.349634366211 -145.44761452287 1934.95601094881 27 30 19
-306.975883470227 -144.843692481708 1948.9474619948 25 28 17
-304.834965844036 -144.899498484122 1956.55056105076 19 22 11
-349.600307391399 -146.872249566056 1946.16258508262 19 22 11
-340.776926237828 -146.65564374639 1956.4021650645 19 22 11
-333.855310776896 -146.515330826307 1965.86182021588 20 23 12
-323.082720566748 -146.215305839825 1976.71060529119 19 22 11
-325.735105037258 -146.465677520986 1982.5039970203 15 18 7
-310.130532039961 -145.963544484684 1995.02270843577 15 18 7
-294.499879702534 -145.457795832334 2007.44780410595 21 24 13
-285.580541498264 -145.226828299099 2017.34018159977 22 28 18
-283.387404694524 -145.272544108061 2024.75484248158 28 31 24
-275.40534582587 -145.077413189113 2034.20820870034 30 33 26
-274.161012088795 -145.160413922213 2041.22572927486 30 32 27
-270.016477073166 -145.122024129647 2049.24190072443 29 30 25
-257.169282509067 -144.720228781489 2060.24497969206 30 31 26
-256.868005591149 -144.839301075743 2066.8447913224 31 32 27
-257.531531998162 -144.998021564426 2073.10444740079 27 28 22
-258.193430296167 -145.156127643264 2079.35937555824 26 29 20
-254.978553899706 -145.151328443717 2086.90873050394 27 30 21
-251.756280584927 -145.145247642711 2094.43236030026 24 27 16
-248.52706217305 -145.137894338313 2101.93007868177 22 22 10
-252.087882869577 -145.414932378145 2107.1831599423 24 22 9
-252.736447026799 -145.569178504129 2113.39008899811 27 21 9
-247.548468975762 -145.47683932917 2121.4625421665 32 24 13
-238.457514260656 -145.218427208225 2130.73506826745 40 30 20
-240.064125857196 -145.410623051456 2136.57875984421 57 47 37
-249.468031704289 -145.93240362841 2139.99177307917 44 36 25
-259.859024896686 -146.496525190854 2143.14566687496 20 16 7
-263.429953431221 -146.771641750502 2148.43748967894 17 14 7
-263.096686722928 -146.880623941978 2154.92397082762 17 18 12
-276.446027873902 -147.571192895687 2157.29283735714 16 19 10
-271.225517507235 -147.47124973064 2165.24930517503 14 20 8
-280.679982323516 -147.996271080095 2168.84705887669 14 20 8
-302.882088065471 -149.066356872821 2168.7752276478 15 21 9
-311.388293391737 -149.552257011511 2172.77422820805 16 22 12
-322.848038840997 -150.164907850135 2175.96923043513 16 19 12
-339.231677495512 -150.989394121364 2177.82848130775 14 17 10
-330.089169408058 -150.718838591102 2186.91726655428 15 17 12
-313.064016471496 -150.107707796399 2198.12770796668 22 24 21
-293.059265248201 -149.365888282636 2210.04788511669 53 58 54
-412.181145543698 -154.594241361952 1858.0125335755 27 32 26
-354.92837417433 -152.272623649695 1888.49947785607 29 32 25
-366.184044910125 -152.903957229564 1890.92499536484 25 28 21
-347.896982081261 -152.257522559988 1905.26514246166 22 25 18
-357.250946796401 -152.806309624821 1908.47568357923 22 25 16
-374.255918584888 -153.687800382658 1908.70951256744 22 25 16
-352.103393733578 -152.868749694365 1924.39407708457 16 19 12
-333.740517667237 -152.211265072561 1938.45972085099 13 16 7
-341.188195601753 -152.676073318401 1942.43825337265 14 17 8
-342.897884065452 -152.890761766528 1948.65044850143 17 20 13
-341.732153182416 -152.979358445431 1955.95627308003 23 26 19
-336.725348595726 -152.899105744972 1964.69375704524 20 23 14
-334.588192429683 -152.943389135242 1972.31809643959 18 21 14
-330.524407353618 -152.902258162905 1980.63487820311 18 21 14
-308.18547081129 -152.056680121389 1995.6440806293 18 21 12
-293.507572600223 -151.545023704358 2007.7130460825 24 27 20
-285.545012555673 -151.32704842312 2017.25323034791 26 29 22
-292.984896939045 -151.787316022944 2021.20569366786 30 33 26
-291.755031043337 -151.86468258518 2028.28048762229 30 33 26
-296.310873793418 -152.197341307712 2033.29552535461 29 32 25
-274.796800249923 -151.374627252784 2047.45652691827 28 31 24
-259.04703793268 -150.804579086652 2059.47905690269 27 30 23
-245.205539545497 -150.316832115681 2070.74199541524 27 30 23
-251.666440346343 -150.730143259667 2074.9856508011 28 31 24
-247.479943800186 -150.669252772764 2082.86023307253 27 30 23
-251.039222645432 -150.952784508436 2088.10348996186 27 30 23
-246.841253256274 -150.889585101213 2095.93693354726 26 29 20
-244.576264083121 -150.911798262803 2103.0996590053 21 24 13
-245.219964966905 -151.063315687102 2109.2902544394 19 21 10
-249.750975646825 -151.388596677855 2114.21775347578 17 19 8
-254.286314741325 -151.713887257017 2119.16131701354 18 20 7
-249.089634418235 -151.601680892803 2127.21400345463 35 28 18
-252.651906288844 -151.882439401469 2132.47012373086 40 33 23
-261.092549273711 -152.382679274843 2136.21665080959 26 22 11
-275.398104847737 -153.147804888171 2138.19143350042 25 22 13
-271.16871484921 -153.07680521301 2145.91221417983 22 22 14
-272.793898196867 -153.269387096975 2151.82461530262 10 13 4
-276.374831933514 -153.55002217106 2157.15010135996 18 21 12
-286.809586612477 -154.141040665398 2160.44949166362 14 20 8
-280.607265687826 -153.977617753893 2168.69801650482 14 20 8
-286.155143798538 -154.346633238753 2173.47608393433 16 22 10
-307.40203053587 -155.429670915802 2173.74585500163 19 22 13
-324.751480182748 -156.336762842306 2175.24249952455 17 20 11
-337.212409206443 -157.022217533979 2178.21241521111 14 17 10
-324.130984404615 -156.542533881299 2188.39594683441 12 14 9
-309.060587164887 -155.970088246661 2199.04601945156 33 35 30
-328.472294985925 -157.276028594731 1892.32243568441 27 32 26
-375.897239311259 -159.59351920713 1879.90243191794 30 33 26
-362.390137890535 -159.113628543904 1892.40196076549 25 28 21
-354.583377856418 -158.894118387368 1902.52156897358 22 25 18
-361.081249391079 -159.332761232436 1906.8864963381 22 25 16
-357.07792814765 -159.286672697634 1915.43182742951 21 24 17
-367.40658878992 -159.902246963581 1918.32180814011 16 19 12
-344.262123913647 -158.968714352486 1934.29209203663 14 17 10
-334.48482457037 -158.651591500653 1944.95067134176 14 17 10
-338.105110352299 -158.954504981607 1950.40726938813 15 18 11
-338.851652543645 -159.123750922755 1956.96850158341 18 21 14
-344.394865051857 -159.515715984073 1961.71568640662 16 19 12
-316.331715412453 -158.341864942757 1979.05904225596 16 19 12
-310.328779773218 -158.19326308712 1988.03755932217 17 20 13
-318.741101545113 -158.716800012518 1991.66422674891 18 21 14
-295.400820633573 -157.755565739218 2006.9249734647 24 27 20
-272.023165245293 -156.789315724246 2022.05012275028 28 31 24
-273.670815829937 -156.993132132476 2028.03884743005 30 33 26
-294.611902828327 -158.102208220232 2027.1568047124 31 34 27
-286.620203009547 -157.853221558456 2036.60837766955 29 32 25
-276.682073005075 -157.51113639674 2046.68465512478 29 32 25
-250.290383800054 -156.392105256766 2062.40563576278 25 28 21
-247.078122984351 -156.362891682125 2069.98104482803 25 28 21
-249.668607008181 -156.606732560708 2075.54780651513 26 29 22
-249.353341778257 -156.712864823351 2082.10385194317 26 29 22
-247.095942350835 -156.726453204943 2089.30020187414 26 29 22
-251.625813456107 -157.060787255027 2094.21775426548 26 29 20
-253.246548096296 -157.256956037807 2100.11137362922 21 24 13
-252.923459512027 -157.360334965795 2106.64011078728 18 21 10
-256.488072519174 -157.647971353785 2111.89965188917 17 20 9
-262.975313127939 -158.074473967541 2116.23370243845 18 21 10
-260.703603538372 -158.083605637233 2123.37973527667 19 22 11
-266.224093741198 -158.463671244006 2128.05006932609 20 23 12
-268.824123696456 -158.704225911209 2133.65434792746 21 24 13
-278.258706748942 -159.271175147925 2137.15274248631 20 23 12
-276.95876701891 -159.324580445712 2143.98249391599 19 22 11
-275.654483234262 -159.377021200721 2150.7967256841 15 18 7
-280.216067288549 -159.710170634579 2155.83276994423 14 17 6
-289.677220336253 -160.278373182517 2159.42902241265 16 18 7
-291.311559892537 -160.470685400659 2165.37558899639 16 18 7
-287.062903648885 -160.379318839927 2173.03769646906 18 20 9
-310.280023147837 -161.610168776175 2172.73659393423 19 21 10
-307.016048849673 -161.565551219495 2180.12879722002 16 19 8
-310.623338624681 -161.851689572867 2185.5486635997 16 22 12
-340.785576214583 -163.420956235196 2183.54273496858 9 15 5
-328.672149952766 -162.947294795974 2193.41920393131 10 15 9
-364.657367709731 -165.319192670777 1877.41841242865 30 35 29
-367.345259042843 -165.586552804086 1883.33290856012 31 34 27
-426.294176301273 -168.597690073846 1866.50166476922 27 30 23
-389.902753852863 -166.959577134373 1888.28562813723 24 27 20
-366.82365938917 -165.967462415569 1904.5356052394 21 24 15
-357.087368537651 -165.625267803692 1915.36134101124 25 28 21
-343.508030536186 -165.093004625946 1927.62573485642 18 21 14
-337.562852427633 -164.933153388606 1936.82672560708 17 20 13
-339.269355820731 -165.147906715371 1943.027054232 17 20 13
-337.141659781603 -165.173723154752 1950.69724726699 15 18 11
-337.886262320032 -165.340203043965 1957.25302425154 14 17 10
-341.509629710067 -165.648036473507 1962.71795750685 12 15 8
-309.588067293955 -164.201546314134 1981.49412357046 15 18 11
-287.230859393103 -163.223389695252 1996.51919119671 17 20 13
-295.627890231295 -163.76338344546 2000.0786964059 21 24 17
-287.665631647122 -163.493597689958 2009.65271035575 25 28 21
-275.83457481674 -163.030526923034 2020.57087527842 28 31 24
-276.519992633729 -163.186724703057 2026.91340257763 31 34 27
-276.238807693363 -163.294401216027 2033.59500648243 32 35 28
-275.955034330578 -163.401337979993 2040.2665380984 30 33 26
-258.271093511007 -162.641210365194 2053.02141839648 29 32 25
-255.066751003408 -162.600348391491 2060.63358077713 25 28 21
-260.566886610265 -162.992848084726 2065.22049196985 25 28 21
-258.323547071301 -162.998617757042 2072.47397983472 26 29 22
-243.472336612142 -162.372930987846 2083.97146367383 26 29 22
-244.11852938936 -162.52089514679 2090.17355436558 26 29 22
-241.850553803777 -162.522320748035 2097.33924505945 26 29 20
-252.207317458113 -163.156222296847 2100.32199585887 20 23 12
-254.798726184234 -163.400697156483 2105.8927195444 18 21 10
-261.283751306769 -163.8404537376 2110.20924754388 18 21 10
-265.828471389887 -164.182686150429 2115.17694466689 19 22 11
-271.351885543701 -164.574036658623 2119.85101007726 19 22 11
-269.079890741057 -164.572246376509 2127.00287952382 21 24 13
-273.633251153584 -164.914091693111 2132.00290088876 21 24 13
-275.261099768809 -165.107934974104 2137.9244012476 20 23 12
-271.024968808805 -165.004766774361 2145.64139260312 19 22 11
-262.868048026268 -164.701982762509 2154.51349733478 16 19 8
-271.335612785659 -165.240284942663 2158.33594913788 15 18 7
-290.587477530047 -166.325933628716 2158.9905158957 16 18 7
-325.548768216731 -168.210527437229 2155.11998980529 17 19 8
-318.379045229086 -167.956429742243 2163.7303080879 18 20 9
-290.247503493341 -166.741925097781 2184.74172442904 14 17 6
-311.53816132282 -167.933860215596 2185.10525683934 17 23 13
-334.825285482677 -169.229092755599 2185.02249106187 7 13 3
-388.64094965784 -172.796040932231 1860.43249880264 24 29 23
-364.676743973642 -171.696947198304 1877.36009275414 31 36 30
-384.522317882159 -172.850327222099 1876.27990286942 31 34 27
-397.717974451235 -173.662736026278 1878.00031634203 27 30 23
-388.018753883437 -173.294681856669 1888.98094220525 25 28 21
-373.525517818062 -172.67723870346 1901.80231021982 23 26 17
-345.622437419048 -171.364104423925 1919.82697890854 25 28 21
-337.768225226992 -171.085267907993 1929.80786211212 24 27 20
-348.093273777088 -171.747215197521 1932.65515433301 25 28 21
-356.514748428328 -172.310918548664 1936.29044562837 23 26 19
-344.807451502038 -171.829588123044 1947.68056403375 19 22 15
-353.234410587598 -172.393225442612 1951.3353306252 16 19 12
-324.214441569934 -171.008123113958 1969.1558970425 12 15 8
-308.604545259332 -170.31798736102 1981.77446813473 20 23 16
-276.617257937061 -168.771404652218 2000.3688746768 23 26 19
-259.018382708313 -167.971898329241 2013.46444849605 26 29 22
-243.317281729302 -167.269250243376 2025.75229416209 28 31 24
-303.749173209951 -170.547573955804 2010.36110606395 27 30 23
-298.665692924391 -170.400484750207 2018.8561052577 32 35 28
-260.745918996727 -168.5308069862 2039.0090464464 32 35 28
-238.226278206093 -167.46468893401 2053.48656683303 31 34 27
-250.479859234541 -168.222307821973 2055.64015033414 29 32 25
-255.975688525518 -168.625285083347 2060.20445803199 29 32 25
-265.350702434497 -169.232424463115 2063.4563100839 29 32 25
-261.170504675225 -169.125724494014 2071.3822712029 28 31 24
-249.222955417536 -168.608289325244 2081.9031744347 27 30 23
-241.137521387117 -168.292977211109 2091.04860505388 24 27 20
-242.750076478739 -168.488691002598 2096.91214261463 24 27 18
-249.222556824822 -168.941005068482 2101.17416617937 21 24 13
-254.729414281011 -169.342225056505 2105.78052874359 21 24 13
-262.188945456141 -169.846876608013 2109.7779150471 22 25 14
-267.70879219007 -170.248732374964 2114.43210285621 22 25 14
-276.15895898444 -170.806136010989 2118.17789976583 22 25 14
-275.839327447537 -170.897718917335 2124.72599063122 21 24 13
-274.540363771594 -170.936535553083 2131.56857647591 21 24 13
-275.190922856135 -171.078368698894 2137.79167823422 19 22 11
-278.773452120834 -171.375904538111 2143.11148889365 18 21 10
-266.703713010352 -170.838351543538 2153.19049747012 15 18 7
-282.030238445595 -171.761435286685 2154.95989427278 15 18 7
-304.23607633112 -173.052966948364 2154.76211043266 15 16 8
-335.297876238269 -174.819548246864 2152.07425683758 16 18 7
-353.64538617585 -175.907885808347 2153.26575421552 17 19 8
-330.771347854884 -174.788937800462 2166.4608201004 16 18 7
-315.723525575824 -174.087020210246 2177.27645093675 15 18 7
-324.254742517589 -174.648252126747 2181.32075418237 15 18 7
-341.653919981786 -175.685986270076 2182.91954768811 21 27 17
-433.30496029534 -181.787577562735 1849.13425667596 31 36 30
-340.680364470257 -176.892072835637 1894.09164042319 26 29 22
-350.983846105291 -177.576596419209 1896.84460542528 25 28 21
-369.89593174233 -178.729873551668 1896.19494189175 25 28 21
-368.762442622102 -178.793604785888 1903.6361725565 24 27 18
-352.32071636012 -178.022690064818 1917.11271304689 23 26 19
-360.739651921971 -178.60522043439 1920.72669080717 24 27 20
-373.000553573521 -179.397861948783 1922.88627191669 23 26 19
-362.269282211009 -178.934890965062 1933.99134134732 19 22 15
-358.235134107182 -178.836540078742 1942.45521406076 16 19 12
-339.790851951039 -177.948192960138 1956.36436746557 10 13 6
-328.042240986667 -177.424298000143 1967.62703894111 11 14 7
-304.734819474071 -176.264537281401 1983.13512536958 21 24 17
-277.540990714959 -174.888370248155 1999.93658158435 24 27 20
-260.896891014152 -174.088511591102 2012.68095186896 27 30 23
-285.665260284563 -175.564627087943 2010.19091807271 29 32 25
-320.112848003145 -177.575585308976 2004.33333366998 30 33 26
-313.107560869682 -177.304863576107 2013.56466559786 33 36 29
-236.54624950722 -173.195898570295 2047.52688420334 32 35 28
-242.995821222563 -173.661968794826 2051.69516759369 30 33 26
-255.256360408567 -174.449311646308 2053.85674823805 29 32 25
-254.94830684081 -174.542009674099 2060.44805082687 28 31 24
-255.606329250473 -174.687616056638 2066.69555120194 28 31 24
-256.26294630397 -174.832540005161 2072.93826461811 27 30 23
-260.7989086523 -175.192158139075 2077.86246955418 26 29 22
-252.717268222075 -174.851174363137 2087.03819281069 23 26 19
-246.564377235203 -174.615945768538 2095.51557567209 22 25 16
-245.261894823297 -174.649243118923 2102.34858172764 23 26 15
-246.874364197752 -174.844051617668 2108.21237259179 23 26 15
-258.224858712747 -175.580944513355 2110.92330758187 24 27 16
-265.691720927566 -176.101694264547 2114.93774903836 24 27 16
-275.117821152889 -176.73194928069 2118.36375154502 22 25 14
-277.723500119884 -176.981569431874 2123.9842093703 20 23 12
-273.493848859089 -176.848649985065 2131.7440419589 20 23 12
-271.210448447277 -176.823647123508 2138.86821982152 18 21 10
-285.549338446733 -177.728494591082 2140.87855363637 16 19 8
-298.928161340805 -178.580226143791 2143.25420144921 15 18 7
-291.753236653538 -178.279891394078 2151.87439849646 14 17 6
-305.151214967431 -179.13292124151 2154.32127597592 15 16 8
-315.623649295467 -179.822254617221 2157.69849256233 17 19 8
-326.109006538481 -180.51262046144 2161.12303755266 17 19 8
-312.046002802448 -179.822056873227 2171.69161791335 16 18 7
-312.707517567437 -179.958766774483 2177.9577014918 16 19 8
-331.077412011179 -181.09284471311 2179.20343007429 16 19 8
-340.61018545687 -181.729436452008 2183.02241768827 15 20 13
-376.939520045958 -185.252797411312 1879.26218120172 23 26 19
-365.313732622214 -184.711220557193 1890.99203583313 20 23 16
-387.109729613059 -186.077491977666 1889.22447728418 22 25 18
-362.08212614055 -184.767680790876 1906.23416904328 24 27 18
-364.765009835461 -185.040931602071 1912.12635372995 21 24 15
-379.898968998051 -186.027346754447 1913.13987654537 22 25 16
-370.135661099263 -185.587008903106 1923.92819484194 18 21 12
-361.314413289054 -185.19911250481 1934.28383941378 6 9 0
-356.316353134348 -185.029444987016 1943.11117059832 6 9 0
-358.032123704375 -185.244692445134 1949.3455944662 6 9 0
-336.678375949123 -184.131954531644 1964.28403111745 8 11 2
-294.127015704377 -181.7954667403 1987.01805043431 22 25 16
-265.949759627691 -180.282811296108 2004.15072578711 28 31 22
-277.22712285935 -181.043277659688 2006.57525560197 31 34 25
-272.129008666435 -180.858738570997 2015.03956586153 34 37 28
-287.282390535061 -181.843594611325 2016.12711474195 35 38 31
-261.902509660185 -180.484549123149 2031.85995351102 34 37 30
-261.605847550521 -180.574744910832 2038.49420111197 30 33 26
-253.570242416499 -180.215834372803 2047.85216241971 29 32 25
-259.0682981164 -180.640529345295 2052.41102491167 29 32 25
-251.014064369413 -180.278482286405 2061.70180206565 27 30 23
-251.66795923836 -180.420954044065 2067.93595672907 27 30 23
-258.139557987076 -180.901161104326 2072.17802594164 28 31 24
-261.706800142711 -181.212381423724 2077.43243889692 27 30 23
-262.362735646536 -181.353767700971 2083.67578437569 27 30 23
-263.98946457068 -181.551265182981 2089.59082046978 26 29 22
-259.779835354168 -181.407887875217 2097.43066450801 26 29 18
-259.455217836723 -181.490294072186 2103.96696612128 26 29 18
-258.153602902238 -181.514997908195 2110.80861844558 27 30 19
-267.571962988046 -182.16561577196 2114.19302729525 26 29 18
-278.953014349744 -182.931431050283 2116.99915378987 23 26 15
-282.537424960852 -183.24112037427 2122.31920546825 19 22 11
-280.262392406629 -183.207149477275 2129.48011349414 18 21 10
-276.025879252598 -183.057319593984 2137.22514558237 16 19 8
-292.329879820193 -184.111979264218 2138.6433964125 15 18 7
-306.6968885431 -185.053727727803 2140.73483217931 14 17 6
-318.142678018466 -185.824373038177 2143.77826917226 13 16 5
-307.047049992782 -185.26952552007 2153.58855975852 18 19 11
-304.765377542352 -185.231898366152 2160.7271235204 20 21 13
-280.87101308554 -183.920262425414 2174.15189189909 19 20 12
-287.407330392439 -184.399867214891 2178.63462867595 15 17 6
-302.802985182178 -185.402114312049 2180.61070962541 14 17 8
-321.171851704327 -186.580430820838 2181.82376279669 15 20 13
-341.534802802333 -187.877582673202 2182.57372300735 11 16 9
-452.579339267776 -195.91916653027 1833.84232082878 22 27 21
-400.970316186748 -192.957680150573 1862.30759558787 28 33 27
-380.777406311668 -191.86908635692 1877.6444320526 23 26 19
-389.206344672297 -192.491014953737 1881.27067426608 17 20 13
-371.836744257978 -191.567861664098 1895.2955647564 17 20 13
-374.527239566415 -191.845162811094 1901.21252367976 20 23 14
-378.176307902757 -192.179602276141 1906.75701087599 21 24 15
-371.290234566938 -191.881242572079 1916.44748041489 18 21 12
-340.422005061262 -190.140301151398 1935.42404585473 15 18 9
-349.8033656012 -190.816851657533 1938.6547101295 9 12 3
-353.43488300019 -191.147586043544 1944.13637332816 10 13 4
-355.147675413427 -191.362546829347 1950.35992087347 10 13 4
-338.589361870846 -190.475446693346 1963.47787805259 9 12 3
-276.772925040903 -186.854941123878 1993.42708728712 20 23 14
-272.646500777463 -186.712117560525 2001.57550540314 26 29 20
-279.112989296122 -187.208543618147 2005.78836150724 30 33 24
-268.225506158189 -186.65535573472 2016.37040545997 31 34 25
-245.736636957856 -185.398174448286 2031.08187303163 31 34 27
-237.700883656494 -185.01406776273 2040.45612077409 31 34 27
-257.684781496559 -186.327450126262 2039.78755441286 30 33 26
-265.119886690843 -186.880659899572 2043.66359471766 29 32 25
-257.073715627821 -186.493897050904 2052.99991129274 27 30 23
-258.701602136178 -186.693781302722 2058.91773838862 27 30 23
-261.299007625969 -186.95212045613 2064.50197369305 26 29 22
-262.927687864202 -187.15117224445 2070.42327332626 25 28 21
-251.933366465193 -186.581006670832 2080.61936658014 26 29 22
-258.411468896614 -187.074205253202 2084.87645150247 28 31 24
-263.92419682742 -187.508511138628 2089.48372128481 28 31 24
-264.577010780411 -187.646063272159 2095.71696871226 26 29 20
-265.228396650114 -187.782988109564 2101.9453099883 24 27 18
-263.929049897976 -187.800098042449 2108.80017802199 25 28 19
-270.427880026317 -188.29350590055 2113.13501771721 24 27 18
-278.886114286803 -188.906922837121 2116.87540368172 21 24 15
-292.238356306012 -189.820220775064 2119.11349212331 19 22 13
-294.855378829262 -190.075918592795 2124.7722292292 15 18 9
-289.648270495399 -189.851219216757 2132.85722070871 11 14 5
-291.283538931835 -190.045660688358 2138.80589174323 13 16 7
-295.857723113574 -190.420010669771 2143.86270593818 19 22 13
-305.337923874083 -191.09575320243 2147.46178371443 19 22 13
-297.170145150099 -190.68608756185 2156.36105450265 20 21 13
-294.878809468103 -190.636829323011 2163.47108383779 18 19 11
-300.441798743668 -191.070593880557 2168.26530590835 17 18 10
-295.194850574923 -190.837936377685 2176.20740423401 17 18 10
-302.729363049667 -191.392476213995 2180.45168455571 17 20 11
-318.14987319828 -192.433701954544 2182.49543950626 15 20 13
-355.269577501457 -194.815667487504 2178.53202489872 16 21 14
-456.447194205175 -202.760397861528 1832.19382263753 24 29 23
-394.322382634829 -198.993903228647 1864.986587137 27 32 26
-385.572586582815 -198.56020123723 1875.63643733639 27 30 23
-368.206714772483 -197.585727626257 1889.70850138927 23 26 19
-351.768854746935 -196.667089251142 1903.29266143952 20 23 16
-342.959473525818 -196.224827848875 1913.72761657083 14 17 8
-352.331387915139 -196.922179324273 1916.91007649671 15 18 9
-362.673081544971 -197.680853491945 1919.75902937167 17 20 11
-336.580022874748 -196.149963509347 1936.84786374502 17 20 11
-341.161382825318 -196.545419408973 1941.91799499138 14 17 8
-354.392411049129 -197.485315278846 1943.69017684862 14 17 8
-352.259864148043 -197.458061038604 1951.37586563272 15 18 9
-323.18434751451 -195.731431492341 1969.20581704537 13 16 7
-300.80238815248 -194.423938323993 1984.34598418126 21 24 15
-290.909551243754 -193.902303973971 1994.70471300427 26 29 20
-289.677403532642 -193.92643484849 2001.80464525164 27 30 21
-262.388140219072 -192.302330345724 2018.40830640893 28 31 22
-253.403000298849 -191.833322365024 2028.20666130515 26 29 22
-250.20006453724 -191.729022287444 2035.86409815572 25 28 21
-254.72679340211 -192.11376958308 2040.73815574023 23 26 19
-257.322191784954 -192.375804719415 2046.31260559981 23 26 19
-263.793352226596 -192.88339298792 2050.53483138016 24 27 20
-268.333191973643 -193.268385761878 2055.45741211837 24 27 20
-268.997358983244 -193.407027004596 2061.73305263585 25 28 21
-248.3052318025 -192.187217381177 2075.29923589427 25 28 21
-244.094065066919 -192.013565959772 2083.15248491603 25 28 21
-253.483739797911 -192.705006881927 2086.405546146 25 28 21
-262.885188468311 -193.397340250769 2089.70082923875 24 27 20
-264.509539311053 -193.594158331019 2095.60746492138 21 24 15
-268.0823232355 -193.914749446391 2100.87746617059 20 23 14
-258.98314608951 -193.426140421024 2110.26479827171 19 22 13
-272.309599051367 -194.368696511223 2112.38959395472 18 21 12
-279.794855564183 -194.938393318145 2116.44142722592 17 20 11
-297.060397429051 -196.133595540799 2117.44464084149 14 17 8
-292.83540792943 -195.954308937081 2125.25105543117 14 17 8
-286.644666906338 -195.648033239643 2133.63183492536 18 21 12
-283.380159039493 -195.528235913225 2141.07045076861 17 20 11
-293.829270759459 -196.286906607582 2144.31729912923 22 25 16
-293.502712812257 -196.354415719784 2150.85580154657 23 26 17
-277.469624111502 -195.412915067253 2162.06091185361 19 20 12
-272.214778168921 -195.161898696045 2169.9852781213 18 19 11
-323.959568619398 -198.573900566808 2161.22310906521 16 17 9
-315.775269410841 -198.134654146379 2170.07971828796 17 18 10
-320.373337783576 -198.516849896562 2175.22025639523 16 19 10
-332.85651833099 -199.406533436572 2178.14291920235 17 20 11
-359.156524593249 -201.186808874907 2177.25120231579 14 19 12
-430.62146115981 -207.790586765538 1850.03011233614 28 33 27
-381.773320217842 -204.71004216146 1877.13127831419 29 32 25
-362.483906815974 -203.556792412586 1891.96712010454 27 30 23
-344.119812078373 -202.46178858436 1906.30446590594 24 27 20
-352.532850534966 -203.117577910064 1909.85029700045 18 21 12
-361.914155490242 -203.837107322618 1913.05454929123 13 16 7
-341.582961505926 -202.609015728103 1927.96603556998 16 19 10
-342.329270320209 -202.76136689064 1934.53706776073 16 19 10
-336.352276502889 -202.471840362736 1943.70087418782 15 18 9
-343.817881803052 -203.064335024254 1947.66535298606 16 19 10
-349.368677122839 -203.531175827818 1952.3934186786 16 19 10
-335.67645456822 -202.732031447253 1964.40718912274 14 17 8
-312.329631174217 -201.295576216476 1979.94367451786 21 24 15
-313.042668517843 -201.441422113054 1986.39528334347 25 28 19
-287.709828446729 -199.86986451985 2002.43694441512 27 30 21
-273.920727423025 -199.057089471807 2014.09962978109 27 30 21
-282.327666810692 -199.70743656532 2017.62625216857 27 30 23
-275.276724517287 -199.337094924779 2026.75004120779 26 29 22
-260.472857677858 -198.453180087764 2038.58633431146 24 27 20
-262.104013717481 -198.654308973132 2044.51551473966 25 28 21
-272.455377439877 -199.432066884211 2047.38832229648 26 29 22
-274.0931185915 -199.63320640754 2053.34194523864 24 27 20
-243.708827533245 -197.712184427496 2070.33172331548 26 29 22
