ply
format ascii 1.0
comment KinectMotionCapture
element vertex 755
property float x
property float y
property float z
property uchar red
property uchar green
property uchar blue
end_header
-1289.56732181615 427.294371909608 2607.25690659522 126 128 125
-1284.81342040284 425.979394810651 2616.05249542136 123 125 122
-1278.03395521068 424.365461019087 2624.93238712225 115 117 114
-1273.25772037691 423.053066891766 2633.64668708855 129 131 128
-1261.40845497933 420.692501064889 2642.71455084392 150 152 149
-1253.57732293256 418.933605080214 2651.49460847911 120 122 119
-1246.74173385497 417.326151465153 2660.17021443758 120 122 119
-1239.89285576094 415.720231180827 2668.79744894731 128 130 127
-1227.97177949935 413.367948976688 2677.60392288491 112 114 111
-1219.06784809221 411.466525852754 2686.20722296797 135 137 134
-1209.13437103292 409.417522620289 2694.79209688218 136 138 135
-1195.127554657 406.77320731334 2703.46382194728 138 143 139
-1184.14151302659 404.579333076763 2711.94558632232 127 132 128
-1176.18265334739 402.835164300813 2720.26071428086 126 131 127
-1181.41833904701 403.030858742392 2728.13345016741 130 135 131
-1168.3554971526 400.543980562912 2736.51211562194 115 120 116
-1148.14795409425 397.017104297742 2744.98433538876 129 134 130
-1131.98152354276 394.08924924659 2753.25239393283 135 140 136
-1128.01679945232 392.949574430551 2761.19147076175 123 128 124
-1128.12150971237 392.405600219583 2769.03037238624 105 110 106
-1122.10092225774 390.970444126139 2776.94344986325 113 118 114
-1125.2582871159 390.87324016814 2784.70843688023 93 98 94
-1120.24233493694 389.588467652848 2792.55015216696 103 105 102
-1122.37376033065 389.343322390151 2800.30894502039 90 92 89
-1114.27245490113 387.615532501185 2808.10554059842 119 121 118
-1113.32422427612 386.926714561893 2815.83995272433 116 118 115
-1107.24797024784 385.497882941911 2823.5512730877 116 118 115
-1107.31257293203 384.958563535495 2831.24327292133 117 122 118
-1105.321770245 384.1237080773 2838.91093925954 124 129 125
-1103.32474409886 383.289498463786 2846.55683588883 110 115 111
-1104.40455689385 382.899339603016 2854.21596366369 107 112 108
-1103.42610863875 382.213967743193 2861.84035932575 130 136 132
-1103.47203895525 381.676706881924 2869.46526099796 154 160 156
-1103.51512007503 381.139831421943 2877.07889846084 155 159 160
-1108.70683087652 381.340525130563 2884.79152044496 153 157 158
-1110.80936996509 381.098635868958 2892.44511977758 155 159 160
-1111.87968244426 380.709462123319 2900.07052571444 143 147 148
-1115.01377304984 380.614911955955 2907.74984643515 150 154 155
-1124.3481892723 381.402906033791 2915.62810184714 172 176 177
-1139.89603665773 383.071998954009 2923.75210870026 167 173 173
-1170.981801982 386.943285669419 2932.50718753317 185 191 191
-1372.65389557232 433.779181926949 2557.45143162089 153 158 154
-1354.94410810337 430.550274474294 2567.59188046269 159 164 160
-1329.170611164 426.142316653166 2578.22138692541 143 148 144
-1310.39160828461 422.773036442667 2588.20067390481 124 129 125
-1296.61122200225 420.145531335785 2597.72277358597 113 117 116
-1288.84588086885 418.406008709218 2606.76026033448 121 123 120
-1279.05178352124 416.373294186009 2615.87197861626 113 115 112
-1270.24790392496 414.48999691308 2624.85819517685 114 116 113
-1260.41903051091 412.461234096616 2633.84422066315 147 149 146
-1255.61936833791 411.170662914104 2642.4853173754 142 144 141
-1251.81925076289 410.028437506268 2651.03486464642 117 119 116
-1244.97779815916 408.446055702854 2659.70452951089 127 129 126
-1234.07712734971 406.277281846259 2668.51910607784 122 124 121
-1222.14529957766 403.963807511668 2677.31016302156 116 118 115
-1215.25751069048 402.386761263299 2685.81115893736 134 136 133
-1209.37025200272 400.958006287728 2694.22330132481 134 136 133
-1190.28430277758 397.624070708203 2703.08527143196 139 144 140
-1177.25863298573 395.173104216012 2711.62462237715 123 128 124
-1173.35299576076 394.043032137194 2719.79006884489 124 129 125
-1174.52099351428 393.646055384782 2727.7723056271 128 133 129
-1164.49770148185 391.639671545912 2736.05062180327 115 120 116
-1147.33143944734 388.611587202948 2744.43954286904 126 131 127
-1134.21242254867 386.171342756759 2752.63908364067 132 137 133
-1129.22635941575 384.90222507479 2760.60165473947 139 144 140
-1127.28992437801 384.072257802381 2768.47519267082 109 114 110
-1125.3476886597 383.243017285108 2776.32672362479 106 111 107
-1127.48534344999 382.997803238725 2784.10860158037 78 83 79
-1125.53386035421 382.169621395652 2791.92646722564 107 109 106
-1119.48471775207 380.759448297842 2799.74929799223 93 95 92
-1110.35262099287 378.913816815499 2807.54161778652 117 119 116
-1110.42405283912 378.379619611883 2815.26220685107 113 115 112
-1107.41687039323 377.409465707076 2822.96808340018 115 117 114
-1104.40249916191 376.440193683067 2830.64689714885 119 124 120
-1098.30094494442 375.035945138935 2838.27980333553 123 128 124
-1096.29674353482 374.213770172203 2845.90572864139 111 116 112
-1096.34229279118 373.68244735995 2853.53296448527 109 114 110
-1097.41349821296 373.296517097817 2861.16280448619 128 134 130
-1102.600371375 373.490498958614 2868.85322775383 146 152 148
-1103.67112267111 373.104597750787 2876.48140001849 152 156 157
-1104.73995908258 372.718845884679 2884.10348600088 151 155 156
-1106.83882391979 372.477979089747 2891.74408909027 152 156 157
-1108.93750101438 372.237123176987 2899.38400199856 142 146 147
-1112.06899963271 372.140832910067 2907.05260057086 146 150 151
-1116.23509032743 372.188777319218 2914.75810761024 166 170 171
-1131.78167208605 373.824411015111 2922.85629103642 160 166 166
-1158.73204875629 377.044986524296 2931.43286788015 162 168 168
-1359.93727828654 422.899046243856 2557.92017740967 157 162 158
-1344.21737539617 420.016084626759 2567.87351998401 158 163 159
-1320.43321052263 415.97517623003 2578.32812153142 141 146 142
-1303.64945011127 412.953855974989 2588.14146664668 123 128 124
-1290.86260579462 410.51554402117 2597.57644820829 131 135 134
-1284.09541070306 408.949041560551 2606.53091302462 121 123 120
-1275.29935909922 407.094442497259 2615.56524095654 126 128 125
-1265.47910681143 405.097049754029 2624.60215139445 119 121 118
-1255.6409973647 403.101657376977 2633.57495365013 139 141 138
-1249.82444634869 401.686499026546 2642.25820396172 113 115 112
-1246.01680397482 400.561621763506 2650.79076583986 119 121 118
-1238.15547781886 398.860269172262 2659.49504855173 131 133 130
-1226.23165623084 396.583384629498 2668.33986078911 114 116 113
-1213.27511371978 394.164673763007 2677.15623229277 122 124 121
-1211.44318136983 393.333960414447 2685.41636816599 134 136 133
-1203.52084346653 391.639620811756 2693.89855385177 135 137 134
-1188.48028941844 388.939141751123 2702.59400410006 144 149 145
-1172.39989837268 386.097644934744 2711.23510351164 120 125 121
-1167.47135565866 384.841020678598 2719.41912434718 123 128 124
-1165.58313022636 384.016778191814 2727.47434040213 124 129 125
-1159.61816087687 382.61862638919 2735.61820859723 113 118 114
-1146.51335547041 380.216922061575 2743.89484606732 118 123 119
-1136.44366952715 378.248128532745 2752.02464329942 115 120 116
-1131.4554120617 376.998349209098 2759.99127649869 122 127 123
-1130.53862067329 376.323024706413 2767.85093539768 118 123 119
-1129.61722220818 375.648222203962 2775.69381868748 99 104 100
-1128.6911997781 374.97395087576 2783.51986945719 74 79 75
-1126.73800761077 374.157135466814 2791.33856582626 101 103 100
-1119.66202657655 372.626038842692 2799.16985137207 95 97 94
-1114.62109704235 371.382268267712 2806.94471711287 116 118 115
-1111.61946306814 370.425343726337 2814.67861735484 112 114 111
-1111.6865778739 369.897473078872 2822.38810137305 115 117 114
-1105.59367327544 368.51398756873 2830.06530157012 119 124 120
-1098.4620094226 366.98922262874 2837.69384521781 120 125 121
-1095.42759830302 366.03595181651 2845.309286139 107 112 108
-1092.38606263631 365.0835482348 2852.89789351449 107 112 108
-1093.45297800808 364.701289568656 2860.51505247658 127 133 129
-1099.66732347781 365.030545191678 2868.20843440858 138 144 140
-1099.70408882419 364.506069078003 2875.80737996337 149 153 154
-1099.73779496575 363.981928724649 2883.39517927172 149 153 154
-1101.83230769686 363.742157378078 2891.0203154529 149 153 154
-1107.02440770145 363.928194785838 2898.72512925075 144 148 149
-1110.15410405179 363.830069473984 2906.38587780396 145 149 150
-1108.11458235671 363.02289199153 2913.89106346135 164 168 169
-1125.72949280515 364.908442592945 2922.03276059125 165 171 171
-1151.64907340475 367.924363107389 2930.54930558963 159 165 165
-1337.17214797852 410.668266822768 2559.19402896295 169 174 170
-1326.44963753139 408.548832103662 2568.70123018517 143 148 144
-1308.67209968728 405.434568579787 2578.66251533765 115 120 116
-1297.90639245938 403.320115342557 2588.01248042609 129 134 130
-1284.10189825977 400.781049837703 2597.5018372929 105 109 108
-1281.35410110093 399.808732910426 2606.16939495552 122 124 121
-1270.53500671063 397.700508237463 2615.3241473405 123 125 122
-1259.69663742351 395.594429847149 2624.40961988437 138 140 137
-1244.80125756807 392.922756403739 2633.66225981531 146 148 145
-1243.01333522251 392.098156148593 2642.08965569627 114 116 113
-1242.23008816538 391.416040704985 2650.44085107871 121 123 120
-1233.34953446774 389.600910184723 2659.18542864771 128 130 127
-1224.45283552231 387.787639722218 2667.87123641913 113 115 112
-1216.55293874299 386.117746585177 2676.45217581855 122 124 121
-1209.65195964928 384.590982492801 2684.93594460373 135 137 134
-1201.72334106573 382.924385903094 2693.41232684075 138 140 137
-1188.70411240019 380.55301135509 2702.02677163484 144 149 145
-1169.56800160293 377.336907830834 2710.77596562475 118 123 119
-1157.51755673432 375.112172651304 2719.18264579421 122 127 123
-1149.51589090017 373.453934081025 2727.39309472259 124 129 125
-1150.66155670073 373.066026297324 2735.29907203498 122 127 123
-1143.65566711586 371.551283704915 2743.40091847411 118 123 119
-1135.61718538847 369.897259751798 2751.47733809522 121 126 122
-1130.62455549012 368.667070694659 2759.44010557681 113 118 114
-1129.7050522365 368.000602038417 2767.29528696964 117 122 118
-1130.82419963727 367.615779208376 2775.10382531683 108 113 109
-1128.8746132391 366.809742623679 2782.94271438541 73 78 74
-1129.98808084879 366.425562248248 2790.73057039376 89 91 88
-1121.88618357308 364.77875708728 2798.5760980805 80 82 79
-1117.86740103144 363.694535206783 2806.35040557826 108 110 107
-1110.76426637033 362.190858973218 2814.0981868285 109 111 108
-1110.82905959434 361.669145390188 2821.80293851681 116 118 115
-1104.73140111908 360.30789013983 2829.47652352334 119 124 120
-1097.59459642084 358.808032195857 2837.101705193 120 125 121
-1094.55690007701 357.868979914522 2844.71299653401 99 104 100
-1092.54025702342 357.07044612275 2852.30858327696 105 110 106
-1094.63555086159 356.831255971589 2859.93698649192 135 141 137
-1098.79103629296 356.87124199185 2867.59716473443 136 142 138
-1098.82548337242 356.352900896835 2875.19137634808 143 147 148
-1098.85713219622 355.834915843921 2882.77449435078 145 149 150
-1101.98231449255 355.735247540076 2890.41843796431 144 148 149
-1107.17485291169 355.913934014814 2898.12023851518 150 154 155
-1110.30390820253 355.813778065411 2905.77825392437 151 155 156
-1112.39986959893 355.574377123017 2913.40900256966 167 171 172
-1130.02287504505 357.420118323967 2921.55562126793 172 178 178
-1147.6667844431 359.263395026999 2929.77922531023 170 176 176
-1170.51518113531 361.79848492894 2938.278456272 146 152 152
-1356.21836484066 404.990486190643 2548.39226393931 150 155 151
-1324.42849216505 399.965685715872 2559.67448466212 148 153 149
-1314.6953482566 398.022783314982 2569.07014281178 119 124 120
-1302.93359036548 395.80245009808 2578.55144031631 119 124 120
-1290.14491932191 393.444774678025 2588.03054928494 115 120 116
-1276.32741355492 390.95005863915 2597.49959668332 118 122 121
-1273.57127111228 389.992606840725 2606.14462598452 125 127 124
-1267.78205335834 388.617731285305 2614.95572081147 112 114 111
-1254.91734938004 386.268881863811 2624.15717764642 140 142 139
-1240.01097736652 383.644013995641 2633.39762741623 121 123 120
-1236.19584892772 382.552936599449 2641.92373446899 117 119 116
-1230.34905632637 381.184701810733 2650.52525780435 124 126 123
-1221.45468623361 379.400810607104 2659.23826067529 125 127 124
-1215.58227046286 378.035586117379 2667.74562172733 120 122 119
-1210.71109449074 376.810525223515 2676.16349050906 123 125 122
-1203.80164108162 375.309179939862 2684.63091490466 135 137 134
-1193.83408717241 373.393258252107 2693.17328887444 129 131 128
-1183.84897083 371.479338864283 2701.65172111923 135 140 136
-1163.68379338779 368.182197181006 2710.42534948109 126 131 127
-1152.63953358292 366.134670323437 2718.78335725855 119 124 120
-1147.68259685472 364.919491901673 2726.8881234146 120 125 121
-1149.84419292327 364.673482010301 2734.75838818915 120 125 121
-1143.85223482769 363.321870257746 2742.83143541085 121 126 122
-1134.78912501387 361.55728885297 2750.93013196573 118 123 119
-1127.75094945554 360.070578284634 2758.92980486581 121 126 122
-1125.80605842917 359.275190895796 2766.79285027443 115 120 116
-1126.92113825655 358.894109523063 2774.58864867909 133 138 134
-1124.96606463984 358.099809625411 2782.41550373303 122 127 123
-1128.1223525758 357.994814333766 2790.17064428623 68 70 67
-1125.13472931287 357.063838479478 2797.97387521828 73 75 72
-1123.164674915 356.271289152258 2805.74528576393 114 116 113
-1117.08617450241 354.92949509978 2813.50321670629 112 114 111
-1112.02238782848 353.726446952801 2821.21892837635 111 113 110
-1107.97549409852 352.66188545454 2828.90034805515 114 119 115
-1100.83638955536 351.186605930686 2836.53250837913 109 114 110
-1100.88304100855 350.672810498386 2844.17490233395 100 105 101
-1096.81015973007 349.61109942648 2851.76256397099 94 99 95
-1099.93752533654 349.509290289128 2859.41233315447 138 144 140
-1099.97416486833 348.996584187955 2867.01824255405 134 140 136
-1098.97651913941 348.347399252234 2874.59420828787 143 147 148
-1097.97441169864 347.698697842178 2882.15391383288 144 148 149
-1099.03328612411 347.32381363136 2889.74494515984 150 154 155
-1101.12383240618 347.085667183536 2897.35638056916 148 152 153
-1104.24822975016 346.983999241925 2904.99614734189 143 147 148
-1113.582904644 347.700650788291 2912.83032121046 172 176 177
-1132.24729710328 349.643169076298 2921.00818538446 170 176 176
-1148.86172998957 351.310559277796 2929.19481976545 166 172 172
-1165.49621447098 352.97569170521 2937.45354732623 138 144 144
-1339.47172190282 393.720928768292 2549.23959342789 145 150 146
-1323.72727593287 390.985207227263 2559.19477203399 135 140 136
-1307.9563595223 388.252453338269 2569.05447372475 118 123 119
-1298.1950947913 386.345159569329 2578.36727717539 120 125 121
-1282.37596305158 383.617963971999 2588.05147401335 113 118 114
-1268.54569088303 381.167619506306 2597.50020713084 121 125 124
-1261.74840440597 379.67767544876 2606.39221252086 121 123 120
-1259.98197862275 378.872973486926 2614.91198366529 115 117 114
-1248.1139023741 376.702387278967 2624.03087862578 125 127 124
-1236.22558452115 374.534192575512 2633.075201325 116 118 115
-1230.38255896329 373.187321619034 2641.70326993726 117 119 116
-1223.5158460109 371.705378196965 2650.342559614 128 130 127
-1216.63584459453 370.224964431335 2658.93347757347 121 123 120
-1212.78186474972 369.154836596143 2667.32856342651 123 125 122
-1208.91888895587 368.085745576996 2675.69090367525 127 129 126
-1195.91629435642 365.792912110484 2684.41576520122 132 134 131
-1184.92220632332 363.774571020362 2692.97847729954 127 129 126
-1171.87707771448 361.486537765053 2701.54937800968 131 136 132
-1155.76033150084 358.793481073374 2710.14921513213 125 130 126
-1146.73917420932 357.053750408146 2718.41936263587 118 123 119
-1138.71996887253 355.451512234046 2726.60004654702 119 124 120
-1142.91184445139 355.478148103679 2734.38783471116 122 127 123
-1140.98916388002 354.691413087033 2742.33880584093 124 129 125
-1133.9590324007 353.228149599539 2750.38314808913 124 129 125
-1124.87389191324 351.495699767343 2758.42033526349 129 134 130
-1120.88098706911 350.441433509506 2766.30963399216 128 133 129
-1124.03593174417 350.334539339006 2774.05951745075 103 108 104
-1128.21524028734 350.362653838149 2781.80065118118 108 113 109
-1132.39702515684 350.390492768981 2789.55080504655 125 127 124
-1130.43388592772 349.608267393162 2797.35533728338 86 88 85
-1128.46496373503 348.826754087022 2805.13791905091 112 114 111
-1124.43801613088 347.776309511642 2812.9032364941 102 104 101
-1116.29555722834 346.188026564928 2820.6351146727 114 116 113
-1108.138568503 344.601380740005 2828.31408006 113 118 114
-1100.99503557443 343.15091137101 2835.94546248988 96 101 97
-1100.01157819458 342.508757578177 2843.57761685603 103 108 104
-1096.96421945379 341.598276364361 2851.1720009097 104 109 105
-1099.06079495921 341.360154686679 2858.80583728217 135 141 137
-1100.12621626181 340.98783486454 2866.42279490153 132 138 134
-1098.09500987296 340.213236204835 2873.97849320188 140 144 145
-1097.09013572072 339.573342828471 2881.53348742082 142 146 147
-1097.1138513746 339.067890025855 2889.09599234772 148 152 153
-1100.23592173321 338.964472998295 2896.72601519854 152 156 157
-1103.3594553369 338.86091914899 2904.36045538692 145 149 150
-1114.7657353723 339.827045564613 2912.25095772631 158 162 163
-1133.43647739009 341.727335170733 2920.42573558753 171 177 177
-1146.94673433398 342.957143238879 2928.49986779783 169 175 175
-1166.69650141269 344.986094485588 2936.86576406721 152 158 158
-1360.87008611103 387.664022396852 2546.930601325 137 142 138
-1329.05376636006 382.822948753479 2558.23155376613 127 132 128
-1313.27858303015 380.138894328045 2568.10523049102 112 117 113
-1299.48967417711 377.72659985405 2577.73248928731 120 125 121
-1286.68436998003 375.451284236155 2587.20184028444 116 121 117
-1267.81068369706 372.373193775057 2597.01249928512 124 128 127
-1255.96590486598 370.237555047889 2606.23902797824 116 118 115
-1250.15568774655 368.908580996746 2615.00113608371 124 126 123
-1245.34369575319 367.714966995556 2623.65766827806 116 118 115
-1238.49985990081 366.254776803751 2632.39562999419 111 113 110
-1230.63140292197 364.662322632351 2641.14219011967 117 119 116
-1222.7482391888 363.071547708154 2649.83520713754 128 130 127
-1213.8376313219 361.348820857654 2658.52653830622 118 120 117
-1206.93772280141 359.895079646018 2667.06038474403 126 128 125
-1195.96770642704 357.908906827795 2675.73277955615 128 130 127
-1184.97865976922 355.924906073716 2684.33588998325 130 132 129
-1174.98648197552 354.07641500726 2692.82848343779 125 127 124
-1165.99276942944 352.363126412592 2701.21815106389 127 132 128
-1152.91491138118 350.11907297654 2709.69437131323 124 129 125
-1141.8506927996 348.143636256558 2718.02379000349 118 123 119
-1135.85994525464 346.835339268539 2726.12867843719 119 124 120
-1133.93449895693 346.060087477827 2734.07663087479 123 128 124
-1130.98310904736 345.152702997164 2742.02835448209 125 130 126
-1125.98254891442 343.980616315825 2749.99929037783 128 133 129
-1120.97191606534 342.809716173081 2757.9326483486 122 127 123
-1119.01716784727 342.037802750234 2765.77391616962 105 110 106
-1121.14754879917 341.796612526928 2773.53132822015 81 86 82
-1125.32470937985 341.82034330585 2781.2617193354 68 73 69
-1129.50412077167 341.843748863767 2789.00119096624 77 79 76
-1132.66147966808 341.734622166531 2796.75769943249 70 72 69
-1130.69133175758 340.964352683591 2804.54375813391 102 104 101
-1127.68911224815 340.062688042471 2812.3103726065 109 111 108
-1118.51698287744 338.369637017099 2820.04946145081 114 116 113
-1110.35656496929 336.810335817642 2827.73295891947 103 108 104
-1102.18137649228 335.252620238408 2835.36354626099 89 94 90
-1101.1966163839 334.619130435124 2842.99633384088 105 110 106
-1097.11729595127 333.590960954417 2850.58126456532 110 115 111
-1097.15167947057 333.090267623375 2858.1863820669 132 138 134
-1096.15169881119 332.458364937401 2865.76458976933 131 137 133
-1091.01896229423 331.301095679426 2873.25320657999 140 144 145
-1093.10553328772 331.064632919082 2880.85094551406 141 145 146
-1094.15841989091 330.696874962083 2888.42424437408 147 151 152
-1100.38059879189 330.985376711926 2896.12190946149 152 156 157
-1100.39872816169 330.486339409686 2903.66772402156 147 151 152
-1108.69903239675 331.036136874358 2911.45245981726 152 156 157
-1125.29834169092 332.632786589696 2919.5382814252 172 178 178
-1146.06590977127 334.75076168945 2927.84202892363 171 177 177
-1165.82102499601 336.734964480848 2936.19952997891 160 166 166
-1411.03883517498 385.860181621049 2533.33220822352 160 165 159
-1375.25175439433 380.576328151746 2545.19716576672 124 129 125
-1340.41521211511 375.43059880417 2556.78124139807 125 130 126
-1313.57332373796 371.345165170303 2567.54489414558 103 108 104
-1294.74350006863 368.318107390139 2577.55062579699 124 129 125
-1279.91298984078 365.820982160884 2587.15338552329 128 133 129
-1267.07385266109 363.589763245068 2596.52496163631 128 132 131
-1254.21307247503 361.361076250509 2605.81685100861 120 122 119
-1246.37828188691 359.791748624188 2614.70300873427 134 136 133
-1239.53901888457 358.355399757396 2623.4730007108 120 122 119
-1235.71960033444 357.314205191478 2632.01467282867 113 115 112
-1226.83248235402 355.618439103786 2640.81023895617 124 126 123
-1218.9415875311 354.055564108477 2649.4921665076 125 127 124
-1212.04910753951 352.625341169126 2658.06844182318 114 116 113
-1206.1574025121 351.327547786432 2666.54675811677 129 131 128
-1194.16582130497 349.246233545585 2675.26346501934 129 131 128
-1179.10799521471 346.77511692014 2684.03866597208 129 131 128
-1169.10586143207 344.960039845238 2692.51539063603 123 125 122
-1162.13623438982 343.538623814873 2700.81079429425 123 128 124
-1149.04845443182 341.335800638433 2709.27713608736 126 131 127
-1137.97529816206 339.396288509415 2717.59605179921 123 128 124
-1130.95905414198 337.980220556864 2725.72082322924 121 126 122
-1129.0273613682 337.216804096323 2733.65398495586 122 127 123
-1128.11012550104 336.584249249051 2741.53899611377 122 127 123
-1122.08305390704 335.301858957995 2749.52444758242 113 118 114
-1123.19659944442 334.930775320742 2757.32086151584 104 109 105
-1123.28571963648 334.429939645154 2765.12911568638 95 100 96
-1128.48773930871 334.578678861626 2772.84721114058 81 86 82
-1130.62196885958 334.337678958972 2780.61903244325 81 86 82
-1132.75583539372 334.096721041017 2788.3895324429 78 80 77
-1134.8894200377 333.855781283467 2796.15899730516 82 84 81
-1133.94451677334 333.226317996897 2803.9432366895 58 60 57
-1127.8613032249 331.950218620931 2811.7242158393 101 103 100
-1120.73874102989 330.546042615371 2819.4626856989 98 100 97
-1111.54678260385 328.884817988828 2827.14824666925 109 114 110
-1105.42542305179 327.612906627689 2834.79117029984 92 97 93
-1096.20370135969 325.954994297152 2842.36831730702 109 114 110
-1093.14785439471 325.073013255362 2849.94917976453 119 124 120
-1090.08487151903 324.191871875147 2857.50314908009 126 132 128
-1089.07789587154 323.56925541298 2865.06124859823 131 137 133
-1083.9365713519 322.431970102825 2872.53059665661 141 145 146
-1084.98398277371 322.068029834178 2880.08690655233 143 147 148
-1090.16550889458 322.218770971466 2887.73017737496 154 158 159
-1097.42045083951 322.626131863979 2895.44008126206 153 157 158
-1097.43481374276 322.133371799121 2902.97587478914 149 153 154
-1102.62650291295 322.282843658595 2910.65607766643 147 151 152
-1117.15307898478 323.5865678381 2918.65394998453 163 169 169
-1133.7713351482 325.144777840399 2926.78584878201 170 176 176
-1156.63848296168 327.469548791455 2935.22284362923 168 174 174
-1392.29575403607 374.333340445219 2534.39735923836 160 165 159
-1383.61411616917 372.643638678278 2543.959661449 124 129 125
-1348.76732532564 367.597319246282 2555.56937740875 121 126 122
-1320.91226584836 363.460766129976 2566.4353706568 107 112 108
-1289.9922673877 358.942123129527 2577.37050479641 130 135 131
-1277.16631977941 356.749641867585 2586.81457910715 129 134 130
-1262.30092700417 354.301941007926 2596.31995975383 129 133 132
-1250.43890831032 352.243414133119 2605.53116460211 125 127 124
-1236.53625333177 349.929855881168 2614.79844320973 119 121 118
-1230.69628827352 348.647827560367 2623.4788131028 117 119 116
-1225.85580535607 347.495685043272 2632.05574700407 117 119 116
-1222.01696579151 346.473185595709 2640.53711582081 121 123 120
-1212.09179921816 344.681541702018 2649.31532815408 125 127 124
-1210.25795716558 343.918195433688 2657.61090572347 115 117 114
-1204.36078082912 342.642762220598 2666.08302515943 128 130 127
-1191.34634399794 340.471799151398 2674.84179041135 128 130 127
-1177.29439713066 338.175283407347 2683.56553724384 129 131 128
-1173.38373754841 337.161025316394 2691.78545557237 122 124 121
-1165.39543593114 335.636284497976 2700.1298067105 119 124 120
-1154.33877808119 333.72979847177 2708.53082877387 124 129 125
-1140.20760112998 331.442330466169 2716.96519307928 123 128 124
-1132.16885786658 329.923307943303 2725.1258745041 119 124 120
-1127.17533509891 328.788583721923 2733.14652745906 118 123 119
-1125.23393924179 328.03751050996 2741.05052739748 117 122 118
-1121.24349095294 327.032299861505 2748.9799179781 104 109 105
-1122.35510187717 326.664696552454 2756.7713463691 106 111 107
-1123.46496195605 326.297288516615 2764.55639749975 109 114 110
-1128.66736937799 326.438704322105 2772.27130897432 87 92 88
-1130.80077566037 326.198435064912 2780.04053493372 90 95 91
-1132.93386848591 325.958187618969 2787.80861085982 85 87 84
-1135.06666253301 325.717967507445 2795.57559473765 96 98 95
-1133.09309924179 324.970412521279 2803.36331354397 73 75 72
-1129.05956691835 323.970054698509 2811.13487634599 91 93 90
-1120.90547888384 322.463960789033 2818.87546769231 100 102 99
-1112.73684855802 320.959483780994 2826.56308718813 87 92 88
-1102.49498431063 319.203572176164 2834.18802262533 98 103 99
-1093.26590018875 317.576058858535 2841.75702671912 110 115 111
-1089.17446302077 316.582058726455 2849.31854311797 121 126 122
-1086.10556523761 315.715292154233 2856.86055606506 124 130 126
-1084.06164478387 314.975534864051 2864.39104655111 131 137 133
-1079.9459582588 313.984173212863 2871.86419563858 138 142 143
-1080.9895561126 313.623937719992 2879.40775648269 144 148 149
-1088.23711696366 314.019530399278 2887.08375500367 158 162 163
-1093.42170705758 314.162580840591 2894.73354625487 156 160 161
-1092.39599851646 313.550369863259 2902.22866368889 151 155 156
-1097.58454659876 313.692883114652 2909.89281102162 145 149 150
-1110.03719838461 314.714282532848 2917.80593366062 152 158 158
-1128.73111681569 316.487354543819 2925.98644247231 174 180 180
-1157.83344411919 319.51248345871 2934.63582570759 169 175 175
-1396.64412261186 365.827141879664 2533.48174085871 148 150 145
-1388.96542397135 364.29394631855 2542.97024928712 121 126 122
-1360.14324493275 360.106233338203 2554.11046690114 109 114 110
-1325.23531746893 355.165230774574 2565.55875710696 111 116 112
-1287.25122531976 349.851300085851 2577.04029362814 143 148 144
-1266.34991836124 346.690094866484 2587.06388994711 120 126 122
-1250.46028170699 344.163527449264 2596.6120529634 121 127 125
-1245.65086841846 343.026818464532 2605.31501525426 123 128 124
-1233.75831281669 341.009342609326 2614.43876001325 96 101 97
-1229.93427161511 340.001573417387 2622.9843721636 118 123 119
-1221.04207523159 338.365677435421 2631.79888202623 114 119 115
-1215.17141930323 337.10891161084 2640.38125215146 122 127 123
-1209.28868402186 335.853470699521 2648.92053950981 117 122 118
-1210.49226376172 335.47863895485 2657.04886643199 113 118 114
-1205.6056930543 334.350911293689 2665.47009966397 126 131 127
-1191.56975741219 332.09540643668 2674.27918516453 126 131 127
-1175.47815225197 329.591815067432 2683.09291359928 125 130 126
-1169.52925801289 328.343996803114 2691.39044923222 123 128 124
-1162.5507576257 326.972311311342 2699.6843051584 118 123 119
-1154.54079596759 325.477030828988 2707.96683652408 122 127 123
-1146.51619510826 323.983392897785 2716.19605242567 124 129 125
-1134.39806281175 321.991601749372 2724.49849110816 122 127 123
-1127.3616281136 320.62647223407 2732.58138739292 114 119 115
-1125.41783065181 319.886832914751 2740.48368940512 108 113 109
-1124.48974600642 319.272588311046 2748.33998130503 109 114 110
-1125.60229377972 318.908140452049 2756.13688021895 110 115 111
-1125.68960738896 318.4193197238 2763.94601251033 102 107 103
-1130.89386930592 318.553249702686 2771.6630832024 94 99 95
-1133.02790438671 318.313543152161 2779.43499903062 96 101 97
-1134.13624353401 317.949545937786 2787.21655665451 96 101 95
-1132.164156919 317.213005184904 2795.01671188046 99 104 98
-1132.24007974649 316.725472890527 2802.7834368589 92 97 91
-1132.31263672738 316.238250528069 2810.53878980592 75 80 74
-1126.21253655871 315.007414528862 2818.285649171 73 78 72
-1118.04267424863 313.530006366904 2825.98578440305 95 100 96
-1106.76907897579 311.682721293658 2833.61873671632 107 112 108
-1094.44634699147 309.713769950034 2841.17595671552 115 120 116
-1087.25895384908 308.365420777741 2848.70896811398 122 127 123
-1085.21785496994 307.636500514227 2856.25677648481 123 129 125
-1084.20331205905 307.031720901654 2863.79804149013 131 137 133
-1082.1508268746 306.303951526581 2871.30523037425 136 140 141
-1080.09267583961 305.576837351686 2878.79086770232 143 147 148
-1082.16734127925 305.343433974374 2886.34633518269 161 165 166
-1082.1711786215 304.863639400101 2893.85030607418 159 163 164
-1088.38849465907 305.12280223409 2901.5113932473 152 156 157
-1097.72188954298 305.750392453862 2909.28458603072 144 148 149
-1113.29041633054 307.114551229242 2917.29285199532 143 149 149
-1133.03036373686 308.96807157289 2925.51153185742 178 184 184
-1171.49599459385 313.029117283302 2934.50937913709 170 176 176
-1397.97939840473 356.933283185062 2532.82424139032 150 152 147
-1393.31400197412 355.799247927554 2542.06266907699 115 120 116
-1366.49450819824 351.942795282807 2553.05403519902 107 112 108
-1332.58231686123 347.225079560335 2564.44394972275 112 117 113
-1293.57814277849 341.895055334459 2576.02521074513 138 143 139
-1269.64524621461 338.425165678588 2586.28718299418 120 126 122
-1247.6930460951 335.20647369739 2596.26997425067 118 124 122
-1240.85801180518 333.842775152221 2605.10060519492 115 120 116
-1228.95517668313 331.86395698669 2614.21151957385 97 102 98
-1228.15894147488 331.243157179433 2622.55320397966 117 122 118
-1216.22327075133 329.268179856292 2631.54370209017 112 117 113
-1210.3450160784 328.033998587462 2640.11211827228 122 127 123
-1202.42741603692 326.555179007705 2648.74796277028 118 123 119
-1204.63910290998 326.307228161053 2656.80297946687 115 120 116
-1192.63855394552 324.339602777511 2665.55816803691 127 132 128
-1182.64960029713 322.61984671574 2674.14400865371 127 132 128
-1169.59312600947 320.534033556852 2682.80045626456 126 131 127
-1166.68772032123 319.676670977858 2690.95449148303 124 129 125
-1154.6126373961 317.717492519997 2699.43828301207 117 122 118
-1149.64823245703 316.617685270944 2707.58816048357 121 126 122
-1140.59584407785 315.02965440142 2715.83812838935 122 127 123
-1133.56750191365 313.687959142103 2723.96586582902 119 124 120
-1125.50516994848 312.225560817119 2732.07471658164 111 116 112
-1123.55751771016 311.497530677827 2739.97003599261 107 112 108
-1122.62599848094 310.892203844186 2747.81920616907 107 112 108
-1124.75876614994 310.653293748112 2755.58691918537 108 113 109
-1124.84377561818 310.170617235989 2763.39137578918 101 106 102
-1130.04771503473 310.297305947867 2771.10267734354 93 98 94
-1132.1802188068 310.058397489595 2778.86941159624 95 100 96
-1134.31239444363 309.819505319402 2786.63493783061 93 98 92
-1134.39132548469 309.337546165604 2794.41635030563 98 103 97
-1133.43968660771 308.73441629534 2802.19220722095 91 96 90
-1135.56738861667 308.495983756163 2809.94141393878 70 75 69
-1128.43652216998 307.165705473488 2817.69570689312 63 68 62
-1122.32214659147 305.95812512853 2825.40424686203 95 100 96
-1106.92476232819 303.661366900811 2833.02974465698 108 113 109
-1093.56485031744 301.609535743497 2840.58011290851 115 120 116
-1084.30939181498 300.044073906592 2848.09037015291 122 127 123
-1082.26350736623 299.326762245725 2855.62866872823 128 133 129
-1083.31085824008 298.972613079192 2863.19000638804 127 131 130
-1081.25551299634 298.256337756388 2870.69290415294 140 144 145
-1080.22854863046 297.661349212033 2878.19423229833 141 145 148
-1076.09177428222 296.705028382206 2885.61120937167 158 162 165
-1075.05375100839 296.11118166061 2893.07219884644 157 161 164
-1081.2668951888 296.360855066753 2900.71180560362 155 159 162
-1090.59758465822 296.970958826975 2908.46298465563 141 145 148
-1105.12747991277 298.181230326746 2916.41510834146 138 142 145
-1132.13835728657 300.831931067647 2924.85652334432 175 179 182
-1398.30904432082 347.918553622435 2532.25304413337 164 166 161
-1391.62747508529 346.561627995619 2541.65866583482 106 111 107
-1366.80797756874 343.026160991231 2552.48470981763 102 107 103
-1332.88044542315 338.405830114702 2563.87915061938 111 116 112
-1293.85893200295 333.186585391917 2575.46597445904 129 134 130
-1269.91448913851 329.787192023734 2585.73051424519 118 124 120
-1247.9520576522 326.633659550122 2595.71552772147 124 130 128
-1242.12296694982 325.41556293269 2604.47663509722 93 98 94
-1231.22578658769 323.595615740804 2613.52440190573 104 109 105
-1227.39309687903 322.621744753957 2622.05930539647 113 118 114
-1214.43742430306 320.564644863003 2631.10813806045 109 114 110
-1204.50023003355 318.871251751809 2639.9027952933 121 126 122
-1197.58752757818 317.540761783659 2648.46695474133 117 122 118
-1200.80954758858 317.414170423769 2656.45343999939 120 125 121
-1191.84650664151 315.845627978913 2665.04744138006 125 130 126
-1180.83477935204 314.038769853777 2673.6781816495 125 130 126
-1165.73627951699 311.754097650087 2682.42008020705 122 127 123
-1157.73672898688 310.311595765057 2690.77458769383 121 126 122
-1150.7407757496 308.990589749706 2699.03564097664 118 123 119
-1144.75061258392 307.790833219017 2707.21122585864 124 129 125
-1136.70917276592 306.353074948188 2715.41320149922 121 126 122
-1131.71463225568 305.275765393284 2723.46539536772 114 119 115
-1128.75235094988 304.438649736825 2731.42104541247 109 114 110
-1127.82632608524 303.84123687896 2739.29561155773 108 113 109
-1124.85018522428 303.005630362635 2747.20168560517 108 113 109
-1126.98361546826 302.767264625204 2754.97220231205 109 114 110
-1132.18903278965 302.886496623414 2762.68428325876 102 107 103
-1134.32390042215 302.64795742402 2770.46002719269 94 99 95
-1134.40755895545 302.171379788433 2778.26238952871 96 101 97
-1133.46162988504 301.576175081 2786.06444936963 91 96 90
-1133.53799804579 301.100325164366 2793.84113244743 98 103 97
-1134.6390338292 300.743642456765 2801.60019210929 93 98 92
-1134.7098246335 300.26837260207 2809.35653377645 67 72 66
-1129.63212157427 299.200269625809 2817.10577395174 56 61 55
-1124.54413772446 298.13329068714 2824.81755322507 96 101 97
-1109.14080029293 295.882625275926 2832.44911964198 108 113 109
-1090.61921972262 293.279473587247 2839.97060923621 116 121 117
-1080.32430384614 291.626059236264 2847.46328577271 122 127 123
-1078.27341501428 290.920475187827 2854.98947923243 128 133 129
-1082.4165888582 290.924445343551 2862.5821374548 126 130 129
-1078.29012887683 289.983488814947 2870.04618094369 136 140 141
-1081.39818326776 289.86942105549 2877.61744093901 139 143 144
-1077.25892311051 288.929735611725 2885.03569140256 159 163 164
-1079.32829322441 288.698027785196 2892.5725688583 158 162 163
-1081.39743432288 288.46629589985 2900.10858083513 156 160 161
-1086.57940898153 288.587545962366 2907.7348978699 146 150 151
-1095.91884153646 289.178694938317 2915.50750024881 142 146 147
-1119.81518049307 291.414006492081 2923.81195070752 169 173 174
-1389.58448959157 337.842252646468 2532.46482436482 161 163 158
-1387.92496428186 337.103471491269 2541.42404398425 96 101 97
-1367.12016077597 334.115293316533 2551.91517892659 102 107 103
-1341.2417996386 330.539147048739 2562.68050744385 115 120 116
-1297.16497988134 324.838705813615 2574.67669832397 128 133 129
-1271.19232557532 321.273176273558 2585.0995666556 114 120 116
-1254.27121033456 318.775266423651 2594.7324651165 125 131 129
-1243.38773253187 316.988683131394 2603.85217106221 89 94 90
-1232.48517709571 315.204277379546 2612.90242027901 111 116 112
-1224.60064531814 313.775666531762 2621.69273992459 111 116 112
-1213.66219052717 311.995362174029 2630.61229127858 111 116 112
-1202.70467499102 310.217226182693 2639.46244281454 120 125 121
-1192.74257723217 308.558874808689 2648.18769081334 117 122 118
-1196.97598325954 308.548293222268 2656.10524721715 121 126 122
-1190.036528152 307.245238646742 2664.58740058166 125 130 126
-1179.01731745115 305.474122476595 2673.21292201063 125 130 126
-1162.89222385136 303.118574693403 2681.99578140286 122 127 123
-1155.90389585387 301.821121882395 2690.29908694418 121 126 122
-1151.95846568544 300.876587237123 2698.43392863461 119 124 120
-1143.92613338733 299.464795867464 2706.68611285353 124 129 125
-1131.79832387417 297.586667316877 2715.02438254129 120 125 121
-1126.79637984933 296.529197580773 2723.06254345657 112 117 113
-1127.91418348194 296.173940480171 2730.88475890974 107 112 108
-1128.00795052012 295.702129242603 2738.72766139735 106 111 107
-1124.00600764592 294.763978937261 2746.65671322546 105 110 106
-1125.11397536912 294.409772842864 2754.44400244756 103 108 104
-1129.29391076892 294.405353739222 2762.16692356018 98 103 99
-1135.52665546334 294.633487934423 2769.86570445409 90 95 91
-1135.60941236265 294.162906749618 2777.66850504491 92 97 93
-1134.66219855693 293.57634950913 2785.47125447338 97 102 96
-1135.76493394718 293.222698014579 2793.23946721406 101 106 100
-1136.86618496597 292.869225332061 2801.00135264448 93 98 92
-1140.0231618817 292.747990291156 2808.74972733956 76 81 75
-1133.91598536784 291.582988784378 2816.5118780739 66 71 65
-1128.82723542034 290.53513247594 2824.23288600433 94 99 95
-1108.26440851088 287.751350874942 2831.85515753519 107 112 108
-1086.6383859221 284.855341898373 2839.35545778391 123 128 124
-1081.49684087822 283.813281112182 2846.88410685837 125 130 126
-1077.37806502799 282.887848836195 2854.38741024306 126 131 127
-1081.52079311442 282.887256371444 2861.97460383303 125 129 128
-1075.32110569237 281.732261100312 2869.40052613279 131 135 136
-1077.39149476832 281.501099739277 2876.94153180459 130 134 135
-1077.39004616196 281.039441391498 2884.43732726889 151 155 156
-1080.49516488542 280.923546916829 2891.99653441393 157 161 162
-1082.56423779151 280.692371699026 2899.53264465657 160 164 165
-1081.51902211125 280.116137952956 2906.97805004667 145 149 150
-1086.70197039881 280.229881311844 2914.60324263505 148 152 153
-1102.28372105768 281.491549463299 2922.5958990275 142 146 147
-1401.98386648767 330.2541460832 2530.84823603219 134 136 131
-1393.28165246563 328.715110387776 2540.4292656817 81 86 82
-1378.51653280397 326.483440921794 2550.44333165872 96 101 97
-1359.69307210894 323.791984846924 2560.68456913435 139 144 140
-1303.49970476416 316.827236020771 2573.6557366763 131 136 132
-1271.46014160428 312.644075846564 2584.54227319436 128 134 130
-1259.58340887375 310.774998728688 2593.81845636708 108 114 112
-1249.70866775531 309.13895829134 2602.8821284077 96 101 97
-1238.80438540565 307.389657609945 2611.94812943681 124 129 125
-1224.84275604252 305.29699507985 2621.13590970786 112 117 113
-1211.87143642907 303.322093922874 2630.17761494341 115 120 116
-1199.892114334 301.464658016427 2639.0811825865 118 123 119
-1189.92245560057 299.839472438059 2647.79836829322 116 121 117
-1195.16922958815 299.939349758057 2655.65177890523 123 128 124
-1191.27292685265 299.005676131179 2663.97587820383 127 132 128
-1182.28253027158 297.499522498688 2672.50770250705 126 131 127
-1161.06285959736 294.619576134493 2681.52684886431 123 128 124
-1156.10523283545 293.576180991149 2689.73843705194 122 127 123
-1155.21439213031 292.991905990703 2697.75100061842 120 125 121
-1149.21900764877 291.836157556443 2705.93498418624 123 128 124
-1134.02648494231 289.65293005432 2714.39184112412 118 123 119
-1126.97982636669 288.386326578173 2722.49898233888 111 116 112
-1128.09642141961 288.034465836377 2730.31885485567 104 109 105
-1128.18833361772 287.568696389181 2738.15961417831 102 107 103
-1129.30065249153 287.217322988061 2745.96391776155 102 107 103
-1128.36272688986 286.638305934055 2753.80591295027 99 104 100
-1132.54481126188 286.628980875432 2761.53371541238 95 100 96
-1133.65229864873 286.278072473261 2769.32130322999 90 95 91
-1132.70551165178 285.70002251749 2777.13100836999 93 98 94
-1132.78136341056 285.236067131792 2784.91235471012 101 106 100
-1134.90940836268 284.999479558168 2792.66399952334 103 108 102
-1139.09393847058 284.989770630522 2800.40156919115 86 91 85
-1140.1937012294 284.639697770033 2808.16007547366 77 82 76
-1138.20203318027 283.949945073154 2815.91613917925 74 79 73
-1131.05126362569 282.694790446233 2823.64396493839 89 94 90
-1110.48018113971 279.970452119006 2831.2731145028 105 110 106
-1090.90971934159 277.362653770192 2838.79370039964 127 132 128
-1085.76741482969 276.339671522683 2846.33157490874 128 133 129
-1083.71531886508 275.65645270572 2853.86740675745 127 132 128
-1078.55471420883 274.635428103731 2861.33857237222 128 132 131
-1073.38395944846 273.615483541595 2868.77273452036 135 139 140
-1074.41637435647 273.272477800273 2876.28658226421 131 135 136
-1077.52013674139 273.154776051756 2883.83868354946 150 154 155
-1081.66182867649 273.149313934441 2891.41988469141 158 162 163
-1088.91962255986 273.480772099551 2899.09245625846 162 166 167
-1087.87669801778 272.912714486399 2906.55153017788 146 150 151
-1090.98596747752 272.794072627335 2914.1244136385 147 151 152
-1099.29593447688 273.236079675574 2921.87697215813 142 146 147
-1432.12843948908 325.138785672647 2518.74526352542 159 161 156
-1415.39851613655 322.720612985033 2529.13929088725 127 129 124
-1401.66335604357 320.645118969205 2539.17781745023 83 88 84
-1388.91264307699 318.685320631877 2549.04905608002 80 85 81
-1375.13122686969 316.615039255283 2558.92006276652 138 143 139
-1315.89591352917 309.466799328129 2572.170195509 123 128 124
-1273.74734926282 304.246367961925 2583.83603343293 132 138 134
-1258.83253585869 302.077220666294 2593.33286008611 94 100 98
-1249.96332611823 300.586844188634 2602.32458824617 100 105 101
-1240.06533028825 298.985712481742 2611.32395964557 127 132 128
-1228.12354912363 297.161634489068 2620.38704082351 112 117 113
-1213.11970350271 295.002567590065 2629.55967254031 123 128 124
-1202.14936104784 293.295711342912 2638.40720254 115 120 116
-1189.1293531274 291.366437323444 2647.29787324285 115 120 116
-1187.26373425244 290.673739117753 2655.5200731871 124 129 125
-1179.29160761167 289.309082892151 2664.02554787416 127 132 128
-1172.32214164331 288.058124085723 2672.42916733576 123 128 124
-1157.19424247876 285.913072441947 2681.15006105732 122 127 123
-1153.24916361961 285.001373465652 2689.30693781268 121 126 122
-1150.31486427348 284.202497827509 2697.39062213505 123 128 124
-1149.41351184407 283.627894200318 2705.37119275081 125 130 126
-1134.21331742856 281.49094391467 2713.82878314846 120 125 121
-1126.14060264503 280.137617936667 2721.96794710137 114 119 115
-1125.21027169658 279.566264728766 2729.84297830016 104 109 105
-1127.34483957523 279.329615942847 2737.61880281491 98 103 99
-1130.50283236681 279.204306412758 2745.3683768387 92 97 93
-1132.63738225224 278.967674149443 2753.14414497965 88 93 89
-1133.74639888739 278.61990314525 2760.93846236278 87 92 88
-1135.87958004236 278.383400299253 2768.70923038312 89 94 90
-1133.9053308908 277.702911992255 2776.53674511468 96 101 97
-1133.98026854709 277.244932836985 2784.31847065044 110 115 109
-1134.05180658022 276.787281961661 2792.088710333 110 115 109
-1136.17806074645 276.551464723724 2799.83419265881 71 76 70
-1139.33372349608 276.426388486887 2807.57433396019 69 74 68
-1139.39940780732 275.969299090951 2815.32319440934 79 84 78
-1133.27586926189 274.849370398984 2823.05398176554 87 92 88
-1111.664938253 272.074030217971 2830.68649805295 91 96 92
-1092.08598148577 269.523038354899 2838.21140843569 127 132 128
-1086.94079811905 268.519408646939 2845.75081250143 128 133 129
-1083.8529425034 267.737260067846 2853.27586210318 126 131 127
-1075.58504027349 266.405237632333 2860.70378326487 131 135 134
-1069.37332202692 265.294879069994 2868.11228972984 138 142 143
-1066.25776350431 264.515645638498 2875.53632433926 137 141 142
-1066.24529021865 264.06686617458 2882.99931838316 152 156 157
-1070.37915021876 264.057587456864 2890.54903148382 155 159 160
-1081.78285668852 264.816081295066 2898.29796131622 159 163 164
-1085.92731540876 264.805526153087 2905.88529049749 152 156 157
-1089.0347598734 264.6849941112 2913.4502047465 139 143 144
-1097.34492644849 265.111749411583 2921.19387509654 163 167 168
-1120.23723608709 267.069284838359 2929.49243758384 134 138 139
-1435.4880243897 316.38451590538 2517.89818637041 154 156 151
-1420.76604098425 314.238933374929 2528.12583057414 121 123 118
-1407.02697176026 312.206660348192 2538.17805979221 103 108 104
-1392.25605085951 310.066694358732 2548.22755465732 74 79 75
-1380.48784930239 308.260428635548 2557.94727765422 111 116 112
-1328.30049633884 302.047779460754 2570.67968820111 133 138 134
-1280.07806337762 296.284369516196 2582.83048518591 113 119 115
-1258.08009086492 293.390621604828 2592.84755616975 100 106 104
-1249.20464920309 291.930549578871 2601.83620809405 117 122 118
-1237.27473874452 290.142632395004 2610.96619291861 118 123 119
-1221.269967676 287.91773633473 2620.27827294507 115 120 116
-1208.28208601534 286.025031508929 2629.31038100584 126 131 127
-1196.28718388473 284.244500962193 2638.20372802614 116 121 117
-1188.33463132551 282.904586686024 2646.7974982132 121 126 122
-1180.36734155024 281.56634795931 2655.33760985967 126 131 127
-1170.35101156436 280.010919213178 2663.9264841879 127 132 128
-1168.46001828209 279.332261273913 2672.06333822029 123 128 124
-1153.32158620491 277.233846642298 2680.77456946962 123 128 124
-1150.38963689465 276.44842603416 2688.87640283863 122 127 123
-1144.39036641822 275.336574500844 2697.0727436518 119 124 120
-1149.60675560392 275.425329498325 2704.80724842 122 127 123
-1138.48477411575 273.770519179419 2713.12370246145 120 125 121
-1129.3877596785 272.335495487798 2721.30551230469 117 122 118
-1126.41200613904 271.555075986646 2729.24693757071 107 112 108
-1127.52275836747 271.210303150293 2737.05052078027 102 107 103
-1132.7289870808 271.30031260221 2744.74716468033 92 97 93
-1133.83927201506 270.955658714215 2752.54815899349 91 96 92
-1136.99902625776 270.828123639674 2760.30286784782 89 94 90
-1134.00160409372 270.050094690403 2768.16535102704 93 98 94
-1132.02374975125 269.381208276267 2775.9858761966 106 111 107
-1130.03964784135 268.712921754662 2783.78451313606 114 119 113
-1134.2211292749 268.694301052069 2791.50420822283 111 116 110
-1135.31737335564 268.351126642933 2799.25400566433 79 84 78
-1138.47171801975 268.224087238789 2806.98894275391 74 79 73
-1137.50446151596 267.665207483928 2814.73475168821 88 93 89
-1128.28146597371 266.244024751928 2822.45662781503 86 91 87
-1106.65697299109 263.531341043811 2830.07834916892 82 87 83
-1089.13071900092 261.253011897915 2837.60404684109 124 129 125
-1081.91258811717 260.05380345637 2845.11709468011 119 124 120
-1077.78421745987 259.178567862042 2852.61646598363 124 129 125
-1070.54237863932 257.981906316491 2860.0421698542 124 128 127
-1068.46554238346 257.323464047701 2867.50271748844 140 144 143
