ply
format ascii 1.0
comment KinectMotionCapture
element vertex 782
property float x
property float y
property float z
property uchar red
property uchar green
property uchar blue
end_header
-455.532777744717 -124.362279158654 2011.13484668043 17 20 13
-473.743345706471 -124.822793997419 2002.90183779145 14 17 10
-446.046881419423 -124.2731592863 1990.86263318232 15 18 11
-449.287839403206 -124.404245994494 1981.38782741656 13 16 7
-458.514899972237 -124.666636211216 1972.47270793241 14 17 8
-495.677199886932 -125.541585293668 1966.21572306959 17 20 11
-460.00564893983 -124.818532206293 1953.16346646041 16 19 10
-463.244772046927 -124.949040389522 1943.76099520743 15 18 9
-415.859711783416 -124.031555993739 1919.38678448349 18 19 11
-400.151145197715 -123.748472908238 1907.85872334143 14 15 9
-402.646678573436 -123.923866979829 1888.36195786366 20 21 15
-409.877093682431 -124.141919485483 1879.31394243088 15 18 11
-410.12687829372 -124.207612751356 1869.48095815048 10 13 6
-320.644574968732 -122.319706448836 1848.80010814823 16 19 12
-380.74830915688 -124.415743020728 1726.81114968098 94 74 67
-388.968148093841 -124.653206054923 1718.18034382132 103 86 79
-241.946729868829 -128.813756518787 2179.83523311102 16 19 10
-262.194773366092 -129.274281686995 2170.19625949467 19 22 13
-272.44743591158 -129.538712399258 2160.31235760445 19 22 13
-287.694765696982 -129.900296069311 2150.6747009786 22 25 16
-301.940713355335 -130.24179010692 2141.07861091491 21 24 17
-392.363827231073 -132.129474269313 2124.99888875093 15 18 11
-382.625776688556 -132.0015977741 2114.62334944916 18 21 14
-368.893560668314 -131.796364172223 2103.98539668083 18 21 14
-371.143906249388 -131.902044616921 2094.14627271879 14 17 10
-446.299163785981 -133.422639093418 2088.51236794456 21 24 17
-418.584662504836 -132.945779533806 2077.0906464074 22 25 18
-423.826848796901 -133.108363959496 2067.59273438939 20 23 16
-437.056165014728 -133.425351584436 2058.64827407173 10 13 6
-447.288364194272 -133.683886099068 2049.57048229451 8 11 4
-437.552105138164 -133.556178950891 2039.12474366603 10 12 7
-405.854909358355 -133.004773617977 2026.99858925792 12 14 9
-411.096016603362 -133.166943846065 2017.53397008221 17 20 13
-445.282874666934 -133.886757852834 2010.40032200688 18 21 14
-464.493751480139 -134.31700569572 2002.22176295334 16 19 12
-455.757707152116 -134.208909197497 1991.77127326456 15 18 11
-454.00841266039 -134.23537554073 1981.88569587456 14 17 8
-456.251024433827 -134.338528126926 1972.35155012611 15 18 9
-452.506517720223 -134.326695123266 1962.27057734481 17 20 11
-468.716812957812 -134.697498716299 1954.08583237358 18 21 12
-428.307318711409 -134.043637252229 1930.5843863484 16 18 7
-402.620393684088 -133.612869263582 1918.09411981698 16 17 9
-431.796750356755 -134.230973452618 1911.33797275579 15 16 8
-429.05288010999 -134.238840870626 1901.23566951281 19 20 12
-397.387409674276 -133.695257153913 1887.86118050571 21 22 14
-413.593925790248 -134.064772682022 1879.83484451206 13 16 7
-430.795281321915 -134.452642229318 1872.01519256076 12 15 6
-417.084252225779 -134.252003867085 1860.55357217665 19 22 15
-384.458671970601 -134.420394165262 1727.49706584963 88 68 61
-378.733145569439 -134.373328160934 1716.65338707553 100 83 76
-271.905958936525 -139.680509815176 2170.58567259698 23 26 17
-273.164836226411 -139.766175417992 2160.40989263205 21 24 15
-275.422526773629 -139.868515236515 2150.27796406758 24 27 18
-284.67451657655 -140.087977227732 2140.44394157393 19 22 15
-448.037930969207 -142.949011852583 2127.66044797833 15 18 11
-359.375245334945 -141.528629800875 2113.552269631 16 19 12
-369.617756833116 -141.762340373049 2104.09809075557 17 20 13
-381.856415181523 -142.028940445798 2094.80858743376 14 17 10
-386.103270700905 -142.161935255297 2085.12593443708 16 19 12
-423.307156423549 -142.843204428029 2077.45159070878 21 24 17
-410.573759899413 -142.692956380335 2066.83475931988 20 23 16
-437.784873435095 -143.206474390608 2058.77377011772 13 16 9
-452.011710435221 -143.503601910622 2049.9722281301 12 15 8
-422.305783161232 -143.072091610029 2038.11731682413 7 9 4
-425.049259986969 -143.301101350276 2008.87249402037 16 19 12
-470.214674404106 -144.107608968393 2002.77417687625 15 18 11
-480.441123888062 -144.336484447898 1993.95294870833 15 18 11
-461.724031609332 -144.088261533173 1982.64657802973 16 19 10
-448.997019195425 -143.939184199429 1971.77897647482 16 19 10
-470.199354815863 -144.348155406969 1964.00647736072 19 22 13
-437.517529990895 -143.871651206229 1951.17445205976 20 23 14
-424.794906507231 -143.72358102942 1940.13423449927 21 24 15
-420.055508063394 -143.7066968055 1929.83433878803 21 23 12
-417.311820661768 -143.72259731123 1919.7162640127 19 20 12
-430.528933395233 -143.999516210244 1911.29178085101 21 22 14
-447.733973474151 -144.341073553679 1903.37785050688 22 23 15
-449.975749455216 -144.437856042716 1893.87388535114 15 16 8
-437.257631013356 -144.290673887421 1882.65664166155 17 20 11
-427.533049160561 -144.192630221165 1871.72266711319 9 12 3
-426.784471300949 -144.240869613679 1861.81972548517 17 20 13
-441.989725108434 -144.548317209277 1853.88467098297 20 23 16
-380.199556426668 -144.275112637678 1726.93484578014 54 40 31
-287.615595292859 -150.116015478549 2171.17103394356 22 25 16
-294.86970557786 -150.282838677711 2161.25193503161 21 24 15
-291.130158697459 -150.295092098405 2150.9512526395 22 25 16
-285.39252893763 -150.279414195418 2140.54691292469 18 21 14
-359.592084671556 -151.382718025043 2133.60503803659 16 19 12
-368.837634882231 -151.575373899781 2124.05147945923 14 17 10
-360.351945176422 -151.583360240356 2103.69162304603 16 19 12
-359.606365890803 -151.636197894653 2093.66654949935 13 16 9
-388.826261409843 -152.105795041315 2085.35888413127 16 19 12
-393.072883489021 -152.227394739747 2075.7069147673 20 23 16
-396.32005700336 -152.334913193618 2066.01449031195 19 22 15
-453.493505397846 -153.189529138972 2059.88419359097 14 17 10
-433.768829019598 -152.977845822629 2048.80097993675 13 16 9
-373.108090735949 -152.200942614295 2034.6919072209 7 9 4
-376.608029575017 -152.37428767524 2015.04985870667 12 15 8
-335.930180162037 -151.876524022614 2001.86905641732 14 17 10
-474.938588617557 -153.851397478399 2003.24457405579 12 15 8
-490.1561131917 -154.121006970854 1994.86123833703 14 17 10
-472.43490484687 -153.938148487989 1983.67025215045 16 19 10
-480.664418419363 -154.111421620007 1974.7302501926 18 21 12
-441.989564952044 -153.642477155763 1961.46013225708 18 21 12
-446.228619299388 -153.761331242367 1952.09755930756 20 23 14
-434.502127093741 -153.662043563682 1941.18086357753 21 24 15
-423.775188163781 -153.576737466086 1930.30063748724 21 23 12
-413.049517321423 -153.491754580644 1919.36117831199 20 21 13
-434.248832967758 -153.841222539084 1911.77992504198 23 24 16
-441.479605800856 -154.000193374135 1902.78136585962 21 22 14
-440.729796325891 -154.050603168517 1892.92422961579 14 15 7
-440.977416168933 -154.11449722335 1883.17778383193 16 19 10
-439.230273484291 -154.151343926627 1873.19696073566 10 13 4
-262.345928927992 -159.9995953216 2170.41558774237 17 20 11
-294.589356563727 -160.42999729993 2161.31370826356 22 25 16
-324.829866612176 -160.836585051562 2152.31135754827 19 22 13
-331.081431898176 -160.971776088492 2142.49166774223 16 19 12
-336.333189185768 -161.095429795762 2132.66148887034 14 17 10
-328.594284174681 -161.072933889692 2122.25559092528 14 17 10
-292.139683100577 -160.793698035047 2100.22294729774 12 15 8
-331.358705344036 -161.297038783769 2092.19745706379 13 16 9
-389.551994112558 -162.010685169543 2085.47711450158 17 20 13
-384.808813424701 -162.020947305819 2075.28656952997 17 20 13
-411.028948884498 -162.37576817619 2067.01867138337 16 19 12
-346.361813819586 -161.72006122603 2052.92136039196 13 16 9
-382.567515248185 -162.185235265796 2045.37405644473 13 16 9
-381.820747606195 -162.239898475629 2035.39346784081 9 11 6
-325.157481501325 -161.676358098829 2021.27153878661 9 11 6
-422.51092143391 -162.876738646105 2008.83509780013 12 15 8
-454.952319914293 -163.356972069203 1991.95165152422 10 13 6
-482.149353586657 -163.716521441352 1984.60627182126 17 20 11
-437.479877078302 -163.288054052965 1970.90638219488 19 22 13
-450.702093961988 -163.494027623659 1962.35858679033 18 21 12
-488.871416159045 -163.971817493475 1956.27828344343 16 19 10
-461.174849868804 -163.730329677142 1943.90287628124 16 19 10
-447.451739901211 -163.641796019431 1932.79304880637 15 17 6
-411.780096218662 -163.315187202058 1919.31874529563 17 18 10
-449.941519282618 -163.790652777607 1913.5496630826 21 22 14
-430.23641866344 -163.638018172565 1901.63795899132 17 18 10
-421.506887614487 -163.604674494751 1890.85264397199 14 15 7
-416.768395237345 -163.614654307003 1880.47916671417 12 15 6
-259.064239165737 -170.208699931671 2170.37983144823 16 19 10
-263.322651218525 -170.31186972669 2160.27753289551 23 26 17
-344.541650089149 -171.071715805034 2153.13606456733 18 21 12
-282.090694791123 -170.670856733884 2130.36545869848 14 17 10
-284.348021742579 -170.755986205548 2120.27554464916 15 18 11
-348.810455678597 -171.432090718765 2103.24322169501 15 18 11
-370.044984290473 -171.675607383542 2094.39016129802 13 16 9
-369.551250458688 -171.799492233773 2074.44580996747 17 20 13
-361.812807130241 -171.798576050858 2063.99869722075 15 18 11
-368.311526234581 -171.980588578648 2044.47843148319 12 15 8
-296.918657624796 -171.514852199055 2019.26632833049 9 11 6
-373.063662145633 -172.21069278396 2014.94340180177 12 15 8
-463.176499600344 -173.019296890569 2012.14899008477 13 16 9
-428.479289926429 -172.794584081615 1999.5891836587 13 16 9
-438.710889387662 -172.941032785339 1990.65518006189 9 12 5
-433.967392410446 -172.963957261965 1980.46340092824 17 20 11
-444.197211061352 -173.109774313298 1971.59967578775 20 23 14
-444.444630837924 -173.173446301167 1961.86128773305 18 21 12
-485.611369843197 -173.571185103919 1956.05131491667 14 17 8
-446.432073542713 -173.435348624138 1923.02141804656 20 21 13
-454.66121166457 -173.563192413585 1914.14486852942 21 22 14
-407.519201906163 -173.366645766893 1879.50663945033 14 17 8
-323.239710015612 -172.814552491914 1849.59773596605 21 24 17
-249.692693240629 -172.289505245947 1830.41524043471 18 21 14
-270.77760157414 -180.521325383359 2170.83406485222 11 14 5
-319.019750535989 -180.868653425033 2162.32247010668 20 23 14
-324.273735547094 -180.965287701864 2152.43423546615 12 15 6
-439.719292323672 -181.761356679237 2137.32284960122 16 19 12
-261.081562593696 -180.800667815694 2119.27116599247 14 17 10
-283.326151047157 -180.99469092448 2110.11209695669 12 15 8
-371.51621724231 -181.563623986908 2104.49793872278 12 15 8
-373.76681397926 -181.641091686602 2094.66996660349 15 18 11
-316.07230622128 -181.378883634759 2081.41149968618 14 17 10
-343.302133170824 -181.598068073953 2072.9444829516 13 16 9
-366.532230705812 -181.793669165353 2064.37477255559 13 16 9
-355.797301785396 -181.797806833993 2053.70146035543 11 14 7
-298.378094562681 -181.606539006684 2029.61644946489 7 9 4
-277.663616795023 -181.55669656853 2017.92684405743 7 9 4
-358.808795141569 -182.071690547524 2013.93344086513 12 15 8
-452.923480998843 -182.655329937751 2011.41645239821 14 17 10
-403.497681241712 -182.50856552403 1987.74822234261 12 15 8
-460.652018061265 -182.884028596864 1982.88867441592 14 17 8
-423.963046915423 -182.745854449865 1969.85523910898 15 18 9
-441.181041870824 -182.901781373167 1961.64362775034 15 18 9
-437.683919863423 -183.006754753454 1941.75926117537 13 16 7
-456.893175251641 -183.171969445981 1933.92864521196 17 19 8
-460.13338642505 -183.250760797273 1924.53917810931 17 18 10
-463.619185350563 -183.39178359698 1905.4844715549 14 15 7
-396.273075630163 -183.157187417292 1878.30480391757 9 12 3
-250.145215186167 -182.51246918347 1840.86997049069 13 16 9
-292.490868586517 -190.79852326107 2171.61434184404 21 24 15
-295.747870797689 -190.875940509533 2161.57009822402 23 26 17
-312.999426325944 -190.995717268761 2152.07631389174 18 21 12
-396.220578472554 -191.314224658085 2145.37395889775 17 20 13
-412.712880517335 -191.493836987479 2126.38202221792 15 18 11
-352.001189565341 -191.378259814303 2113.56360011595 13 16 9
-356.252096952989 -191.45648937233 2103.78138878015 12 15 8
-351.509334852671 -191.508081030574 2093.53010749985 15 18 11
-329.781870449682 -191.510215256607 2082.27688337592 14 17 10
-312.053524804533 -191.524592940141 2071.14374581763 12 15 8
-347.529973165587 -191.757888143429 2053.23898980402 9 12 5
-335.797485700049 -191.78961269402 2042.41593875766 9 12 5
-287.11080407113 -191.717207032662 2028.89805774589 7 9 4
-297.356542771203 -191.811902383604 2019.46701247847 8 10 5
-381.502502346351 -192.112334273745 2015.75687418858 12 15 8
-411.712231002654 -192.260129472264 2008.22611363482 14 17 10
-381.007581916095 -192.238919174919 1995.85600013012 14 17 10
-356.551336355218 -192.299931619678 1973.84664264106 13 16 9
-480.59667629781 -192.699114244594 1975.06284119197 13 16 7
-430.929033766583 -192.627526831583 1960.77527005254 14 17 8
-430.427370590736 -192.751090598588 1941.13184492288 14 17 8
-436.664006026588 -192.829793351747 1931.96564293727 16 18 7
-481.820733388898 -193.009928294863 1926.88872151462 14 15 7
-519.985642359343 -193.17022095752 1921.31248161207 14 15 7
-287.469478878893 -201.013853830205 2161.34907740486 14 17 8
-329.715764689504 -201.094443894045 2152.78604263496 14 17 8
-343.729515517248 -201.365502600642 2113.23247526504 12 15 8
-344.492486895602 -201.564470974891 2083.19927380352 14 17 10
-278.802038628482 -201.62060988467 2069.22410059301 11 14 7
-344.25643139898 -201.762073754849 2053.10480785221 6 9 2
-332.523245278515 -201.826577766402 2042.27386660006 7 10 3
-315.7974226519 -201.890985101311 2031.02242520175 9 11 6
-281.095406217063 -201.954797710269 2018.35001205997 10 12 7
-365.248616979062 -202.02472566692 2014.59464485119 12 15 8
-433.411504288017 -202.091126385969 2010.03241018533 13 16 9
-386.72501640113 -202.154243605426 1996.4108383575 15 18 11
-354.024742154278 -202.218715901006 1983.71902147878 17 20 13
-447.135942288966 -202.280585332362 1981.87380585958 14 17 8
-460.362287932321 -202.342772111547 1973.31903140707 13 16 7
-480.575056930478 -202.403915551567 1965.48753275383 14 17 8
-459.856353201547 -202.46759192866 1953.84120479155 14 17 8
-429.158926774299 -202.532886353884 1941.09592263154 14 17 8
-454.360383973666 -202.592560790394 1933.85024345428 15 17 6
-444.626329226137 -202.655956574801 1923.10383641131 13 14 6
-410.942469092398 -202.723234125586 1909.74278940079 15 16 8
-495.016585664718 -202.771552917172 1909.11122416752 16 17 9
-433.394316739558 -202.844137309778 1892.56182363316 14 15 7
-470.559813839594 -202.898506228609 1887.05163268426 7 10 1
-443.867447304853 -202.965685154938 1874.21468440369 13 16 7
-285.1888869155 -211.180701353211 2161.34048539651 22 25 16
-354.433202048996 -211.07985216537 2153.80004699764 16 19 10
-250.714987803444 -211.403170731121 2139.57277883091 12 15 8
-280.965441327636 -211.397070763055 2130.61559013856 12 15 8
-317.209276232263 -211.374700307214 2122.10138557659 11 14 7
-329.459724469334 -211.411392102174 2112.6072751534 10 13 6
-257.754730168192 -211.660879857243 2098.82617269091 10 13 6
-380.938754405686 -211.413933244879 2095.29117471727 13 16 9
-319.233310771394 -211.639044600948 2081.82875824278 13 16 9
-372.449006321561 -211.567863293109 2074.93323067451 10 13 6
-368.210755223461 -211.776329797547 2044.79547157689 8 11 4
-336.496866848853 -211.926530770859 2032.57771557223 9 11 6
-388.693858895731 -211.852230862274 2026.38251176736 10 12 7
-375.960419479896 -211.951579367741 2015.49935917907 10 13 6
-367.223968850912 -212.040358479879 2004.86268406 10 13 6
-459.35540194934 -211.85280384205 2002.46048403156 13 16 9
-363.734807533653 -212.179876513768 1984.63009474843 17 20 13
-401.93249548849 -212.138584759305 1977.99850919303 17 20 13
-445.117106527143 -212.081869162639 1972.02738885881 16 19 10
-455.348426956518 -212.116158005715 1963.22471941374 15 18 9
-452.59999500801 -212.18671812716 1953.23338868096 14 17 8
-477.803445920097 -212.17760884726 1945.9836429611 14 17 8
-470.062774352426 -212.261911679281 1935.53211590744 15 17 6
-431.381692724471 -212.435561078189 1921.81544826562 16 17 9
-427.637528668728 -212.509103233471 1911.62008916954 17 18 10
-366.010941493466 -212.7515922753 1895.05703028166 15 16 8
-331.336855180651 -212.91698805866 1881.18393902694 12 13 5
-459.316271032892 -212.602981271682 1885.85056270429 21 24 15
-485.504717725545 -212.586858135513 1879.21946245887 18 21 14
-270.168102453073 -221.493692441486 2150.6624297541 11 14 5
-268.428004035804 -221.572315327454 2140.37076102696 12 15 8
-309.676460276486 -221.425916842875 2131.94192348962 11 14 7
-308.93350872342 -221.498300055814 2121.7931625363 10 13 6
-244.216557913803 -221.9076442287 2108.49925355051 10 13 6
-221.488735584428 -222.097205395027 2097.02475136534 10 13 6
-260.730321899548 -221.958640202993 2088.80660820599 12 15 8
-400.904380551246 -221.281010876501 2086.59001798414 13 16 9
-383.166921073279 -221.441831947599 2075.65584095354 10 13 6
-374.182836542437 -221.754364982797 2035.33982019797 9 11 6
-371.43815148292 -221.835030523439 2025.19119764264 10 12 7
-339.725826560981 -222.07358750894 2012.8081418224 9 12 5
-315.009943508008 -222.274894164995 2000.80500462773 8 11 4
-388.175542815531 -221.939688096968 1996.7008032022 11 14 7
-371.701599121906 -222.160348581289 1975.43728794804 15 18 11
-435.860983490329 -221.869640795079 1971.27795571504 16 19 10
-411.147104541046 -222.070670743404 1959.196788313 16 19 10
-412.395098762075 -222.127620134755 1949.46786484802 15 18 9
-447.586619373831 -221.994417216893 1943.09258977717 14 17 8
-450.828556409308 -222.039187098004 1933.67219964062 16 18 7
-426.120345104224 -222.241107603969 1921.35924006904 17 18 10
-409.400768318764 -222.398639288173 1909.76369980748 15 16 8
-393.687021506717 -222.803545058275 1858.59122855564 15 18 11
-215.152262780555 -232.207068566583 2138.27073279624 12 15 8
-204.945318286141 -232.501450721087 2106.65031801354 10 13 6
-210.207385238298 -232.529879310167 2096.51944713377 10 13 6
-300.428616007613 -231.873883664633 2091.05189881309 10 12 7
-375.897593399022 -231.400432402983 2075.29778806481 11 13 8
-251.234538072445 -232.477952052685 2057.53031557907 8 10 5
-289.725087693388 -232.302258504641 2039.59699187795 6 8 3
-288.983915615761 -232.376245188855 2029.36763638786 9 12 5
-298.23352012415 -232.368335183581 2019.87097400591 9 12 5
-370.417081657759 -231.843940455436 2015.24318511008 8 11 4
-379.659756543039 -231.833945511091 2006.0195950518 9 12 5
-330.968760638404 -232.30056270978 1992.09156964744 12 15 8
-443.332902400741 -231.503660528931 1981.79848133164 12 15 8
-431.596735619243 -231.664931968208 1970.98013322708 12 15 8
-385.911458497826 -232.108524469729 1956.93673788657 13 16 9
-375.179616734083 -232.262581983264 1945.99112131433 16 19 12
-437.333526500086 -231.808747085935 1942.17151351184 18 21 14
-446.566267719497 -231.795039043641 1933.33082757823 14 17 10
-412.872140761404 -232.14053244303 1920.07231687887 14 17 10
-216.602780265668 -242.474604193447 2148.77131933672 16 21 14
-240.864915205887 -242.286779939311 2139.39519121722 12 15 8
-177.66520572238 -243.179707402214 2105.39116255409 10 13 6
-302.405266173988 -242.045469008036 2081.10174635812 11 13 8
-280.674095899745 -242.349814722318 2069.6595443118 11 13 8
-294.924286269484 -242.264284900414 2060.35613972178 9 11 6
-292.442141384388 -242.42848857102 2039.86616563872 7 9 4
-278.71123371898 -242.646636305318 2028.72248355995 8 11 4
-252.993006235568 -242.996091239102 2016.61788216676 9 12 5
-387.377499618746 -241.660032687181 2006.71690869138 12 15 8
-362.65597385275 -241.997435129898 1994.77885430686 15 18 11
-446.811587693713 -241.137913291152 1991.93686284237 19 22 15
-421.0907052464 -241.485791121777 1979.93772000765 15 18 11
-378.395575219877 -242.021756240855 1966.26364550499 13 16 9
-375.651582699752 -242.117445865112 1956.07182440727 11 14 7
-354.934014158157 -242.412110812352 1944.14243644311 11 14 7
-411.103036864349 -241.854624053218 1939.67662041725 12 15 8
-364.426707380509 -242.437419809144 1925.10003221937 13 16 9
-297.869746254185 -252.154102214207 2091.06973273006 10 12 7
-251.145260406248 -252.857394688675 2078.24588196794 11 13 8
-314.377120478376 -252.069213829933 2071.76339877303 11 13 8
-322.629361245072 -252.026035102857 2062.17687345837 11 13 8
-301.897749115998 -252.376965291923 2050.73594425927 9 11 6
-318.144086989523 -252.224322155008 2041.7045650013 9 11 6
-265.699004112743 -253.077880687599 2017.6418233361 16 19 12
-279.946674306541 -252.951785395449 2008.48979681813 17 20 13
-425.316947722772 -251.093056474049 2000.00544075474 17 20 13
-446.542699388234 -250.866733086748 1991.9998918908 14 17 10
-440.796735641646 -251.01066280079 1981.74989888244 11 14 7
-326.440633455084 -252.718257076972 1951.58405972506 9 12 5
-357.654018847326 -252.353442584885 1944.49480452017 12 15 8
-389.861320420389 -251.973550153468 1937.67488844881 12 15 8
-386.369833130913 -252.151794569409 1917.50094957084 12 15 8
-405.590008349379 -251.949516371596 1909.63813437537 9 12 5
-448.015170090092 -251.4868889084 1894.67659852824 16 19 12
-381.386072107237 -252.479078128859 1877.26456249687 18 21 14
-220.819942719975 -263.31891424509 2118.02028379377 11 14 7
-354.32241511633 -261.292003541482 2104.21604316356 11 14 7
-255.860291419321 -263.035884456775 2078.59671665994 10 12 7
-278.371176535608 -262.80952489038 2059.48122607811 11 13 8
-323.606385872145 -262.139479367027 2052.24049074421 9 11 6
-317.634666305455 -262.512187952593 2011.46001026002 16 19 12
-296.909143142503 -262.921457199235 1999.71846318464 14 17 10
-411.558649863933 -261.233313615421 1979.2786654116 9 12 5
-376.101627319225 -261.951212680184 1956.29471222647 10 13 6
-383.344865127119 -261.897200279318 1947.0469884316 14 17 10
-407.563750443152 -261.561240248357 1939.51093745022 15 18 11
-407.813596533683 -261.622114597101 1929.68072453021 13 16 9
-335.172748736662 -262.894122438483 1912.26995349107 12 15 8
-342.416639589638 -262.839545528169 1902.98798777064 10 13 6
-299.741395370963 -263.615914435776 1888.27857993618 11 14 7
-498.902599136454 -260.423994121169 1890.87973872003 17 20 13
-190.738600851703 -274.001433499976 2148.01264822943 19 21 10
-331.028760819327 -271.419906432175 2143.29335035753 13 16 9
-337.793710425246 -271.504676236563 2113.47228609177 11 14 7
-357.299798981814 -271.27429322684 2094.46516396711 10 12 7
-307.564924835589 -272.291273021863 2081.63641761542 10 12 7
-288.344075764537 -272.869025856707 2050.0142517026 8 10 5
-331.580027031997 -272.112351994703 2042.78813865071 6 8 3
-310.361187144582 -272.725889480473 2010.99030396533 15 18 11
-310.617796114014 -272.789779685784 2000.89253611541 15 18 11
-407.790495761979 -270.991025413567 1998.74029155512 16 19 12
-432.018081125817 -270.59155882596 1990.94172580457 15 18 11
-426.272188326746 -270.768127781503 1980.65391441767 16 19 12
-429.517523324108 -270.771398838489 1971.14527840069 16 19 12
-428.767043653511 -270.851433416851 1961.2825269124 16 19 12
-435.007932442414 -270.796290059029 1952.08447801245 12 15 8
-415.281507560829 -271.242610230378 1940.36308845828 11 14 7
-398.553817042647 -271.631410895227 1928.83634215929 10 13 6
-300.943501994746 -273.586857877867 1908.80638132556 11 14 7
-273.242628915778 -274.190633995206 1895.70104386246 11 14 7
-305.451946728088 -273.632934874565 1889.0025660936 12 15 8
-336.658245761342 -273.093360790245 1882.36858894889 15 18 11
-375.100589611359 -272.476567568411 1866.79293262708 17 20 13
-239.466815507355 -283.358664802057 2149.93794399606 18 19 11
-256.732527351218 -283.058408366403 2140.34188110455 13 16 9
-290.999029570395 -282.388446203972 2131.57837335115 12 15 8
-241.512254424946 -283.608560521782 2108.83494838089 11 14 7
-183.570963028402 -285.162506225623 2064.16343308222 9 11 6
-354.307010058526 -281.922843006629 2004.44067120263 21 24 17
-386.535392482876 -281.283281835448 1997.08497951693 24 27 20
-416.760920609517 -280.686328094464 1989.73637498273 18 21 14
-403.023141785404 -281.055128060611 1978.70880761364 19 22 15
-406.270310078122 -281.050274459428 1969.13724369547 20 23 16
-427.497729548084 -280.648884384453 1961.25448438015 18 21 14
-443.728010824359 -280.356686722744 1953.00982025473 12 15 8
-401.27745751677 -281.42469832272 1929.20556978105 11 14 7
-373.565502391242 -282.102963662156 1916.45337629805 12 15 8
-348.616289296669 -282.918625098655 1873.79245193902 17 20 13
-329.159338763384 -283.481671287563 1851.41373993476 22 25 18
-220.174959921792 -294.105662452613 2149.28016862835 7 9 6
-214.435600839034 -294.320747541786 2138.695641316 12 14 9
-244.706600190133 -293.655954161197 2129.64270478917 12 15 8
-265.97184159519 -293.209944138349 2120.33896747965 12 15 8
-245.228625876449 -293.790895973539 2109.09524244557 11 14 7
-432.484427522747 -289.82758973914 2030.27744831831 14 17 10
-385.011486267564 -291.134494848226 2006.95887783958 12 15 8
-373.27131695216 -291.492568499604 1996.08565156746 14 17 10
-383.515682159695 -291.307351963603 1987.00883497263 15 18 11
-365.782600878891 -291.813716070346 1975.5418501193 17 20 13
-370.031584957429 -291.776219521387 1965.95906614704 16 19 12
-433.221547807806 -290.27785756836 1961.87660928103 14 17 10
-416.736813270044 -290.818712760099 1940.69103718093 9 12 5
-400.006413401964 -291.300061721398 1929.17081042876 10 13 6
-336.337862261456 -292.948319540351 1912.67972231566 11 14 7
-380.533848716136 -291.916029094367 1907.34553090467 15 18 11
-241.638880705036 -303.774760334747 2160.45869097896 16 15 21
-252.905216156606 -303.544485897965 2150.59627850448 22 21 27
-227.154922272001 -304.318681359562 2139.28888948759 12 14 11
-220.677451090646 -304.644957470321 2118.32478974044 13 16 9
-196.935393240628 -305.365884434812 2106.81142368403 12 15 8
-434.974176330702 -299.167562762444 2079.39219323642 11 13 8
-392.228378865032 -300.404325472154 2066.94591529797 10 12 7
-413.222983455067 -300.107171014241 2028.94228597348 13 16 9
-334.766477652476 -302.395701812698 2003.06849158151 9 12 5
-361.004576439922 -301.744978734071 1995.16887522206 10 13 6
-329.280370503498 -302.6849919262 1982.50632574374 12 15 8
-362.510011269745 -301.840759847591 1975.34591121748 13 16 9
-352.771405278432 -302.176769003989 1964.49399609328 14 17 10
-362.77544612057 -302.171840484549 1925.49882219826 11 14 7
-319.080968746063 -303.444588995758 1910.98344086969 12 15 8
-437.435576315614 -300.308938242196 1903.74098548272 18 21 14
-429.69458932392 -300.587862030329 1893.10214208724 15 18 11
-211.599293963362 -315.013330621414 2149.10458900423 23 24 19
-271.891834464266 -313.287364395427 2141.18333315767 16 19 12
-283.155376226622 -313.025361364913 2131.46417545583 14 17 10
-335.959520781201 -311.953602157777 2063.5021814761 10 12 7
-301.2193551232 -313.069783088683 2051.19082007815 9 11 6
-281.773667413829 -314.083951664256 1988.77005078136 10 13 6
-413.949233978086 -310.161874429936 1989.76193351987 12 15 8
-372.227894628657 -311.490799922993 1976.28548803526 13 16 9
-375.477841532115 -311.460877875896 1966.63224295021 12 15 8
-336.527743383139 -312.912599969253 1922.93989020623 12 15 8
-437.917050510352 -309.969966160906 1913.65820017382 19 22 15
-423.183688198764 -310.482903150086 1902.27855929859 20 23 16
-385.482672350704 -311.694250045612 1888.2421632576 17 20 13
-233.327131760859 -324.650313230027 2150.00280308597 27 24 0
-261.864399358148 -323.871436021963 2130.61628019579 18 21 14
-184.091177578774 -326.488058059878 2116.79326189988 14 17 10
-254.161766429416 -324.498139566882 2078.98752139345 9 11 6
-328.682620456038 -322.20234428485 2063.12856223676 9 11 6
-332.937734491864 -322.134837796542 2053.34774544815 7 9 4
-306.709679265378 -323.211372594818 2021.27080939177 15 18 11
-324.471889976802 -322.83985185015 1992.35569370335 19 22 15
-396.937814758853 -320.590970932672 1978.53446656479 14 17 10
-386.196022368015 -321.013620394308 1967.68936162259 11 14 7
-278.048143106964 -324.791145094008 1927.32975289648 10 13 6
-341.245627019417 -322.771164271545 1923.51342103854 14 17 10
-377.462500340988 -321.641099086072 1917.24232583162 17 20 13
-411.676467158174 -320.575714442006 1910.95665778723 19 22 15
-376.967432047941 -321.791412165456 1897.32175327295 18 21 14
-354.248081441842 -322.610877952868 1884.83980372583 16 19 12
-287.107580223732 -325.038900813115 1846.76532829403 12 15 8
-189.011697646508 -336.500555006666 2148.39926464389 14 7 0
-202.284746217231 -336.10923255029 2138.5061212911 25 26 12
-134.509944282348 -338.58553542902 2125.17047584462 20 23 16
-215.818930897422 -335.784851138498 2118.33499801665 17 20 13
-223.084843285483 -335.604080074452 2108.32785198143 12 15 8
-262.361302385136 -334.287854790224 2100.01124030352 11 14 7
-271.400766294843 -334.26543420232 2059.62569418876 8 10 5
-261.439658614344 -334.913374688982 2018.02682617363 17 20 13
-265.218113588287 -334.995962582055 1987.59685033218 19 22 15
-362.431232631482 -331.598243198139 1985.58172137497 14 17 10
-376.676374233644 -331.159222484069 1976.85519140685 13 16 9
-364.93583254842 -331.647771576872 1965.8657489453 11 14 7
-347.200794099748 -332.350774071253 1954.25479704793 9 12 5
-321.47440876963 -333.340005899829 1941.78208940851 11 14 7
-301.746710426984 -334.115236538885 1929.75731239565 13 16 9
-299.006496119583 -334.282724499449 1919.34073413238 15 18 11
-365.200007996349 -331.980662605948 1916.06593789443 18 21 14
-371.446521661839 -331.824462335263 1906.76588124992 17 20 13
-320.755282274177 -333.709496614132 1891.27498966204 15 18 11
-344.982783296873 -332.908191907439 1883.90185829107 15 18 11
-365.211950068951 -332.249270977385 1876.20262749125 15 18 11
-225.911197280891 -337.38774433027 1839.5070132975 19 22 15
-251.137074766263 -336.549444939536 1832.2617550946 16 19 12
-226.277196151432 -345.639404485163 2129.22645680392 17 19 14
-253.554801043909 -344.67615381232 2120.1523955148 20 23 16
-215.058430822522 -346.299152405828 2097.6510419 15 18 9
-296.351027416518 -343.269498338312 2091.70199298581 11 14 5
-248.594158935557 -345.170053213044 2078.83354188354 10 13 4
-301.152102371056 -343.601784613992 2021.03637885888 12 17 11
-326.404227005852 -342.70527726915 2012.82779034949 12 17 11
-350.653429935505 -341.845953113632 2004.67809487897 13 18 12
-338.911013443449 -342.367850687986 1993.71679454379 14 16 11
-313.175957223462 -343.427667214207 1981.507186906 14 16 11
-322.428061777296 -343.142924718088 1972.21005549525 13 15 10
-306.206600349594 -343.978236914662 1940.41869297199 14 14 6
-320.452810571391 -343.499377963142 1931.69317287776 16 16 8
-419.876192573906 -339.803760685985 1921.83881900733 19 22 13
-334.207666751252 -343.176007259035 1902.89635772775 17 20 11
-352.44384639533 -342.540338703773 1894.83935287328 13 16 7
-337.71402818877 -343.176853156897 1883.18850813291 13 16 7
-229.882442968527 -347.618233303939 1829.75423573771 13 16 9
-246.049365985259 -355.439000778457 2089.0505373125 18 21 10
-266.317593729894 -354.684920488064 2079.92684318269 17 20 9
-316.10383353422 -352.867812211222 2052.49899616095 7 10 3
-313.359553399871 -353.054039023954 2042.22120416337 7 10 3
-343.616389548436 -351.88467604907 2034.26358262546 9 14 8
-318.871615440694 -352.973824679983 2022.42698681352 11 16 10
-344.124616047985 -352.008231677374 2014.26766591126 10 15 9
-324.382485710992 -352.891945759456 2002.69046006664 12 17 11
-295.645383475601 -354.146338916051 1990.26847862223 14 16 11
-318.895357436444 -353.261239498609 1982.08230162194 13 15 10
-320.150764954114 -353.280790024201 1972.10379686487 13 15 10
-376.632310173453 -351.093862082158 1957.17308683462 15 12 7
-310.924163487071 -353.873372525366 1940.96548255332 17 14 7
-327.16983033334 -353.273231903312 1932.45014248787 16 16 8
-303.700055101339 -354.381583205327 1909.87904206484 18 21 12
-396.8746800647 -350.600817537744 1909.67156525747 14 17 8
-349.440807229773 -352.966528195343 1844.57171508016 8 11 4
-229.186750804439 -365.950070112021 2150.1449254353 10 14 13
-236.454647165424 -365.712584069829 2140.12113504084 20 22 17
-246.24479103758 -365.520576921742 2109.69599112425 16 19 10
-248.809550780571 -365.868397822841 2048.19099410772 16 18 13
-319.08210208303 -362.866662605847 2042.69575886125 15 17 12
-326.338548188876 -362.622467017886 2033.12668829705 13 16 9
-336.594116518806 -362.246176480978 2023.81717541547 14 17 10
-359.847745481093 -361.299210184396 2015.55457618715 12 15 8
-328.614631617641 -362.885301487873 1982.99541355486 15 17 12
-340.866043068326 -362.418667387573 1974.00408998849 13 15 10
-377.106324909152 -360.896967938773 1967.23861546691 12 13 7
-358.366821321163 -361.790838489981 1955.57253960005 13 14 8
-338.140023207317 -362.890426359803 1923.58855416699 19 22 13
-369.371777646643 -361.584316924535 1916.79206298227 16 19 10
-377.617553175374 -361.289554529926 1907.71902794184 12 15 6
-189.830114778111 -369.848648592962 1845.93845276655 15 18 11
-273.997649193541 -366.202596802389 1845.61320042013 17 20 13
-312.210117375974 -364.583145329955 1840.09845872852 13 16 9
-275.691005275525 -374.002510201996 2162.16562525426 14 18 19
-241.915339397648 -375.645514322468 2150.70077092483 27 31 30
-214.150101737783 -377.01121702039 2139.29292617361 20 22 19
-243.438066888306 -375.733892289288 2130.20057397026 21 24 17
-262.714232998934 -374.919126334044 2120.80708292774 20 23 16
-234.214171837799 -376.39750763172 2098.88021393072 15 18 9
-298.513757087451 -373.490506221833 2092.05984495837 11 14 5
-305.774515845974 -373.229633127123 2082.34012801 12 15 6
-202.247956047397 -378.193459700133 2055.63972002833 14 16 11
-265.791236874142 -375.39114046877 2039.15778637125 14 16 11
-271.051466526118 -375.221554089979 2029.30201198104 12 15 6
-345.318373199148 -371.837995146491 2024.54547675649 14 17 8
-351.079587569218 -371.787230537145 1994.9819024113 15 18 9
-337.335690094498 -372.50018629172 1983.82394512441 17 20 13
-340.589525732272 -372.420148301661 1974.07252547076 14 17 10
-372.833607317874 -370.986195103999 1966.94688836636 10 13 6
-408.072319476807 -369.410821706249 1960.27569574069 13 16 9
-361.343364357686 -371.663609634104 1945.97211548694 20 21 15
-424.563214202919 -368.778481783754 1942.21057374348 21 24 17
-457.792102820887 -367.293061020917 1935.76801480414 18 21 12
-365.352641056684 -371.754111847158 1906.51232923239 13 16 9
-307.165960167594 -374.685705866285 1869.95227272031 15 18 11
-268.721376512649 -376.62594783039 1845.08628919213 13 16 9
-273.974822031979 -376.448403369882 1835.50420698252 18 20 15
-248.118455218474 -385.427213322326 2171.53446339493 0 1 4
-316.457547290316 -382.158721425593 2163.66628703519 16 20 21
-233.623221094935 -386.299380705396 2150.46223407897 7 11 10
-239.890870639138 -386.072403157442 2140.41210926491 16 18 13
-251.16229469673 -385.599220926814 2130.61163212015 14 17 10
-221.396366952455 -387.139984086009 2118.98407170387 13 16 9
-314.245053977521 -382.813263534356 2092.99342108871 15 18 9
-194.429244269831 -388.782444969912 2076.07664240554 13 16 7
-205.699588064522 -388.306607525394 2066.33056142959 9 12 5
-100.915081714249 -393.542440360371 2049.39484122683 7 9 4
-179.216133508772 -389.766521013806 2043.82387340237 6 8 3
-310.035983644784 -383.549161030952 2022.04069996033 15 18 9
-331.059524165684 -382.805395948185 1983.38569031026 13 14 6
-320.316434762276 -383.408522498714 1972.39749471424 13 14 6
-385.556439908878 -380.25628238676 1968.18441387116 16 19 12
-407.800899361973 -379.227060421644 1960.34381296603 18 23 16
-398.054322688777 -379.77895174724 1949.57162205516 19 24 18
-452.52686995776 -377.22155003303 1935.33164918542 14 17 8
-422.791038226193 -378.762012968957 1922.52815469079 13 16 9
-408.049616693844 -379.560505676679 1911.15688834369 15 18 11
-329.611749048516 -383.585352991209 1882.69032725095 15 18 11
-326.938249409988 -391.57671264971 2174.14958217122 2 7 10
-272.125652840738 -394.492880972296 2162.18648188401 24 28 29
-252.360987385587 -395.596669183009 2151.24440308492 15 19 18
-222.588447512564 -397.219278540934 2139.78738742118 20 22 17
-228.856897220995 -396.975468609489 2129.72406273417 20 23 16
-213.103492192895 -397.872450954949 2118.68137987557 19 22 15
-201.35603859285 -398.561964266657 2107.74629908885 23 26 19
-174.128528377792 -400.215137981509 2075.0042139776 18 21 12
-341.511373157096 -391.902444549644 2034.45875576433 11 14 7
-332.763191602255 -392.432020815408 2023.79794704309 18 21 14
-340.019253394572 -392.128424091615 2014.30767714766 22 25 16
-324.271670546212 -393.02221496212 2003.04087009568 21 24 15
-361.034499644358 -391.325132645831 1976.04075116976 11 12 4
-345.289941875628 -392.218168383341 1964.65652433004 19 22 15
-362.539906113553 -391.389843215691 1956.24293196538 22 27 20
-356.794683493114 -391.760800365666 1945.72953339217 19 24 18
-389.035763640266 -390.1480616092 1938.91316906344 15 20 14
-434.266872976473 -387.855137950513 1933.5845222861 13 16 7
-433.763050975713 -388.018455410869 1913.99211184667 16 19 12
-387.543383280912 -390.64042114858 1879.37809529382 19 22 15
-266.319668573603 -404.803803643285 2182.47392659154 0 3 5
-333.670907655927 -401.218291695705 2174.43737224623 7 12 15
-210.289669814193 -408.185221871716 2139.36592319656 23 25 22
-273.621887808223 -404.812705435064 2131.73596525993 22 25 18
-182.051165741639 -409.971062592265 2106.88637084522 20 23 16
-149.286989892735 -411.841556068778 2094.75288349268 16 19 10
-170.571531857779 -410.76029301851 2085.36757442529 18 21 14
-108.791030173704 -414.217381413187 2071.36843852548 16 19 12
-241.151203726056 -407.062595196266 2068.61627458658 2 4 0
-237.932399684317 -407.472933140753 2037.52640081606 5 7 4
-268.205742128242 -405.89266280032 2029.36485675663 1 6 0
-300.475651874115 -404.201355065006 2021.51541794519 13 18 12
-247.979576135829 -407.229197243327 1997.11107563509 19 22 15
-343.505925835839 -402.139767076708 1984.62084094066 19 20 12
-319.271896175434 -403.688303060913 1952.32932805087 23 28 21
-389.511946755909 -399.901928939407 1948.94681843333 16 23 16
-430.247030936675 -397.872416715381 1923.49612006363 13 16 9
-427.496558277879 -398.092526179021 1913.42397279251 13 16 9
-362.28835070101 -401.887984844913 1876.5861692705 8 10 5
-353.548106708647 -402.438250211429 1865.59291874737 15 17 12
-340.404894792136 -410.820375016704 2174.72495694179 22 27 30
-197.461018984722 -419.079206695877 2159.72167523153 26 30 31
-226.285771223911 -417.677719181018 2129.76776762975 23 26 19
-199.517769418224 -419.293251528666 2118.21508031058 22 25 18
-209.79196947922 -418.78627823754 2108.31769191172 19 22 15
-166.279058688739 -421.444424304733 2085.21852630175 18 21 14
-170.54855359386 -421.28079655608 2074.96953814112 12 15 8
-216.37422843121 -418.889611727916 2046.50871716621 7 8 10
-233.169216821122 -418.15856316871 2016.6645470808 143 152 151
-372.729648463415 -410.280612110173 2007.04429039282 40 42 37
-313.969972813547 -413.737003597829 1992.31536699234 12 13 7
-382.737480685654 -409.995671906061 1968.21091599887 22 25 16
-350.991335048465 -411.897723182762 1955.3635588398 20 23 16
-348.499022541717 -412.185271815989 1935.12920752405 10 15 9
-409.735120183439 -408.722726649762 1931.30323652557 13 16 9
-370.251220653439 -411.142267901978 1907.43452126826 13 15 10
-383.496696371286 -410.446987490958 1898.93606237697 13 15 10
-225.215304492783 -427.772754951664 2160.76604386483 16 20 21
-230.745699289566 -427.607872887598 2140.34622858083 23 26 19
-279.583946065094 -424.921710974107 2111.79419416266 15 18 11
-210.295611544352 -429.327035023287 2077.3157624764 10 13 6
-245.848678472327 -427.348897416939 2058.7909536788 14 16 15
-217.139931890312 -429.46994713267 2005.22202415075 0 2 4
-351.702168643333 -421.509761497946 1995.48670153483 36 38 33
-363.957890294746 -420.844438336066 1986.53093261623 27 27 19
-351.208729992427 -421.687153757019 1975.46403659009 25 25 17
-397.46516212362 -418.968043493708 1969.62799127677 21 22 14
-365.715783165876 -420.957225029907 1956.8227745119 19 20 14
-380.967001153851 -420.108155517569 1948.32373481798 14 16 11
-406.214895017025 -418.653983317509 1940.88860187976 10 15 9
-359.474484475268 -421.549943453579 1926.33282565634 12 15 8
-367.230454596452 -421.293162305245 1897.26346431943 13 15 10
-280.53122949094 -434.750134527201 2142.43439576422 18 21 14
-302.818578386424 -433.43400626802 2133.22558475513 18 21 14
-347.38385075666 -430.798126946741 2115.17090592915 18 21 14
-319.606276934663 -432.622181924351 2103.75305775193 18 21 14
-269.326416181309 -436.021014466787 2070.54933926562 8 10 7
-295.607245631629 -434.447639193129 2061.97965822903 7 9 8
-379.929030436933 -429.221031699783 2057.33217006538 1 2 4
-318.904207308163 -433.368248415341 2013.05749176957 14 22 25
-262.136107399192 -437.021611792216 1998.5050444674 20 24 25
-297.407808921054 -434.874783808027 1991.14877239183 21 23 20
-373.189894613143 -430.318333541633 1967.54131445605 19 19 11
-398.443677217587 -428.797127318817 1959.94800508015 19 18 13
-425.69381946725 -427.148470090796 1952.68321577894 16 17 12
-386.944773783559 -429.666904835206 1939.09584417232 14 16 11
-372.197744522952 -430.670006885838 1927.71472872956 13 16 9
-380.699676316782 -430.274760176078 1908.74743658147 13 15 10
-408.94123984768 -428.559197691275 1901.91446870251 13 15 10
-273.499249254435 -445.419319099359 2132.03701229369 21 24 17
-252.730008391783 -446.862121173422 2120.89437641876 21 24 17
-284.287006766752 -444.958650718835 2102.018300989 20 23 16
-302.565250996027 -443.841262641983 2092.84382453511 22 24 19
-242.758627328993 -447.843670209933 2079.32949981702 12 14 9
-327.357103623268 -442.453500572924 2064.04357018478 12 14 13
-373.160606833111 -439.980330553062 1997.41983596147 9 10 5
-322.394524146979 -443.394786157439 1983.21190492169 21 20 15
-368.663084723162 -440.424814186443 1977.17119394396 22 19 14
-415.925368469973 -437.387049310898 1971.47329166463 18 18 10
-399.421976710697 -438.61852819031 1950.27536988756 16 17 12
-389.672017235775 -439.332980798382 1939.46084480171 15 16 11
-373.923775612602 -440.442724880541 1927.98791102497 14 16 11
-406.171466556556 -438.388118439252 1921.39694213293 13 15 10
-423.417616373178 -437.321312395845 1913.38849296394 13 15 10
-283.704064118506 -446.608580300063 1888.3625310928 13 15 10
-256.971514740643 -448.444971329069 1875.19642382637 14 16 11
-345.071148800999 -450.598914595847 2145.19058736794 15 16 21
-331.304123055066 -451.619852650085 2134.60587536739 14 14 14
-308.526333666054 -453.25572942603 2123.53131665783 14 14 2
-281.00308219435 -455.298136929016 2101.92989509669 13 17 3
-262.238646425656 -456.661203981735 2090.74379294274 10 16 12
-298.538471498002 -454.263050295539 2082.58290693403 11 17 17
-214.706678048458 -460.072054007804 2067.46382807346 8 13 16
-375.379331450901 -449.248569357536 2057.20416779041 1 1 0
-367.380067606401 -450.10326873847 2016.9239683935 19 21 18
-342.617976296243 -451.874905112809 2005.0313860665 15 21 19
-357.131915118314 -451.031779898193 1986.23322586895 13 24 8
-390.397052289018 -448.826421104559 1979.15628671484 14 23 4
-387.64684453692 -449.088704456931 1969.0285028987 15 18 1
-382.147650289052 -449.61227587578 1948.72627299976 18 13 17
-417.401652585955 -447.265523896624 1942.27641093731 19 14 18
-377.650017334048 -450.065909778304 1928.46281354849 16 17 9
-409.899850887037 -447.923375672433 1921.88251402724 15 18 11
-420.147926676178 -447.290339553514 1913.14150922743 13 18 11
-251.606771226823 -466.826990153374 2182.46579911585 0 9 10
-292.454254772057 -464.189819478901 2153.27460105372 15 20 14
-259.657937508913 -466.599639887113 2141.81822379185 21 22 27
-228.869424082793 -468.868103813528 2130.2673433621 20 20 20
-227.128028437097 -469.076424479999 2119.87779053976 19 19 11
-280.722786525378 -465.439446642363 2101.99586352284 14 16 2
-206.886817560375 -470.765616746674 2087.833358805 9 14 10
-275.231766714513 -465.993523320203 2081.3413941103 7 13 13
-311.787164144775 -463.557359744014 2063.2419918833 27 28 20
-358.099565479925 -460.654301772148 2016.30782321914 31 28 21
-355.350483895309 -460.926578018801 2006.12529527629 15 20 14
-432.895761727733 -455.552774792837 1992.70943961552 13 26 9
-360.111391376955 -460.814343070893 1976.61501964638 13 25 5
-376.370068907982 -459.72987644557 1968.11120890996 16 19 2
-387.625143906714 -459.001165044492 1959.23340195304 17 17 5
-385.875465804129 -459.199328161217 1949.17846263254 20 15 19
-326.11704829381 -463.536634933343 1933.42981013044 20 15 19
-400.378620494016 -458.309638035885 1930.85178149385 16 17 9
-392.628569995694 -458.93485953662 1920.19534352219 16 17 9
-420.87755287384 -456.98890854412 1913.31977528647 13 19 9
-320.971165101684 -472.090089141024 2164.4728730939 15 20 14
-321.226312118557 -472.15600589969 2154.43006745759 25 30 23
-201.277913003936 -481.072898162691 2139.53964203845 20 25 18
-305.966841311394 -473.53169779081 2123.56872272061 23 25 12
-351.543334488648 -470.337289836716 2105.70922336594 18 19 14
-307.504635112597 -473.91016244305 2063.06004756173 26 10 0
-316.77063059088 -473.306335659596 2053.56261883547 212 188 128
-295.289628747214 -475.366499271666 1991.34954400582 25 23 24
-397.606241868032 -467.873726527273 1989.82859877097 15 19 18
-408.86192589725 -467.11555473137 1980.94929630761 15 18 9
-386.101098494645 -468.874694959688 1969.0794536079 14 17 6
-380.349767203079 -469.374774171024 1958.65683695089 14 18 4
-326.584844804902 -473.431081703103 1943.63096889555 14 17 8
-338.842837259626 -472.59747262445 1934.77646636185 14 17 8
-318.093505554141 -474.209093847053 1922.6651218677 14 15 7
-461.608539970982 -463.714643027392 1917.74598217063 12 18 8
-392.857360218752 -468.8842084598 1900.57058442888 14 17 8
-268.628221260798 -486.431117099226 2121.93637817424 23 26 15
-323.973158766398 -482.285481019855 2114.42318311313 22 25 16
-270.474991373921 -487.193910719903 2009.83101369147 37 13 0
-367.062631238367 -479.944136048851 1997.28965625801 19 16 23
-356.307464188194 -480.845639773179 1986.44379771953 17 16 22
-363.564771523261 -480.364871445511 1977.10440570984 16 17 19
-351.81095499313 -481.342609646153 1966.09921179759 14 17 8
-370.072232427599 -480.015796356354 1957.80339633707 14 18 4
-344.568491044592 -482.123641693696 1935.43723571822 11 17 3
-365.827265965639 -480.564309167583 1927.57230617582 13 14 6
-367.079722516697 -480.541330813149 1917.75479965256 13 14 6
-397.835301547705 -478.392864490295 1891.35586429504 15 14 9
-378.032779145512 -487.751362979795 2146.81520133317 22 26 11
-346.227197836451 -490.351370467414 2135.55070929098 22 26 11
-339.722571987326 -491.033667523517 2115.26564015784 17 19 14
-342.98097108829 -490.858720814613 2105.42844543847 14 16 13
-300.170184686986 -494.33219701383 2093.1205495591 6 5 1
-330.46976999511 -492.014617041232 2084.72500975398 22 18 7
-307.693084418917 -493.901607290269 2073.33768390826 93 74 41
-340.259729281228 -491.80043853812 2015.22272413819 39 21 0
-358.529370493794 -490.428076760883 2006.64892971365 30 17 9
-407.821529824773 -486.590510684406 2000.70087115514 18 15 22
-355.032048524778 -490.860388949733 1986.43023191759 18 17 25
-330.26864652233 -492.904886227834 1974.30522375055 18 17 22
-368.545870648737 -489.938948668271 1967.69602371096 16 19 12
-343.785029033929 -491.983107270587 1955.47131036923 13 19 7
-378.054263917798 -489.333123958765 1948.72699482783 11 20 1
-387.309266762623 -488.671213117222 1939.72156248576 11 20 3
-403.313991987029 -487.688892713072 1901.91592424362 11 16 9
-356.964089662716 -499.060655292667 2175.89033940614 22 22 22
-294.086645032909 -504.288435749013 2163.75413922956 27 28 23
-306.623678516512 -503.436685997337 2144.01322469319 20 22 11
-329.92244085689 -501.61585432385 2134.92494603747 19 21 10
-340.194791102086 -500.859819666754 2125.36727776101 16 19 12
-309.651292861698 -503.529497110483 2103.80023813045 12 17 13
-265.095668964841 -507.348394596763 2081.09942554529 18 16 3
-312.956449281731 -503.995270686427 2013.24065038941 33 22 0
