ply
format ascii 1.0
comment KinectMotionCapture
element vertex 769
property float x
property float y
property float z
property uchar red
property uchar green
property uchar blue
end_header
-306.281887556799 165.752514064017 1938.18208287074 165 169 170
-314.740192412103 165.803155974678 1931.08004020822 168 172 173
-323.893785276088 165.523524790803 1926.91516076973 161 165 166
-332.846934008334 165.351568908599 1921.76708464787 159 163 164
-340.747414759478 165.722529726387 1911.71051002396 163 167 168
-348.697669970933 166.090048371627 1901.64749263778 162 166 167
-357.956096380984 165.80227549548 1897.46955203337 155 159 160
-366.61087379251 165.838397779353 1890.34278872554 150 154 153
-374.89058287336 166.088618990681 1881.24689370972 149 153 154
-382.004930713322 166.984376965338 1866.24812576248 147 151 152
-390.787380607439 167.01129077985 1859.1054539338 147 151 152
-398.818476490316 167.466835830714 1848.02442919715 151 155 156
-406.324257050095 168.241315597985 1833.98481924064 170 174 175
-409.894504589644 171.267422989999 1799.267300014 164 168 169
-403.492737412279 180.074691953375 1711.36029745337 152 156 155
-402.202791953269 186.173879742064 1648.0161204657 108 113 109
-410.206027357526 187.011039644878 1632.90657892143 120 125 121
-420.085749025898 186.775161032822 1627.64328058195 137 142 135
-5.07586069048238 170.701839044516 2015.06046049516 210 223 231
-14.4100906541205 170.225424903262 2012.88917130059 129 143 154
-22.8304972401563 170.084035953401 2007.80773802084 124 134 146
-32.7952522203878 169.382593963843 2007.57372983104 115 122 132
-41.8516126581694 169.015801456625 2004.42890105894 114 117 122
-50.3225260111939 168.870836602676 1999.34117425028 103 108 112
-57.0393671888392 169.391623202756 1988.42398891975 103 111 114
-63.8116331231093 169.908819205544 1977.49989636297 129 138 145
-69.476039024146 170.865980846782 1962.68191089338 119 128 137
-95.41383259397 170.396022359747 1947.3530589642 240 251 255
-107.74698793449 168.803043737116 1954.88805383302 96 107 101
-120.033137427696 167.21276104578 1962.42890765406 109 120 112
-131.173843621425 166.064656592196 1966.08031263617 124 132 134
-142.833166329808 164.698357397091 1971.6831864165 128 135 143
-154.994874364321 163.11492734143 1979.23955174971 135 139 142
-167.642815790024 161.315273447897 1988.75118164446 137 141 140
-177.066383384952 160.829793682926 1986.56876751566 137 141 140
-185.974483065541 160.561680992545 1982.43449384157 136 140 139
-196.968172465081 159.420974024077 1986.10446643818 137 141 140
-207.680815896044 158.390270213854 1988.8012948538 140 144 143
-218.626324238254 157.251943346168 1992.47703362486 145 149 148
-230.798568159346 155.57275706743 2001.04026367925 144 148 147
-242.422734206424 154.113072523178 2007.65545782825 149 153 152
-250.575071920542 154.168661439091 2000.59134475959 154 158 157
-257.065004430221 154.977248933953 1986.67841681262 155 159 158
-263.147297103357 155.996515906449 1970.80043089402 157 161 162
-272.628706685011 155.504392522543 1968.61057565423 156 160 161
-279.774878517394 156.085480413415 1956.63196649667 159 163 164
-289.296916572446 155.590084461249 1954.43728995052 168 172 173
-297.45280451176 155.7363840456 1946.36480785323 167 171 172
-306.77842598601 155.345301262998 1943.18644086322 168 172 173
-314.775624462088 155.593630027378 1934.12556621563 167 171 172
-323.038148379796 155.732180732806 1926.03979698506 166 170 171
-332.211695205064 155.442290177141 1921.87245442786 166 170 171
-340.326210251573 155.682132429281 1912.79720198352 167 171 172
-349.335605560998 155.494591660538 1907.64238793234 171 175 176
-357.528145950113 155.728803802535 1898.55717294448 169 173 174
-365.350742249463 156.171383570034 1887.50220186682 159 163 164
-373.024108624896 156.715631283273 1875.45789896432 158 162 163
-380.959789940545 157.150290219891 1864.38883640442 148 152 153
-389.149728703318 157.475873688443 1854.29601836281 140 144 145
-397.585834202671 157.692839895321 1845.18069357443 139 143 144
-406.259934589837 157.801766652497 1837.04364004731 152 156 157
-411.53536417152 159.792902128603 1811.18595443439 171 175 176
-401.526684813326 175.544207698895 1648.12848750265 107 112 108
-409.162291212014 176.551335678927 1631.04900208361 113 118 112
-417.605986300019 177.136308644594 1617.90053209649 168 174 164
-1.00405756270017 162.155120153716 2004.50582604692 164 191 210
-11.2973900368554 161.345603916904 2005.23902530502 116 137 158
-20.0457784805474 161.082320612749 2001.12466993108 131 143 157
-30.9429955675196 160.054878532652 2003.79845605597 125 134 143
-40.0099033289443 159.681412020062 2000.65232861599 131 135 138
-48.7900844101354 159.415715148179 1996.53401206489 129 130 135
-55.2169969470575 160.016704552832 1984.64510980526 123 126 131
-60.8236259683872 160.93881707124 1969.8344268493 102 111 118
-66.50725864129 161.856021511202 1955.01390694937 103 113 122
-92.2251519637001 161.455474065789 1938.70462738134 218 228 237
-104.864497042231 159.777436996943 1947.20956294635 114 121 129
-116.896505949861 158.317092731225 1953.77386245485 120 125 131
-128.612201528179 156.966193917895 1959.36966067792 125 130 133
-139.747539179542 155.831304107587 1963.02194109084 120 126 126
-153.552143951266 153.629186615205 1976.42127477319 133 137 138
-166.743861965089 151.64509067688 1987.8811447512 135 139 140
-177.226395896698 150.730076051097 1989.5986977104 139 143 144
-186.126106400074 150.453838081578 1985.46549235367 138 142 143
-196.595559599635 149.539089412676 1987.18467701051 141 145 146
-208.330238910395 148.094849944631 1993.78603908349 144 148 149
-220.276699665104 146.547020559534 2001.3691722516 148 152 153
-232.426587358753 144.896101122321 2009.93487752255 148 152 151
-243.036626776805 143.881250438593 2012.64446856375 151 155 154
-249.948797100616 144.447653222325 2000.69510008376 155 159 158
-255.466733363953 145.641146909266 1982.87146922369 156 160 159
-262.037029503548 146.408452992262 1968.94862108394 155 159 160
-271.998246641602 145.703025969003 1968.71506489037 157 161 162
-280.314699108248 145.73033275888 1961.6305457508 162 166 167
-289.360072297114 145.441622606885 1957.47943566585 171 175 176
-296.819981258605 145.881955568794 1946.46973174066 170 174 175
-305.69297650896 145.693396906536 1941.3317020223 168 172 173
-313.918153353993 145.815156011131 1933.25063770569 168 172 173
-323.286904269156 145.41481842054 1930.06715305738 167 171 172
-332.013116165875 145.32439753959 1923.93949549323 165 169 170
-339.905654864751 145.645963916182 1913.88380180026 168 172 173
-348.060970714034 145.86060207325 1904.80352403103 172 176 177
-355.420279588137 146.484915012697 1891.79027543216 175 179 180
-363.05308313446 147.00167668716 1879.75110691444 162 166 167
-370.95117627729 147.411407303166 1868.68680078412 158 162 163
-380.116239754698 147.201258612833 1863.51261980302 160 164 165
-388.506982082908 147.399283748915 1854.40276568211 152 156 157
-396.942064486779 147.594158199525 1845.28762674786 139 143 144
-405.421485091166 147.785847215246 1836.16672278829 145 149 150
-412.224849634081 148.892345495795 1818.1829071776 162 166 167
-402.522381046182 163.998058844214 1657.10454156129 112 117 111
-408.301014587866 165.977811018978 1630.17640194841 117 122 116
0.88219649508825 152.800187233757 2000.73486662328 140 165 187
-10.0423072905855 151.781697106756 2003.40522395484 114 131 151
-18.7956397436917 151.509319678566 1999.2902755468 124 133 142
-28.4806212382263 150.916906453795 1998.08320721245 123 128 132
-36.6575338422486 150.85479020489 1992.02402441336 138 143 139
-45.162324869956 150.684793548997 1986.93213579155 111 110 115
-50.4280667176096 151.676798285357 1971.1561223827 107 106 112
-56.0699803238915 152.557960488729 1956.34090369159 109 116 124
-61.789015659236 153.434212099218 1941.51631386524 113 124 130
-70.7584096612024 153.147353644002 1937.37444038853 199 214 221
-92.4310121634939 151.205351719346 1941.72923214112 200 210 220
-103.942595227275 149.973622041851 1946.34250147344 131 134 149
-115.145727741934 148.848179274964 1949.98629660976 133 135 148
-126.873734380903 147.515069778201 1955.58051163772 130 134 137
-138.565539382092 146.183997783675 1961.17923905035 122 127 123
-152.108681859908 144.126023759856 1973.60313498635 135 139 138
-164.510244571103 142.488096165001 1982.13739848945 137 141 142
-175.273975154628 141.475938914009 1984.82804295749 140 144 145
-185.494611605444 140.671977021205 1985.57005935362 139 143 144
-196.741462213358 139.454484544087 1990.21632823819 140 144 145
-210.00663148882 137.412248176305 2002.67487214192 142 146 147
-221.423674629545 136.096141896079 2008.3078487987 149 153 154
-232.302910487044 134.987958901354 2011.99201886998 156 160 161
-241.17208601056 134.703423829333 2007.86264594834 153 157 158
-248.34138384088 135.135992623635 1996.8892290209 152 156 157
-253.867501575898 136.282053321865 1979.06470207461 156 160 161
-259.966692676789 137.217406582995 1963.18458804716 159 163 164
-270.18181993523 136.411110662601 1963.92753837325 155 159 160
-279.68382815117 135.910986141937 1961.73513361639 151 155 156
-289.424526973445 135.308274795883 1960.52113920866 152 156 157
-296.645738197989 135.823068388784 1948.53334016226 155 159 160
-305.060082019486 135.826431307521 1941.43666781567 170 174 175
-312.836871686464 136.131276161088 1931.39570322185 172 176 177
-322.43204403396 135.623574190254 1929.1916920871 168 172 173
-330.942048105039 135.61994716918 1922.08310031465 165 169 170
-339.054478165154 135.815459074793 1913.00822480668 163 167 168
-346.998421594956 136.108428465483 1902.94619141633 168 172 173
-354.571737867973 136.598820113591 1890.91451600316 175 179 180
-362.620775274878 136.884497192844 1880.83938670983 172 176 177
-370.719585295426 137.166704859983 1870.75805522514 170 174 175
-380.283267912181 136.745677477589 1867.55029873872 168 172 175
-388.263330698601 137.121818115529 1856.47585173949 166 170 173
-396.888755848046 137.195295089619 1848.34496595001 173 177 180
-405.553055289238 137.265877492866 1840.20923650149 147 151 152
-413.108353049265 137.929284728897 1826.16373959669 135 139 138
-408.355646212756 154.903504117107 1634.22997696791 133 138 132
4.64653959371897 144.0467918068 1991.15009435458 141 148 164
-5.68521364067576 143.244679604883 1991.87823916194 138 140 153
-15.0854123569062 142.754148991557 1989.69875463228 124 124 124
-25.4070216660693 141.952357047727 1990.42840476689 112 113 107
-33.3026621104431 141.978103937301 1983.39640458783 97 101 87
-41.2321226046959 142.0016365734 1976.36018969764 120 119 117
-46.5248894066703 142.950440098662 1960.58067723437 119 117 122
-51.6060385177128 143.996913115824 1943.81962910053 105 110 116
-58.8145645822651 144.318669354245 1933.84953590923 110 119 126
-70.4031521765087 143.098666676742 1938.45316464876 191 201 211
-77.3854340949773 143.51875294245 1927.50311907379 180 189 204
-92.3551356615346 141.072684590542 1943.78099956335 172 179 197
-104.423749980018 139.652859022996 1950.34062422843 142 143 164
-116.450934868966 138.235346779721 1956.90565321807 146 145 163
-128.436577819371 136.820239603698 1963.47561979365 143 145 144
-139.563274089457 135.71211834137 1967.12890810585 134 137 126
-152.013806482416 134.098214833106 1975.65699721558 135 139 138
-164.144739974525 132.588591089693 1983.21700866346 138 142 145
-175.964362597914 131.18262702874 1989.80766951628 141 145 148
-187.480737423647 129.879901073518 1995.4282149294 140 144 147
-196.888669356718 129.385085450688 1993.24777662441 141 145 148
-209.379523236116 127.682633336116 2002.77875413881 142 146 149
-221.305305390745 126.184257383476 2010.36433764011 154 158 161
-232.180253775062 125.089513764902 2014.04876710183 153 157 160
-240.795572865927 124.896739039368 2008.9431452164 150 154 157
-247.960718699222 125.301711937028 1997.97031910646 152 156 159
-254.452793720972 126.002185217996 1984.05740850158 156 160 163
-260.536099240263 126.897135645413 1968.17962356897 156 160 161
-269.788625107898 126.494285869607 1965.01040946648 151 155 156
-279.05329429629 126.090393744709 1961.83968269434 144 148 149
-288.33027647805 125.685331521102 1958.66766268357 145 149 150
-295.784639298896 126.070506026311 1947.65879614178 149 153 154
-304.427524632211 125.95821992822 1941.54159482139 166 170 171
-312.426997650986 126.139487578653 1932.48085319612 168 172 173
-322.24087734638 125.530441969587 1931.25774292913 165 169 170
-330.526272709059 125.608619690053 1923.16927846755 165 169 170
-338.850728732049 125.684040272409 1915.07594672731 161 165 166
-346.788071554445 125.952436422219 1905.01480176651 164 168 169
-355.616927814849 125.826391798565 1898.87442860646 169 173 174
-364.058586052592 125.893390372099 1890.76649290177 173 177 178
-372.744237486658 125.86014930959 1883.63605936436 173 177 178
-380.85652223999 126.116119131098 1873.55335567786 168 172 175
-388.619419044644 126.562748284395 1861.49789671336 168 172 175
-396.836677860413 126.811403572622 1851.40211214702 181 185 188
-405.297813660667 126.959853985376 1842.28360389023 167 171 172
-413.61180638005 127.201627598557 1832.17552535851 154 158 157
-416.311948222801 130.331440389885 1792.52788158338 156 161 157
-414.646485763022 140.584080032484 1671.77737976421 139 144 138
4.34427691540984 133.920752309377 1994.1623418872 147 151 154
-5.66955324691265 133.225082555704 1993.92219420383 148 152 155
-14.7564909217892 132.832602531571 1990.77361722048 119 123 126
-23.8560202147959 132.439143686407 1987.62371172405 118 122 125
-30.8517601926346 132.74951910066 1977.67996268065 115 120 123
-37.5981616829806 133.157100372819 1966.75938652005 113 113 113
-42.3215665378944 134.263550617461 1949.03513770833 100 100 102
-48.0206459802199 135.06361134564 1934.2129986367 113 116 123
-55.5461833909847 135.258617950431 1925.21136519238 94 98 110
-67.7378970133096 133.853166906233 1931.7555899373 193 198 218
-79.3158266165124 132.649460557202 1936.3605058153 175 180 202
-93.6977948265174 130.452210632612 1950.69570250226 124 126 147
-106.310633435652 128.856066578294 1959.20348998688 129 132 149
-119.427391311915 127.064522403839 1969.66452037048 134 136 148
-130.278226154397 126.068761513391 1972.34401129399 137 142 136
-140.836389468907 125.172877460943 1974.05207577364 146 152 140
-151.379955852383 124.277654566914 1975.76196012285 136 141 137
-163.780009972685 122.693423745497 1984.29627048062 135 139 140
-175.863244031891 121.21051857895 1991.86216417331 132 136 137
-189.208941933856 119.239327731684 2004.31047148468 136 140 141
-197.555844791518 119.134818949384 1998.23018654615 148 152 155
-209.522403451174 117.658331398163 2005.81062373835 151 155 158
-220.68048230571 116.477490009004 2010.46787429359 154 158 161
-231.305477545676 115.493369176569 2013.17551801067 150 154 157
-239.42613126685 115.483789078403 2006.11553053729 144 148 151
-246.597844481092 115.86057277681 1995.14195909228 155 158 163
-253.582080009249 116.330591583936 1983.18385112461 157 160 165
-259.906111832293 117.087198708792 1968.28407639279 156 160 161
-268.208075393576 117.065142439227 1961.20149537882 157 161 160
-277.013722104974 116.847701091534 1956.07218669022 150 154 155
-286.306780116881 116.435759466554 1952.89793835881 156 160 161
-294.464416192376 116.503711612757 1944.82544442965 158 162 163
-302.88806076703 116.472828564807 1937.72770158958 164 168 171
-311.345455225347 116.439556566797 1930.62575325478 170 174 177
-321.165064286702 115.82972790889 1929.40193005892 169 173 176
-330.111059736951 115.601553875251 1924.25513494159 167 171 174
-339.728025978636 115.085538237861 1922.04866622017 165 169 172
-348.711700286281 114.854306900639 1916.8971770555 171 174 179
-358.560589161666 114.241209479013 1915.66970852012 172 176 179
-366.331665556295 114.576164745248 1904.62120997855 185 186 188
-373.542498736951 115.191255696706 1890.61906772476 177 178 182
-380.419748792386 115.990534541397 1874.64221488675 170 171 175
-388.577926456601 116.21837545207 1864.55361784403 172 173 177
-396.588758902402 116.536775358552 1853.47548303138 165 166 170
-404.849160200289 116.757387370755 1843.37414812056 179 183 184
-412.584269161209 117.255995576118 1830.31457320024 173 177 178
-417.550946018737 119.154960307656 1802.48028663397 162 167 163
-408.509455545203 128.149697602723 1699.78546415831 142 147 143
8.73880108088909 125.289160367063 1982.64027725979 157 168 170
-2.86021601223885 124.101430059646 1987.24251947137 122 132 134
-13.197171212042 123.308601735627 1987.96999065544 121 125 128
-22.6096361570267 122.810451502117 1985.78899543895 122 123 127
-30.21429180542 122.899477515722 1977.78545470062 127 128 132
-35.7598691623344 123.670440564484 1962.9827886782 96 98 97
-40.4911252500624 124.72938677135 1945.25744491049 94 95 97
-45.9043775576964 125.587533196154 1929.4633755794 95 98 105
-53.7338036099266 125.662031017321 1921.43182308299 116 118 133
-74.9507325069398 123.961088996115 1923.82723091981 165 167 192
-91.0725155873602 121.223845132538 1943.99333417807 95 97 118
-105.391798291675 119.073379585179 1958.33623044056 94 97 112
-119.904772338724 116.831433082432 1973.6628831786 120 124 133
-131.847840197244 115.461530523899 1980.23804382919 132 139 132
-142.112348887472 114.67066232467 1980.97479101618 135 141 131
-152.36769319414 113.880139060504 1981.71268095568 122 127 123
-164.486003713607 112.419423194861 1989.27389861002 134 138 139
-176.822294266915 110.865651687596 1997.81608607047 139 143 144
-190.15460150058 108.932971248854 2010.26620331104 133 137 138
-199.262719573999 108.529466916629 2007.11501217129 151 155 158
-210.950165908932 107.173552115741 2013.72227630929 162 166 169
-220.817982580944 106.484735649544 2013.50033219839 151 155 158
-231.435804244807 105.511493337625 2016.20884248715 152 156 159
-239.796252151877 105.390895002803 2010.12714984653 153 157 160
-246.463881937779 105.929585129509 1997.20044419333 159 162 167
-252.468192862673 106.746730781437 1981.33248194645 162 165 170
-259.516957682662 107.181941495502 1969.36641277052 163 167 168
-268.291037890548 106.955343065304 1964.2410675098 163 167 166
-277.323241727418 106.633188834379 1960.09144868718 148 152 153
-285.908271436232 106.496937096615 1953.98153051935 150 154 155
-294.29201694416 106.452055304848 1946.88904398086 154 158 159
-303.163485761988 106.218145296803 1941.75132418341 171 175 178
-312.282155950253 105.889347941379 1937.59093236576 174 178 181
-321.861571242436 105.373216182917 1935.38915008664 171 174 179
-330.353210711252 105.320323701058 1928.28297984682 167 170 175
-339.743359630666 104.894405585829 1925.09689221948 160 163 168
-348.932021440145 104.559925057485 1920.92778082771 166 169 174
-358.138076461614 104.224008009654 1916.75650264894 175 179 182
-365.488933484975 104.715738613987 1903.74465794193 180 181 183
-372.289839194141 105.478734945135 1887.77766824444 178 179 183
-379.17290247759 106.236315696805 1871.80019976039 179 180 184
-387.337995377269 106.438692468739 1861.71080679607 164 165 169
-396.736296988291 106.088915710589 1857.51557387852 171 172 174
-404.595631298956 106.467889887138 1845.44849851912 165 166 168
-411.93996517243 107.115990298441 1830.42168187195 164 166 165
-415.956634247352 109.395720506454 1797.66603189978 160 162 159
9.689536252387 115.536604880239 1981.77691929806 155 170 177
-0.670453332599852 114.747266075637 1982.50150673752 114 125 129
-10.713320127901 114.053929579137 1982.2579695782 116 120 121
-19.8364490896514 113.646900912905 1979.10491444954 117 117 117
-27.4588317748561 113.715149011275 1971.09921619972 130 129 127
-32.7208922961446 114.541328209828 1955.32385862555 112 112 112
-38.957220688006 115.077516674113 1942.45122369327 88 92 93
-45.2597540903887 115.609544717557 1929.57009745467 75 78 85
-56.0067530398733 114.718741159443 1931.25458298416 93 97 106
-68.1854652262692 113.356610721116 1937.80031614814 203 206 221
-92.4186640330469 110.639340535902 1950.90750695135 147 153 165
-105.035358288706 109.096432077927 1959.41467308002 116 120 129
-117.878294064997 107.46274861724 1968.90177202412 111 116 120
-129.560683080188 106.206809770985 1974.50147663567 149 154 148
-140.387938076849 105.233005902892 1977.1838523615 144 149 142
-151.195226336577 104.26023514177 1979.8687170974 129 134 130
-163.588455520857 102.729980053295 1988.40373702367 139 144 140
-175.664408764346 101.29564494235 1995.9704114116 138 142 141
-187.955710765563 99.7711963952231 2004.51813595641 138 142 141
-198.377724729021 98.8977816642575 2006.24313189801 153 157 156
-211.096776495346 97.1933537555769 2016.75332396659 152 156 155
-220.957025358988 96.5072017661124 2016.53255752538 149 153 154
-231.316266912053 95.6369200261752 2018.26537884206 148 152 153
-239.173079093313 95.6863516776728 2010.23047472952 152 156 157
-245.346744737227 96.3753146926861 1995.34940267752 157 161 162
-250.624039965767 97.4255262525355 1976.54849262612 153 157 160
-257.684545394051 97.8294983394396 1964.58080028876 153 157 156
-267.899499577866 97.0432203792952 1965.32371949696 152 157 153
-277.634558698462 96.4394051208964 1964.11043179778 138 142 141
-286.44077388018 96.1987852088863 1958.98111320737 142 146 145
-295.040077581654 96.0472012264386 1952.86945410657 150 154 153
-303.21346848164 96.0746434697281 1944.79510074984 175 179 178
-311.874896585552 95.9185668104479 1938.67594099093 181 185 186
-320.786469326423 95.6701276527896 1933.53325472298 175 179 180
-329.720899207035 95.419966118167 1928.38796082367 175 179 180
-339.760001524653 94.7185381946824 1928.1449147574 171 175 176
-348.085722420217 94.7349298897622 1920.05134035028 159 163 166
-356.450555590194 94.7484442181203 1911.95313280872 176 180 183
-363.396715561487 95.3850022774525 1896.97603630693 168 170 169
-371.241918611613 95.6594572266236 1885.91868679115 160 161 163
-379.345150425838 95.8411096393479 1875.83706830144 176 177 179
-387.298077967165 96.1081644204287 1864.7662948941 167 168 170
-395.701044394731 96.1939119821902 1855.6554512256 167 168 170
-403.758918340028 96.4536838530897 1844.57160030676 174 175 177
-410.91184328711 97.1514909448796 1828.5606120943 170 172 171
-416.06456474225 98.8141279077521 1801.71141772109 180 182 179
9.38578705689275 105.404946380356 1984.78899611958 143 163 172
2.14234669452318 105.551032826986 1975.82245527992 123 138 145
-7.61141020123124 104.951490993587 1974.60682295502 101 105 106
-16.7557670691698 104.537048185383 1971.45113823404 112 111 109
-26.8212409481217 103.84415273696 1971.20477868285 147 144 139
-31.7806404363961 104.721245881659 1954.45937023803 152 152 152
-38.6124508693269 105.039715322647 1943.52837021917 136 140 141
-44.6154862868828 105.630607887156 1929.67677744264 110 115 119
-55.3633680497179 104.747302946083 1931.3611330549 82 87 93
-91.7797769209077 100.731428944311 1951.01332841841 120 127 133
-103.554609392184 99.4886522986624 1956.60146197098 144 149 153
-115.850443544205 98.0659004712425 1964.14066601728 140 146 146
-127.547737194876 96.8275259937601 1969.7384643633 143 148 144
-138.935732031131 95.6818459453254 1974.36693016713 141 143 138
-149.752048388654 94.7188917040084 1977.05064239835 140 145 139
-161.351773740212 93.4858967764684 1982.66060252443 143 148 142
-173.710816725775 91.984276476224 1991.19981327749 135 140 136
-184.96787317314 90.8458032330125 1995.8446004393 139 144 140
-196.194036903211 89.7089695611402 2000.49323851183 162 167 163
-206.875409979476 88.7531487876187 2003.19377208103 162 167 163
-218.299749586553 87.529744300511 2008.82559405507 167 171 170
-229.687854328902 86.3083197101943 2014.46193271202 169 173 172
-238.301307477065 86.0699763788531 2009.35666368851 163 167 166
-244.96807044605 86.5420742641142 1996.43048184597 160 164 163
-250.239679727074 87.5429566836187 1977.630171005 160 164 165
-257.777526643411 87.739216953371 1967.61907073875 143 148 144
-268.6994673391 86.6928432440747 1971.29774872614 153 158 152
-277.947637934998 86.2662626027924 1968.1291406302 160 165 161
-286.044432877277 86.279503207778 1960.06438339568 158 163 159
-295.560553793355 85.7619390837529 1957.87050365258 143 148 144
-304.856189109592 85.33146869558 1954.69598248367 116 121 117
-312.591515994702 85.5136876680889 1944.6605151308 118 122 121
-318.823267110705 86.3050663806121 1927.75655045081 142 146 145
-328.431196516119 85.780516303353 1925.55099167953 154 158 157
-338.47891431211 85.0808686899463 1925.30686576411 112 116 115
-345.315064113524 85.6862999048526 1910.34333958384 69 73 74
-351.383705697618 86.6338711029067 1891.4439444854 62 66 65
-360.260289350694 86.4483186376473 1885.29777194069 154 156 153
-369.987896312736 85.9146538622392 1883.07754238985 178 180 177
-379.113031751608 85.6392342678282 1877.90851608051 179 181 180
-385.657078061216 86.4820659432445 1859.95775620889 182 184 181
-393.677301092121 86.7168537683389 1848.87866969618 173 175 172
-402.532310665493 86.6045014324192 1841.72730960094 171 173 170
-411.228523930642 86.5753750964981 1833.58786007528 165 167 164
-418.637308174982 87.1418178787555 1818.55297517657 175 178 171
-425.936170486248 87.7883457255981 1802.52415015464 181 184 177
8.45289560143847 95.1077717029868 1989.73836978384 143 160 167
3.71276624433281 95.9545794690603 1973.02040471054 104 118 121
-5.12406680052346 95.6242374614708 1968.89518856997 112 116 117
-13.6729852225024 95.3826296718338 1963.7979816956 114 116 113
-24.0631017926685 94.6007504934372 1964.51903008949 126 126 124
-29.0387523023721 95.4324646270591 1947.77171311727 111 112 114
-35.8877184425954 95.7219508872512 1936.83864849374 92 96 99
-42.4973252236953 96.0971353347226 1924.92730145309 78 84 84
-53.2591961502966 95.220523922044 1926.60989367324 31 37 35
-73.5922906806252 93.8247192769381 1926.09173395085 35 44 39
-90.0048738759798 91.1769774223356 1947.22899847181 116 122 118
-101.791781290893 89.9520051352628 1952.81557825565 146 151 147
-114.100205295501 88.5524595832578 1960.35315004988 141 146 142
-124.705384373285 87.6844268691434 1962.05527389472 153 155 152
-136.116148481369 86.5531823905492 1966.68086021248 153 153 151
-146.684137079918 85.68700878089 1968.38738004463 154 156 151
-157.773668079959 84.6462030436347 1972.04512908976 146 149 142
-169.899014159479 83.2569171346918 1979.60552090829 99 102 95
-183.290458828429 81.4337896578072 1992.04772937399 60 63 56
-192.969226683082 80.8348743643546 1990.84145358812 7 9 4
-202.392424233402 80.3225730479351 1988.6591562723 2 4 0
-213.858744525606 79.1151871964148 1994.28569712052 5 7 2
-226.799606102925 77.3899922698079 2005.77619069215 7 9 4
-234.191277926124 77.5710487720293 1995.78337225192 2 4 0
-240.401006457481 78.1802571946803 1980.89825006439 2 4 0
-244.494412811518 79.5595435545348 1957.20529971024 7 9 6
-256.666921600274 78.0939940410746 1965.76769383716 15 20 14
-268.786903450363 76.6314623230216 1974.33663506823 19 24 17
-276.377643638144 76.798762028432 1964.31901030102 26 31 25
-283.319659755743 77.2191312493991 1951.35837444967 24 29 23
-292.169571702034 76.9527046975836 1946.22367072225 18 23 17
-301.042519722495 76.6845717268618 1941.08609672275 11 16 12
-307.91511967091 77.1793076437961 1927.12624065869 10 15 11
-316.636226450612 76.9909416246495 1920.99971838674 9 14 10
-325.166197058899 76.8851419767621 1913.88890397647 16 21 17
-342.969247897808 76.4134748478728 1902.59852591097 0 2 1
-350.53574415332 76.721461478681 1890.56818195278 1 6 2
-357.119976550259 77.4450858277709 1873.62040812148 18 20 15
-368.939009824584 76.0685029687572 1881.21875224542 20 22 17
-376.240626235827 76.5338800240773 1867.20567504738 30 32 29
-384.01460251504 76.8275714832233 1855.14923618593 49 51 48
-390.860326712034 77.5334623043913 1838.16887642452 99 101 98
-399.744372249693 77.4025405009577 1831.01418198337 122 124 121
-409.816045336709 76.7715775315869 1829.75895834375 122 124 119
-417.612871698189 77.1333397415869 1816.69180156703 171 174 165
-425.849556774142 77.3254022899137 1805.5858143863 190 193 184
12.226608045367 86.1529628418311 1980.15529716915 123 134 136
4.97230149119887 86.2533290206142 1971.18776096444 159 167 169
-4.17792047664745 85.8265084112435 1968.03137691016 121 127 127
-12.4230177889249 85.6604317884208 1961.96395883854 123 127 128
-21.6063108135118 85.2312679780476 1958.80369415137 107 111 112
-27.4967182991905 85.757161318902 1944.96632784804 120 124 127
-34.3523273711197 86.0182445391514 1934.03250902429 102 106 107
-40.3779671640248 86.5354630836953 1920.17828937326 131 137 135
-49.6919010137644 86.0976457270189 1917.00150400353 58 64 60
-46.5604420174954 89.3672369284192 1872.03463830894 11 18 10
-73.8108662664532 83.5836709102429 1929.11472800963 2 12 3
-82.2580296260531 83.4039152708789 1923.02212931311 0 6 0
-96.3669058580623 81.5072753087547 1936.38292752059 50 55 48
-110.675410103379 79.5297650746261 1950.72671339938 35 40 34
-124.346913914308 77.7281232866281 1963.13391555805 13 15 12
-133.841423635462 77.2094574487761 1960.94273566564 3 3 3
-141.446699007453 77.2857304520617 1951.93122380714 3 5 0
-152.583093248037 76.2551378619044 1955.58309770095 0 2 0
-162.366818827562 75.6495958811787 1954.36374126267 8 11 4
-179.50983475206 72.675655466972 1980.4493868893 9 12 5
-190.781597911202 71.5677189171264 1985.09225832312 7 10 3
-195.330770251581 72.6517616594949 1964.3665101452 13 16 9
-207.120593234455 71.37463552629 1970.96055052689 14 16 11
-219.372820754885 69.9320196841375 1979.51317610112 17 19 14
-225.589510966523 70.5022612899133 1964.62704748604 17 19 14
-231.636914026654 71.150965007009 1948.75439145002 13 15 10
-239.961706241113 71.0436343243991 1941.66918612222 19 21 16
-250.732215463051 70.1016343625809 1944.35855963079 18 23 16
-266.729421640825 67.3330227233164 1968.57128061745 23 28 21
-273.39187311641 67.8059400717612 1954.63770729884 17 22 15
-279.193637652117 68.6050725965186 1936.77969488443 18 23 16
-287.622896427938 68.4898923505329 1929.68147341892 17 22 15
-299.273499669184 67.2187985097714 1936.29287171547 27 32 25
-309.982353965837 66.2788475753864 1938.99017426693 29 34 27
-312.668872814159 68.2940904679034 1906.40121569721 29 34 28
-340.252014942251 64.1186779163686 1939.24937692088 25 30 23
-347.688563229718 64.4046339659962 1927.23530771762 25 30 24
-349.264803334759 66.9652838440191 1887.72917883645 21 26 19
-356.898455674389 67.2382925361337 1875.6903060404 32 35 28
-359.441418949206 69.5333485547372 1839.08753681814 28 31 24
-366.043918099952 70.279140523308 1821.12973792813 31 33 28
-377.755805421269 69.001009623709 1827.73374713439 23 25 20
-389.821295210175 67.5641361571223 1836.30942108245 23 26 19
-401.248105584192 66.37130133589 1841.94085421525 29 32 25
-408.017319500174 67.1053080343289 1823.96228134423 19 22 13
-414.49989201848 67.9931917694776 1804.00345993021 18 21 10
19.7724345106793 78.1629672142707 1958.94721502925 134 131 124
9.34621583316919 77.3888513138263 1959.66373764926 132 131 126
-1.37969397044535 76.5304766564055 1961.35076957912 117 121 122
-10.8669776247208 76.0109274111612 1959.16049378356 113 121 124
-19.4513194255028 75.7438882345078 1954.05869298485 104 113 120
-26.5558087235076 75.8961514671331 1944.10202932075 116 120 123
-34.0081349189174 75.9612057213205 1935.10963415944 126 126 126
-40.6196217667172 76.2748784880127 1923.19845475514 98 100 95
-48.4623356894165 76.2498687339789 1915.16550606071 100 103 94
-75.9256191220563 75.0777948652031 1903.67911967263 8 14 0
-83.8910288763357 75.0445506271552 1895.63088094901 12 15 4
-111.992757874438 69.0430986702952 1957.64422267318 9 12 3
-117.631539597569 69.6780862889595 1941.82235601639 14 15 10
-126.637758824352 69.3175138358359 1937.67608109251 12 11 9
-138.101185454151 68.2143880476718 1942.29502138933 13 14 8
-152.753998797735 66.1267464339721 1958.61174402038 12 15 6
-168.37393843074 63.7167070317351 1978.83937242397 13 16 7
-179.932733492242 62.5415054081077 1984.4545284804 14 17 8
-184.688685850822 63.4921445030746 1964.71101379064 15 18 9
-188.003361882105 64.9252679655074 1939.09948813374 14 17 8
-207.000975552733 61.3871923901875 1973.01739414754 12 15 8
-216.223777549553 60.945834132495 1969.85199081912 12 15 8
-223.962056875807 60.9895983420445 1960.82420673293 13 16 9
-234.953095810492 59.9792546024937 1964.49416678496 19 22 15
-246.162531442891 58.8896493571693 1969.14452778206 25 28 21
-257.823962397597 57.6405925269532 1975.75475707905 28 33 26
-261.567627591628 59.0453417792276 1950.08977083327 25 30 23
-271.346902599587 58.4368583270729 1948.87097754627 18 23 16
-279.494764736139 58.3880790215208 1940.80001075503 17 22 15
-287.220728870532 58.4962392107928 1930.76566658053 19 24 17
-302.5160954026 55.9718006470108 1953.04995578824 24 29 22
-309.127055877496 56.4763138834281 1938.11479766853 24 29 22
-315.147767322441 57.2136607574619 1920.22962468456 24 29 22
-318.844407247727 58.8158010653111 1891.54692579741 23 29 19
-337.235881220212 55.1151986877259 1928.56420403395 26 32 22
-342.55708995846 56.1571725180045 1906.73429369787 24 29 22
-350.109552502847 56.4050469573778 1894.70585936718 20 26 16
-357.095885026288 56.8843055944665 1879.72416381081 32 35 26
-360.446970745147 58.7681958355953 1847.05261713706 24 27 18
-374.759133097061 56.498812457001 1866.435390903 20 23 16
-389.7621960383 53.9241855436605 1889.7639771382 22 25 18
-393.33846703799 55.7930732458642 1857.06436818133 23 26 19
-401.388032357709 55.9425001739966 1845.98184471933 30 33 26
-411.227032571118 55.3908994312571 1843.747761183 19 22 13
-411.192671289007 58.8583209266486 1790.33165743274 16 19 8
22.2969485309705 68.7358074097388 1953.24048241738 118 111 101
10.607875406401 67.6369399687698 1957.83125215145 167 163 154
0.184792720729021 66.867652318903 1958.54815340968 122 124 123
-8.6980268050445 66.5078341940929 1954.41727605246 106 114 117
-16.0812248213793 66.5548989918355 1945.43379532255 94 104 113
-24.1107374098115 66.4362196090384 1938.3854690328 81 82 84
-32.4724580658082 66.2339273132143 1932.30359243003 103 102 100
-39.9764778268972 66.2731159057988 1923.30505460238 103 102 97
-45.4759495424903 66.8761283919993 1907.50065721631 93 94 86
-36.844611693639 71.4330072130379 1844.06925738335 11 14 3
-95.9342876353471 61.3662361596356 1939.51325799022 13 16 5
-104.934078643402 60.9976225307362 1935.36780644618 9 12 3
-107.036521901096 62.6268760994721 1906.88374220781 15 16 11
-119.426319520125 61.2938729340815 1914.41098381903 14 13 11
-143.160262607659 56.6191048395115 1962.85732517837 14 15 7
-162.593129982323 53.1530371662121 1996.72072447286 13 16 5
-165.086601918498 54.6944229727786 1969.19578066196 12 15 4
-171.148082042828 55.1977521165846 1954.32943782851 13 16 7
-179.370056736124 55.0643930443108 1947.25713206434 15 18 9
-186.59512231378 55.2438897938363 1936.27742210795 16 19 10
-199.741540455912 53.6112781534633 1947.74201962074 15 18 9
-204.240011359693 54.6503051374699 1926.01503013158 16 19 12
-223.581835708573 51.0627199737394 1961.90548526581 16 19 12
-237.287480208093 49.2063306017116 1976.32418550932 22 25 18
-250.664074521167 47.4328751900211 1989.77604376895 28 31 24
-259.130293861837 47.2199243413465 1983.68115441705 28 33 26
-253.772455709342 51.5069478131003 1920.84963892736 28 33 26
-266.938895695855 49.8085508982364 1933.31959817372 27 32 25
-274.662138641554 49.8921022369522 1923.28589866275 24 29 22
-288.895932075337 47.8129867456198 1940.66233687753 21 26 19
-304.852800152288 45.1243674005598 1965.88780853077 15 21 11
-318.18633983067 43.2890828220347 1980.35264940863 21 27 17
-312.734136327676 47.8940336945601 1912.49339714661 19 25 15
-329.437399085053 47.7287368695188 1896.30078355681 17 23 11
-340.636446822897 46.6526336640302 1900.9524053446 20 26 14
-343.967204490401 48.3877894752026 1869.29171454524 21 27 15
-347.885099719526 49.9604932435032 1839.57355445737 18 21 12
-369.711683858832 45.0218808387924 1894.30498061976 17 20 11
-383.490589163163 42.9682829488143 1911.73835925287 22 25 16
-387.922180107426 44.3825887622433 1883.97212457719 24 27 18
-393.095763298516 45.5621305520142 1859.13721346173 22 25 16
-408.179414823196 42.9872272415823 1883.46343054423 25 28 19
-405.378828525608 47.2975797860988 1817.28942214176 22 25 16
-420.431950595885 44.7239619291297 1841.61920546574 23 27 13
12.8047397289119 58.1115296013549 1953.09181690064 153 148 142
1.44068299540168 57.108475523212 1956.71496707082 122 118 115
-7.44707682746548 56.7395037886706 1952.58349729944 116 115 113
-14.2268785262938 56.9216261379534 1941.65934672833 87 83 84
-20.7611831710102 57.1789408847158 1929.75794762352 83 75 73
-29.4447497117045 56.8822615104587 1924.64408248902 84 74 72
-37.2645912371832 56.8193220736155 1916.61408802101 65 58 52
-43.3663056419467 57.2232088665509 1902.7506731633 47 42 36
-27.4811829684072 63.5563086230132 1815.02572557319 19 16 9
-73.2114503099619 55.3752934987811 1899.03104197077 33 34 26
-96.1429360553148 51.1902305947175 1942.5373196127 26 27 19
-109.438146992603 51.7482725024914 1917.6982011651 14 15 9
-118.510983206896 51.3659277015 1913.54367017172 13 12 8
-145.784651038347 45.8294975831491 1974.65119704865 13 14 6
-160.08641246065 43.9209383206806 1990.00332991015 13 16 5
-168.71229369189 43.6258136938884 1984.89665946686 14 17 6
-167.882503898211 46.079690999888 1944.68338297633 14 17 8
-178.997275104194 45.0891161795199 1948.33784991165 16 19 10
-186.733842171688 45.0888224047268 1939.31015526163 17 20 11
-200.129816155526 43.4156674201766 1951.75140354838 16 19 10
-211.431739199234 42.3527511556899 1956.39039264759 17 20 13
-224.701231686753 40.6869968242644 1968.84740558798 17 20 13
-235.1785143217 39.8549722502858 1970.56539532661 20 23 16
-246.863224925274 38.6475219345309 1977.17260989177 24 27 20
-255.847377863494 38.2681094074642 1973.02913832492 28 33 26
-260.06893855175 39.3852331170866 1949.3208854635 28 33 26
-258.508465103519 42.3624624572071 1901.13519815258 29 34 27
-272.159695249588 40.5514944318502 1915.56056937021 26 31 24
-288.727741662893 37.7784414686593 1942.72536612963 22 27 20
-306.053315342031 34.717935454084 1973.82737362362 15 21 11
-313.730728651747 34.7783948850346 1963.79921392325 16 22 12
-315.219726993216 36.904283604739 1926.32073169157 21 27 17
-321.972294476701 37.3218407049827 1911.36837111899 19 25 15
-335.758398037835 35.380845651231 1927.79262754971 19 25 13
-338.714056698793 37.1144058463298 1895.17106399261 21 27 15
-347.77952711518 36.7869743637499 1890.00938022806 21 27 15
-353.100851774213 37.7725156418921 1867.17215720941 21 24 15
-365.359396776914 36.3455503052203 1876.73140001361 20 23 14
-374.909183212861 35.8670869646845 1873.52528867521 22 25 16
-381.654744309599 36.4028821760159 1856.55811688603 23 26 17
-394.243175514664 34.8345712377049 1868.09193826743 21 24 15
-402.651639189017 34.7861908826667 1858.98076179612 24 27 18
-407.243462191714 36.175159219075 1830.18691073398 25 28 17
-415.794601234273 36.117239203886 1821.05771407382 36 40 26
14.3790240048514 48.4047169486271 1950.29053925352 149 145 142
3.62437761542211 47.5671313860728 1951.97393028001 129 121 118
-3.13043011952807 47.7229109388817 1941.05296818065 120 110 108
-8.42143939205853 48.2561002486393 1925.27476955191 119 109 107
-11.9879032007899 49.2401632966799 1903.66423378381 111 100 96
-20.7434266272382 48.9275078476426 1898.5414309278 85 74 70
-29.5221715588478 48.6132660377254 1893.41549407411 56 47 42
-36.8587780706988 48.6749994013078 1883.43010196118 56 49 43
-77.6969866451533 43.9643401602955 1916.64089300498 31 32 24
-101.420860607885 41.6901240595789 1927.79486330534 20 21 13
-99.1042503593023 44.3565740146956 1883.73558475357 19 20 14
-116.772996080236 41.6546977650596 1909.75514620713 14 15 9
-148.142340679537 35.1784723275771 1985.47053957094 14 15 7
-161.879689371582 33.4655537734106 1998.87697812643 18 19 11
-174.207159121361 32.1265527749905 2007.41970078052 23 24 16
-180.949341151722 32.3379565000445 1995.49248071198 22 23 15
-178.103644096161 35.265389456972 1947.4673128461 22 23 15
-189.712900054096 34.1423779445955 1953.07579397144 23 24 16
-206.393708119066 31.5577661280959 1978.21064829393 25 26 20
-217.118634541437 30.6612071836531 1980.90559059911 25 26 20
-223.573690582623 31.0040035502003 1966.99824167358 25 26 20
-231.336967726972 30.9787314657851 1957.96727954336 24 25 19
-243.792131824184 29.572836601349 1967.50217022736 26 27 21
-253.044808258772 29.1106730966648 1964.3330935356 27 29 24
-259.917996863217 29.3692525292128 1951.38171328738 25 30 24
-263.54658697999 30.6314398222986 1924.72377606458 25 30 23
-276.902245663472 28.9394030862831 1938.17779228508 25 30 23
-289.716065466613 27.3954360851488 1949.68366266178 25 30 23
-301.319189590075 26.2129961337092 1956.30099287342 26 31 24
-307.238476085727 26.8160515786671 1938.42859050646 30 36 26
-311.690258379998 27.9111429603838 1913.68397827283 24 30 20
-336.651749065646 24.9769110782831 1934.7628312391 16 22 10
-347.103322587809 24.1512423755302 1936.48401258506 18 24 12
-350.538673404535 25.6520791360425 1905.8185733481 24 27 18
-359.164462714093 25.4549367880638 1898.69604187813 23 26 17
-364.309097667371 26.4477998464405 1874.8729220416 20 23 14
-369.171255470579 27.5724785587726 1849.06933235519 18 21 14
-381.418007699064 26.1754387804131 1858.62996802 20 23 16
-388.839224501892 26.4528778715354 1844.60222005935 23 26 19
-404.168903648651 23.9470819715071 1869.9052394554 22 25 16
-406.987363284328 25.8848375395339 1832.26134375585 37 40 29
-413.626927398877 26.4962920127862 1813.2915860523 29 33 19
13.76871838018 38.1630102619517 1954.27233655119 50 45 42
4.26202389223929 37.6287720113938 1952.07967708132 99 84 79
-1.8776242409555 37.9039498321442 1939.21955436725 80 63 55
-2.61071060214757 39.497266943311 1908.89109821501 85 65 54
-4.10976099865423 40.9337929286545 1880.48308164846 48 29 22
-12.3319014425329 40.7518094326299 1873.41088325028 46 31 24
-23.5479317132368 39.8378945557634 1876.0445844048 51 40 34
-31.8112625109488 39.6530929006681 1868.9672531155 42 33 28
-37.4934942571576 40.1196755071833 1853.14064791005 15 10 6
-105.040558966387 28.7207679182992 1977.76549989688 22 23 17
-105.386335449386 32.4656391624234 1908.17703163207 18 19 11
-119.974007517845 30.63149487102 1923.49328856603 13 14 6
-139.362933680187 27.516473904699 1956.3533196281 14 15 7
-156.950668664188 24.8406514707754 1983.39060922909 17 18 10
-177.846117132387 21.2496277778726 2023.11841924366 21 22 14
-189.81641643011 20.0139854860823 2030.69775536894 20 21 13
-182.951141156448 23.877950989747 1968.0554732282 21 22 14
-193.730461697956 22.988826127812 1970.74360789149 24 25 17
-205.000808062311 21.9597981991409 1975.38644832988 24 25 19
-215.481878351797 21.1433587107742 1977.10392434885 25 26 20
-222.445951261251 21.3092849890482 1965.1488931049 25 26 20
-227.986327107979 21.8908688966112 1947.32407336011 24 25 19
-240.962792980203 20.3729560141119 1958.80957785634 26 27 22
-252.902235020001 19.1376222159178 1966.39276397257 25 27 22
-260.486163985836 19.1549454940894 1956.37638416317 23 28 22
-269.066774755348 18.8918590858151 1950.26759173617 24 29 23
-279.31357562957 18.1429664517058 1951.00619794402 25 30 23
-294.63854625674 15.8778045799562 1973.285869671 28 33 26
-300.464578030071 16.4399811911169 1955.42545286377 28 33 26
-305.254713898492 17.3390070959878 1932.65474690099 32 38 28
-317.528830157147 15.972100791965 1942.21188834117 24 30 20
-316.297782763586 18.7725631336196 1891.97018191939 17 23 13
-330.580230189084 16.7892258270026 1910.34822354214 17 23 11
-343.680592041806 15.151988708895 1923.83395498499 18 24 12
-353.728429325903 14.4680254894225 1923.58977285386 20 23 14
-358.531368337247 15.473660716517 1898.80133364882 20 23 14
-365.948474698282 15.6618606647152 1885.78226102205 18 21 12
-372.00210668434 16.3163232822747 1865.87758355679 17 20 13
-382.794450433692 15.421262519818 1868.56410863272 18 21 14
-389.590172591366 15.8653215297842 1851.59067835496 22 25 18
-399.415054646247 15.3025861730349 1849.35838600396 17 20 11
-406.925678435865 15.5378840581415 1835.3195915573 17 20 9
15.0303468079895 28.3698139673639 1952.43995588906 98 85 79
8.92397266919431 28.613699469856 1939.58430824873 100 81 74
5.82049728402367 29.5624363946354 1917.02371636188 91 73 63
8.07297482293867 31.7770416853751 1876.98861300545 73 55 43
5.28381596369321 32.8488128982936 1852.45154776001 47 29 19
-7.19925575875502 31.6591953449197 1858.95884434671 54 35 28
-19.0486948092943 30.6125213649633 1863.52946391168 55 42 34
-29.4003415124917 29.91799533074 1863.24715570921 40 30 21
-36.5499918521304 29.992527074417 1852.27713355028 25 22 15
-98.6750401342507 18.5119147498774 1992.69534411568 20 23 14
-99.8880743425312 19.9917321646551 1962.30729220695 18 21 12
-111.624169550494 18.8993402446494 1967.89986390815 19 22 13
-120.551327972225 18.4997891628822 1963.76355795417 16 19 10
-128.123348455836 18.443464862151 1954.75678556816 13 16 5
-137.371577312187 17.9717603931024 1951.58828903366 14 16 5
-140.978733983008 18.9390790792116 1927.9571046675 15 17 6
-168.698303220713 13.7422834553835 1992.03139283303 15 16 8
-187.088272311348 10.8876164290043 2023.00002800266 15 16 8
-188.85089448718 12.3318844362309 1992.54348438281 18 19 11
-196.204120518595 12.3398989980197 1982.55615971864 19 20 12
-205.14181511024 11.9382433691441 1978.41854445519 21 24 15
-215.615392555654 11.1299405891044 1980.13693410907 22 25 18
-223.320638718646 11.0636484198194 1971.11332192719 24 27 20
-235.032869721083 9.91875076720702 1977.71693737906 23 26 19
-243.274365706844 9.71501963903981 1970.6423807953 23 26 19
-251.791870716894 9.44212523843793 1964.54124915427 21 27 17
-265.368138634608 7.76611218580883 1978.9756198157 21 27 17
-267.017866896284 9.42265009780965 1944.50161702217 25 28 19
-277.515554455655 8.61133324087615 1946.21700581383 25 28 19
-289.386955722842 7.40344401491941 1953.80837047318 26 27 19
-299.381396950269 6.72661506773165 1953.5708330664 25 27 16
-307.563607407633 6.57677748774477 1945.49584594116 23 25 14
-317.794839951674 5.83292282414485 1946.23638171726 25 27 16
-322.501206160807 6.72778187456105 1922.46821331904 22 25 14
-320.577905650082 9.64088276535766 1868.28161070261 17 23 11
-330.354007818437 9.07995350577662 1866.05516076803 16 22 10
-344.599393592907 7.15277200370515 1884.43767958141 19 22 13
-356.639928848161 5.88059209504399 1893.01627426186 19 22 13
-365.935198167342 5.45243919730393 1888.83410556599 19 22 13
-373.408397092327 5.60358893460158 1875.80789022053 18 21 14
-381.552725200285 5.55727651566026 1865.72174349358 18 21 14
-397.507076243691 3.00462624494494 1893.97023248258 20 23 16
-400.346130125333 4.68634489091493 1857.3321281052 19 22 13
-403.768252380415 6.22777634254854 1822.63724414834 24 27 18
15.6670840593554 18.4279775870405 1952.54559840593 125 106 99
11.1116070824573 18.9802583765117 1934.84376538614 97 77 68
9.22685823129887 20.1403600015468 1908.40371808278 86 66 55
12.0706113899109 22.3798869251504 1866.42696260148 60 44 31
4.42867793038881 22.2980989815873 1857.41129227825 46 28 18
-7.14534921091992 21.3334800890303 1861.00837843392 50 32 22
-20.768405554034 19.8976794449825 1871.4050486554 49 36 27
-29.6306653172846 19.5432718656804 1866.26903568833 44 34 25
-98.6907993304313 10.2411538730222 1960.466768386 14 20 10
-100.907838966447 11.4283967913671 1932.97749458335 18 21 12
-108.821694327739 11.2793806738019 1924.93599442431 16 19 10
-125.84268541063 8.94381031010186 1949.01981270857 13 16 5
-139.460248362599 7.40884535727346 1961.43304408359 14 16 5
-136.032471627685 10.0265034384537 1912.47364500339 16 18 7
-179.870085295945 2.83050792099895 1998.72817384119 17 18 10
-176.73042106609 5.42966227654237 1949.73286875256 19 20 12
-188.596928089476 4.29729981305652 1956.31695818937 21 22 14
-208.099203268028 1.2171973379522 1992.18629383978 21 24 15
-219.042072557519 0.289186057032931 1995.86180809041 22 25 18
-233.216141111751 -1.47812496692779 2012.23743166166 24 27 20
-237.877911079353 -0.788717992389526 1991.49867122478 23 26 19
-246.81604378353 -1.19997201285513 1987.36102656451 23 26 19
-253.590136351376 -1.03504211718483 1974.42201926978 19 25 15
-261.868807648402 -1.25844603124536 1967.34287523454 20 26 14
-266.863299531193 -0.59065340766401 1946.5626499903 23 26 15
