ply
format ascii 1.0
comment KinectMotionCapture
element vertex 773
property float x
property float y
property float z
property uchar red
property uchar green
property uchar blue
end_header
-1139.36906436892 -90.0653426979239 2464.3010916344 0 2 0
-1128.5549648496 -89.6836296260746 2457.13633750935 44 46 41
-1136.7622713802 -90.050155708134 2448.86608833264 118 123 119
-1140.96445830854 -90.2590700877343 2440.84772202704 121 126 122
-1151.17149278473 -90.703811893193 2432.55351898461 109 114 110
-1177.39031494417 -91.7770787615255 2423.56553718564 68 73 69
-1198.60166470948 -92.6530159879007 2414.93934191676 60 65 61
-1211.8047607621 -93.2141146267188 2406.75754888105 71 76 72
-1223.00498586189 -93.6962958270288 2398.72330276952 76 81 77
-1231.20180894435 -94.0604254077796 2390.85603145291 151 156 152
-1234.39529670378 -94.228251112913 2383.1970789951 181 186 182
-1235.58748367702 -94.3176267839657 2375.61447925921 185 190 186
-1233.77876516131 -94.2894904612523 2368.11935150822 188 193 187
-1230.96991037595 -94.2223131936301 2360.63744635601 171 176 169
-1231.162087822 -94.2727035534577 2353.07238073744 164 172 161
-1244.35589623896 -94.8317046784135 2345.25583282654 150 158 147
-1103.1300925097 -95.0028212722625 2741.12354954334 14 19 13
-1101.32184158823 -94.9794671554534 2733.59568703702 13 15 10
-1117.57768398027 -95.6265755532079 2723.34345145498 17 19 14
-1086.66846535146 -94.5235832148807 2720.13015856911 2 5 0
-1133.02510843032 -96.286649196425 2705.56490662374 32 35 28
-1146.26558043993 -96.8208560603815 2695.9512060285 22 25 18
-1132.41633891507 -96.3510091018528 2690.18046161005 19 22 15
-1089.47628381492 -94.8042284725387 2688.3058746415 16 19 12
-1079.64543591255 -94.4844898760439 2681.76318437826 17 20 13
-1121.97471864205 -96.0952609863826 2668.32267673156 12 15 8
-1137.21775091575 -96.7028627324182 2658.58882648819 15 18 11
-1164.49353288989 -97.7549321608684 2647.42211565206 17 20 13
-1135.60639435465 -96.7304851647447 2643.3109156063 18 21 14
-1101.70956743163 -95.5218773172143 2639.64329595451 21 24 17
-1155.05266667773 -97.5359643191995 2625.5293900888 24 27 20
-1174.29893355882 -98.2898374791598 2615.62018064355 22 27 21
-1172.48857316738 -98.2662143542799 2608.17505237125 16 21 15
-1196.74344289246 -99.2040287600214 2597.86492513979 14 19 13
-1187.9151799394 -98.9214622165765 2591.21531606625 16 21 15
-1148.01474944341 -97.4941434428472 2587.74721113621 17 22 16
-1148.21161635566 -97.5451201868936 2579.99823531895 17 22 16
-1152.41757382022 -97.7437429397975 2571.8528785408 17 22 16
-1153.6163007871 -97.8315924562815 2564.01631186453 15 20 14
-1152.81090550326 -97.8457112800814 2556.37062804077 12 17 11
-1150.00156597209 -97.7862018089447 2548.89943534451 11 16 10
-1151.20038179213 -97.8741462532863 2541.05929405316 11 16 10
-1163.41982199134 -98.3670364873777 2532.28725441847 15 20 14
-1152.59595362881 -98.0132461091851 2525.47431928959 15 20 14
-1148.78597215322 -97.9173344576442 2518.04260420034 15 20 14
-1139.96815055556 -97.637803397015 2510.97232673093 14 19 13
-1145.1740790642 -97.8729967026909 2502.81353266957 15 17 12
-1147.37474844844 -97.9978772214589 2494.89531100695 14 16 11
-1152.57930866967 -98.2328269040935 2486.78093115347 13 15 10
-1149.77223003253 -98.174148169912 2479.22048290511 12 14 9
-1148.96831537064 -98.1889481434887 2471.5161998803 7 8 3
-1127.13828137185 -97.4341844777548 2465.07512475484 7 8 3
-1150.36428087028 -98.3286573388029 2455.91518514278 15 16 11
-1116.52417742754 -97.1354003501236 2450.01413281046 9 11 8
-1124.73214458532 -97.4803797812217 2441.73187438089 14 19 15
-1140.94688222434 -98.1177246734097 2433.09663824164 10 15 11
-1179.17920530253 -99.5588025816766 2423.51973770723 4 9 5
-1209.39950484393 -100.706206544552 2414.50252744026 63 65 62
-1209.59296143947 -100.756899938472 2406.88714285346 104 106 103
-1215.79060217003 -101.026652622956 2399.0398543336 108 110 107
-1221.9871857993 -101.296210770285 2391.22476508525 108 110 107
-1230.18437793868 -101.638532911211 2383.37580968301 102 104 101
-1235.378776059 -101.87124417662 2375.66100337648 91 93 90
-1232.56932577274 -101.812363553269 2368.19346416493 104 106 101
-1226.75950990819 -101.644406682502 2360.78323770495 119 122 115
-1223.95113318944 -101.585875643615 2353.27336439916 154 157 148
-1082.83757924319 -102.18394734899 2744.29553922499 38 41 34
-1105.11906434693 -102.99554253733 2733.03131994406 51 54 47
-1101.30336537065 -102.909248500724 2725.80341314604 44 47 40
-1103.50979695978 -103.030045674528 2717.66436893589 45 48 41
-1106.7193861667 -103.185255178453 2709.38966243749 39 42 35
-1142.03759643477 -104.442783221442 2696.56965692494 28 31 24
-1120.1607425965 -103.736438480701 2691.90647480673 24 27 20
-1101.29679122264 -103.134151270315 2686.71070849714 16 19 12
-1089.45785366385 -102.773343937244 2680.46956636363 16 19 12
-1142.82416111912 -104.64756015515 2665.60811054936 15 18 11
-1185.14912504246 -106.141913632663 2652.4520723087 19 22 15
-1189.35511689033 -106.329800253978 2644.31689934252 21 24 17
-1175.50768185848 -105.899724821306 2638.42352252966 22 25 18
-1177.70808775705 -106.019077210402 2630.52153447967 27 30 23
-1153.835944036 -105.246906842324 2625.69554782698 26 29 22
-1178.09713528858 -106.120550192414 2615.2072553395 25 28 21
-1185.31016711743 -106.411080496506 2606.76081763557 19 22 15
-1188.51202412147 -106.564449037038 2598.7902890959 18 21 14
-1162.6408826646 -105.725494655465 2593.93811790364 19 22 15
-1161.83430335481 -105.742434253184 2586.33568118591 19 22 15
-1157.01825380967 -105.622711527768 2579.13267132188 18 21 14
-1163.2283201347 -105.87896692532 2570.81423987298 19 22 15
-1175.45097396544 -106.339886050842 2561.9509284996 19 22 15
-1181.65877740612 -106.59563715105 2553.71215509737 19 22 15
-1179.84943534528 -106.578357696388 2546.2297403813 18 21 14
-1172.02802409101 -106.356643147719 2539.26237787253 17 20 13
-1166.21197873597 -106.203392378198 2532.07983120186 17 22 16
-1170.41531720963 -106.390892062898 2524.0394519663 21 23 18
-1156.58570669296 -105.96567769441 2517.45353670473 21 23 18
-1158.78566963209 -106.085231622207 2509.55931985901 19 21 16
-1154.97556933795 -106.000766980949 2502.11995769265 18 20 15
-1160.18050221622 -106.222277212792 2494.01476814638 17 19 14
-1133.33553080682 -105.356899033244 2488.13413022913 13 15 10
-1129.52815124386 -105.273203742343 2480.58760639342 12 13 8
-1139.74075086276 -105.664610999267 2472.1331648258 12 13 8
-1169.97836888661 -106.733784342327 2462.52308628439 13 14 9
-1157.15807168756 -106.34474304013 2455.55903211717 14 15 10
-1106.29485758237 -104.669192830812 2450.61258964101 17 19 14
-1118.50851418703 -105.128111129632 2442.09374457629 12 14 9
-1151.74254573309 -106.297094722632 2432.6000872287 21 23 18
-1200.98758796254 -108.005917186905 2422.53824337278 13 15 10
-1212.19166083906 -108.428745486956 2414.41734139024 81 82 77
-1219.39070169635 -108.716079914136 2406.52115080899 97 98 93
-1223.58647521521 -108.901906950931 2398.77823217363 104 105 100
-1225.78046651535 -109.020136777109 2391.1281541734 96 97 92
-1226.97340616731 -109.104590581926 2383.52142186625 89 90 85
-1229.16694191808 -109.222740390994 2375.88923422967 87 88 83
-1227.35809010175 -109.206098480011 2368.37764972623 125 126 121
-1222.54826637299 -109.088550908386 2360.9289778783 118 119 113
-1218.73966375239 -109.004867611886 2353.43024249355 124 125 117
-1093.66056374144 -110.460515501413 2742.62682545968 35 36 30
-1086.83394286427 -110.290516580908 2735.84156725345 41 42 34
-1098.07459106105 -110.692565077042 2726.30416201587 50 51 43
-1101.28491027901 -110.840251793867 2718.00900154653 44 45 37
-1115.53404843888 -111.3368717083 2708.13097819995 27 28 22
-1120.74966220471 -111.547587721137 2699.61060778019 21 22 16
-1104.89308896053 -111.092593057485 2694.05174498705 21 22 16
-1107.09903871407 -111.208343204295 2685.93695169043 18 19 13
-1117.33081797902 -111.577282564679 2676.75702740992 19 20 14
-1124.55161974162 -111.850960440982 2668.02500861757 23 24 18
-1144.81222918776 -112.535454482745 2657.65443366133 26 27 21
-1178.10994149932 -113.630053968391 2645.75177932104 27 28 22
-1215.41503888543 -114.84979840948 2633.53423510821 26 27 21
-1186.71609817114 -114.035977235826 2621.85078326825 24 25 19
-1200.94894969224 -114.528441856592 2612.60443503129 22 25 18
-1182.09023657483 -113.980575111335 2607.14550700912 20 23 16
-1167.24497181349 -113.55939377548 2601.14238583618 20 23 16
-1149.39382972529 -113.044349708608 2595.37701096372 21 24 17
-1167.63578422548 -113.66237851208 2585.75750584783 23 26 19
-1159.81158779807 -113.462396791604 2578.87566251648 25 28 21
-1170.03131615688 -113.828263838489 2570.17002820826 24 27 20
-1168.22223680373 -113.816982142999 2562.67090603372 20 23 16
-1171.42425684167 -113.96268975826 2554.69290648807 20 23 16
-1171.61962426484 -114.014220098047 2547.00194149006 20 23 16
-1167.80670624159 -113.940388284919 2539.66128922642 22 25 18
-1157.98219763859 -113.678757172185 2532.80844584237 25 28 21
-1167.19626315989 -114.012375201453 2524.33406368987 26 29 22
-1172.40138497192 -114.220513651071 2516.22652275935 27 30 23
-1169.59167131823 -114.178319802007 2508.76068467462 25 28 21
-1165.78025431947 -114.104988564574 2501.35150490591 24 27 20
-1150.95131969169 -113.688242927973 2494.70538283024 23 26 19
-1136.12426172537 -113.272059422613 2487.9759859622 20 21 15
-1125.30564438085 -112.981244067846 2480.89952991704 16 17 11
-1149.5397301079 -113.782145358688 2471.54872008659 12 13 7
-1151.73994951988 -113.896631571046 2463.65924550438 12 13 7
-1100.86939690799 -112.360462803468 2458.84063544614 16 17 11
-1099.06781874285 -112.351313180551 2451.04605160375 14 15 9
-1123.29719504586 -113.151012267567 2441.88059321256 13 14 8
-1152.52895421967 -114.105288819186 2432.59816848991 15 16 10
-1211.98132095401 -116.041733555037 2414.46391249895 53 52 47
-1219.18088663032 -116.310113206143 2406.56756235093 170 169 164
-1224.3777231677 -116.516218434634 2398.78602177197 169 168 163
-1225.57109318948 -116.598180998379 2391.17446881233 156 153 148
-1228.7655959046 -116.742072356404 2383.50154722903 154 151 146
-1227.95698916889 -116.762028940225 2375.96578514392 143 140 135
-1222.1458603175 -116.627337549662 2368.56183205936 114 111 106
-1215.33516484155 -116.461965734592 2361.14918577514 131 128 121
-1211.52674258487 -116.389578401042 2353.63127240883 175 172 165
-1119.34606274294 -119.060263559292 2746.40160437366 39 41 36
-1104.4854635173 -118.676885781084 2740.9572166382 52 53 47
-1109.70337079875 -118.874973386483 2732.36076709387 49 50 42
-1131.17825024531 -119.589734815865 2713.61730191007 23 24 16
-1133.38253239133 -119.700127319905 2705.56411232781 25 26 20
-1114.51200098212 -119.202050189888 2700.51362383622 20 21 15
-1102.66874988577 -118.907363368941 2694.37939936798 21 22 16
-1114.9088945951 -119.307560765571 2684.88835739515 19 20 14
-1126.14437684937 -119.678418862183 2675.59566972401 19 20 14
-1123.33229434726 -119.644301956397 2668.20441725366 22 23 17
-1105.47242456899 -119.177107207365 2662.72877383137 26 27 21
-1133.759753978 -120.038213780877 2651.34981289488 29 30 24
-1178.09215029415 -121.359777254891 2638.14753970749 28 29 23
-1239.46969275572 -123.169749260455 2623.13219229253 26 27 21
-1226.62175053719 -122.845834784584 2617.17867308411 24 25 19
-1213.77564489809 -122.522409610095 2611.15284861542 24 27 20
-1186.89233943377 -121.796708706786 2606.62978844751 20 23 16
-1158.0072768472 -121.014510746829 2602.17734477835 18 21 14
-1161.21125965739 -121.152822935399 2594.13989872138 21 24 17
-1158.39931083647 -121.11875111455 2586.74337311844 26 29 22
-1164.61050908025 -121.343058524026 2578.41500565245 35 38 31
-1161.79883262826 -121.309061208359 2571.00775492987 33 36 29
-1168.00905083632 -121.533110166155 2562.71796816052 26 29 22
-1174.21822786861 -121.756939989349 2554.45978464854 24 27 20
-1160.38211769754 -121.408138388838 2548.04585225166 23 26 19
-1152.56103101464 -121.231481368744 2541.0267498536 25 28 21
-1147.74716293788 -121.140876360152 2533.70721628663 25 28 21
-1161.97261268467 -121.593217293055 2524.79323675661 25 28 21
-1160.16500717967 -121.588297528788 2517.22968053895 25 28 21
-1165.37066363781 -121.783154329263 2509.11550459824 24 27 20
-1148.53578070471 -121.350612103532 2502.66010394762 23 26 19
-1135.71023744125 -121.032672472171 2495.824740653 23 26 19
-1125.8915955868 -120.80064375609 2488.71081963853 20 21 15
-1133.10171736709 -121.052723888208 2480.41940154721 17 18 12
-1134.30183870841 -121.133940538132 2472.54478453703 10 11 5
-1123.48385934952 -120.874105232433 2465.40080502449 10 11 5
-1102.8543034545 -120.384071528595 2450.87412691543 13 14 8
-1108.06116053481 -120.579259339652 2442.71267108786 13 14 8
-1127.28423063462 -121.171087151022 2433.88406402815 17 18 12
-1140.49788991619 -121.592265103332 2425.43965946888 17 16 11
-1192.75090494874 -123.116929786845 2415.34736306643 13 12 7
-1220.97289976365 -123.960753356484 2406.53113676945 126 123 118
-1226.17020803271 -124.15335102756 2398.75498744516 150 147 142
-1227.3632702876 -124.232760119094 2391.1488800157 154 151 146
-1228.55644929913 -124.312144817497 2383.54756031183 141 138 133
-1223.74498920976 -124.222206086986 2376.13319885769 136 133 128
-1214.93174918623 -124.019678082169 2368.80117764914 161 156 152
-1207.12051174294 -123.845671109428 2361.39428743052 161 156 150
-1207.31427336977 -123.897229592962 2353.76605229787 159 156 149
-1084.79228611464 -125.935674991077 2759.72985770996 39 42 35
-1102.06113231293 -126.437311786104 2749.15028219784 51 54 47
-1103.26399085502 -126.517107402679 2741.16088690744 41 42 36
-1110.49024018079 -126.754716167176 2732.25468670951 51 52 44
-1123.73863175926 -127.149802871724 2722.48083844041 44 45 37
-1133.9739305187 -127.46560158945 2713.22041845231 28 29 21
-1112.0896406133 -126.940992974194 2708.66205413099 26 27 21
-1122.32445911785 -127.256653987524 2699.42055202416 22 23 18
-1107.46878466274 -126.916589785724 2693.72785562557 22 23 18
-1107.66771958568 -126.970025980171 2685.89541401829 19 20 15
-1100.84275748071 -126.840228009851 2679.00216056386 19 20 15
-1066.92829533027 -126.004422006502 2675.62350078301 21 22 17
-1100.23856807698 -126.921245296124 2663.4208235128 26 27 22
-1114.48315426219 -127.340541835576 2653.79440620165 28 29 24
-1182.89585903567 -129.168857452954 2637.5766310864 23 24 19
-1210.17289403028 -129.925204319443 2626.67847198098 17 18 13
-1218.38902779353 -130.185307335904 2618.16816807596 13 14 8
-1192.50427612454 -129.559532870209 2613.61903494643 17 20 13
-1169.63179277084 -129.012814693607 2608.58894677776 22 25 16
-1159.79893450896 -128.805078006192 2602.00456930464 23 26 17
-1165.00854770682 -128.987580246227 2593.75834043238 18 21 12
-1170.21725994943 -129.169892476619 2585.53820324215 16 19 10
-1161.3893382752 -128.988679243126 2578.76643043145 17 20 11
-1164.59280117574 -129.119018186536 2570.75786530094 17 20 11
-1171.80563155934 -129.352909557018 2562.38011530021 18 21 12
-1172.0008764583 -129.40526020433 2554.69305818992 18 21 12
-1155.15687401834 -129.017669987827 2548.5458134539 18 21 12
-1145.33093713988 -128.811737051042 2541.68898761126 17 20 11
-1147.53235096686 -128.916272513473 2533.75419071374 21 24 17
-1155.74642117467 -129.175680178208 2525.33460910702 19 22 15
-1158.94912117743 -129.305764906543 2517.35613362164 17 20 13
-1143.11403760137 -128.945806782819 2510.85533723719 17 20 13
-1123.27367769377 -128.483376035006 2504.56266993994 18 21 14
-1132.48888865365 -128.768393950289 2496.0863783507 19 22 15
-1128.68026776106 -128.718592638235 2488.5519772334 16 17 11
-1149.91425766131 -129.311717514024 2479.34458918188 12 13 7
-1159.12609808234 -129.595751202654 2471.01041150211 11 12 6
-1174.34603816852 -130.033493347584 2462.36146610038 12 13 7
-1129.47504498763 -128.931346415945 2457.26089133765 13 14 8
-1088.6161619072 -127.933426597106 2451.69254107823 14 15 7
-1109.8458185185 -128.525351407077 2442.65580150843 14 15 7
-1116.05366975785 -128.732501531365 2434.47666874146 14 14 6
-1118.25572033157 -128.837097729371 2426.51692036242 21 21 13
-1180.5254930891 -130.475356194268 2415.92265675417 15 12 5
-1210.75265337383 -131.293904228177 2406.99040503996 46 39 31
-1215.95103096027 -131.473209382129 2399.18673556905 74 67 59
-1222.14957848235 -131.677830075446 2391.37394021129 99 90 81
-1226.34551146662 -131.831245203399 2383.65959052708 98 89 80
-1223.53546304313 -131.806223948438 2376.17907300828 95 85 76
-1213.72089516708 -131.603157400235 2368.87482945979 86 76 67
-1201.90635860308 -131.34959203169 2361.56486375802 95 85 76
-1202.10046389767 -131.401431092812 2353.92289563607 133 124 115
-1079.75291913526 -133.789393496548 2752.69359968871 40 41 36
-1114.09134215707 -134.645846781518 2739.48955526194 33 32 27
-1113.28533653024 -134.676103591407 2731.84107324184 61 60 55
-1119.5071175334 -134.871254573592 2723.13040080443 79 78 73
-1122.7165467152 -134.995586687739 2714.89510240482 27 27 19
-1125.92559783954 -135.119806898659 2706.67469995366 24 25 19
-1119.09721036168 -135.008977837755 2699.89495458378 21 24 17
-1110.26246115983 -134.851458447338 2693.355259792 21 24 17
-1096.41127935165 -134.576998044636 2687.45055733207 20 23 16
-1084.56892492377 -134.349937531903 2681.19935124412 19 22 15
-1116.87932695636 -135.153743801659 2669.08827234277 21 24 17
-1126.1080372774 -135.418150926837 2660.11583402259 27 30 23
-1149.38154944164 -136.009549367771 2649.42435280779 27 30 23
-1170.64537150559 -136.553353552547 2639.10397721397 21 24 17
-1201.93782707125 -137.329799070586 2627.68966382709 14 17 10
-1195.10899597631 -137.21874781065 2620.92749512999 11 14 7
-1159.19373274283 -136.432089795314 2617.46865301146 13 16 9
-1157.38375945019 -136.438541123946 2609.98542873354 18 21 14
-1172.62268838374 -136.840613049145 2600.62330854228 20 23 16
-1175.82605942586 -136.963129749819 2592.62673247879 19 22 15
-1162.98524043041 -136.713840113215 2586.31468663119 17 20 13
-1160.17291358207 -136.69714855047 2578.91427406672 18 21 14
-1169.39228259615 -136.958883069971 2570.30979602032 18 21 14
-1150.53954704964 -136.571393745701 2564.44504289764 18 21 14
-1163.76820508533 -136.925586757922 2555.48635833827 19 22 15
-1150.93295997758 -136.677733221163 2548.95492367709 20 23 16
-1160.15064865352 -136.938951927604 2540.41667290661 20 23 16
-1160.3468053224 -136.991934968938 2532.69330165324 20 23 16
-1158.53877650921 -136.998750174522 2525.1336896792 20 23 16
-1140.69701533964 -136.636645073218 2518.83746192736 20 23 16
-1142.89882417892 -136.736064832667 2510.90204421694 19 22 15
-1162.13361915706 -137.226803165266 2501.71440560329 19 22 15
-1118.24625546954 -136.267496788045 2497.13429821516 19 22 15
-1138.48219888221 -136.780961519111 2487.91139539611 15 18 11
-1145.69245910697 -136.995085864806 2479.65532041521 13 16 9
-1196.97641621885 -138.218697104339 2468.65225070237 11 14 7
-1190.15904751361 -138.11042924861 2461.43910350272 11 14 7
-1145.28352080652 -137.13177478492 2456.38311794791 13 16 9
-1110.42911546566 -136.383722322746 2450.52898455575 12 15 6
-1097.61080523601 -136.140199150917 2443.33102657997 11 14 5
-1138.86710093902 -137.131342516379 2433.38371565737 13 14 6
-1153.08308332291 -137.504343039391 2424.92494308761 18 15 8
-1206.53775744126 -138.81871543994 2407.20160434692 67 59 48
-1214.74000554229 -139.052959517024 2399.27109034988 111 98 89
-1221.93999546501 -139.264126420209 2391.41958982478 133 117 104
-1223.13342236782 -139.338559223366 2383.80457384665 136 118 104
-1223.32594252185 -139.390216820059 2376.22475335127 140 121 106
-1214.51132571356 -139.237508634107 2368.89304897624 142 123 108
-1201.69515778654 -138.994376684855 2361.61094232759 141 123 109
-1199.88810621821 -139.001068501593 2354.01326872467 149 133 120
-1219.09340833951 -139.483458285533 2345.9966019423 140 128 114
-1202.66654636756 -144.182416522443 2748.302273448 27 32 26
-1148.62784778159 -143.107201491336 2749.47703614964 37 39 34
-1117.69344984332 -142.514018388335 2746.70044401061 34 35 30
-1081.74261819884 -141.817763685497 2744.53467049562 44 43 38
-1110.05650485089 -142.456033511733 2732.34770065073 57 56 51
-1107.24319398709 -142.448078466353 2724.98569100786 48 47 42
-1108.44573023593 -142.523398448521 2717.0136976457 24 24 16
-1114.66753788533 -142.702547381108 2708.31916554966 22 23 17
-1116.87323447434 -142.798440400544 2700.22626306528 22 25 18
-1107.03428515168 -142.645429201961 2693.82118533271 23 26 19
-1111.24771575916 -142.782819568114 2685.44017407346 22 25 18
-1111.44637883411 -142.83726607627 2677.61727243032 20 23 16
-1120.67669130246 -143.077813593066 2668.60783525281 19 22 15
-1160.00884423406 -143.937802836536 2655.77786413435 25 28 21
-1184.28501925711 -144.486688452991 2645.05265383195 26 29 22
-1194.51179774849 -144.745953641109 2636.18593678593 21 24 17
-1187.68239013709 -144.654583316261 2629.42516847657 16 19 12
-1173.83190746051 -144.419382381131 2623.45098773901 14 17 10
-1123.87217203162 -143.44437009781 2621.54944695254 12 15 8
-1191.27260168588 -144.875102636162 2606.20429765867 15 18 11
-1175.4189299542 -144.599558085046 2600.33935399554 16 19 12
-1176.61669040683 -144.673244008551 2592.56509460837 18 21 14
-1161.76908627759 -144.419050241843 2586.46478085748 19 22 15
-1156.95124920723 -144.370119880198 2579.26494707166 19 22 15
-1155.14193959364 -144.382712908006 2571.73986464558 19 22 15
-1173.38498669605 -144.80400942654 2562.27956803778 19 22 15
-1149.51932664568 -144.367261731818 2556.84002604094 19 22 15
-1166.7579594958 -144.767568859803 2547.55009283247 18 21 14
-1172.96799905871 -144.943093386907 2539.31938993083 18 21 14
-1181.18174135374 -145.159082020993 2530.94991951472 18 21 14
-1173.35851197149 -145.049358517253 2523.94269317496 18 21 14
-1161.52749273225 -144.858643206985 2517.20944396902 18 21 14
-1152.70478086097 -144.729265795564 2510.17839669749 18 21 14
-1145.88729688242 -144.640773537046 2502.94852126465 18 21 14
-1168.1279716598 -145.140115064178 2493.6052600568 17 20 13
-1158.30472925727 -144.990837227443 2486.58229287745 16 19 12
-1158.50127831976 -145.044158246735 2478.84322262794 14 17 10
-1166.71214028527 -145.259105602313 2470.59676830017 11 14 7
-1181.93354017196 -145.615030131005 2461.96929350443 12 15 8
-1156.08616793933 -145.143502776218 2455.79362384423 13 16 9
-1083.16918329695 -143.725939205796 2452.06309195157 11 14 5
-1111.41299623603 -144.344234256096 2442.64561772285 12 15 6
-1171.6982281601 -145.60499958493 2431.79375927492 14 17 8
-1165.88595889312 -145.537398473182 2424.36234120776 18 15 8
-1142.05159086386 -145.108677758543 2417.69117987166 19 15 6
-1190.30763506217 -146.124769305574 2407.9091196154 53 43 33
-1217.53335420256 -146.718284908756 2399.2007223186 106 92 79
-1223.7324196407 -146.890397021492 2391.39326542889 140 121 106
-1224.92601482678 -146.962278186658 2383.78373689787 143 122 105
-1224.11728941302 -146.994131961037 2376.23983887534 150 127 109
-1215.30215315025 -146.866317498127 2368.91103240622 150 125 105
-1204.48636656822 -146.698927823036 2361.58209057943 147 124 106
-1203.67959988047 -146.731161780465 2353.97055533571 147 128 113
-1210.87812046143 -146.922642316529 2346.19761948178 144 128 112
-1130.33594770237 -150.522561545537 2752.4322780565 32 34 29
-1116.4730433119 -150.323397959035 2746.90488679958 28 30 25
-1108.6371409726 -150.233427259297 2740.36242969517 35 34 29
-1108.83559911586 -150.288503801086 2732.5468610107 36 35 30
-1107.02610759494 -150.307426683651 2725.03141643104 27 26 21
-1110.23655124003 -150.41667774527 2716.76333737641 25 25 17
-1117.46275283754 -150.597954687516 2707.92881212455 22 23 17
-1115.65299590469 -150.616805650187 2700.41449319636 23 26 19
-1108.82473244525 -150.545745030493 2693.58720046795 24 27 20
-1120.06431548877 -150.798529543174 2684.25169327949 23 26 19
-1131.3026526037 -151.050878580558 2674.97467366428 20 23 16
-1127.4854395457 -151.033707894051 2667.73172309525 19 22 15
-1164.81316629323 -151.751392540396 2655.17814297429 24 27 20
-1186.08044727268 -152.181228935326 2644.84495081572 25 28 21
-1189.28425112094 -152.28838344899 2636.84795392271 21 24 17
-1140.31583165006 -151.466570861044 2635.14601920918 19 22 15
-1139.50959417558 -151.503088900096 2627.50920056081 16 19 12
-1183.84578921673 -152.341704788378 2614.67701196313 12 15 8
-1191.06143608712 -152.519840397443 2606.24905014427 13 16 9
-1157.15218131246 -151.968474801949 2602.36145787535 14 17 10
-1178.41013016179 -152.395554756951 2592.3959573432 18 21 14
-1170.58165819795 -152.307141485361 2585.57074796706 19 22 15
-1159.74561636508 -152.165820521441 2579.00546093701 20 23 16
-1152.92231664491 -152.095738156459 2571.98311770813 19 22 15
-1157.12964538127 -152.220501173005 2563.86347177369 19 22 15
-1166.34913627788 -152.433434820291 2555.29730396578 18 21 14
-1174.56517858862 -152.628358913356 2546.86988323804 18 21 14
-1179.77246775835 -152.770050915442 2538.74897953847 17 20 13
-1182.97443584294 -152.876300314423 2530.82470249121 16 19 12
-1190.18529057296 -153.052792502671 2522.58579869761 17 20 13
-1166.32517838649 -152.684146703027 2516.8563043911 17 20 13
-1153.49246904768 -152.509508783493 2510.14714980421 17 20 13
-1156.69559363287 -152.615947913341 2502.17746898882 17 20 13
-1178.93739910126 -153.055098147449 2492.86397002231 17 20 13
-1171.11644517356 -152.968392538474 2485.73377140544 16 19 12
-1165.30055168261 -152.916928233006 2478.42667410623 15 18 11
-1186.53551569673 -153.337132489968 2469.37620794104 12 15 8
-1137.64315152325 -152.53551546989 2464.68008428947 12 15 8
-1104.78495410471 -152.014507268606 2458.7890959019 12 15 8
-1146.05231334946 -152.782675600376 2448.63947207207 11 14 5
-1102.18105427541 -152.071464423284 2443.16355508179 12 15 6
-1089.36224054728 -151.90025957622 2435.90762572378 14 17 8
-1125.61520912849 -152.579570822403 2426.28303366986 17 17 9
-1116.80202654383 -152.477674535912 2418.84071696231 18 14 5
-1086.96316700654 -152.01257257975 2412.2173271415 20 13 3
-1174.27089018366 -153.571652559911 2400.90756051314 69 57 45
-1221.52085168539 -154.436520594777 2391.51023239706 141 122 107
-1226.71868046928 -154.574924978863 2383.76260333966 149 128 111
-1227.91208304242 -154.644175921461 2376.16342692012 151 128 110
-1221.09747414937 -154.575622043467 2368.79045010058 147 122 102
-1211.28146540587 -154.455708096091 2361.45323778482 151 124 107
-1203.46855919056 -154.370495445295 2354.01622845347 141 118 102
-1205.66407674754 -154.45714145124 2346.34041132236 149 130 113
-1215.86451191485 -154.680799846651 2338.54151447066 102 93 76
-1090.74890843758 -157.656701821087 2766.64060945903 5 10 4
-1094.96603386194 -157.774365529467 2758.13637292225 25 27 22
-1075.07833678279 -157.522432463416 2753.46779007573 26 28 23
-1099.38167277034 -157.94769632068 2741.81377071423 26 27 21
-1104.60190687378 -158.080291910903 2733.20602597601 24 23 18
-1100.78414909994 -158.074664299465 2725.98129551222 22 21 16
-1109.01569318517 -158.252968186877 2716.9565324448 28 28 20
-1115.23830841986 -158.400347595199 2708.26454878639 22 23 17
-1117.44444646262 -158.48638123494 2700.17430379079 24 27 20
-1107.60388224424 -158.389228595352 2693.77236515918 25 28 21
-1110.81385464001 -158.490538591429 2685.53123066458 24 27 20
-1121.04973926511 -158.698244707898 2676.36397452745 20 23 16
-1142.32465355305 -159.072738230998 2665.80119393136 18 21 14
-1205.93940935657 -160.137592136538 2642.364173115 24 27 20
-1152.9489116461 -159.388739471786 2641.33867830253 20 23 16
-1137.09078021518 -159.201415373614 2635.55331080728 18 21 14
-1142.30456104134 -159.331846526098 2627.20010650738 16 19 12
-1137.48504724618 -159.311219513084 2620.026090191 12 15 8
-1124.64099462661 -159.170253960029 2613.72411551798 12 15 8
-1155.93541437412 -159.6917263175 2602.51613043086 13 16 9
-1151.11614076487 -159.671069469046 2595.33275885213 16 19 12
-1175.38356762606 -160.085749219949 2585.09355694331 18 21 14
-1167.5552741056 -160.01990372769 2578.23714183849 20 23 16
-1154.71388778513 -159.879497971709 2571.83035789311 19 22 15
-1154.91016255824 -159.933890080488 2564.10085776933 19 22 15
-1150.09292671226 -159.913614441412 2556.83743402937 18 21 14
-1165.32895401466 -160.191694145859 2547.73117772043 17 20 13
-1171.53994900691 -160.335147150651 2539.49756926078 17 20 13
-1168.72778549742 -160.344494824052 2532.06281392182 15 18 11
-1146.8702747663 -160.071736373807 2526.17808460286 16 19 12
-1175.13293507753 -160.541437876822 2516.18353808612 16 19 12
-1144.25764665876 -160.136017874594 2510.88581081388 16 19 12
-1175.52329648126 -160.649020602135 2500.81134809688 17 20 13
-1162.69082770809 -160.510677602203 2494.05382068207 18 21 14
-1150.86218267666 -160.387547498625 2487.15521142027 17 20 13
-1174.10497170544 -160.78065153918 2477.8774100253 15 18 11
-1166.28515268506 -160.71657079404 2470.6878872509 13 16 9
-1127.40895622716 -160.197092185725 2465.33188576174 12 15 8
-1061.49016732209 -159.282705332183 2461.32313151562 12 15 8
-1136.82197542982 -160.437975477979 2449.18127594623 11 14 7
-1073.11759995905 -159.610543117638 2436.74853220584 12 15 8
-1080.33077608475 -159.768141509695 2428.43918693055 15 15 7
-1063.50867270168 -159.575400187294 2421.22683745298 20 16 7
-1066.7162121364 -159.67456887014 2413.09241547033 23 16 6
-1157.03581887789 -161.039151699396 2401.61045181689 49 37 25
-1210.29766975179 -161.862744591293 2391.95027468328 134 117 101
-1220.50252339341 -162.060411312553 2384.00659640726 151 130 113
-1222.69742578078 -162.141731904612 2376.36054025434 152 129 111
-1216.8838090135 -162.107163272854 2368.9463194341 153 126 107
-1213.07302981987 -162.101683015161 2361.44868366327 153 124 106
-1203.25752600627 -162.009709194641 2354.06173698158 142 116 99
-1200.44904380716 -162.018967848312 2346.48319886276 144 123 106
-1205.64702146178 -162.143458696763 2338.7540154928 123 111 95
-1033.47421941192 -164.88814019608 2768.04555839918 2 7 1
-1076.86793643838 -165.490015923046 2753.19470703782 16 18 13
-1086.10749147099 -165.660579821375 2743.8898566621 18 21 14
-1088.31610490244 -165.742467204897 2735.70731683237 20 21 15
-1083.49499230399 -165.736081084192 2728.58982130202 20 21 15
-1095.74484117869 -165.943683222794 2718.92630088426 24 25 17
-1103.97704635883 -166.100563141235 2709.90802813372 25 28 21
-1124.2561373261 -166.407559553151 2699.22045918928 25 28 21
-1133.48899638983 -166.576051952336 2690.17953468992 26 29 22
-1114.61262323473 -166.394208462256 2685.02713932549 23 26 19
-1110.79556798587 -166.400269649177 2677.75307643234 20 23 16
-1113.00178141717 -166.481229242688 2669.66533311162 16 19 12
-1177.43466148654 -167.333353404725 2653.58975651589 22 25 18
-1146.51750897189 -167.003012239497 2649.85693405103 22 25 18
-1154.74217655064 -167.157491558933 2641.13583445299 18 21 14
-1141.89306599605 -167.051626007282 2634.99385372362 16 19 12
-1137.07277846086 -167.045126301845 2627.83490903329 15 18 11
-1126.23351697538 -166.964739045636 2621.33935604664 14 17 10
-1113.38922748854 -166.860104482749 2615.00762954761 13 16 9
-1142.68029374355 -167.272687079603 2603.98890788954 12 15 8
-1191.02624053337 -167.917495318164 2591.09179833874 13 16 9
-1161.12869871752 -167.603782851923 2586.59936487603 14 17 10
-1167.34226758575 -167.732019798893 2578.28149825775 19 22 15
-1165.53170051145 -167.762176860711 2570.78670284544 18 21 14
-1152.69038953864 -167.658113942774 2564.33795191201 18 21 14
-1129.8233162259 -167.432647576828 2558.75148514838 17 20 13
-1141.05114179016 -167.621736450573 2549.95321723935 17 20 13
-1154.28257126224 -167.834641596016 2541.037919375 17 20 13
-1148.46366965399 -167.816566670629 2533.81253877571 14 17 8
-1136.6306925132 -167.726021444302 2527.04825622337 15 18 9
-1138.83338029047 -167.805160878592 2519.10026202259 15 18 9
-1177.11998037534 -168.318735523267 2508.38858482336 16 19 10
-1161.27860025634 -168.180007609353 2501.89633918911 17 20 11
-1148.44610993253 -168.077955392047 2495.10068780044 17 20 11
-1117.57713055135 -167.760124185842 2489.47166016811 17 20 11
-1099.73935820535 -167.599361160845 2482.8126745465 16 19 10
-1125.99162494481 -167.966120482057 2473.26683130464 14 17 8
-1134.20597148981 -168.11663666285 2464.95336877238 12 15 6
-1114.36711353781 -167.932585880435 2458.30309688058 11 14 5
-1120.57756325323 -168.059092134426 2450.10899584407 11 14 7
-1116.76979348377 -168.06634247303 2442.47074742972 12 15 8
-1095.934862802 -167.871756914059 2435.65359798121 13 16 9
-1083.11540499238 -167.772799203846 2428.34526814789 15 16 8
-1080.5150959234 -167.848106591813 2412.55968490777 20 16 5
-1109.75711772543 -168.245737808346 2403.47384401217 23 13 1
-1203.07821671279 -169.39634546798 2392.24672605457 55 41 28
-1217.28941869983 -169.613970975125 2384.15094246758 135 113 99
-1222.48793885588 -169.725308898211 2376.40535407253 144 121 105
-1218.67613491868 -169.730873166586 2368.93591006901 150 121 103
-1214.86490623057 -169.736530563589 2361.44388334391 145 114 96
-1204.04738025476 -169.660463818996 2354.08486752246 140 111 95
-1196.23430929091 -169.619760197927 2346.60650676671 142 116 99
-1195.4280231994 -169.660866128984 2338.96666211516 136 120 105
-1060.17359210893 -173.152442715629 2771.66297847812 44 49 43
-1069.41632670124 -173.299657308103 2762.2682553695 17 19 14
-1056.55877337584 -173.228320723011 2756.41917282588 13 15 10
-1067.80933116903 -173.395020651966 2746.74716539782 12 15 8
-1080.06293647519 -173.571140684411 2736.97995847467 19 20 14
-1057.16458477739 -173.4017325573 2732.55576833446 18 19 13
-1069.41712612825 -173.577547443332 2722.82114732476 26 27 19
-1114.80536992061 -174.07687914475 2708.35303290314 26 29 22
-1177.25682690208 -174.740979459119 2691.70389642941 25 28 21
-1171.42657698634 -174.737637676328 2684.90622768586 25 28 21
-1160.57758704783 -174.685697779902 2678.76035176093 23 26 19
-1146.7182641999 -174.604954975168 2672.95650551079 19 22 15
-1158.96018981779 -174.777451629107 2663.64967177088 16 19 12
-1172.20415334547 -174.95913772925 2654.27802020004 21 24 17
-1160.35452026085 -174.898271543787 2648.13284256357 21 24 17
-1141.48165467624 -174.770223646395 2642.78559762925 17 20 13
-1129.63590575859 -174.710369029571 2636.48752714761 15 18 11
-1140.87147217023 -174.872241310639 2627.40661839963 14 17 10
-1105.94974637309 -174.591975393933 2623.69065327328 14 17 10
-1115.17878064549 -174.73465415511 2614.82693156516 13 16 9
-1133.43618639514 -174.962994658578 2605.02195537832 12 15 8
-1143.66551903187 -175.114249085924 2596.17138711954 12 15 8
-1145.86844567333 -175.188887529637 2588.20956530761 13 16 9
-1140.04710969629 -175.187374352456 2581.0708703324 18 21 14
-1152.27985019355 -175.356766072263 2572.11703197669 18 21 14
-1153.47930997151 -175.421533930472 2564.28593260013 18 21 14
-1137.63023987761 -175.325652975221 2558.04823205999 17 20 13
-1130.80839180175 -175.31518837847 2550.90514057463 17 20 13
-1134.01451765705 -175.398998471085 2542.84245704372 17 20 13
-1139.22536857842 -175.501416571863 2534.62451704169 14 17 8
-1149.44846438618 -175.650425392117 2526.02011682512 15 18 9
-1133.60545425642 -175.555962709865 2519.54404906101 15 18 9
-1147.83726535575 -175.741905017677 2510.66748416319 16 19 10
-1167.07902310916 -175.973799931793 2501.49496708698 17 20 11
-1134.19952242788 -175.721870522714 2496.14766792262 17 20 11
-1121.36884600399 -175.656556474107 2489.24167642554 18 21 12
-1121.96595893222 -175.822569664027 2465.72618249916 13 16 7
-1135.19018839317 -175.997291451117 2457.13328436142 11 14 5
-1098.31951726577 -175.71279564519 2451.36774749378 11 14 7
-1098.52032730419 -175.768361409942 2443.45973330934 12 15 8
-1117.753972661 -175.9974288613 2434.60731270699 15 18 11
-1121.96007473682 -176.088967980454 2426.56195739009 16 17 9
-1129.17041737726 -176.207579883744 2418.40521522349 15 15 5
-1132.37379751 -176.289552385657 2410.45181710539 16 14 2
-1112.54353091439 -176.163021396854 2403.40400491916 17 7 0
-1167.8193114202 -176.715094338164 2393.54966684081 46 32 19
-1212.07292386691 -177.165788246567 2384.36161286102 119 97 83
-1214.26867181336 -177.23671432999 2376.69367015334 132 109 93
-1210.45687677266 -177.253606427127 2369.20239070557 135 106 88
-1203.64258210537 -177.243701051939 2361.76348539755 136 105 87
-1199.83238319137 -177.260826156796 2354.21889839147 130 101 85
-1190.01696829447 -177.224487408729 2346.76873988121 133 107 90
-1192.21370378223 -177.295331294223 2339.06228889549 115 99 83
-1241.44857335793 -177.783702138508 2330.70845454193 86 74 60
-1032.02461085759 -180.98831603354 2768.29666695734 2 7 1
-1026.20085785573 -181.004150085575 2761.23381156622 15 20 14
-1035.44519981748 -181.127598042226 2751.79246088665 13 16 9
-1051.71960683242 -181.300636839046 2741.32367495636 15 18 11
-1052.92620619713 -181.366214477878 2733.20334152837 12 15 8
-1051.12002726508 -181.41042451176 2725.53127810468 19 22 13
-1115.59308731794 -181.921954233728 2708.25103264101 22 25 18
-1157.96595293551 -182.275583791998 2694.45697652623 25 28 21
-1172.21835959337 -182.430382598808 2684.80890534653 24 27 20
-1163.37658925131 -182.423136028147 2678.39159444479 19 22 15
-1152.52786396 -182.402210775315 2672.19274926638 18 21 14
-1167.78193867724 -182.563162765493 2662.5069001845 18 21 14
-1171.99185374906 -182.646935475555 2654.32085874654 21 24 17
-1147.09260000765 -182.529225994705 2649.81769345724 20 23 16
-1127.21534072412 -182.447078522543 2644.55886270483 18 21 14
-1129.42030624904 -182.517498898305 2636.53120808874 17 20 13
-1108.54367679225 -182.429539303817 2631.2293044724 16 19 12
-1101.71824298437 -182.438418391281 2624.19626126929 16 19 12
-1116.96889451953 -182.59803514844 2614.64563567179 13 16 9
-1120.17746758893 -182.675159430321 2606.49448524524 12 15 8
-1115.35944435273 -182.697704072665 2599.21585832248 12 15 8
-1114.55509951192 -182.747526922501 2591.49078331296 12 15 8
-1124.7851752358 -182.871719278872 2582.64022980191 13 16 9
-1142.035222546 -183.042662124388 2573.15045365324 17 20 13
-1138.2204143653 -183.071708034252 2565.77321311468 18 21 14
-1139.42063320664 -183.134364108057 2557.90538959517 15 18 11
-1125.57823331868 -183.096688300073 2551.40321820917 13 16 9
-1113.74321258873 -183.072827849668 2544.64720522398 12 15 8
-1124.97232429739 -183.202202570525 2535.86278679449 13 16 7
-1126.17336396689 -183.264837095949 2527.96290560384 14 17 8
-1124.36657838155 -183.307558315907 2520.30682607781 15 18 9
-1130.58020162722 -183.402979319774 2512.02206943312 15 18 9
-1138.79796426726 -183.511243763508 2503.62046073373 15 18 9
-1144.00731399721 -183.599487832609 2495.47641147679 15 18 9
-1131.17494663485 -183.569993869747 2488.59804686315 15 18 9
-1138.38874126638 -183.671087689618 2480.32519849519 15 18 9
-1123.55450195729 -183.629117005058 2473.48399726252 13 16 7
-1139.78670100851 -183.788176720481 2464.67985443143 12 15 6
-1090.08547453669 -183.577020597312 2451.85471816341 14 15 9
-1094.29425745636 -183.658687573585 2443.7151861285 15 16 10
-1111.52591928004 -183.823201442432 2434.95088142387 17 20 13
-1136.76921427366 -184.037962477568 2425.90351626766 14 17 10
-1109.92241409014 -183.921373361227 2419.29036115178 13 14 6
-1139.16872405346 -184.160398006435 2410.20722357887 17 17 7
-1146.37747241758 -184.25933435796 2402.1339173459 24 16 5
-1172.61290139799 -184.477523391403 2393.41500017766 26 14 2
-1213.8655655365 -184.788760695034 2384.33965414093 97 75 61
-1215.05983893443 -184.848115877326 2376.70774338886 119 96 80
-1211.24790226935 -184.876170709175 2369.21933821579 127 98 82
-1200.42812149507 -184.860775619938 2361.88330317888 124 93 75
-1197.61885186263 -184.895321478796 2354.30838922914 128 99 83
-1182.79776670399 -184.855753704589 2346.95049816778 120 94 77
-1181.9922222145 -184.902920182081 2339.2751617921 103 87 72
-1002.66546379421 -188.915039056383 2773.03144313519 15 22 15
-1018.94517395532 -189.046205329479 2762.39102658404 16 21 15
-1023.16811479688 -189.123639642052 2753.71202341242 9 14 7
-1039.44430311262 -189.253703247299 2743.21043673877 16 21 14
-1045.67412922787 -189.339265918148 2734.30300093975 9 14 7
-1071.99063580199 -189.511792520863 2722.46431934228 16 19 10
-1113.368274809 -189.748342426207 2708.58471608368 18 21 14
-1130.63843372988 -189.879501478611 2698.35162529206 21 24 17
-1145.8978484874 -190.001329136448 2688.48975284347 22 25 18
-1136.05291806469 -190.015501040835 2682.13892888073 19 22 15
-1149.30206988694 -190.128038527422 2672.63874724022 19 22 15
-1158.53367289043 -190.223040193093 2663.73514740402 18 21 14
-1159.73280920267 -190.28387758109 2655.91158563659 21 24 17
-1157.92059764828 -190.332025818902 2648.47106945196 20 23 16
-1142.05600257723 -190.321680132469 2642.74829761618 18 21 14
-1106.12003741332 -190.228716655023 2639.35372288599 17 20 13
-1099.29391444346 -190.257236694241 2632.33585036758 16 19 12
-1089.4581478215 -190.273608186973 2625.62451157763 17 20 13
-1109.72799894548 -190.413343634062 2615.47765965956 15 18 11
-1090.05941769339 -190.446624945179 2601.93903000043 12 15 8
-1085.24346592055 -190.483975594206 2594.56354556443 12 15 8
-1108.51786166135 -190.634066941376 2584.31137268612 12 15 8
-1134.79850138112 -190.795169171484 2573.8867586175 16 19 12
-1125.96845994505 -190.815844906189 2566.97173582915 18 21 14
-1116.13678500625 -190.832863080929 2560.09978553 17 20 13
-1109.31531100597 -190.862028120039 2552.89952262406 15 18 11
-1110.51776972842 -190.922792858675 2544.95551234959 13 16 9
-1128.76710039723 -191.04976892218 2535.56565083573 13 16 7
-1150.02211162475 -191.187620874872 2526.02551349385 14 17 8
-1121.14248031547 -191.131472965751 2520.5905448555 15 18 9
-1124.34878069459 -191.199342563247 2512.52883121681 15 18 9
-1126.55250160212 -191.263215863655 2504.5568503053 15 18 9
-1142.78996496972 -191.38017453279 2495.59216461488 15 18 9
-1146.99679477147 -191.451043271313 2487.54056150998 16 19 10
-1146.19175415722 -191.502845323424 2479.84055462159 15 18 9
-1152.40241486159 -191.580837333091 2471.69029826547 13 16 7
-1158.61226722966 -191.658509107297 2463.57197833605 12 15 6
-1123.73572006982 -191.583964370855 2457.86006320872 11 14 5
-1095.87814231609 -191.536502157006 2451.56921206555 16 17 11
-1084.05588323467 -191.548711474618 2444.28502549664 16 17 12
-1104.29516707151 -191.67801331136 2435.34405185806 17 19 14
-1100.48841477166 -191.719395910753 2427.63871340205 14 17 10
-1094.67867699115 -191.75364023819 2419.99900228507 12 13 5
-1111.90813444454 -191.870564823012 2411.37194971567 16 16 6
-1214.65689783964 -192.396983945832 2384.35068409892 95 76 61
-1205.83729733886 -192.418676295066 2377.02650182786 135 112 96
-1207.03214563436 -192.475543693286 2369.37479327821 134 105 89
-1197.21321590672 -192.494094415413 2362.00307044334 126 95 77
-1193.40281464206 -192.533650285081 2354.44230757447 128 101 84
-1176.57855150379 -192.528636238946 2347.11280172051 121 98 80
-1171.76923492822 -192.565168180092 2339.48819464329 100 87 71
-1010.68403751836 -197.124657447649 2763.70689258382 18 25 18
-1046.05211213253 -197.244098496974 2750.16000584761 18 23 16
-1042.23614811351 -197.297190034915 2742.79279634327 13 18 11
-1051.47978106315 -197.371769416345 2733.44095241357 14 19 12
-1068.75770574213 -197.458938816654 2722.95158159378 9 15 5
-1048.87127122583 -197.486062842983 2717.93402340331 12 15 8
-1127.41027022762 -197.669046344385 2698.82181423781 14 17 10
-1107.52266648008 -197.695724045221 2693.85043288494 16 19 12
-1127.80477199294 -197.784839857922 2683.27898846262 19 22 15
-1129.00611118737 -197.84419305865 2675.37092403385 19 22 15
-1148.28010543665 -197.930470054317 2665.0948463316 18 21 14
-1159.51963966358 -198.004101589056 2655.95360773437 21 24 17
-1149.67595665649 -198.046544458394 2649.52367526302 20 23 16
-1125.78017424095 -198.06917942987 2644.76816992017 18 21 14
-1098.87646169445 -198.088472193174 2640.2427723961 17 20 13
-1077.99846411495 -198.117197380957 2634.8597278339 16 19 12
-1087.23219940304 -198.188106394619 2625.89865976299 18 21 14
-1103.48953993089 -198.268111021202 2616.19678419648 16 19 12
-1097.66805147948 -198.317952929003 2608.9995825245 15 18 11
-1078.80307713394 -198.350801919415 2603.16183715583 14 17 10
-1098.06786352992 -198.433742241521 2593.24921692148 12 15 8
-1115.32340888529 -198.513288100402 2583.64269316644 12 15 8
-1137.59275765448 -198.598381444864 2573.63286560908 14 17 10
-1120.73684772468 -198.634202756876 2567.49638013622 17 20 13
-1106.89254598275 -198.674277959048 2560.98505674546 21 24 17
-1107.09208196487 -198.731646463577 2553.12490145145 21 24 17
-1135.37343077808 -198.821965753523 2542.79797014987 18 21 14
-1148.60821923425 -198.893700066605 2533.90296991854 18 21 12
-1149.80771718292 -198.951160130039 2526.06890045742 15 18 9
-1146.99629098652 -199.004041601896 2518.55858512883 14 17 8
-1133.15627740604 -199.044853306098 2511.87887473414 16 19 10
-1125.33374705864 -199.092623957747 2504.67522259695 18 21 12
-1132.54984497391 -199.156537732238 2496.35227499043 20 23 14
-1131.74559314142 -199.211768302014 2488.61775850028 21 24 15
-1141.9674845669 -199.278192872089 2480.1491023227 20 23 14
-1138.1556433123 -199.330116288138 2472.62201514174 18 21 12
-1143.36475562634 -199.390954106346 2464.52599643055 17 20 11
-1129.53210122554 -199.433229876447 2457.55709179931 15 18 9
-1110.69085333272 -199.47125516184 2450.78647655851 15 16 11
-1086.84229390496 -199.505321874589 2444.17305874067 14 15 10
-1073.01636620297 -199.549280314726 2436.93011990739 14 16 11
-1091.25293307036 -199.621972774979 2428.10672231029 11 16 9
-1089.45055441105 -199.676569390772 2420.26565396324 11 14 5
-1063.60672603355 -199.710886384692 2413.40834146509 15 17 6
-1118.90213768548 -199.812974968106 2403.26990873751 22 18 6
-1120.10319375524 -199.869304357198 2395.37615653752 28 18 6
-1200.42552429513 -199.987646278397 2384.86022870816 94 75 61
-1203.62386093985 -200.043728269138 2377.13174681054 138 115 101
-1206.82155946031 -200.099584721096 2369.41912239711 123 94 78
-1201.00734981665 -200.148689239867 2361.94755624291 126 99 82
-1196.19493745503 -200.198633378816 2354.42021743562 125 102 86
-1182.37274666622 -200.24245696731 2347.04069667166 117 98 81
-1188.57481571073 -200.300140913094 2339.24803738081 82 73 56
-1059.69538986357 -205.187783404495 2755.95569725049 17 24 17
-1052.86384027382 -205.255229036051 2749.10812053341 18 23 16
-1061.10312829708 -205.306812456461 2739.91676021896 10 15 8
-1068.33682459717 -205.359138757081 2730.91844850671 12 17 10
-1063.51543431521 -205.424499003899 2723.73477008646 7 13 3
-1080.79266177028 -205.465028039264 2713.32272802391 11 14 7
-1017.71664214443 -205.597321721983 2714.41866785218 11 14 7
-1108.30997051399 -205.55211896278 2693.75243393695 14 17 10
-1098.46605774915 -205.622882171968 2687.3010729946 18 21 14
-1122.76560464812 -205.652605797139 2676.21984497865 18 21 14
-1128.98798504897 -205.703580858434 2667.64055100318 18 21 14
-1151.2742643148 -205.734130340852 2657.02758598479 21 24 17
-1147.45423611922 -205.796968950619 2649.81807771274 20 23 16
-1129.57998280372 -205.878097874824 2644.31584502244 18 21 14
-1097.65465377471 -205.978381217496 2640.40619518198 17 20 13
-1089.82430360079 -206.047762528473 2633.48496509275 16 19 12
-1101.06511626581 -206.091537335672 2624.32581856079 17 20 13
-1091.22839661792 -206.163787921568 2617.59172865913 16 19 12
-1077.37892726216 -206.241994897032 2611.24143055693 15 18 11
-1089.62211359883 -206.283738084301 2602.02571656184 14 17 10
-1097.84981227781 -206.330690600937 2593.29228027768 12 15 8
-1101.05981908088 -206.384560331702 2585.11006351821 12 15 8
-1083.20068884499 -206.469358471052 2579.02215355543 14 17 10
-1146.603878324 -206.433117054495 2565.03614896082 15 18 11
-1117.70949672273 -206.534325252631 2559.99939117441 19 22 15
-1121.92048560684 -206.585714723351 2551.80615206079 18 21 14
-1142.17899563862 -206.611868257902 2542.22450482359 14 17 10
-1146.38782492794 -206.662457711597 2534.11652915231 19 22 13
-1139.5647318164 -206.730444155404 2526.93786328911 16 19 10
-1131.73992441121 -206.800235771028 2519.79956204313 14 17 8
-1135.94877892423 -206.850546849508 2511.69089943991 17 20 11
-1129.12800118696 -206.91890963564 2504.42133664179 19 22 13
