ply
format ascii 1.0
comment KinectMotionCapture
element vertex 787
property float x
property float y
property float z
property uchar red
property uchar green
property uchar blue
end_header
-273.847937583923 -604.595184326172 1998.99995326996 10 13 6
-268.548190593719 -604.914486408234 2000 12 15 8
-264.295011758804 -607.653379440308 2009.0000629425 12 15 8
-258.446455001831 -606.76246881485 2006.00004196167 12 15 8
-250.974327325821 -601.939141750336 1990.00000953674 13 16 9
-244.946211576462 -600.44264793396 1985.00001430511 13 16 9
-240.634396672249 -603.180825710297 1993.99995803833 14 17 10
-235.919415950775 -605.011522769928 2000 14 17 10
-231.517121195793 -607.749462127686 2009.0000629425 14 17 10
-226.052835583687 -607.764720916748 2009.0000629425 14 17 10
-220.478355884552 -607.477068901062 2007.99989700317 14 17 10
-213.945254683495 -604.466438293457 1998.00002574921 14 17 10
-207.779318094254 -602.362990379334 1991.00005626678 12 15 8
-202.667444944382 -603.284597396851 1993.99995803833 13 16 9
-197.538942098618 -604.206085205078 1996.99997901917 13 16 9
-192.778527736664 -606.337428092957 2003.99994850159 14 17 10
-187.138453125954 -605.745553970337 2002.00009346008 14 17 10
-182.416424155235 -608.179032802582 2009.99999046326 17 18 10
-175.80184340477 -604.258060455322 1996.99997901917 14 15 7
-171.902418136597 -609.717071056366 2015.00010490417 13 14 8
-463.744610548019 -588.608503341675 1930.99999427795 15 17 16
-453.994274139404 -582.831561565399 1911.99994087219 14 16 13
-450.450003147125 -584.980309009552 1919.0000295639 13 15 10
-447.331696748734 -587.739109992981 1927.99997329712 12 15 8
-441.183537244797 -586.535274982452 1924.00002479553 15 18 9
-432.111173868179 -581.368327140808 1906.99994564056 12 14 3
-428.056329488754 -582.908451557159 1911.99994087219 17 19 8
-418.666273355484 -577.131927013397 1893.00000667572 18 20 9
-408.723801374435 -570.440471172333 1871.00005149841 18 19 11
-402.136594057083 -568.322241306305 1863.9999628067 18 19 11
-397.717475891113 -569.253087043762 1866.99998378754 17 20 11
-392.440676689148 -568.96448135376 1866.00005626678 14 17 8
-387.999415397644 -569.895625114441 1868.99995803833 15 18 9
-383.541643619537 -570.826947689056 1871.99997901917 16 19 10
-378.663092851639 -571.14851474762 1873.00002574921 13 16 9
-371.983796358109 -568.725824356079 1865.00000953674 14 17 10
-365.544348955154 -566.60783290863 1858.00004005432 13 16 9
-364.187359809875 -572.418987751007 1876.99997425079 13 16 9
-364.448755979538 -580.975294113159 1904.99997138977 14 17 10
-363.614857196808 -588.007211685181 1927.99997329712 14 16 11
-356.707572937012 -585.279822349548 1919.0000295639 13 15 10
-354.428023099899 -590.177297592163 1934.99994277954 13 16 9
-348.993599414825 -589.889943599701 1934.00001525879 10 13 4
-351.206928491592 -602.718353271484 1975.99995136261 8 11 4
-343.915790319443 -599.381148815155 1965.0000333786 18 21 14
-332.720994949341 -589.02770280838 1930.99999427795 13 15 10
-317.12993979454 -609.555244445801 1998.00002574921 48 50 45
-310.609757900238 -607.437372207642 1991.00005626678 18 20 15
-308.11271071434 -613.251864910126 2009.99999046326 9 11 6
-302.048951387405 -612.049221992493 2006.00004196167 9 12 5
-297.189295291901 -613.287091255188 2009.99999046326 9 12 5
-292.888134717941 -615.745484828949 2017.99988746643 9 12 5
-287.261307239532 -615.457713603973 2016.99995994568 9 12 5
-280.521929264069 -612.728536128998 2007.99989700317 10 13 6
-273.69412779808 -609.694004058838 1998.00002574921 10 13 6
-269.068568944931 -611.541628837585 2003.99994850159 12 15 8
-264.015316963196 -612.473607063293 2006.99996948242 12 15 8
-258.172482252121 -611.574470996857 2003.99994850159 12 15 8
-251.336634159088 -608.233571052551 1993.00003051758 12 15 8
-245.670810341835 -607.639074325562 1991.00005626678 12 15 8
-242.549568414688 -613.453447818756 2009.99999046326 13 16 9
-237.791210412979 -615.300178527832 2016.00003242493 13 16 9
-232.308506965637 -615.315556526184 2016.00003242493 13 16 9
-225.025206804276 -610.44704914093 2000 13 16 9
-220.463633537292 -612.903594970703 2007.99989700317 13 16 9
-213.502585887909 -608.644843101501 1993.99995803833 13 16 9
-207.869574427605 -608.048558235168 1991.99998378754 13 16 9
-202.653616666794 -608.672857284546 1993.99995803833 14 17 10
-196.931913495064 -607.77074098587 1991.00005626678 15 18 11
-191.899523139 -609.005033969879 1995.00000476837 15 18 11
-186.751574277878 -609.933972358704 1998.00002574921 16 19 12
-182.585194706917 -614.220559597015 2012.00008392334 17 18 10
-177.902147173882 -616.980612277985 2020.99990844727 12 13 5
-174.022898077965 -622.79337644577 2039.99996185303 12 13 7
-462.529450654984 -592.302858829498 1925.99999904633 2 4 3
-451.842784881592 -585.243761539459 1902.99999713898 12 14 11
-447.853177785873 -586.795926094055 1907.99999237061 10 12 7
-442.676275968552 -586.810648441315 1907.99999237061 16 19 12
-436.352849006653 -585.287749767303 1902.99999713898 14 17 8
-430.056422948837 -583.765089511871 1898.00000190735 12 13 5
-428.488373756409 -588.701605796814 1914.00003433228 15 16 8
-419.313967227936 -583.180785179138 1896.00002765656 17 18 10
-410.23713350296 -577.659785747528 1878.00002098084 20 21 13
-401.689261198044 -572.75390625 1861.99998855591 19 20 12
-396.42333984375 -572.462022304535 1860.99994182587 16 19 10
-391.793549060822 -573.093175888062 1863.00003528595 16 19 10
-387.983083724976 -574.954926967621 1868.99995803833 15 18 9
-384.549558162689 -577.43227481842 1876.99997425079 14 17 8
-380.061656236649 -578.371584415436 1879.99999523163 13 16 9
-373.762190341949 -576.54219865799 1873.99995326996 13 16 9
-368.281990289688 -575.943410396576 1871.99997901917 14 17 10
-364.946573972702 -578.729033470154 1881.00004196167 13 16 9
-369.214206933975 -593.822121620178 1929.99994754791 13 16 9
-365.29478430748 -595.993161201477 1937.00003623962 14 16 11
-358.734846115112 -593.856573104858 1929.99994754791 13 15 10
-348.366290330887 -585.25812625885 1901.99995040894 12 15 8
-348.976105451584 -595.122039318085 1934.00001525879 11 14 5
-350.122690200806 -606.217384338379 1970.00002861023 11 14 7
-346.698224544525 -609.620153903961 1980.99994659424 10 13 6
-336.666375398636 -601.328909397125 1953.9999961853 10 12 7
-331.529140472412 -601.65411233902 1955.00004291534 9 11 8
-316.001266241074 -612.803757190704 1991.00005626678 53 55 50
-310.748189687729 -613.128960132599 1991.99998378754 9 11 6
-307.022154331207 -616.532266139984 2003.00002098084 16 18 13
-302.934855222702 -619.31985616684 2012.00008392334 11 14 7
-297.171950340271 -618.721604347229 2009.99999046326 11 14 7
-292.290329933167 -619.97002363205 2013.99993896484 10 13 6
-286.81692481041 -619.9871301651 2013.99993896484 10 13 6
-280.365318059921 -617.849111557007 2006.99996948242 10 13 6
-273.540496826172 -614.78728055954 1996.99997901917 10 13 6
-268.783539533615 -616.343080997467 2002.00009346008 12 15 8
-263.47279548645 -616.667211055756 2003.00002098084 12 15 8
-259.573340415955 -620.377898216248 2015.00010490417 12 15 8
-251.951307058334 -615.159869194031 1998.00002574921 12 15 8
-245.901942253113 -613.636016845703 1993.00003051758 12 15 8
-242.534011602402 -618.88587474823 2009.99999046326 12 15 8
-238.483518362045 -622.596085071564 2022.0000743866 12 15 8
-232.293382287025 -620.763838291168 2016.00003242493 13 16 9
-225.347965955734 -616.775751113892 2003.00002098084 13 16 9
-219.900146126747 -616.790294647217 2003.00002098084 13 16 9
-215.736761689186 -620.499908924103 2015.00010490417 13 16 9
-208.899095654488 -616.510689258575 2002.00009346008 14 17 10
-202.843219041824 -614.676773548126 1996.00005149841 14 17 10
-196.819618344307 -612.842440605164 1990.00000953674 14 17 10
-191.405490040779 -612.855672836304 1990.00000953674 15 18 11
-187.392979860306 -617.488145828247 2005.00011444092 15 18 11
-184.478133916855 -626.124203205109 2032.99999237061 15 16 8
-180.530428886414 -631.680548191071 2051.00011825562 15 16 8
-466.357827186584 -602.485358715057 1942.00003147125 9 11 10
-455.864995718002 -595.673859119415 1919.99995708466 10 12 9
-449.012368917465 -593.516111373901 1912.99998760223 14 16 11
-440.109610557556 -588.566243648529 1896.99995517731 11 14 7
-435.191601514816 -588.89102935791 1898.00000190735 13 16 9
-432.533800601959 -592.318773269653 1909.00003910065 13 14 6
-430.040031671524 -596.057116985321 1921.0000038147 14 15 7
-422.173470258713 -592.34893321991 1909.00003910065 16 17 9
-411.095410585403 -583.986222743988 1881.99996948242 19 20 12
-401.458024978638 -577.485144138336 1860.99994182587 18 19 13
-395.555675029755 -576.259255409241 1856.99999332428 16 19 10
-391.357123851776 -577.515959739685 1860.99994182587 16 19 10
-387.759566307068 -579.70404624939 1868.00003051758 15 18 9
-383.713990449905 -581.271588802338 1873.00002574921 14 17 8
-378.630340099335 -581.287622451782 1873.00002574921 13 16 9
-373.546421527863 -581.303715705872 1873.00002574921 13 16 9
-370.232850313187 -584.11318063736 1881.99996948242 16 19 12
-368.228226900101 -589.095592498779 1898.00000190735 13 16 9
-368.049383163452 -597.182154655457 1924.00002479553 13 16 9
-369.237780570984 -607.752442359924 1957.99994468689 13 15 10
-362.806737422943 -605.907201766968 1952.00002193451 12 14 9
-357.323706150055 -605.614006519318 1950.99997520447 10 12 7
-348.056763410568 -598.801910877228 1929.00002002716 11 14 7
-340.686142444611 -595.093786716461 1917.00005531311 11 14 7
-340.730547904968 -604.423880577087 1947.00002670288 11 14 7
-337.682753801346 -608.476758003235 1960.00003814697 11 14 7
-332.529246807098 -608.80446434021 1960.99996566772 11 13 8
-317.570924758911 -621.292531490326 2000.99992752075 46 48 43
-311.666876077652 -620.378375053406 1998.00002574921 28 30 25
-308.690816164017 -625.36358833313 2013.99993896484 10 12 7
-303.218692541122 -625.38081407547 2013.99993896484 11 14 7
-297.006994485855 -623.845338821411 2009.0000629425 10 13 6
-291.837960481644 -624.483227729797 2010.99991798401 10 13 6
-285.233646631241 -622.015774250031 2003.00002098084 10 13 6
-279.650270938873 -621.721863746643 2002.00009346008 10 13 6
-272.702276706696 -618.322193622589 1991.00005626678 11 14 7
-267.559021711349 -618.959426879883 1993.00003051758 12 15 8
-262.535959482193 -619.907140731812 1996.00005149841 12 15 8
-258.526802062988 -623.339474201202 2006.99996948242 12 15 8
-252.944350242615 -623.044610023499 2006.00004196167 12 15 8
-246.873468160629 -621.507167816162 2000.99992752075 12 15 8
-241.915374994278 -622.765004634857 2005.00011444092 11 14 7
-237.406864762306 -625.264942646027 2013.00001144409 11 14 7
-231.702327728271 -624.658644199371 2010.99991798401 12 15 8
-225.333362817764 -622.1883893013 2003.00002098084 12 15 8
-220.105320215225 -622.82407283783 2005.00011444092 12 15 8
-214.973136782646 -623.770117759705 2007.99989700317 12 15 8
-209.302589297295 -623.162746429443 2006.00004196167 12 15 8
-203.642636537552 -622.555136680603 2003.99994850159 13 16 9
-197.795391082764 -621.325850486755 2000 14 17 10
-192.7390396595 -622.581541538239 2003.99994850159 15 18 11
-188.875526189804 -627.875864505768 2020.99990844727 15 18 11
-185.28214097023 -634.41276550293 2042.00005531311 17 18 10
-182.894393801689 -645.61003446579 2078.00006866455 15 16 8
-468.265295028687 -610.251128673553 1950.00004768372 8 10 9
-458.700358867645 -604.631543159485 1932.000041008 9 11 10
-450.406670570374 -600.57669878006 1919.0000295639 12 14 9
-441.951453685761 -596.208989620209 1904.99997138977 15 18 11
-436.094373464584 -595.284223556519 1901.99995040894 18 21 14
-431.839406490326 -596.550464630127 1906.00001811981 13 14 6
-430.248886346817 -601.572811603546 1922.00005054474 13 14 6
-422.379523515701 -597.831726074219 1909.9999666214 15 16 8
-412.390917539597 -590.960562229156 1888.00001144409 18 19 11
-402.090102434158 -583.463132381439 1863.9999628067 18 19 13
-395.966470241547 -581.91305398941 1858.99996757507 16 19 10
-392.81377196312 -584.745466709137 1868.00003051758 16 19 10
-388.159066438675 -585.386872291565 1870.00000476837 15 18 9
-383.69819521904 -586.341559886932 1873.00002574921 14 17 8
-378.61442565918 -586.357235908508 1873.00002574921 13 16 9
-376.521855592728 -591.068983078003 1888.00001144409 13 16 9
-373.167395591736 -593.902587890625 1896.99995517731 16 19 12
-370.733857154846 -598.301947116852 1911.00001335144 13 16 9
-364.398300647736 -596.439719200134 1904.99997138977 13 16 9
-363.375127315521 -603.344321250916 1927.00004577637 13 15 10
-365.020006895065 -614.945828914642 1963.99998664856 11 13 8
-359.321236610413 -614.336609840393 1962.00001239777 10 12 7
-351.107150316238 -609.343588352203 1945.99997997284 11 14 7
-343.157321214676 -604.66331243515 1930.99999427795 11 14 7
-338.088631629944 -604.993224143982 1932.000041008 12 15 8
-335.426032543182 -609.707236289978 1947.00002670288 12 15 8
-334.546953439713 -617.866218090057 1973.00004959106 12 14 9
-316.918969154358 -625.450670719147 1996.99997901917 39 41 36
-312.117666006088 -626.720368862152 2000.99992752075 18 20 15
-307.294368743896 -627.990305423737 2005.00011444092 15 17 12
-302.448987960815 -629.260003566742 2009.0000629425 10 13 6
-297.137945890427 -629.589974880219 2009.99999046326 10 13 6
-290.660321712494 -627.414047718048 2003.00002098084 10 13 6
-284.505099058151 -625.864267349243 1998.00002574921 10 13 6
-278.656125068665 -624.940872192383 1995.00000476837 11 14 7
-272.275239229202 -622.76417016983 1988.00003528595 11 14 7
-267.408728599548 -624.033153057098 1991.99998378754 12 15 8
-261.862516403198 -623.735725879669 1991.00005626678 12 15 8
-257.995873689651 -627.510726451874 2003.00002098084 12 15 8
-251.794040203094 -625.646471977234 1996.99997901917 12 15 8
-246.981546282768 -627.228319644928 2002.00009346008 12 15 8
-241.417616605759 -626.930058002472 2000.99992752075 11 14 7
-236.566379666328 -628.511607646942 2006.00004196167 11 14 7
-230.650722980499 -627.273082733154 2002.00009346008 11 14 7
-225.993856787682 -629.48077917099 2009.0000629425 11 14 7
-219.652026891708 -626.988351345062 2000.99992752075 12 15 8
-214.423894882202 -627.628982067108 2003.00002098084 12 15 8
-208.662912249565 -626.702666282654 2000 12 15 8
-204.543679952621 -630.789756774902 2013.00001144409 12 15 8
-199.166730046272 -631.116390228271 2013.99993896484 13 16 9
-193.303182721138 -629.875957965851 2009.99999046326 14 17 10
-188.208684325218 -631.142139434814 2013.99993896484 14 17 10
-184.180855751038 -636.168718338013 2029.99997138977 14 15 7
-181.91385269165 -647.776424884796 2066.99991226196 15 16 8
-465.85088968277 -612.37895488739 1940.00005722046 67 68 70
-459.161847829819 -610.497891902924 1934.00001525879 7 9 8
-452.270776033401 -608.30146074295 1927.00004577637 12 14 11
-440.777838230133 -599.791646003723 1899.99997615814 15 18 11
-435.621857643127 -599.805176258087 1899.99997615814 8 11 4
-431.825160980225 -601.713180541992 1906.00001811981 14 15 7
-430.458217859268 -607.09422826767 1922.99997806549 12 13 5
-424.797296524048 -606.4772605896 1921.0000038147 13 14 6
-414.997190237045 -599.861919879913 1899.99997615814 16 17 11
-404.879510402679 -592.614948749542 1876.99997425079 17 18 12
-397.655516862869 -589.47229385376 1866.99998378754 15 18 9
-394.270658493042 -592.013120651245 1875 15 18 9
-390.427052974701 -593.922555446625 1881.00004196167 15 18 9
-384.911894798279 -593.306303024292 1878.99994850159 14 17 8
-379.205316305161 -592.374324798584 1876.00004673004 14 17 10
-377.104371786118 -597.126305103302 1891.00003242493 14 17 10
-376.102060079575 -603.773355484009 1911.99994087219 15 18 11
-370.329707860947 -602.841913700104 1909.00003910065 12 15 8
-365.147292613983 -602.857887744904 1909.00003910065 12 15 8
-364.867180585861 -611.084878444672 1934.99994277954 12 14 9
-359.056144952774 -610.153794288635 1932.000041008 11 13 8
-356.374323368073 -614.591598510742 1945.99997997284 10 12 7
-349.647134542465 -612.081468105316 1937.99996376038 11 14 7
-344.740092754364 -612.729549407959 1940.00005722046 11 14 7
-338.072061538696 -610.219299793243 1932.000041008 12 15 8
-336.270719766617 -616.552829742432 1952.00002193451 12 15 8
-337.582021951675 -628.888130187988 1991.00005626678 12 15 8
-333.008676767349 -630.484402179718 1996.00005149841 12 15 8
-334.644436836243 -644.084215164185 2039.00003433228 7 10 3
-320.228576660156 -626.727342605591 1983.99996757507 92 94 89
-318.171590566635 -633.377909660339 2005.00011444092 40 42 37
-313.660562038422 -635.290086269379 2010.99991798401 19 21 16
-309.116631746292 -637.202382087708 2016.99995994568 10 12 7
-304.389238357544 -638.798713684082 2022.0000743866 10 13 6
-299.78209733963 -640.710949897766 2028.00011634827 10 13 6
-294.126361608505 -640.411555767059 2026.99995040894 9 12 5
-285.770326852798 -634.109020233154 2006.99996948242 10 13 6
-278.640002012253 -630.333662033081 1995.00000476837 11 14 7
-273.081064224243 -630.033671855927 1993.99995803833 11 14 7
-268.466830253601 -631.945192813873 2000 12 15 8
-261.978447437286 -629.433035850525 1991.99998378754 12 15 8
-257.078766822815 -630.712389945984 1996.00005149841 12 15 8
-251.274436712265 -629.779577255249 1993.00003051758 12 15 8
-246.472984552383 -631.374716758728 1998.00002574921 12 15 8
-241.523370146751 -632.653594017029 2002.00009346008 11 14 7
-235.96203327179 -632.352352142334 2000.99992752075 11 14 7
-230.175420641899 -631.418704986572 1998.00002574921 11 14 7
-225.304663181305 -633.013188838959 2003.00002098084 11 14 7
-219.967305660248 -633.343160152435 2003.99994850159 12 15 8
-214.196011424065 -632.408797740936 2000.99992752075 12 15 8
-209.066689014435 -633.370518684387 2003.99994850159 12 15 8
-204.428777098656 -635.912418365479 2012.00008392334 13 16 9
-199.746996164322 -638.453960418701 2019.99998092651 14 17 10
-194.059744477272 -637.83472776413 2017.99988746643 14 17 10
-189.317494630814 -640.375912189484 2026.00002288818 14 17 10
-184.712886810303 -643.549144268036 2036.00001335144 11 12 4
-181.197613477707 -650.831460952759 2059.00001525879 15 16 8
-469.440102577209 -622.412025928497 1955.00004291534 99 100 102
-459.386378526688 -616.057097911835 1934.99994277954 1 3 2
-450.380116701126 -610.975801944733 1919.0000295639 13 15 12
-441.46054983139 -605.894505977631 1902.99999713898 12 15 8
-437.901020050049 -608.136355876923 1909.9999666214 13 16 9
-435.209661722183 -611.652255058289 1921.0000038147 15 16 8
-430.89172244072 -612.939655780792 1924.99995231628 12 13 5
-424.561828374863 -611.361682415009 1919.99995708466 12 13 5
-416.94849729538 -607.873141765594 1909.00003910065 16 17 11
-404.649436473846 -597.379267215729 1876.00004673004 17 18 12
-397.641003131866 -594.527542591095 1866.99998378754 15 18 9
-394.466131925583 -597.408056259155 1876.00004673004 15 18 9
-391.242295503616 -600.288689136505 1884.99999046326 15 18 9
-387.559771537781 -602.532863616943 1891.99995994568 14 17 8
-381.817817687988 -601.592481136322 1889.00005817413 14 17 10
-379.282504320145 -605.747818946838 1901.99995040894 14 17 10
-375.299572944641 -607.674121856689 1907.99999237061 14 17 10
-374.193608760834 -614.378094673157 1929.00002002716 12 15 8
-368.765532970428 -614.075303077698 1927.99997329712 12 15 8
-362.022787332535 -611.543118953705 1919.99995708466 12 14 9
-357.181638479233 -612.196028232574 1922.00005054474 11 13 8
-350.864350795746 -610.300660133362 1916.00000858307 10 12 7
-348.54844212532 -615.413248538971 1932.000041008 11 14 7
-345.43451666832 -619.251787662506 1944.00000572205 11 14 7
-340.680450201035 -620.223641395569 1947.00002670288 10 13 4
-336.771070957184 -622.788369655609 1955.00004291534 10 13 4
-331.631183624268 -623.123168945313 1955.9999704361 10 13 4
-334.993839263916 -639.70547914505 2007.99989700317 10 13 4
-320.513606071472 -622.199952602386 1952.99994945526 6 9 2
-318.275272846222 -628.26943397522 1972.00000286102 61 64 57
-318.313628435135 -639.118254184723 2006.00004196167 34 36 31
-316.139400005341 -645.825505256653 2026.99995040894 21 23 18
-311.551988124847 -647.753834724426 2032.99999237061 9 11 8
-306.028544902802 -647.770404815674 2032.99999237061 9 11 6
-300.800323486328 -648.424088954926 2035.00008583069 9 12 5
-294.545292854309 -646.847248077393 2029.99997138977 9 12 5
-286.893278360367 -642.083644866943 2015.00010490417 10 13 6
-280.300110578537 -639.550268650055 2006.99996948242 11 14 7
-274.571776390076 -638.928771018982 2005.00011444092 12 15 8
-269.390821456909 -639.581680297852 2006.99996948242 12 15 8
-262.752115726471 -636.729001998901 1998.00002574921 12 15 8
-257.192343473434 -636.425495147705 1996.99997901917 12 15 8
-251.763701438904 -636.440515518188 1996.99997901917 12 15 8
-246.088057756424 -635.818004608154 1995.00000476837 12 15 8
-239.940419793129 -633.92037153244 1988.9999628067 12 15 8
-235.829636454582 -637.44068145752 2000 12 15 8
-230.045974254608 -636.498808860779 1996.99997901917 12 15 8
-224.390774965286 -635.875344276428 1995.00000476837 12 15 8
-218.855887651443 -635.570347309113 1993.99995803833 13 16 9
-214.503571391106 -638.77147436142 2003.99994850159 13 16 9
-209.053352475166 -638.784825801849 2003.99994850159 14 17 10
-204.415634274483 -641.348123550415 2012.00008392334 15 18 11
-199.635192751884 -643.592357635498 2019.00005340576 16 19 12
-195.77793776989 -649.024248123169 2036.00001335144 14 17 10
-191.454157233238 -653.18089723587 2049.00002479553 13 16 9
-186.06148660183 -653.830885887146 2051.00011825562 12 15 8
-182.945504784584 -662.769019603729 2078.9999961853 13 14 6
-460.323631763458 -622.585356235504 1939.00001049042 6 8 7
-452.010303735733 -618.423402309418 1925.99999904633 17 19 16
-447.943091392517 -620.04142999649 1930.99999427795 12 14 9
-441.326886415482 -618.127644062042 1924.99995231628 19 22 15
-432.930827140808 -613.645136356354 1911.00001335144 15 16 8
-429.98269200325 -616.869568824768 1921.0000038147 12 13 5
-425.211280584335 -617.525398731232 1922.99997806549 12 13 5
-421.302616596222 -619.466006755829 1929.00002002716 15 16 10
-409.16496515274 -609.203517436981 1896.99995517731 16 17 11
-398.265838623047 -600.546479225159 1870.00000476837 15 18 9
-393.190234899521 -600.56060552597 1870.00000476837 15 18 9
-389.359802007675 -602.501690387726 1876.00004673004 15 18 9
-385.906279087067 -605.085432529449 1883.99994373322 14 17 8
-380.590170621872 -604.77888584137 1883.00001621246 14 17 10
-377.073973417282 -607.363104820251 1891.00003242493 14 17 10
-373.514115810394 -609.947502613068 1899.00004863739 13 16 9
-370.298594236374 -613.174617290497 1909.00003910065 11 14 7
-366.646081209183 -615.759551525116 1917.00005531311 12 15 8
-365.778028964996 -623.162925243378 1940.00005722046 12 15 8
-354.750126600266 -613.220572471619 1909.00003910065 12 15 8
-352.496683597565 -618.375778198242 1924.99995231628 11 14 7
-349.073708057404 -621.603727340698 1934.99994277954 11 14 7
-344.885498285294 -623.54701757431 1940.99998474121 11 14 7
-341.014355421066 -626.132905483246 1949.00000095367 10 13 4
-336.065977811813 -626.79135799408 1950.99997520447 10 13 4
-327.885240316391 -621.345579624176 1934.00001525879 9 12 3
-322.96621799469 -622.00391292572 1935.99998950958 6 9 2
-320.825815200806 -628.124237060547 1955.00004291534 14 17 10
-323.100835084915 -643.241226673126 2002.00009346008 12 15 8
-320.201277732849 -648.398220539093 2017.99988746643 42 44 39
-317.058652639389 -653.234302997589 2032.99999237061 17 19 14
-312.301725149155 -654.857218265533 2038.00010681152 4 6 1
-306.915313005447 -655.194878578186 2039.00003433228 9 11 6
-300.192832946777 -652.640283107758 2030.99989891052 9 12 5
-294.238984584808 -651.692390441895 2028.00011634827 9 12 5
-287.01975941658 -647.852003574371 2016.00003242493 10 13 6
-282.099902629852 -649.153113365173 2019.99998092651 12 15 8
-275.240868330002 -645.95502614975 2009.99999046326 12 15 8
-270.314902067184 -647.255837917328 2013.99993896484 12 15 8
-263.657450675964 -644.378781318665 2005.00011444092 12 15 8
-259.109050035477 -646.64351940155 2012.00008392334 12 15 8
-253.009498119354 -645.051419734955 2006.99996948242 12 15 8
-246.443450450897 -642.173409461975 1998.00002574921 12 15 8
-240.046635270119 -639.616549015045 1990.00000953674 12 15 8
-234.990000724792 -640.595018863678 1993.00003051758 12 15 8
-230.492681264877 -643.180429935455 2000.99992752075 13 16 9
-224.37696158886 -641.265690326691 1995.00000476837 13 16 9
-218.95207464695 -641.279280185699 1995.00000476837 13 16 9
-214.49014544487 -644.185721874237 2003.99994850159 13 16 9
-208.727240562439 -643.234491348267 2000.99992752075 15 18 11
-203.589886426926 -644.211828708649 2003.99994850159 16 19 12
-199.622422456741 -649.046659469604 2019.00005340576 16 19 12
-196.05378806591 -655.488669872284 2039.00003433228 14 17 10
-191.53518974781 -659.037351608276 2049.99995231628 13 16 9
-188.044995069504 -666.443705558777 2072.99995422363 12 15 8
-185.309261083603 -677.065014839172 2105.99994659424 12 13 7
-465.059697628021 -634.316444396973 1958.99999141693 32 36 35
-459.273397922516 -633.680760860443 1957.00001716614 13 18 14
-450.714290142059 -629.159569740295 1942.999958992 5 10 4
-444.9822306633 -628.524303436279 1940.99998474121 11 14 7
-433.597564697266 -619.793891906738 1914.00003433228 13 16 7
-424.821525812149 -614.625453948975 1898.00000190735 12 15 4
-422.544479370117 -618.848145008087 1911.00001335144 11 14 3
-419.978469610214 -622.747421264648 1922.99997806549 12 15 6
-411.739468574524 -618.227243423462 1909.00003910065 15 16 8
-401.020735502243 -609.820544719696 1883.00001621246 16 19 12
-394.227623939514 -607.243359088898 1875 15 18 11
-389.138162136078 -607.257127761841 1875 15 18 11
-386.506468057632 -611.157655715942 1886.99996471405 15 18 11
-380.979984998703 -610.52405834198 1884.99999046326 13 16 7
-376.660495996475 -611.833989620209 1889.00005817413 11 14 5
-373.695969581604 -615.411400794983 1899.99997615814 13 16 7
-369.507700204849 -617.045521736145 1904.99997138977 13 16 7
-368.543475866318 -624.18657541275 1927.00004577637 13 16 7
-367.45947599411 -631.327986717224 1949.00000095367 12 15 6
-357.708007097244 -623.568892478943 1924.99995231628 12 15 4
-351.38264298439 -621.640563011169 1919.0000295639 12 15 4
-350.681722164154 -629.754424095154 1944.00000572205 11 14 7
-347.179651260376 -633.009433746338 1953.9999961853 11 14 7
-342.573255300522 -634.320855140686 1957.99994468689 11 14 7
-335.533499717712 -631.09678030014 1947.99995422363 10 13 6
-328.717321157455 -628.196537494659 1939.00001049042 9 12 5
-324.285089969635 -629.831910133362 1944.00000572205 9 12 5
-321.958720684052 -635.679304599762 1962.00001239777 11 14 7
-322.277814149857 -647.03506231308 1996.99997901917 8 11 4
-320.343792438507 -654.179155826569 2019.00005340576 41 44 37
-316.106736660004 -656.78733587265 2026.99995040894 15 18 11
-310.446739196777 -656.479239463806 2026.00002288818 9 12 5
-304.189920425415 -654.874980449677 2020.99990844727 9 11 6
-297.812134027481 -652.946591377258 2015.00010490417 9 11 6
-291.75677895546 -651.665925979614 2010.99991798401 8 10 5
-286.149948835373 -651.357352733612 2009.99999046326 8 10 5
-279.431104660034 -648.456156253815 2000.99992752075 11 13 8
-274.951696395874 -650.739848613739 2007.99989700317 13 15 10
-268.82341504097 -649.134576320648 2003.00002098084 13 15 10
-262.984961271286 -648.177206516266 2000 13 15 10
-258.063971996307 -649.488270282745 2003.99994850159 13 15 10
-253.877222537994 -652.743995189667 2013.99993896484 13 15 10
-246.799036860466 -648.54508638382 2000.99992752075 13 15 10
-240.514934062958 -646.290481090546 1993.99995803833 13 16 9
-234.38648879528 -644.359707832336 1988.00003528595 13 16 9
-230.24845123291 -647.938966751099 1998.99995326996 13 16 9
-224.363371729851 -646.656036376953 1995.00000476837 13 16 9
-219.158187508583 -647.317707538605 1996.99997901917 14 17 10
-213.085636496544 -645.386040210724 1991.00005626678 14 17 10
-207.566946744919 -645.074725151062 1990.00000953674 15 18 11
-202.053397893906 -644.763231277466 1988.9999628067 15 18 11
-197.830259799957 -648.665726184845 2000.99992752075 14 17 10
-195.656791329384 -659.699976444244 2035.00008583069 16 19 12
-192.737489938736 -668.789267539978 2062.99996376038 16 19 12
-472.169905900955 -649.421393871307 1988.9999628067 78 82 81
-462.547063827515 -643.555819988251 1970.99995613098 17 22 18
-454.413622617722 -639.649271965027 1958.99999141693 6 11 5
-444.511473178864 -633.130848407745 1939.00001049042 11 14 7
-434.264779090881 -625.959277153015 1917.00005531311 12 15 6
-427.047163248062 -623.032808303833 1907.99999237061 11 14 3
-420.983850955963 -621.739089488983 1904.00004386902 10 13 2
-417.999744415283 -625.017285346985 1914.00003433228 11 14 5
-409.785062074661 -620.458602905273 1899.99997615814 13 14 6
-401.859223842621 -616.226315498352 1886.99996471405 15 18 11
-395.475655794144 -614.280223846436 1881.00004196167 14 17 10
-389.954626560211 -613.640427589417 1878.99994850159 15 18 11
-387.311846017838 -617.573022842407 1891.00003242493 16 19 12
-382.38063454628 -617.913424968719 1891.99995994568 13 16 7
-380.833446979523 -623.806118965149 1909.9999666214 11 14 5
-375.451624393463 -623.493790626526 1909.00003910065 13 16 7
-371.044814586639 -624.814629554749 1912.99998760223 13 16 7
-369.102329015732 -630.381643772125 1929.99994754791 13 16 7
-369.706720113754 -640.521883964539 1960.99996566772 12 15 6
-363.267511129379 -638.577163219452 1955.00004291534 12 15 4
-352.283090353012 -628.466188907623 1924.00002479553 11 14 3
-350.125312805176 -634.034156799316 1940.99998474121 11 14 7
-348.407953977585 -640.582501888275 1960.99996566772 12 15 8
-341.683059930801 -637.984335422516 1952.99994945526 12 15 8
-338.273882865906 -641.593039035797 1963.99998664856 10 13 6
-334.296196699142 -644.221842288971 1972.00000286102 9 12 5
-330.608367919922 -647.504150867462 1981.99999332428 10 13 6
-324.896901845932 -646.866261959076 1980.00001907349 8 11 4
-322.584867477417 -653.089106082916 1998.99995326996 8 11 4
-320.169299840927 -659.312188625336 2017.99988746643 37 40 33
-316.090881824493 -662.268400192261 2026.99995040894 11 14 7
-309.051990509033 -659.016788005829 2016.99995994568 6 9 2
-301.766157150269 -655.1114320755 2005.00011444092 9 11 6
-297.057628631592 -656.760513782501 2009.99999046326 10 12 7
-292.031556367874 -657.756090164185 2013.00001144409 9 11 6
-284.995824098587 -654.176890850067 2002.00009346008 9 11 6
-278.438538312912 -651.577770709991 1993.99995803833 12 14 9
-272.472083568573 -650.285482406616 1990.00000953674 13 15 10
-268.003344535828 -652.587652206421 1996.99997901917 13 15 10
-262.970268726349 -653.582751750946 2000 13 15 10
-258.306920528412 -655.557990074158 2006.00004196167 13 15 10
-254.366934299469 -659.493982791901 2017.99988746643 13 15 10
-247.401505708694 -655.58660030365 2006.00004196167 13 15 10
-240.13914167881 -650.698363780975 1991.00005626678 13 16 9
-233.783259987831 -648.097455501556 1983.00004005432 13 16 9
-230.004459619522 -652.686595916748 1996.99997901917 13 16 9
-225.024685263634 -654.007375240326 2000.99992752075 14 17 10
-219.144985079765 -652.713239192963 1996.99997901917 14 17 10
-212.216570973396 -648.150265216827 1983.00004005432 14 17 10
-206.094056367874 -645.874917507172 1975.99995136261 15 18 11
-200.415685772896 -644.90669965744 1973.00004959106 15 18 11
-197.719126939774 -653.744339942932 2000 14 17 10
-195.740684866905 -665.524065494537 2036.00001335144 15 18 11
-193.285882472992 -676.323175430298 2069.00000572205 15 18 11
-194.787293672562 -723.746657371521 2213.99998664856 5 7 2
-463.943749666214 -650.873482227325 1976.99999809265 17 22 18
-453.24233174324 -643.312394618988 1953.9999961853 13 18 12
-444.041222333908 -637.726843357086 1937.00003623962 11 14 7
-435.611993074417 -633.129060268402 1922.99997806549 11 14 5
-430.16842007637 -632.811665534973 1922.00005054474 11 14 5
-423.624694347382 -630.848288536072 1916.00000858307 11 14 5
-416.240006685257 -627.567946910858 1906.00001811981 12 15 6
-409.340888261795 -624.946296215057 1898.00000190735 13 14 6
-403.762936592102 -624.300479888916 1896.00002765656 14 17 10
-398.405909538269 -623.984038829803 1894.99998092651 15 18 11
-391.394108533859 -621.033549308777 1886.0000371933 18 21 14
-386.27427816391 -621.046662330627 1886.0000371933 18 21 14
-384.18585062027 -625.999510288239 1901.00002288818 17 20 13
-381.018877029419 -629.306197166443 1911.00001335144 16 19 10
-374.847561120987 -627.673447132111 1906.00001811981 15 18 9
-368.50917339325 -625.711381435394 1899.99997615814 15 18 9
-365.454345941544 -629.34798002243 1911.00001335144 14 17 8
-368.3722615242 -643.523633480072 1953.9999961853 13 16 7
-363.25266957283 -643.867611885071 1955.00004291534 12 15 4
-355.930238962173 -640.259325504303 1944.00000572205 12 15 4
-351.373106241226 -641.591489315033 1947.99995422363 12 15 8
-346.616268157959 -642.594277858734 1950.99997520447 11 14 7
-341.493099927902 -642.938494682312 1952.00002193451 10 13 6
-341.014474630356 -652.176082134247 1980.00001907349 10 13 6
-339.196890592575 -659.108281135559 2000.99992752075 10 13 6
-332.594633102417 -656.81779384613 1993.99995803833 13 16 9
-326.030194759369 -654.527187347412 1986.99998855591 7 10 3
-322.56942987442 -658.495187759399 1998.99995326996 11 14 7
-319.995164871216 -664.440035820007 2016.99995994568 25 28 21
-315.607517957687 -666.76127910614 2023.9999294281 8 11 4
-308.576971292496 -663.482308387756 2013.99993896484 7 10 3
-300.697416067123 -658.226370811462 1998.00002574921 9 12 5
-296.599060297012 -661.206364631653 2006.99996948242 11 14 7
-291.871339082718 -662.868678569794 2012.00008392334 11 14 7
-285.834968090057 -661.565661430359 2007.99989700317 11 14 7
-277.86523103714 -655.650019645691 1990.00000953674 12 15 8
-272.731304168701 -656.323552131653 1991.99998378754 14 17 10
-267.452031373978 -656.667470932007 1993.00003051758 13 16 9
-263.481736183167 -660.30615568161 2003.99994850159 13 16 9
-257.906317710876 -659.990906715393 2003.00002098084 13 16 9
-254.10059094429 -664.288640022278 2016.00003242493 13 16 9
-246.770858764648 -659.359872341156 2000.99992752075 13 16 9
-239.6429926157 -654.760420322418 1986.99998855591 13 16 9
-233.180359005928 -651.808142662048 1978.00004482269 14 17 10
-229.991093277931 -658.082544803619 1996.99997901917 14 17 10
-224.449262022972 -657.766163349152 1996.00005149841 14 17 10
-219.131991267204 -658.108592033386 1996.99997901917 14 17 10
-211.989849805832 -652.848482131958 1980.99994659424 15 18 11
-207.228869199753 -654.83832359314 1986.99998855591 14 17 10
-203.044399619102 -658.805370330811 1998.99995326996 14 17 10
-199.288710951805 -664.420247077942 2016.00003242493 14 17 10
-196.882262825966 -674.978792667389 2048.00009727478 12 15 8
-196.356594562531 -692.788243293762 2101.99999809265 14 17 10
-196.534559130669 -736.318588256836 2233.99996757507 30 32 27
-460.88233590126 -651.917397975922 1963.99998664856 4 9 5
-447.896420955658 -640.973925590515 1930.99999427795 9 14 8
-439.216047525406 -636.005520820618 1916.00000858307 13 16 9
-434.014916419983 -636.016488075256 1916.00000858307 11 14 5
-430.828094482422 -639.015376567841 1924.99995231628 12 15 6
-426.265895366669 -640.022933483124 1927.99997329712 12 15 6
-423.871129751205 -644.350349903107 1940.99998474121 12 15 6
-413.64187002182 -636.727154254913 1917.99998283386 13 14 6
-408.009380102158 -636.075556278229 1916.00000858307 14 17 10
-401.336491107941 -633.764088153839 1909.00003910065 16 19 12
-389.721065759659 -623.484969139099 1878.00002098084 17 20 13
-383.803576231003 -622.169613838196 1873.99995326996 17 20 13
-381.14121556282 -626.166522502899 1886.0000371933 17 20 11
-380.407243967056 -633.483827114105 1907.99999237061 18 21 12
-375.620573759079 -634.161293506622 1909.9999666214 17 20 11
-368.883401155472 -631.518542766571 1901.99995040894 16 19 10
-371.17737531662 -644.481539726257 1940.99998474121 15 18 9
-368.734955787659 -649.476170539856 1955.9999704361 14 17 8
-364.538848400116 -651.482701301575 1962.00001239777 13 16 5
-357.929736375809 -649.172484874725 1955.00004291534 13 16 5
-352.801501750946 -649.51890707016 1955.9999704361 13 16 9
-345.358103513718 -645.548462867737 1944.00000572205 11 14 7
-342.52804517746 -650.211930274963 1957.99994468689 10 13 6
-342.032849788666 -659.524917602539 1985.99994182587 10 13 6
-338.334321975708 -662.860751152039 1996.00005149841 11 14 7
-333.413571119308 -663.871824741364 1998.99995326996 12 15 8
-326.179295778275 -660.233557224274 1988.00003528595 9 12 5
-322.393089532852 -663.569450378418 1998.00002574921 12 15 8
-320.13863325119 -670.226752758026 2017.99988746643 16 19 12
-315.280556678772 -671.570301055908 2022.0000743866 10 13 6
-309.021532535553 -669.92449760437 2016.99995994568 9 12 5
-302.93995141983 -668.610811233521 2013.00001144409 9 12 5
-297.323107719421 -668.293476104736 2012.00008392334 12 15 8
-292.291730642319 -669.304668903351 2015.00010490417 12 15 8
-285.962641239166 -667.326271533966 2009.0000629425 11 14 7
-279.107391834259 -664.018988609314 1998.99995326996 13 16 9
-274.086028337479 -665.029942989349 2002.00009346008 14 17 10
-269.987344741821 -668.365955352783 2012.00008392334 14 17 10
-265.04522562027 -669.708967208862 2016.00003242493 14 17 10
-259.437322616577 -669.390797615051 2015.00010490417 14 17 10
-253.708511590958 -668.740272521973 2013.00001144409 14 17 10
-247.12710082531 -665.764033794403 2003.99994850159 14 17 10
-240.714907646179 -663.119792938232 1996.00005149841 14 17 10
-234.817460179329 -661.80419921875 1991.99998378754 14 17 10
-230.668902397156 -665.471851825714 2003.00002098084 14 17 10
-226.572722196579 -669.471859931946 2015.00010490417 14 17 10
-219.228968024254 -663.836359977722 1998.00002574921 15 18 11
-213.475495576859 -662.852108478546 1995.00000476837 15 18 11
-209.823772311211 -668.513000011444 2012.00008392334 13 16 9
-204.962059855461 -670.518696308136 2017.99988746643 14 17 10
-200.660586357117 -674.518048763275 2029.99997138977 14 17 10
-196.678072214127 -679.846346378326 2046.0000038147 11 14 7
-197.558909654617 -702.785849571228 2115.00000953674 13 16 9
-456.178992986679 -650.548934936523 1944.00000572205 6 10 9
-446.030586957932 -643.531203269959 1922.99997806549 13 18 14
-435.589700937271 -643.551766872406 1922.99997806549 10 13 6
-431.71215057373 -645.570576190948 1929.00002002716 11 14 5
-426.475495100021 -645.581662654877 1929.00002002716 12 15 6
-423.640936613083 -649.274528026581 1940.00005722046 12 15 6
-416.217803955078 -645.939350128174 1929.99994754791 13 14 6
-408.848971128464 -642.604351043701 1919.99995708466 13 16 9
-400.903671979904 -638.265311717987 1906.99994564056 14 17 10
-390.331268310547 -629.575192928314 1881.00004196167 14 17 10
-381.947964429855 -624.232113361359 1865.00000953674 13 16 9
-378.299295902252 -626.587390899658 1871.99997901917 17 20 11
-377.204298973084 -633.294343948364 1891.99995994568 19 22 13
-373.837500810623 -636.319696903229 1901.00002288818 19 22 13
-373.136758804321 -644.031643867493 1924.00002479553 18 21 12
-370.207518339157 -648.061811923981 1935.99998950958 17 20 11
-366.835981607437 -651.42285823822 1945.99997997284 16 19 10
-362.666815519333 -653.44500541687 1952.00002193451 14 17 6
-357.549488544464 -653.793632984161 1952.99994945526 14 17 6
-350.262254476547 -650.125086307526 1942.00003147125 12 15 8
-349.785089492798 -659.177958965302 1968.99998188019 13 16 9
-341.988980770111 -654.50519323349 1955.00004291534 13 16 9
-343.051582574844 -666.906595230103 1991.99998378754 11 14 7
-339.336603879929 -670.269072055817 2002.00009346008 10 13 6
-333.398848772049 -669.279098510742 1998.99995326996 8 11 4
-327.313154935837 -667.954385280609 1995.00000476837 12 15 8
-323.023825883865 -670.312583446503 2002.00009346008 11 14 7
-319.013386964798 -673.340559005737 2010.99991798401 3 6 0
-314.330250024796 -675.029337406158 2016.00003242493 13 16 9
-309.926003217697 -677.387714385986 2023.00000190735 12 15 8
-303.226292133331 -674.723505973816 2015.00010490417 9 12 5
-297.308593988419 -673.733472824097 2012.00008392334 12 15 8
-291.261821985245 -672.408282756805 2007.99989700317 13 16 9
-285.236537456512 -671.083092689514 2003.99994850159 12 15 8
-279.093146324158 -669.422805309296 1998.99995326996 13 16 9
-274.345636367798 -671.111285686493 2003.99994850159 14 17 10
-269.302368164063 -672.129929065704 2006.99996948242 14 17 10
-265.425622463226 -676.162540912628 2019.00005340576 14 17 10
-258.779734373093 -673.162221908569 2009.99999046326 14 17 10
-253.694862127304 -674.180567264557 2013.00001144409 14 17 10
-247.360274195671 -671.849608421326 2006.00004196167 14 17 10
-241.425231099129 -670.523226261139 2002.00009346008 14 17 10
-235.629513859749 -669.531404972076 1998.99995326996 14 17 10
-231.116563081741 -672.223806381226 2006.99996948242 14 17 10
-224.536001682281 -668.887138366699 1996.99997901917 15 18 11
-219.216451048851 -669.23463344574 1998.00002574921 15 18 11
-213.356181979179 -667.907118797302 1993.99995803833 15 18 11
-210.228696465492 -675.288498401642 2016.00003242493 13 16 9
-206.168800592422 -679.989993572235 2029.99997138977 14 17 10
-200.154528021812 -678.327023983002 2025.00009536743 14 17 10
-199.934527277946 -696.762561798096 2079.99992370605 12 15 8
-459.924012422562 -661.217510700226 1960.00003814697 10 14 13
-451.12356543541 -656.16649389267 1945.00005245209 10 15 11
-444.696962833405 -654.489398002625 1940.00005722046 10 13 6
-438.750505447388 -653.487205505371 1937.00003623962 12 15 8
-433.491826057434 -653.497517108917 1937.00003623962 10 13 4
-428.896397352219 -654.520273208618 1940.00005722046 11 14 5
-422.101050615311 -652.169406414032 1932.99996852875 12 15 8
-415.990650653839 -650.830984115601 1929.00002002716 13 14 8
-408.198535442352 -646.79354429245 1917.00005531311 16 19 12
-402.363449335098 -645.792901515961 1914.00003433228 14 17 10
-392.60196685791 -638.381540775299 1891.99995994568 12 15 8
-383.369505405426 -631.645023822784 1871.99997901917 12 15 8
-376.872539520264 -629.294812679291 1865.00000953674 17 20 11
-372.805863618851 -630.994021892548 1870.00000476837 19 22 13
-371.464997529984 -637.417495250702 1889.00005817413 19 22 13
-368.663311004639 -641.479313373566 1901.00002288818 18 21 12
-367.32605099678 -648.240983486176 1921.0000038147 17 20 11
-363.806515932083 -651.291012763977 1929.99994754791 16 19 10
-361.352771520615 -656.366169452667 1945.00005245209 15 18 7
-357.718914747238 -659.416735172272 1953.9999961853 14 17 6
-351.511090993881 -657.742857933044 1949.00000095367 13 16 9
-341.599762439728 -648.981809616089 1922.99997806549 13 16 9
-343.899220228195 -663.507282733917 1965.99996089935 13 16 9
-340.109884738922 -666.558623313904 1975.00002384186 12 15 8
-336.779952049255 -670.622646808624 1986.99998855591 9 12 5
-333.551347255707 -675.024271011353 2000 10 13 6
-328.611314296722 -676.050961017609 2003.00002098084 11 14 7
-324.300229549408 -678.427815437317 2009.99999046326 10 13 6
-319.950789213181 -680.804789066315 2016.99995994568 7 10 3
-315.095365047455 -682.169079780579 2020.99990844727 7 10 3
-310.677587985992 -684.546291828156 2028.00011634827 9 12 5
-305.017679929733 -684.222877025604 2026.99995040894 11 14 7
-295.521199703217 -675.122976303101 2000 11 14 7
-291.102647781372 -677.499830722809 2006.99996948242 11 14 7
-285.79181432724 -677.851319313049 2007.99989700317 12 15 8
-279.916942119598 -676.852524280548 2005.00011444092 13 16 9
-274.058043956757 -675.853550434113 2002.00009346008 14 17 10
-268.617749214172 -675.867080688477 2002.00009346008 15 18 11
-263.965845108032 -677.906215190887 2007.99989700317 14 17 10
-259.409934282303 -680.283010005951 2015.00010490417 14 17 10
-254.059463739395 -680.633902549744 2016.00003242493 14 17 10
-246.607214212418 -675.24516582489 2000 15 18 11
-239.603385329247 -670.868933200836 1986.99998855591 16 19 12
-234.320148825645 -671.219348907471 1988.00003528595 16 19 12
-228.800877928734 -670.894205570221 1986.99998855591 16 19 12
-224.523529410362 -674.283087253571 1996.99997901917 15 18 11
-218.326464295387 -671.931803226471 1990.00000953674 14 17 10
-214.521035552025 -677.008748054504 2005.00011444092 14 17 10
-211.467996239662 -684.786975383759 2028.00011634827 13 16 9
-205.649167299271 -683.785796165466 2025.00009536743 12 15 8
-203.107997775078 -693.927764892578 2055.0000667572 14 17 10
-204.24810051918 -717.577159404755 2125 10 13 6
-465.546697378159 -674.693942070007 1983.99996757507 11 15 14
-455.753058195114 -668.241500854492 1965.0000333786 5 10 6
-450.417906045914 -668.250620365143 1965.0000333786 12 14 9
-442.138254642487 -663.839161396027 1952.00002193451 13 16 9
-434.600621461868 -660.44807434082 1942.00003147125 11 14 7
-428.664892911911 -659.437894821167 1939.00001049042 12 15 8
-421.653598546982 -656.727373600006 1930.99999427795 13 16 9
-415.117114782333 -654.697358608246 1924.99995231628 13 14 8
-407.761484384537 -651.307106018066 1914.99996185303 13 16 9
-403.192907571793 -652.33838558197 1917.99998283386 13 16 9
-395.495533943176 -648.268163204193 1906.00001811981 13 16 9
-387.863248586655 -644.19811964035 1894.00005340576 13 16 9
-377.062946557999 -634.685933589935 1866.00005626678 16 19 10
-373.392045497894 -637.078464031219 1873.00002574921 17 20 11
-367.716670036316 -636.069715023041 1870.00000476837 19 22 13
-364.190608263016 -638.802826404572 1878.00002098084 18 21 12
-361.959517002106 -643.917262554169 1893.00000667572 18 21 12
-360.400766134262 -650.392711162567 1911.99994087219 16 19 10
-357.624113559723 -654.827535152435 1924.99995231628 16 19 8
-355.142802000046 -659.942984580994 1940.00005722046 16 19 8
-348.972886800766 -658.254981040955 1934.99994277954 14 17 10
-342.2971367836 -655.546545982361 1927.00004577637 13 16 9
-333.390682935715 -648.415446281433 1906.00001811981 13 16 9
-337.340980768204 -666.459143161774 1958.99999141693 12 15 8
-336.427181959152 -675.31806230545 1985.00001430511 11 14 7
-334.538012742996 -682.476222515106 2006.00004196167 9 12 5
-329.417616128922 -683.170437812805 2007.99989700317 12 15 8
-324.608862400055 -684.54521894455 2012.00008392334 12 15 8
-320.412576198578 -687.280893325806 2019.99998092651 8 11 4
-315.54901599884 -688.655734062195 2023.9999294281 8 11 4
-309.591144323349 -687.648892402649 2020.99990844727 10 13 6
-303.348481655121 -685.961544513702 2016.00003242493 11 14 7
-296.984881162643 -683.933615684509 2009.99999046326 11 14 7
-291.088849306107 -682.926535606384 2006.99996948242 11 14 7
-285.778075456619 -683.280348777771 2007.99989700317 12 15 8
-279.344856739044 -680.911898612976 2000.99992752075 14 17 10
-272.949427366257 -678.543269634247 1993.99995803833 15 18 11
-266.457617282867 -675.834119319916 1985.99994182587 14 17 10
-262.375116348267 -679.250299930573 1996.00005149841 14 17 10
-258.238047361374 -682.666420936584 2006.00004196167 13 16 9
-252.660155296326 -682.339191436768 2005.00011444092 13 16 9
-244.621559977531 -675.205171108246 1983.99996757507 13 16 9
-237.902626395226 -671.474099159241 1973.00004959106 15 18 11
-232.421845197678 -671.146094799042 1972.00000286102 15 18 11
-227.637112140656 -672.860026359558 1976.99999809265 16 19 12
-223.274603486061 -675.935208797455 1985.99994182587 15 18 11
-220.508560538292 -684.115767478943 2009.99999046326 14 17 10
-215.258046984673 -684.808433055878 2012.00008392334 13 16 9
-210.413455963135 -686.862289905548 2017.99988746643 10 13 6
-207.059249281883 -694.021761417389 2039.00003433228 11 14 7
-205.962538719177 -709.350287914276 2084.00011062622 13 16 9
-204.716950654984 -725.019574165344 2130.00011444092 10 13 6
-472.108393907547 -689.672410488129 2012.00008392334 119 123 124
-460.846811532974 -681.111216545105 1986.99998855591 8 13 9
-454.993158578873 -680.434346199036 1985.00001430511 13 15 12
-444.167375564575 -672.216296195984 1960.99996566772 13 16 9
-435.038596391678 -666.398048400879 1944.00000572205 12 15 8
-427.328526973724 -662.636637687683 1932.99996852875 12 15 8
-422.080159187317 -662.646353244781 1932.99996852875 14 17 10
-417.694389820099 -664.027690887451 1937.00003623962 14 15 9
-410.731852054596 -661.295473575592 1929.00002002716 12 15 8
-405.70455789566 -661.648809909821 1929.99994754791 12 15 8
