ply
format ascii 1.0
comment KinectMotionCapture
element vertex 777
property float x
property float y
property float z
property uchar red
property uchar green
property uchar blue
end_header
-19.588395901057 -217.158810097846 1892.25800055119 22 25 16
-30.5043524105706 -218.143203386458 1893.19932230277 20 23 12
-18.7862641981849 -217.228813953769 1904.82185654155 20 21 13
-15.5479428497121 -217.025272966411 1912.40964013607 20 21 13
-19.8632847772275 -217.455707847602 1916.47094372567 20 21 13
-30.8041593827761 -218.442751972913 1917.5031078845 20 21 13
-36.0803468644151 -218.954250812006 1921.18248472741 20 21 13
-39.4675243115283 -219.307098358629 1925.74300048212 19 20 12
-44.7540154679384 -219.819615569993 1929.45998990305 16 17 9
-55.7385309975524 -220.811706986169 1930.65099766432 17 18 10
-47.7487784648045 -220.20693124434 1940.33442711219 18 19 11
-50.1964267903285 -220.480357181315 1945.35311841196 19 20 12
-52.6456269308064 -220.753789294255 1950.37756739732 19 20 12
-73.1767278985735 -222.551161258427 1947.53877291944 19 20 12
-101.355332717224 -224.994445509783 1941.5125160241 15 18 11
-111.466428057377 -225.915230412762 1943.40295441386 13 16 9
-113.006999695908 -226.113103559048 1948.99786821808 13 16 9
-119.320127235442 -226.713614843705 1952.57468207869 14 17 8
-112.267753146403 -226.185354720706 1961.79378562654 13 16 7
-120.497108663397 -226.947563930221 1964.59045002371 14 17 10
-98.1247422496803 -225.123246735203 1980.09252953088 16 19 12
-139.858619118783 -228.71766179328 1969.11537579922 17 19 14
-170.581630069219 -234.046035478574 1666.78014826091 33 38 31
-161.084976523734 -233.301492443232 1678.75056113629 26 31 24
-154.35404497438 -232.794003099406 1689.15000425034 20 27 19
-160.606866502981 -233.402096824237 1692.49812655625 21 27 17
-138.995894490059 -231.614722572361 1710.8047194265 20 23 12
-147.101150353053 -232.382104078549 1713.1373606139 19 22 13
-145.912156720033 -232.3503330202 1720.43188002665 18 21 12
-138.200322953979 -231.756853440415 1731.14096460181 18 21 12
-131.406547418668 -231.241973205843 1741.31081751209 16 19 10
-129.262946606739 -231.127253064007 1749.01068668311 15 18 9
-118.713707551171 -230.287786694346 1761.02930586896 13 16 7
-135.233152555031 -231.781603716137 1759.07480734164 15 18 11
-150.841194530056 -233.197858520862 1757.68080808358 14 17 10
-145.890223598411 -232.841036808394 1766.80020266249 13 16 9
-100.672785557391 -229.007706680665 1796.16683610884 17 20 13
-46.0143633643297 -224.355957010764 1829.96457296798 30 33 26
-25.9626036526297 -222.690195994648 1846.18986549383 31 34 27
-20.8916499830054 -222.317706920939 1854.87367923428 30 33 26
-13.9327674606857 -221.781478349157 1864.44400048441 26 29 20
-9.78026523731135 -221.48747507293 1872.5919722252 25 28 19
-2.79772548868995 -220.948113197044 1882.07736605744 24 27 18
1.37391372097539 -220.651434501597 1890.15597503851 22 25 16
-5.74935423740408 -221.332462003957 1892.79352738206 21 24 15
-13.8239332911025 -222.096180051121 1895.01458450528 22 25 16
-31.342448718551 -223.678666216702 1892.81620818601 21 24 13
-22.4509857453195 -222.972501308413 1903.11209569499 22 23 15
-26.7711681204492 -223.41140287063 1907.1850964762 22 23 15
-27.3137169548805 -223.522569423139 1913.02560960437 21 22 14
-37.3172062932225 -224.454766675693 1914.50932283954 20 21 13
-36.917405175664 -224.484048018807 1920.79909371026 19 20 12
-36.5146504685032 -224.512821602402 1927.07914807697 16 17 9
-42.7481557068321 -225.117872572241 1930.3574738192 18 19 11
-52.7851975738869 -226.053777043159 1931.96342047375 18 19 11
-59.9859718081217 -226.743421935114 1934.88329786007 18 19 11
-47.2338239753323 -225.697548295027 1946.64590402799 18 19 11
-53.4855619090087 -226.304368505848 1949.9917362109 18 19 11
-81.6407478930294 -228.817787676301 1943.83425025623 18 19 11
-104.119750774271 -230.838518274997 1940.2939760873 15 18 11
-107.562049902701 -231.202008495594 1945.05149959148 13 16 9
-114.823897116362 -231.898196885138 1948.19399775861 13 16 9
-124.004097458639 -232.761759025032 1950.56065331293 14 17 8
-132.240408973665 -233.543257976919 1953.37096543395 13 16 7
-138.574373867171 -234.158887812588 1957.01559924422 11 14 7
-123.860951765206 -232.937852961538 1969.40053585981 18 21 14
-119.658336744682 -232.6332015128 1977.36917130531 4 6 1
-162.230482823043 -239.266217725975 1671.44421643529 34 37 30
-144.376243202911 -237.748127758333 1687.94259782105 27 32 25
-132.06028441614 -236.720525678184 1701.31315271967 23 28 21
-112.293062344341 -235.030657429429 1718.61009777926 21 27 17
-129.670243684424 -236.638504939118 1715.87096386935 21 24 13
-135.910060680206 -237.258099200739 1719.16447107935 19 22 13
-130.056103436922 -236.803264511044 1728.88945511068 16 19 10
-126.985571846225 -236.59538725891 1737.10294688049 16 19 10
-140.689055106128 -237.87944025582 1736.51565851067 16 19 10
-134.818280718326 -237.422660579356 1746.1794317433 15 18 9
-135.472259265722 -237.546194637232 1752.42585336064 13 16 7
-132.386942270701 -237.336787815476 1760.58634453475 11 14 7
-148.933260200576 -238.875701857625 1758.70221899448 13 16 9
-142.105435964269 -238.333033336555 1768.76412884319 11 14 7
-109.976618914406 -235.534764614698 1791.52056167458 10 13 6
-31.8678086354125 -228.634666561591 1837.08467692989 31 34 27
-19.2994885786428 -227.57534305563 1849.53922016461 31 34 27
-17.9749103685136 -227.518366645516 1856.34718297851 35 38 31
-11.9489131535684 -227.041612849885 1865.44725488999 25 28 19
-9.67203997921606 -226.899066455704 1872.67080696152 27 30 21
-4.56704736347002 -226.503750996624 1881.24265215123 25 28 19
-1.33546889464209 -226.275226044734 1888.87124430359 24 27 18
-4.6929833030056 -226.635329695857 1893.3170458847 21 24 15
-16.5413428787946 -227.754635528453 1893.73777135106 21 24 15
-35.955740714581 -229.551279724147 1890.64965687117 21 24 13
-35.5629808931992 -229.576645720991 1896.96897166172 22 25 16
-39.8936618318961 -230.02461772427 1901.07522495015 21 24 15
-34.7694536217997 -229.626155623394 1909.57771302909 19 22 13
-38.1550112267277 -229.989271544701 1914.12573171303 18 21 12
-33.9647085972559 -229.673624310531 1922.14702281663 17 20 11
-37.3507421166528 -230.03649930469 1926.69603156399 16 19 10
-50.2278212553768 -231.250278911407 1926.9802249645 17 20 11
-63.1220427827626 -232.466106024457 1927.32770102849 17 20 11
-57.0290203309136 -231.979116470378 1936.18538369397 18 21 12
-53.7772875664773 -231.746361419544 1943.74274658239 18 21 12
-59.0838879491198 -232.281480368076 1947.52012806539 18 21 12
-74.8724509577752 -233.757959384255 1946.7592746322 18 21 12
-90.6829204989363 -235.236964863287 1946.07723176176 16 19 12
-109.376360057027 -236.975776347013 1944.24610245428 15 18 11
-117.595762218156 -237.773747127715 1946.98323400803 14 17 10
-131.557029558458 -239.088300200902 1947.33286223045 14 17 8
-138.84516446908 -239.802952521422 1950.56130430473 14 17 8
-139.445068293368 -239.915842321421 1956.61367730071 12 15 8
-138.128697991165 -239.856002614778 1963.45392220357 16 19 12
-155.013030588511 -241.434414106454 1962.79984225262 13 15 10
-129.769974241177 -242.227022640456 1689.33316601548 30 33 26
-151.771921138493 -244.301468986486 1683.98776316786 31 33 28
-125.528825934053 -241.958955563248 1704.92920725416 25 30 24
-125.258240012641 -241.994343030798 1711.69487373538 17 22 15
-135.212798870342 -242.966921045794 1712.97142338659 21 24 13
-138.666760495118 -243.344179867311 1717.76355468009 20 23 14
-130.017185788287 -242.611690133867 1728.97414602987 18 21 12
-148.379366629329 -244.356554483735 1725.90929656814 17 20 11
-151.844431522367 -244.735559584852 1730.74154961099 16 19 10
-157.17919851279 -245.286478587083 1734.61446188392 17 20 11
-136.364106622466 -243.436609772385 1752.01820804968 17 20 11
-145.429898322748 -244.330033712127 1753.94123356263 13 16 9
-147.958306032625 -244.62314006005 1759.24734344689 11 14 7
-147.679623590479 -244.65857315325 1765.98292032786 10 13 6
-128.657871791527 -242.970689030716 1782.15007734465 11 14 7
-40.2133156040514 -234.897413780264 1832.94351677556 29 32 25
-31.3986197140177 -234.144151731701 1843.5541600873 30 33 26
-31.0205020229886 -234.166589852448 1849.92968674576 33 36 29
-16.5416364094739 -232.890943181796 1863.21996467508 24 27 18
-12.3849530133853 -232.564800347507 1871.3727037755 24 27 18
-7.2785374067601 -232.150892832365 1879.95100372986 23 26 17
-6.87221235926017 -232.169433201087 1886.22426283881 22 25 16
-9.29164137000504 -232.448368788352 1891.13377382638 21 24 15
-19.2600229691668 -233.423296435583 1892.46016117266 22 25 16
-31.1301156911536 -234.573941246287 1892.94179176111 23 26 15
-36.4016426236924 -235.116333125625 1896.58528967281 22 25 16
-39.7879347604504 -235.4848991369 1901.13166560548 21 24 15
-38.4454306486408 -235.416953481857 1907.87999846682 19 22 13
-38.9927129292882 -235.523244576978 1913.74209308413 18 21 12
-36.6955780854932 -235.366621104237 1920.89837605616 17 20 11
-37.2383092880906 -235.472089875414 1926.74316356244 16 19 10
-47.2718024063217 -236.454425325225 1928.30569129626 17 20 11
-49.7187993164032 -236.735689918887 1933.31701510069 17 20 11
-55.0193167542874 -237.280741498242 1937.06646988141 18 21 12
-62.2285005081453 -238.002437313748 1939.99733489062 18 21 12
-67.5421793524991 -238.548895542715 1943.79476730907 18 21 12
-70.0032849778314 -238.831214215821 1948.85780851741 18 21 12
-81.0476896692345 -239.908101213403 1950.21763750745 16 19 12
-92.1066001943105 -240.986723649505 1951.63022814982 15 18 11
-102.225086885571 -241.978426899439 1953.50240602343 14 17 8
-118.090730515928 -243.502979153418 1952.99645788304 14 17 8
-122.501207989421 -243.966187729647 1957.38936049096 14 17 8
-128.830193426765 -244.607185914825 1961.00041933111 10 13 6
-124.630381051091 -244.271664752574 1968.9989499687 17 20 13
-151.09579162557 -246.780424390946 1964.36417068103 15 17 12
-202.073219851636 -254.883495614012 1649.75227434996 29 32 25
-135.043063218353 -248.614466637877 1693.18852396201 29 31 26
-140.353550522087 -249.17141583152 1696.96748336978 23 28 22
-131.727168039247 -248.412667430652 1708.28076124964 16 21 14
-128.666385513058 -248.17912123623 1716.54758443409 20 23 12
-132.115425338081 -248.560778737004 1721.31866495394 20 23 14
-133.703989406051 -248.766801935272 1727.08661972624 19 22 13
-163.264321374766 -251.617399175909 1718.1406480611 18 21 12
-166.740733725206 -252.002922779781 1723.01184557036 17 20 11
-135.668957818151 -249.120547615189 1745.84871598872 17 20 11
-138.190339452521 -249.415094251795 1751.12783010883 17 20 11
-139.778099209614 -249.621544325048 1756.89252912597 14 17 10
-142.301882754701 -249.916542053811 1762.18027627383 11 14 7
-143.890581620287 -250.123100739653 1767.94839344445 11 14 7
-118.294770088291 -247.754514046571 1787.41228683325 13 16 9
-71.0803547325303 -243.335911247085 1817.52761522344 28 31 24
-48.2014004393114 -241.221320589808 1835.22934609736 30 33 26
-35.6203533938699 -240.081789547421 1847.68727535715 33 36 29
-23.958351577025 -239.028662069093 1859.60563932892 24 27 18
-13.217281835304 -238.06216351511 1870.99223024584 24 27 18
-13.7583342949792 -238.165647373032 1876.83203807899 22 25 16
-18.0677644704579 -238.626643013296 1880.85116900604 22 25 16
-19.5521335672419 -238.819575747553 1886.24053290567 21 24 15
-27.6436846440438 -239.639903703796 1888.48886329122 22 25 16
-25.3550369807394 -239.4743837623 1895.6822742656 22 25 14
-29.6776293005623 -239.936793274574 1899.75031003262 21 24 15
-35.8970324140788 -240.579667711134 1902.95239759256 21 24 15
-40.2301495853832 -241.043171805207 1907.05788998616 19 22 13
-43.620320080094 -241.417212044332 1911.61520936088 18 21 12
-45.117045941832 -241.610996236229 1917.04991394115 18 21 12
-43.7671825631796 -241.53376555152 1923.77678536874 17 20 11
-40.5138275103034 -241.275059062679 1931.34450939753 17 20 11
-42.9554208762235 -241.558240430855 1936.33456075047 17 20 11
-58.7134079140739 -243.109391745272 1935.41211152794 18 21 12
-77.3481636165201 -244.935113240913 1933.30823013446 18 21 12
-53.1472020473442 -242.679997677473 1950.08664755258 18 21 12
-58.456784322261 -243.236033470479 1953.86282343907 18 21 12
-69.4958063445585 -244.338235046921 1955.18668533384 16 19 12
-79.5947346825563 -245.351071665645 1956.9729043724 15 18 11
-90.6619921450935 -246.456481045398 1958.39957368371 14 17 8
-108.436282041287 -248.202104711572 1957.04784135893 14 17 8
-123.364910332397 -249.676640350552 1956.9908371705 14 17 8
-124.908345367893 -249.873804867888 1962.59682959766 9 12 5
-137.950589963126 -251.16873493016 1963.44394483978 15 18 11
-213.205551226222 -261.998978037335 1643.72885544742 32 35 28
-134.082859790364 -254.360318152538 1693.78941677243 28 30 25
-141.252040832899 -255.10817694328 1696.55524162191 24 26 21
-164.238595898567 -257.394857345761 1690.83425304601 21 24 17
-135.142338027686 -254.616107869319 1713.14777013852 20 23 12
-155.360818278482 -256.634615210026 1709.00866291037 20 23 14
-164.423079867454 -257.568356183354 1710.89312774752 19 22 13
-164.169296100966 -257.595635551292 1717.72629636647 18 21 12
-146.17579852284 -255.895419085472 1733.82262538452 17 20 11
-141.23163918206 -255.465386415306 1743.01353163131 16 19 10
-125.993264197233 -254.032242249844 1757.47965618212 18 21 14
-133.184961138487 -254.784207043019 1760.32648583556 16 19 12
-137.576230886935 -255.263506097167 1764.63791523958 14 17 10
-140.097649180041 -255.560771994111 1769.91544866777 13 16 9
-116.362023915933 -253.297202724833 1788.42690581047 15 18 11
-84.1409798786459 -250.204692257312 1811.02668674802 28 31 24
-46.2328826398743 -246.555552361006 1836.24276081255 31 34 27
-36.4635217071876 -245.650881358453 1847.30176102415 34 37 30
-18.211107815967 -243.917477872484 1862.45680804256 25 28 19
-13.1081930244203 -243.467235816768 1871.07104556395 24 27 18
-13.6478670317919 -243.567794599887 1876.90851123547 23 26 17
-18.9007284833997 -244.128643189132 1880.4701262519 22 25 16
-26.0461942363348 -244.874632821154 1883.15000999063 22 25 16
-26.5907653880195 -244.975577547231 1889.00448511249 21 24 15
-19.5739850822683 -244.337114327034 1898.42531786786 21 24 13
-19.1645444468969 -244.344369376711 1904.69320534683 21 24 15
-32.0019900065334 -245.64721162565 1904.77494656885 20 23 14
-42.9628788174199 -246.766999877011 1905.79668283497 19 22 13
-43.5114056891512 -246.868004874163 1911.66673574056 18 21 12
-45.9560918950939 -247.154425127437 1916.66529631733 18 21 12
-51.2500115895613 -247.719856145438 1920.37738845918 17 20 11
-45.1495436029079 -247.16922054358 1929.24853911838 17 20 11
-47.5945782987444 -247.455276736684 1934.24862341835 17 20 11
-68.1185494928223 -249.51275491388 1931.21914004199 18 21 12
-66.7714894199551 -249.427299019003 1937.96161256162 18 21 12
-58.7500312093967 -248.687264508968 1947.61272034729 18 21 12
-61.2039116157992 -248.973773225793 1952.6462903596 18 21 12
-67.476808422732 -249.634618819824 1956.03564347069 16 19 12
-53.7009494939182 -248.328721644393 1968.05882563556 15 18 11
-80.0442625595021 -250.958648993434 1962.89422327853 14 17 8
-106.4250727313 -253.593144135696 1957.86595646211 14 17 8
-113.699136035993 -254.352735856261 1961.01471005946 14 17 8
-124.81378146549 -255.489505236143 1962.59752254193 12 15 8
-157.033000417954 -258.699174631094 1955.50320796815 13 16 9
-173.948606767673 -260.406671698753 1954.88374345532 15 17 12
-177.009298950864 -264.438761113826 1663.66380637424 36 38 33
-150.769996358143 -261.860826133614 1684.76796453112 28 30 25
-149.587222737334 -261.788940746424 1692.11183273985 25 27 24
-172.588777305803 -264.137317434513 1686.40758257314 25 27 22
-180.72669847853 -264.998996788168 1688.80196892901 21 24 13
-166.512552455672 -263.623240908254 1703.13830252875 20 23 14
-169.991255010479 -264.018784769426 1708.01074782956 18 21 12
-144.543812228582 -261.517114406663 1728.11045639251 18 21 12
-146.138355337257 -261.723655811669 1733.90028300249 19 22 13
-135.582826228346 -260.712704501807 1746.00381506698 19 22 13
-126.879574226829 -259.887068296375 1757.07392094819 20 23 16
-130.329246916565 -260.279435144885 1761.84151887167 21 24 17
-139.402850629263 -261.235796554236 1763.75288440961 21 24 17
-145.675308995882 -261.911675606651 1767.13204736163 15 18 11
-133.191032087358 -260.706095706594 1779.99003594188 13 16 9
-85.0058467496222 -255.917474684714 1810.63101617392 26 29 22
-47.0808075784102 -252.1563303865 1835.8549018797 31 34 27
-19.4395823253277 -249.425920003209 1855.74751036212 33 36 29
-15.2813860559811 -249.05216885008 1863.92376083833 25 28 19
-11.1144920106063 -248.677303359974 1872.06935073341 22 25 16
-14.4791455345266 -249.058739755756 1876.52819007316 21 24 15
-20.6767573053941 -249.724915493325 1879.6346594272 22 25 16
-27.8255481071645 -250.48687947349 1882.31587403091 22 25 16
-27.4255569832125 -250.490093334254 1888.62232611136 22 25 16
-21.350656646123 -249.922651514579 1897.59808598587 21 24 13
-20.9408681706535 -249.924501197119 1903.86902369107 20 23 14
-34.7308097770485 -251.354528490844 1903.50964866473 20 23 14
-52.3296493532217 -253.168185269299 1901.46355114354 19 22 13
-46.2466051233721 -252.599339436584 1910.40996076072 19 22 13
-53.4378669865811 -253.366099874369 1913.24583385921 18 21 12
-64.4365974797792 -254.516266720201 1914.38981844328 18 21 12
-63.0943808852065 -254.424034665597 1921.15455196104 17 20 11
-58.8945432040369 -254.04368385399 1929.18129173803 17 20 11
-68.9641105243028 -255.100493168383 1930.83073701431 18 21 12
-77.1414761494795 -255.966850002789 1933.36861977475 18 21 12
-83.4223274373112 -256.642024513008 1936.77938880933 18 21 12
-72.5384448702502 -255.587032014011 1947.69161414048 18 21 12
-64.5001716318219 -254.818249154651 1957.29844122609 16 19 12
-63.1357380740345 -254.721887904603 1963.98329447169 15 18 11
-86.6273892972917 -257.132261227328 1960.05953569831 14 17 8
-103.454067283221 -258.87100732362 1959.09016859945 14 17 8
-106.897447635881 -259.259635442308 1963.83583572441 14 17 8
-118.010294161429 -260.422191647786 1965.39568877737 15 18 11
-149.277350896007 -263.619323134938 1958.67134769269 12 15 8
-183.468599886213 -267.112612128644 1950.92616178367 16 18 13
-174.209786508039 -270.102921198335 1665.27992176825 34 36 31
-165.612248954955 -269.260512666561 1676.75311384584 28 30 25
-160.719015871059 -268.798937248324 1686.15301374301 25 27 24
-180.945550360902 -270.922066781334 1681.97775735067 24 26 21
-175.120196700928 -270.364950405625 1691.87444520522 21 24 15
-162.758609703838 -269.13497225472 1705.20336115838 20 23 14
-148.509776273845 -267.710262347459 1719.44181422406 18 21 12
-147.306982637712 -267.62843638133 1726.71762800085 18 21 12
-139.55983492808 -266.87275880694 1737.39707312496 20 23 14
-139.2785963017 -266.885778872374 1744.13823882976 21 24 15
-134.31599230378 -266.416469193382 1753.28546112685 21 24 17
-137.771689147291 -266.814551304688 1758.07088821236 22 25 18
-155.288000215826 -268.66210357815 1755.69697867636 23 26 19
-156.884551599697 -268.869108315795 1761.49396909455 15 18 11
-126.568102804924 -265.785429134706 1783.36692249659 11 14 7
-92.4459376949485 -262.308025588549 1806.9438556098 25 28 21
-39.4681200125573 -256.88407210338 1839.67530690009 31 34 27
-15.5711635081013 -254.458410111069 1857.69010962711 32 35 28
-12.348143763143 -254.165201764102 1865.39224537566 24 27 18
-15.7136858607294 -254.551874999979 1869.85014852609 21 24 15
-20.9679044688833 -255.133510291292 1873.4046077858 20 23 14
-25.2844296062134 -255.618433057402 1877.43497458096 21 24 15
-28.6610841202313 -256.006449266143 1881.93328807287 22 25 16
-26.3702439845499 -255.809019769714 1889.13870484952 22 25 16
-28.8026114834303 -256.099279182 1894.09003365986 22 25 16
-28.3969982515171 -256.096355010353 1900.37948718768 20 23 14
-31.7777043434848 -256.484550972347 1904.89272990762 20 23 14
-45.5887295323571 -257.950983328062 1904.58864984045 19 22 13
-46.1372928320924 -258.04655536009 1910.46133906334 19 22 13
-56.1781254749618 -259.123501659002 1911.99231369896 18 21 12
-66.2322497925187 -260.202151368613 1913.57063325075 18 21 12
-74.3976610834256 -261.085495338209 1916.05340712316 17 20 11
-66.3971532022085 -260.296298447531 1925.81333792898 17 20 11
-65.0481464887704 -260.194904954463 1932.55864511886 18 21 10
-74.1778119713681 -261.177910659459 1934.6613352072 18 21 10
-80.4577401322208 -261.865975844344 1938.06053835508 18 21 10
-81.9730300187289 -262.060636197744 1943.56361435836 18 21 12
-74.8921948081169 -261.364854542407 1952.78281166569 16 19 12
-80.2247974424026 -261.954392872927 1956.62237686384 15 18 11
-99.9114187911276 -264.031154779572 1954.36905229729 14 17 8
-99.5227418839795 -264.02787158562 1960.72068472491 14 17 8
-101.047170939278 -264.222664667221 1966.25760887305 14 17 8
-114.076212309458 -265.609822569917 1966.99747529805 15 18 11
-158.784417132405 -270.281425738678 1954.69344794973 13 16 9
-191.075308872211 -273.666791462701 1947.75431492351 18 20 15
-208.56624074457 -279.671757277857 1646.51968741996 30 32 27
-181.396108627263 -276.838121773083 1668.22561429905 34 36 31
-183.954790208264 -277.145878359694 1673.63487573952 23 25 20
-187.446283723903 -277.552433014583 1678.54785973221 23 25 20
-170.439983358914 -275.792092655991 1694.45016818885 20 23 16
-148.742176420814 -273.535201604103 1712.73078832912 20 23 16
-146.607716806933 -273.346673439348 1720.51119549864 20 23 16
-128.58946022539 -271.477977216164 1736.6219684884 22 25 18
-141.387034597391 -272.86891609027 1736.49912718556 24 27 20
-135.493297309486 -272.282625635918 1746.15940999589 20 23 16
-137.077305349994 -272.487486476504 1751.91118298298 16 19 12
-147.093057367758 -273.585042998671 1753.33602595725 14 17 10
-154.309289900849 -274.386520702898 1756.24269159433 13 16 9
-161.534237679059 -275.189179667944 1759.18096944215 10 13 6
-127.450912064514 -271.617436938375 1782.96259583375 8 11 4
-98.0119731299252 -268.536390886317 1804.19465953281 22 25 18
-32.7886657046199 -261.663234406248 1843.03091042552 31 34 27
-17.3454666999238 -260.062339067254 1856.84340186656 35 38 31
-16.0049933045223 -259.955347125994 1863.62392616093 20 23 16
-25.0291323500991 -260.946886307282 1865.32942968104 23 26 19
-35.9513788462071 -262.139792787677 1866.16246060655 22 25 18
-33.6715761562836 -261.933357408645 1873.41454309884 22 25 18
-27.6069202514484 -261.325284675692 1882.45491979655 24 27 20
-22.4765412878567 -260.816006147163 1891.00446076831 23 26 19
-29.6367701140019 -261.610255779792 1893.70775904394 21 24 17
-31.1242036909747 -261.802734206959 1899.10878758361 17 20 11
-30.7163993309203 -261.793953280066 1905.39380353074 17 20 11
-33.1511399408932 -262.086790673252 1910.35138661276 18 21 12
-38.4344167726589 -262.681953578828 1914.00519273401 18 21 12
-47.522640691831 -263.681142698506 1915.94473008137 16 19 8
-66.1277220557432 -265.690934790316 1913.61353212421 16 19 8
-74.2951759877784 -266.592711416039 1916.09225250867 17 21 7
-62.4821528218036 -265.372156002444 1927.55560904387 17 21 7
-63.9862807374898 -265.565814250138 1933.01787551426 17 21 7
-63.5836706601041 -265.556767572055 1939.32234459628 18 22 8
-75.5815352485536 -266.865342101648 1940.17958754802 18 22 7
-79.0021615634919 -267.262256450897 1944.83554189841 18 22 8
-88.1587670945443 -268.268892114411 1947.02426541029 17 20 13
-92.5458482626986 -268.768502640585 1951.30731983651 16 19 12
-128.517297360943 -272.626634127842 1942.14868479971 16 19 12
-120.486954125509 -271.805796628573 1951.81781900675 15 18 9
-118.192826118356 -271.594700602496 1959.0196568924 15 18 9
-142.748398657344 -274.239543285721 1955.00167737757 11 14 7
-154.860842892179 -275.560958021948 1956.27529644256 12 15 8
-194.845317762246 -279.84856745605 1946.15887911313 12 14 9
-214.14075033686 -286.306962209629 1643.54416795909 33 36 29
-175.800422469256 -282.180082356284 1671.35339479679 32 34 29
-186.731924370507 -283.398494455673 1672.20468631499 26 28 23
-182.77325917247 -283.001498555783 1681.13736109068 22 24 19
-171.348168141926 -281.794153446917 1694.03269331725 21 24 17
-156.171051824729 -280.179262943628 1708.84193344026 22 25 18
-141.902054765644 -278.662740865828 1723.06348830114 22 25 18
-146.296845916936 -279.172370180501 1727.36884304507 23 26 19
-147.890673396826 -279.378020089931 1733.15657550925 23 26 19
-154.163652877425 -280.091969699801 1736.51363749839 17 20 13
-161.38063282617 -280.908784174706 1739.41339530919 15 18 11
-154.547165410734 -280.199500138468 1749.55954545367 10 13 6
-151.453023692369 -279.89617719289 1757.74563686111 10 13 6
-144.596816589889 -279.184032132674 1767.80916530522 10 13 6
-151.819271151847 -280.001826372315 1770.72863070972 10 13 6
-128.965906567718 -277.550471122748 1788.73798669176 20 23 16
-26.1024682199862 -266.399512262028 1846.38948187487 31 34 27
-10.6464722046664 -264.749761303737 1860.18437638151 34 37 30
-14.9528069057967 -265.248755823321 1864.16802391586 21 24 17
-26.8075353733761 -266.568850413586 1864.4865573415 23 26 19
-32.0720841746032 -267.172360812798 1868.06555978547 22 25 18
-35.453750999823 -267.571123605918 1872.5756981757 22 25 18
-30.331870767796 -267.044516050879 1881.16773391219 24 27 20
-28.0377224364237 -266.825445911672 1888.37453077559 23 26 19
-37.0969769898875 -267.842022715362 1890.19553287248 21 24 17
-33.8527111997848 -267.519322484207 1897.83740585128 18 21 12
-33.4457097074119 -267.505255001163 1904.12781132106 18 21 12
-25.4458203751136 -266.664370958689 1913.92267123957 18 21 12
-26.9263550471088 -266.855473829081 1919.29895395174 17 20 11
-42.6596969640529 -268.599032364877 1918.16445540117 16 19 8
-68.874799804393 -271.484767122281 1912.36233020037 15 18 7
-69.4335581032304 -271.57568385097 1918.27581057159 15 18 7
-65.2291709423769 -271.147438425275 1926.31589717419 17 21 7
-64.8286923765404 -271.133432154527 1932.6304823455 19 23 9
-66.3328471194937 -271.326804672953 1938.09302881478 19 23 9
-67.8371183417055 -271.520075129996 1943.55607218493 19 23 9
-71.2517837903501 -271.921390655115 1948.18804535753 19 22 11
-82.3170267591755 -273.156772503313 1949.52517743608 17 20 13
-104.876645501952 -275.645831368026 1945.98760718838 16 19 12
-131.29742322023 -278.556451013968 1940.93340148229 16 19 12
-139.551909574899 -279.485796591853 1943.71785060095 15 18 9
-146.857817556105 -280.311740710026 1946.94201678804 15 18 9
-149.374686875635 -280.615008098107 1952.1988717416 12 15 8
-150.932910257711 -280.813363064039 1957.85901881425 15 18 11
-167.866703129921 -282.689619543926 1957.20053143675 12 14 9
-188.331039096729 -289.448396042969 1650.94344340168 35 38 31
-176.948692559109 -288.208677456951 1664.01791647149 40 43 36
-159.032855733701 -286.24183223672 1680.56999105812 25 28 21
-149.467844630842 -285.204190615469 1692.47165282393 26 28 23
-164.116120078255 -286.862124437043 1691.25889448555 23 25 20
-172.256240545824 -287.796085707847 1693.61488235114 25 28 21
-166.405590277385 -287.172327319138 1703.45972313471 24 27 20
-158.675512930324 -286.339310756887 1714.25137495754 18 21 14
-146.257067601903 -284.983996084538 1727.44924701109 15 18 11
-154.399014527683 -285.9188617911 1729.81144514465 11 14 7
-153.188484478188 -285.811936950545 1737.07438125029 12 15 8
-159.469325206178 -286.539850958252 1740.45181412048 12 15 8
-149.817252175398 -285.492595184244 1752.03537286183 13 16 9
-138.27097969998 -284.233867115332 1764.51415166805 14 17 10
-142.669766371783 -284.752276892815 1768.82879747198 13 16 9
-130.156201391767 -283.385434122998 1781.67985811684 11 14 7
-103.51301322169 -280.443014818447 1801.51458460582 16 19 12
-31.6463250843297 -272.457320683113 1843.66469277267 33 36 29
-19.0123734247585 -271.075117569624 1856.07940801086 30 33 26
-15.7841621428487 -270.741500612148 1863.78685145899 25 28 21
-20.0960751068557 -271.24876544986 1867.78598854418 22 25 18
-19.6916592705003 -271.229978471529 1874.08990271273 22 25 18
-24.9535979795179 -271.843411652485 1877.65294967097 22 25 18
-29.2758992222617 -272.35205124571 1881.6897884504 23 26 19
-30.763738426566 -272.544287753728 1887.09247573993 23 26 19
-37.93374297878 -273.370804084904 1889.81169786619 21 24 17
-39.42610316097 -273.563505700203 1895.23087701614 21 24 15
-44.7122850740973 -274.179742728814 1898.88216403707 20 23 14
-31.9705564533135 -272.783161243289 1910.90487327087 19 22 13
-33.4553358948142 -272.974697276083 1916.2966425042 18 21 12
-43.4953927502812 -274.121624488643 1917.78055450791 17 20 9
-57.3538777675304 -275.694983600495 1917.58517552548 16 19 8
-64.5669995500786 -276.526313355556 1920.46144453337 16 19 8
-55.5922221479175 -275.549235312047 1930.61904226801 18 22 8
-66.6243725968911 -276.807073554819 1931.81913051438 20 24 10
-70.0374146543878 -277.213631367789 1936.44176664771 20 24 10
-75.3635330263895 -277.833844679956 1940.23789047333 19 23 9
-74.0059959933843 -277.706971661269 1946.96761269716 18 21 10
-92.7272240481187 -279.824247526443 1945.00071403374 17 20 13
-117.216994502102 -282.586479211922 1940.66338198101 16 19 12
-128.332370481852 -283.853942903061 1942.1663933072 16 19 12
-145.212983727706 -285.765994433462 1941.28879030147 15 18 9
-148.688002724933 -286.179019855302 1946.13652233271 15 18 9
-149.28619562273 -286.270164912709 1952.19627148608 14 17 10
-145.079681856044 -285.823650419135 1960.2399965511 18 21 14
-154.323721380612 -286.881412401322 1962.7210668632 20 22 17
-145.564207501444 -290.536980162613 1674.61136910966 36 39 32
-156.467056474741 -291.802681769921 1675.32642180253 38 41 34
-159.937171990574 -292.220743419974 1680.15276855756 24 27 20
-149.435781843234 -291.044487357811 1692.56167274221 25 27 22
-150.104010759549 -291.14309700026 1698.87673915744 24 26 21
-166.632588951423 -293.052213140606 1696.69395224489 20 23 16
-166.376615842801 -293.045850323784 1703.54023217987 19 22 15
-140.886432300335 -290.15884506639 1723.72453295573 15 18 11
-141.540677820208 -290.256357356746 1729.9883745713 13 16 9
-143.129475772555 -290.460790145846 1735.75820181154 11 14 7
-155.957904944086 -291.948943995268 1735.68947090833 13 16 9
-155.680917910709 -291.94072847703 1742.45889995799 13 16 9
-155.400939725153 -291.932116387765 1749.21840284255 15 18 11
-150.424360664574 -291.387191670759 1758.36147784753 16 19 12
-147.316706217083 -291.055682739444 1766.51612331849 13 16 9
-146.082765149409 -290.938129164497 1773.69792030604 12 15 8
-97.7969988716589 -285.444223718378 1804.411671907 15 18 11
-41.902311818302 -279.079579213931 1838.5962231303 33 36 29
-25.499997456607 -277.227279350328 1852.90275127221 28 31 24
-15.6721626839513 -276.126082947969 1863.86872542576 26 29 22
-15.265598231444 -276.101668059639 1870.1672863489 21 24 17
-13.9115555321445 -275.968844874632 1876.91373897244 22 25 18
-23.8963990490491 -277.132312510605 1878.18128289164 22 25 18
-31.0561289903519 -277.973013529878 1880.85433095437 23 26 19
-33.4914997873625 -278.273548971504 1885.80939365256 23 26 19
-40.6652919431751 -279.115869219071 1888.53270064316 22 25 18
-38.3663891350989 -278.874825005335 1895.73664736921 21 24 15
-46.4994427459151 -279.826974102864 1898.0549145391 20 23 14
-39.4495080021864 -279.042224475821 1907.44500894343 18 21 12
-39.9888354598101 -279.125471026575 1913.29211798088 18 21 12
-43.380075341078 -279.534987979439 1917.83100963846 18 21 10
-52.4845790324353 -280.598093907442 1919.78970784 18 21 10
-56.8382129408924 -281.117700749216 1923.9368835421 18 21 10
-55.4777759741134 -280.983091103062 1930.65979435926 19 22 11
-66.5131781866597 -282.26730030636 1931.85530652251 19 22 11
-78.5175405041811 -283.6624094276 1932.68204085775 18 22 8
-85.7614226636865 -284.51260486863 1935.66060630992 17 21 7
-73.8934153933193 -283.174381562275 1946.9950360121 18 21 12
-70.6163355086455 -282.819515780084 1954.53445531168 17 20 13
-131.11285921392 -289.788083607537 1940.95065645525 16 19 12
-141.289260031944 -290.973879101447 1942.91531844867 15 18 9
-147.640035950067 -291.721376975875 1946.54004274468 15 18 9
-141.514007944642 -291.039478929444 1955.39823727713 12 15 8
-134.41536609057 -290.245745630865 1964.61316354701 16 19 12
-141.730508733636 -291.10314290767 1967.85175834587 17 19 14
-167.850709590178 -298.984874836654 1662.40135288967 36 39 32
-174.121247205719 -299.734927724529 1665.72562597023 37 40 33
-172.948432121262 -299.615092655921 1673.13674119126 27 30 23
-153.130869043194 -297.315339024071 1690.63182966413 22 25 18
-164.060957937795 -298.610994671705 1691.42910743297 20 23 16
-159.136676983446 -298.052882282337 1700.77468106218 15 18 11
-155.136540652016 -297.602970631538 1709.58678988265 14 17 10
-140.84415758492 -295.949379209935 1723.80805548732 13 16 9
-131.205434181768 -294.839958190236 1735.48135568384 13 16 9
-142.148872009128 -296.138370802924 1736.32645482029 14 17 10
-140.925171780018 -296.013632641871 1743.55173902833 14 17 10
-142.510550744357 -296.217554475139 1749.30919482697 13 16 9
-145.973093829887 -296.641210172059 1754.10389484411 13 16 9
-150.377723091234 -297.175372703346 1758.43028757381 14 17 10
-157.606303030068 -298.040095626613 1761.34379601052 13 16 9
-151.675057879996 -297.364897198117 1770.92095132046 12 15 8
-38.0351808525583 -284.100729892669 1840.55169207986 34 37 30
-15.0221438445173 -281.424566166138 1858.11014795035 27 30 23
-10.8421256598374 -280.95297664747 1866.26714795401 26 29 22
-13.2628468200424 -281.254020045497 1871.16842774741 20 23 16
-16.6301961753166 -281.66591514886 1875.61711712467 22 25 18
-24.7286682425467 -282.631806138505 1877.79924291224 22 25 18
-30.9444608605323 -283.377383155651 1880.92401339958 23 26 19
-32.4322164087516 -283.569321156449 1886.32657855229 23 26 19
-38.6592242448591 -284.316303665326 1889.49117256999 22 25 18
-38.2536497442909 -284.28640706661 1895.79779887813 19 22 13
-39.7438706451911 -284.478341365784 1901.20951973917 18 21 12
-41.2342029773243 -284.670346318933 1906.62160971531 17 20 11
-43.6752363430919 -284.973681158602 1911.59685805059 17 20 11
-44.2151716251189 -285.054160316862 1917.44704198515 17 20 9
-49.5142172653698 -285.692103338081 1921.13238547626 18 21 10
-51.0078268441072 -285.884140722799 1926.55662275113 17 20 9
-47.7339050155992 -285.517220410618 1934.11537789346 17 20 9
-66.4008341384572 -287.721740126858 1931.891796738 17 20 9
-76.4990118390325 -288.921999649324 1933.55689979723 18 21 10
-86.6102019522663 -290.123706355919 1935.26940171799 18 21 10
-77.6057918110755 -289.084517617688 1945.35712136409 18 21 10
-71.4573353769055 -288.379807373129 1954.14644596413 17 20 13
-75.8338380722034 -288.908752869117 1958.37170402972 16 19 12
-108.013535299092 -292.697696335031 1950.76492971191 15 18 9
-131.605582553203 -295.479796667695 1946.97923275009 15 18 9
-140.830461746428 -296.577223298347 1949.36412232466 15 18 9
-136.616700739697 -296.098445706289 1957.4013090392 14 17 10
-124.702911314327 -294.716332375986 1968.59253941386 17 20 13
-158.953111705365 -298.748359497425 1960.72702647392 19 21 16
-222.915496244453 -311.465109750723 1625.17080089547 38 41 32
-165.038148496399 -304.548225346208 1664.03266708834 37 40 33
-176.893645099173 -305.979666852236 1664.28375383588 36 39 32
-168.267458126849 -304.959201526637 1675.76299197318 33 36 29
-177.341546457741 -306.058135818437 1677.5870727718 18 21 14
-157.499790392267 -303.6951604974 1695.03225228898 11 14 7
-158.170165754201 -303.78824174749 1701.35877837362 12 15 8
-162.577482701532 -304.32924272574 1705.69083251719 12 15 8
-140.800779325039 -301.734536118149 1723.89180470199 12 15 8
-139.580672516396 -301.601721894034 1731.13552937936 12 15 8
-144.913679211857 -302.253925728608 1734.93703105878 12 15 8
-144.627549140623 -302.233279929581 1741.68129065193 13 16 9
-139.647964677784 -301.650574998723 1750.83705963656 13 16 9
-156.252695183547 -303.653523531196 1748.87684145734 13 16 9
-155.028076875827 -303.520822960024 1756.10374406835 14 17 10
-160.381413576583 -304.17636722704 1759.97954712119 14 17 10
-152.566210439316 -303.254249947759 1770.51139709744 14 17 10
-11.5450049192221 -286.384612803045 1853.75765998942 31 34 27
-5.47788615441158 -285.67088932325 1862.85559492142 27 30 23
-6.95074254205896 -285.860642030541 1868.20422209101 27 30 23
-9.36825119816476 -286.163682308623 1873.0923137608 23 26 19
-15.5688155094673 -286.92019956591 1876.15270841269 22 25 18
-21.7764436015087 -287.677540921784 1879.23973822779 21 24 17
-32.7253068840465 -289.003269090031 1880.08773540417 22 25 18
-35.1613946324032 -289.308624295066 1885.04241705589 22 25 18
-38.5469167900232 -289.727769520026 1889.55493016176 21 24 17
-36.2420603917188 -289.464713806966 1896.74974026002 19 22 13
-36.7805088438584 -289.54242151814 1902.59615363322 18 21 12
-43.9701346831243 -290.417535798101 1905.35754355191 16 19 10
-51.1684325176462 -291.293595271236 1908.15053414382 16 19 10
-51.7127127024348 -291.371926822086 1914.01913476015 18 21 12
-37.9680431941893 -289.736440291623 1926.36620259519 19 22 13
-37.5459351318186 -289.698385596159 1932.61566460154 15 18 9
-50.4760850812718 -291.261615930771 1932.87720364758 16 19 10
-68.19725076438 -293.399503206737 1931.07964780121 17 20 11
-84.0318271722329 -295.311085882418 1930.21493142822 17 20 11
-86.5026187835642 -295.619710936481 1935.29732633239 17 20 11
-87.0614529792815 -295.698909864805 1941.21848649956 17 20 11
-81.8736502729851 -295.088484171094 1949.61868339437 17 20 13
-83.3836713468892 -295.281264299304 1955.10338440487 17 20 13
-95.4424630487862 -296.739452817184 1956.09237934764 16 19 10
-123.832226138249 -300.157069179464 1950.23496943802 15 18 9
-131.133072715588 -301.04429573022 1953.4016531048 14 17 8
-133.636826545653 -301.355693234422 1958.60467988684 14 17 10
-145.760645591908 -302.821402489504 1959.83036041444 17 20 13
-155.012846258047 -303.942257852621 1962.3009685654 18 20 15
-154.100848514519 -309.088577631199 1663.42038646022 40 43 34
-179.905037342987 -312.256987982341 1655.91508052119 44 47 38
-153.588513687158 -309.039544030807 1677.13628449144 38 41 34
-164.513598778432 -310.385570924128 1677.88318235169 25 28 21
-159.595004300559 -309.790394748125 1687.2732688881 12 15 8
-165.869113137916 -310.567086609048 1690.59398276231 13 16 9
-164.676219512077 -310.428928065371 1697.94211877739 14 17 10
-162.544193332578 -310.175925210477 1705.77226675589 14 17 10
-151.985158982972 -308.890351424164 1718.03616680365 14 17 10
-149.835167056944 -308.635451177184 1725.80173842302 14 17 10
-142.994206626561 -307.805832494076 1735.99511244553 14 17 10
-147.394472963579 -308.353989796557 1740.29647092641 14 17 10
-144.29048942092 -307.982584479897 1748.48993423664 14 17 10
-148.693822464528 -308.53138529429 1752.8022725183 13 16 9
-155.921570350498 -309.426621038866 1755.69249848529 13 16 9
-156.573041354017 -309.515840680014 1761.95127441002 12 15 8
-153.457249671642 -309.143416291382 1770.10153980051 12 15 8
-9.13484265185582 -291.478145908114 1861.07686968319 26 29 22
-17.2199272091189 -292.478361496755 1863.18761951524 26 29 22
-12.0849040448412 -291.857692130894 1871.79024382339 23 26 19
-14.5057433375049 -292.163543802328 1876.68892652735 21 24 17
-11.2495631694578 -291.773258187929 1884.32830460634 20 23 16
-23.1408994733373 -293.240327419783 1884.68996365874 21 24 17
-29.3609800777928 -294.012099272775 1887.81318752888 21 24 17
-39.3824806222778 -295.249999784285 1889.17076780841 20 23 16
-41.8227020615669 -295.558143727131 1894.13903638132 19 22 13
-37.6139489799818 -295.050888829864 1902.2127956201 19 22 13
-49.5596279490016 -296.524762959954 1902.77192208079 17 20 11
-49.1521493859108 -296.48349009557 1909.07773233405 17 20 11
-50.6461664877416 -296.675401313184 1914.5035623176 17 20 11
-31.1760300289481 -294.295780905688 1929.44268105088 18 21 12
-35.5153720497099 -294.836372109105 1933.52261632521 15 18 9
-51.3112050623366 -296.782235168752 1932.4924104794 16 19 10
-68.0839015426193 -298.84787683519 1931.11623588037 17 20 11
-71.4986862812657 -299.274789532794 1935.73156221619 17 20 11
-73.0033151415404 -299.467292622934 1941.19641790166 17 20 11
-71.6363590726479 -299.307327662773 1947.91206161079 18 21 14
-59.7278676470476 -297.85385014423 1959.1680180327 18 21 14
-106.277658898331 -303.57245353504 1945.2477782541 18 21 14
-105.88535862443 -303.53161462559 1951.61059756634 17 20 11
-110.290894369272 -304.0792837999 1955.93182850427 16 19 10
-136.799626419189 -307.33876017851 1950.98393011486 16 19 10
-146.999719720768 -308.597135398249 1952.99073461683 13 16 9
-162.986407886067 -310.565295738194 1952.65413018829 16 19 12
-193.439203263723 -314.3084886201 1946.45816208253 13 15 10
-161.515635370852 -315.874212453438 1659.38984146996 44 47 38
-158.471820197866 -315.494515580962 1667.81193299837 21 24 15
-155.421135383577 -315.114305895072 1676.20791363609 13 16 7
-147.700660479286 -314.14907506325 1687.1186906152 14 17 8
-155.830859740366 -315.170740749789 1689.38340003139 16 19 12
-158.367416478763 -315.491535414529 1694.70228470765 16 19 12
-153.428238987976 -314.875608996603 1704.02905116773 15 18 11
-154.091473250169 -314.962145469715 1710.33319577821 15 18 11
-158.497695062985 -315.518039052932 1714.65178149083 14 17 10
-152.603143403121 -314.7829130819 1724.40393667379 14 17 10
-148.572391721207 -314.281630037689 1733.13480990683 14 17 10
-142.656756578083 -313.544289585023 1742.80915533397 15 18 11
-143.302490603545 -313.629495265081 1749.04916518849 14 17 10
-155.222983578192 -315.128126612396 1749.4991505775 13 16 9
-165.278664447007 -316.393195202952 1750.96555417676 12 15 8
-173.465026857553 -317.424129225243 1753.43293481725 10 13 6
-161.882797763445 -315.976910026792 1765.89721717713 10 13 6
-28.2959013349491 -299.239773797947 1845.4895373804 28 31 24
-9.01819562991779 -296.827639288686 1861.16271246621 24 27 20
-17.1053436596702 -297.846116643521 1863.26959404402 23 26 19
-19.5300571661028 -298.154784809331 1868.18088275727 21 24 17
-14.3872484307721 -297.514671990438 1876.7668763444 20 23 16
-13.968684311072 -297.466925187551 1883.03654442704 19 22 15
-23.9708164209522 -298.725569531066 1884.30818791292 20 23 16
-27.3479453602228 -299.153614954914 1888.78299050194 20 23 16
-33.5748828644642 -299.939068885798 1891.92396357185 19 22 13
-34.1108945988735 -300.010833671669 1897.76508194163 19 22 13
-33.6949546130951 -299.963159297398 1904.04444719157 19 22 11
-46.5927359930092 -301.584911082184 1904.14793168046 18 21 10
-57.6039796036882 -302.970074668216 1905.19001037771 17 20 11
-48.6251335861518 -301.848456679471 1915.42375709555 15 18 9
-29.1439576987935 -299.409908644541 1930.3590924133 15 18 9
-35.390443383309 -300.197211918297 1933.57054744445 15 18 9
-57.8747800047457 -303.02070355397 1929.54325511381 16 19 12
-61.2815917117637 -303.451835339809 1934.12631543442 17 20 13
-65.6474871010773 -304.003064970707 1938.29812161567 17 20 13
-64.2762747780097 -303.834751523748 1945.00323348477 17 20 13
-68.646664626562 -304.386269895727 1949.19154441628 17 20 13
-96.9799670498186 -307.942819220012 1943.03772114256 17 20 13
-81.23683776902 -305.971605553386 1955.96950083632 17 20 13
-108.658003095059 -309.41342887329 1950.39784367208 16 19 10
-128.434148721009 -311.896468445204 1948.21947372914 16 19 10
-140.547787757066 -313.418246828865 1949.37195876157 15 18 9
-141.134183978141 -313.494163606842 1955.39752350478 15 18 11
-157.121552159295 -315.501402047813 1955.03970099712 17 20 13
-204.922165227104 -321.49838146713 1941.69051601087 16 18 13
-174.520627310351 -323.412945926421 1652.25938488965 32 35 26
-166.826810681465 -322.423879117167 1663.28418760878 12 15 6
-164.711780388144 -322.150031332375 1671.19152740155 10 13 4
-152.329259248638 -320.560924553177 1684.66945400218 21 24 15
-160.465141414178 -321.60109731211 1686.94357853216 19 22 13
-154.595973338472 -320.847064244952 1696.80098591624 16 19 10
-143.104714720462 -319.373049145204 1709.61994135345 16 19 12
-134.401090845472 -318.2563428319 1720.87243296974 15 18 11
-150.967298943355 -320.377762944386 1718.69439188669 14 17 10
-176.928740420262 -323.703108093967 1711.67292477202 14 17 10
-157.906460751758 -321.264950746656 1728.31180514944 13 16 9
-156.687188829086 -321.108086728095 1735.57381337599 13 16 9
-140.433745740407 -319.025013436416 1750.57876963796 12 15 8
-140.134836491441 -318.986419101968 1757.28598539198 12 15 8
-144.537060512961 -319.550226447951 1761.58473175355 11 14 7
-175.306200906224 -323.492493250245 1752.54128545287 11 14 7
-172.199473081133 -323.094479696754 1760.74042980557 10 13 6
-113.450959910613 -315.567232658344 1796.75410956528 7 10 3
-26.3005262302276 -304.401008419446 1846.51245752876 27 30 23
-8.9004539030646 -302.171814222661 1861.24877763569 23 26 19
-20.7702735407134 -303.692941108393 1861.49549132833 22 25 18
-26.9807564760822 -304.488969527549 1864.56869563071 21 24 17
-22.7865826123919 -303.951860337897 1872.71543308541 21 24 17
-18.5841463823071 -303.413846193636 1880.83113631152 20 23 16
-27.6446036191591 -304.575035847978 1882.56530275279 21 24 17
-30.0757974855643 -304.886937454783 1887.49861034713 21 24 17
-32.5087406686302 -305.198918708949 1892.4374335037 19 22 13
-33.0426469693983 -305.267616574598 1898.2736001264 18 21 12
-34.5262088676244 -305.457914230922 1903.66163070625 18 21 10
-41.7193096412047 -306.379759053318 1906.40641915686 18 21 10
-48.9211139767134 -307.302552719731 1909.18292317661 17 20 11
-50.4135855681167 -307.493880826578 1914.60338312846 15 18 9
-44.2764735623917 -306.707530078378 1923.48637090794 14 17 8
-57.2164977284197 -308.365310676445 1923.72487689824 15 18 11
-64.4430976847989 -309.290972080272 1926.5916316592 16 19 12
-63.0754674296463 -309.115332220408 1933.31466855796 17 20 13
-58.8338270566504 -308.571404664759 1941.28947692614 17 20 13
-65.1142186973543 -309.375337938654 1944.61631881573 17 19 14
-95.3524849193181 -313.24893775589 1937.54151388939 17 19 14
-92.0776841951643 -312.828315717381 1945.13183934564 18 21 14
-100.309692487691 -313.881909461823 1947.75345901475 18 21 14
-109.511712360972 -315.059587074999 1950.0028101455 17 20 11
-120.647230564218 -316.484887450688 1951.48095577999 16 19 10
-143.336715977753 -319.39015365902 1948.16278349959 15 18 9
-147.773381112188 -319.956615664664 1952.58772695 16 19 12
-164.734219387106 -322.127489310482 1951.84364799684 17 20 13
-221.232854333251 -329.363769663138 1934.93734224447 15 17 12
-180.322878560379 -330.085215207055 1642.31338430981 31 34 23
-179.155351511415 -329.923706724906 1649.77044338188 21 24 15
-170.528622330546 -328.785970674388 1661.32170700164 26 29 20
-160.953374547633 -327.524397910192 1673.32674038146 25 28 19
-157.894232719767 -327.116413658138 1681.70978621485 17 20 11
-180.047218050893 -330.009598883807 1676.40732157965 16 19 10
-172.319567240535 -328.990970703001 1687.32516811673 16 19 10
-159.900195307053 -327.358327933746 1700.69469030938 16 19 12
-154.012887439212 -326.58122770757 1710.49931159719 15 18 11
-168.725980722793 -328.501292305571 1709.36171353104 14 17 10
-186.272107541774 -330.792415084281 1706.81845683691 13 16 9
-175.692549500433 -329.401701213498 1719.07253638497 12 15 8
-167.911600899394 -328.377544307311 1729.79598921911 11 14 7
-151.658617501798 -326.244664645115 1744.83316833643 11 14 7
-141.961644862078 -324.970226887482 1756.39438346371 11 14 7
-152.01306398692 -326.280957935797 1757.81613515751 11 14 7
-156.425879376262 -326.853730923326 1762.14854475523 10 13 6
-171.212101308378 -328.784448337843 1761.27573339759 10 13 6
-30.9113852756198 -310.411228929258 1844.24999528757 26 29 22
-15.3955496022005 -308.376194464312 1858.0668937307 22 25 18
-18.7644113798036 -308.813104036794 1862.50540560936 21 24 17
-23.0823960556172 -309.374158415464 1866.49312587023 21 24 17
-18.8821987112608 -308.820351288724 1874.62804152511 20 23 16
-29.8361353867218 -310.250010301158 1875.42925872088 19 22 15
-37.9593555249145 -311.309167937268 1877.64438556743 20 23 16
-33.7544152880873 -310.754812271321 1885.76203811109 20 23 16
-33.340389550599 -310.696607602867 1892.05422984373 18 21 12
-35.7749980182671 -311.011157014776 1896.99854349778 18 21 12
-38.2111384174093 -311.325941368608 1901.94839658313 17 20 9
-37.7931008689318 -311.267099414988 1908.22609559634 16 19 8
-40.2301222912476 -311.581812364365 1913.17926482909 15 18 9
