ply
format ascii 1.0
comment KinectMotionCapture
element vertex 779
property float x
property float y
property float z
property uchar red
property uchar green
property uchar blue
end_header
-1245.88727859862 -553.698325057452 2770.47778873427 13 14 6
-1160.52917487933 -564.84590971031 2770.17188374082 13 16 9
-1149.00732204871 -566.636001478538 2749.2285021892 17 19 14
-1296.97113223628 -548.038849350665 2696.46033614074 0 4 3
-1280.01804864252 -550.31572725956 2691.71546010993 20 22 17
-1308.42734945049 -546.761696667694 2680.3100686169 18 21 14
-1331.79306138985 -543.854038281722 2669.77211852646 12 15 8
-1322.90403155189 -545.093593965324 2663.85382741669 11 14 7
-1346.26566916294 -542.1838605629 2653.47734418325 15 18 11
-1303.11449419282 -547.832974918043 2652.13698005427 17 20 13
-1283.14532023124 -550.500433846846 2647.51817774387 15 18 11
-1319.6036702888 -545.902355536399 2635.53302056971 15 18 11
-1333.89166718915 -544.157340996564 2626.5338326757 15 18 11
-1312.91729372924 -546.954658173301 2621.95411532367 16 19 12
-1312.09313855313 -547.156149875374 2614.83112172353 16 19 12
-1314.29134741067 -546.96777361641 2607.34541696997 19 22 15
-1296.34430419355 -549.376868812521 2602.1884749039 19 22 15
-1274.55761752417 -552.37775315224 2590.030035191 18 21 12
-1327.29228282025 -545.760035574808 2569.85584092957 19 22 13
-1194.75672072133 -563.064704623111 2568.56463437884 21 24 17
-1195.9555716122 -563.006571422587 2560.88929411035 22 24 19
-1195.14061103238 -563.208320292553 2553.4066677084 23 25 22
-1170.31085661073 -570.025830966112 2851.63399217341 9 14 8
-1194.91829935062 -567.021939516226 2831.78571509958 18 21 14
-1208.22851386463 -565.387160760909 2821.76580075137 17 20 11
-1184.19779702466 -568.63051346195 2818.82584150667 17 20 11
-1190.44356107499 -567.918457264661 2810.15191770271 17 20 11
-1181.55286139527 -569.184847046738 2804.27007740559 16 19 12
-1172.66367127639 -570.451581833103 2798.33819259015 16 17 11
-1160.74878612655 -572.114770145854 2792.89213476979 15 16 10
-1174.0564545925 -570.478356390581 2782.982809125 13 14 6
-1236.79174181103 -562.371332573691 2764.65836130943 13 16 9
-1156.28385592337 -573.013869072768 2770.87223245379 14 17 10
-1184.71875404358 -569.394690373841 2758.53636034455 15 18 11
-1277.80024558985 -557.903110119472 2692.03181523818 25 27 22
-1261.85639190478 -560.095016696302 2687.04213573644 23 26 19
-1242.89074026707 -562.684687533676 2682.39388933118 17 20 13
-1314.64185994107 -553.361690134363 2664.99720163258 15 18 11
-1348.08466258698 -549.065692393781 2653.22124732647 16 19 12
-1321.05466177414 -552.713400272691 2649.72639524842 13 16 9
-1298.05952523303 -555.832462159407 2645.55398623366 13 16 9
-1295.22077108915 -556.30287548198 2638.66342821763 16 19 12
-1333.69380612019 -551.340351257113 2626.55436547675 19 22 15
-1319.77045944285 -553.26743303716 2621.10626965688 19 22 15
-1320.96073566733 -553.206503719228 2613.75973452253 19 22 15
-1330.21011299227 -552.084489649076 2605.46819039681 20 23 16
-1327.37042065622 -552.553212741014 2598.61611502024 21 24 17
-1284.24140100092 -558.327543341314 2596.2753968772 19 22 15
-1308.59907793234 -555.214930589015 2586.29624460823 16 19 10
-1293.67625703987 -557.275972534148 2580.64974073525 14 17 8
-1230.98602824293 -565.923004577352 2557.52516824584 22 24 19
-1191.9117557202 -571.174219509749 2553.7145392624 23 25 22
-1195.33974750915 -574.267230145994 2846.64278787507 9 14 8
-1205.62444665474 -573.001530313412 2837.14972100461 7 10 3
-1181.58870753136 -576.309236789062 2834.33695186695 13 16 9
-1178.75189117024 -576.792589947742 2827.35676478816 11 14 5
-1182.98023397737 -576.333936179525 2819.03291939375 15 18 9
-1188.21716443709 -575.740384300589 2810.54297965099 16 19 10
-1186.38991791339 -576.089013940803 2803.36744836354 17 20 13
-1179.51763620789 -577.111119461729 2797.08678356936 17 18 12
-1152.46663377645 -580.827569704572 2794.33893724382 16 17 11
-1150.64236232595 -581.177171451084 2787.04608601646 16 17 9
-1187.15407949258 -576.405921512102 2773.16109570385 13 16 9
-1207.52054451192 -573.789165291243 2762.1979465219 14 17 10
-1175.43186164645 -578.181592764676 2760.06415670007 13 16 9
-1188.73607775701 -576.50767828365 2750.33002645456 11 13 8
-1273.56540575273 -565.770463027747 2692.64537174397 18 20 15
-1265.6859381237 -566.92600925856 2686.47758171508 19 22 15
-1262.84788037024 -567.406451104154 2679.54903849325 19 22 15
-1304.36264901047 -561.942532348224 2666.42133355145 18 21 14
-1313.61783498452 -560.800157752801 2657.92462886008 13 16 9
-1308.76165744197 -561.549154057034 2651.36652134636 12 15 8
-1298.86706667069 -562.974169441968 2645.44174076858 16 19 12
-1308.12066650553 -561.830469150132 2636.9991265344 18 21 14
-1319.3887198768 -560.415594085573 2628.35082951472 20 23 16
-1340.73100854695 -557.647234510779 2618.52005347866 22 25 18
-1321.76936225903 -560.289017887613 2613.65930969729 22 25 18
-1305.8327709718 -562.525651503519 2608.33776607964 18 21 14
-1308.03156141121 -562.326626649341 2600.84076473295 19 22 15
-1343.47167499999 -557.660053921458 2589.61719830093 17 20 13
-1300.52574372777 -563.623182310989 2579.91803536874 15 18 9
-1245.69555825091 -571.286793090973 2563.53560765794 22 24 19
-1232.79414370602 -573.119741251108 2557.35609921899 22 24 19
-1259.1612226728 -569.666364078502 2547.43408954079 19 21 18
-1189.07467899465 -582.624775150171 2847.86205996591 7 12 6
-1175.13186284041 -584.625568641612 2843.09575279096 12 17 11
-1160.18135997738 -586.764497917835 2838.44752680597 16 19 12
-1188.63709956803 -583.001060264581 2825.45199198749 11 14 5
-1184.9813143965 -583.709672988837 2811.12059006913 15 18 9
-1195.26444804643 -582.415620644624 2801.72847572399 16 19 12
-1178.29960070805 -584.830738445098 2797.28561144797 17 18 12
-1163.35555372753 -586.97186974864 2792.39202763076 14 15 7
-1154.46729116744 -588.289054276946 2786.36039676911 13 14 6
-1204.0972926598 -581.632578167899 2770.23502468231 11 14 7
-1142.74767064299 -590.099567849471 2773.12453443709 11 14 7
-1153.02957177394 -588.80452402881 2763.77233098615 11 14 7
-1213.74560904195 -580.630277313784 2746.22302136773 9 11 6
-1254.39290309535 -575.800576344327 2688.10193045515 15 18 11
-1324.1425256818 -566.368537591536 2670.83143900593 11 14 7
-1278.96081783177 -572.644183218818 2669.9529644552 10 13 6
-1301.32262231399 -569.686099730273 2659.5971762545 12 15 8
-1274.29171848881 -573.48265451987 2655.97779667841 13 16 9
-1261.37505537938 -575.349745203016 2650.35759535402 13 16 9
-1303.88982369343 -569.630977761298 2637.53756250217 15 18 11
-1323.22078841083 -567.082805965019 2627.86354976417 16 19 12
-1326.42638461954 -566.741116297594 2620.27843552878 18 21 14
-1309.47956725754 -569.159176735632 2615.13706252662 19 22 15
-1299.5878330303 -570.611721109835 2609.07107980359 18 21 14
-1315.89137875865 -568.474668673642 2599.93452527226 17 20 13
-1292.08214029279 -571.932014424809 2588.10865466736 16 19 10
-1359.75350639202 -562.74735839202 2573.58168199691 19 22 13
-1315.6174483322 -568.896412409041 2571.07967748935 20 23 14
-1229.18868672765 -580.851926031559 2572.63381307016 19 22 15
-1173.99029850115 -588.526565373788 2570.63018271918 20 23 16
-1176.19762150459 -588.323120006982 2562.80444561814 21 23 18
-1261.97831399231 -576.641998599658 2547.17631307663 19 21 18
-1151.70201921692 -595.43251589327 2847.65854325897 18 23 17
-1179.15259305704 -591.734121764132 2834.76104268845 13 16 9
-1154.10706631072 -595.314447562186 2832.00406767822 20 23 14
-1168.431874054 -593.43477040009 2821.72009966364 19 22 13
-1188.81057203598 -590.713896862947 2810.39063707979 17 20 11
-1196.06612561502 -589.81306532711 2801.56149466359 14 17 10
-1178.09080765737 -592.414736492769 2797.30285416207 14 15 9
-1163.14562955682 -594.596919784884 2792.40939997062 12 13 5
-1184.528330653 -591.73353557369 2781.10119646505 12 13 5
-1172.61184720987 -593.495543008456 2775.62082590909 11 14 7
-1126.39365352166 -600.026289963711 2775.8697384868 13 16 9
-1163.91628708946 -594.917537392478 2761.94517939546 14 17 10
-1199.41619842383 -590.087184357526 2748.55103980644 14 16 11
-1294.52135751319 -577.569048700906 2682.28244136964 15 18 11
-1230.17870903651 -586.637124533639 2684.17058322687 14 17 10
-1309.00393884557 -575.750908423364 2665.75673657923 13 16 9
-1268.86358793762 -581.447889320406 2664.0253529744 12 15 8
-1249.89716953197 -584.194305836054 2659.23877307942 12 15 8
-1276.4770626591 -580.687360865257 2641.0567657616 13 16 9
-1273.63928315573 -581.183391713166 2634.10060929258 14 17 10
-1288.94151846216 -579.146536299325 2624.89231386903 16 19 12
-1306.25692931679 -576.827026071734 2615.52196067431 17 20 13
-1294.34932876145 -578.588604362949 2609.68555208447 19 22 15
-1320.73003215203 -575.000390453117 2599.37583003057 15 18 11
-1327.96518314881 -574.086054607151 2591.35859109547 12 15 8
-1326.13296299582 -574.438671811566 2584.37316493091 16 19 10
-1310.19821920009 -576.763335065578 2578.88489549979 19 22 13
-1330.52721700935 -574.015995727743 2569.52630477543 17 20 11
-1157.86071521772 -598.473452464326 2564.57275851536 21 23 18
-1168.12496944839 -597.136678783247 2555.95506336986 22 24 21
-1106.86919749098 -609.277533061933 2864.12514403513 19 24 18
-1150.48157584343 -603.225107196027 2847.87312712419 15 20 14
-1174.90561720605 -599.881506758243 2835.55756455975 13 16 9
-1169.03986900083 -600.818343219797 2829.13780095289 16 19 10
-1195.47823083486 -597.187261150697 2816.62061571686 14 17 8
-1189.61198276118 -598.123814485419 2810.22069270078 13 16 7
-1179.70929053151 -599.63190008148 2804.52335078675 12 15 8
-1209.16950911497 -595.569608785276 2791.69834510089 14 15 9
-1190.18407597696 -598.363509715646 2787.60394170992 15 16 8
-1155.05516017755 -603.444807483751 2786.21952067737 15 16 8
-1137.08534516701 -606.098182770013 2781.69961482514 13 16 9
-1144.3427256892 -605.178571503631 2772.81923337029 12 15 8
-1206.08124208579 -596.537078327505 2754.91775246169 12 15 8
-1289.09448012845 -585.48779913634 2690.32160612235 16 18 13
-1292.30410198624 -585.133556887088 2682.59263357071 16 19 12
-1297.5300477572 -584.49242953406 2674.59242118614 18 21 14
-1240.24444431109 -592.733675466772 2675.33036511583 18 21 14
-1247.48953846601 -591.806711924433 2666.93807176375 18 21 14
-1264.81490642742 -589.445891743748 2657.23224057716 17 20 13
-1270.04129376996 -588.804128576246 2649.20612794581 14 17 10
-1278.29116672126 -587.731652984673 2640.81732475926 18 21 14
-1273.43713354186 -588.52287026428 2634.12074968547 19 22 15
-1295.79520804183 -585.441204840275 2624.04343487661 18 21 14
-1297.99499672044 -585.227437848191 2616.5139230682 17 20 13
-1311.27922762626 -583.43479674342 2607.68836336099 13 16 9
-1318.51596106381 -582.502336302006 2599.62873795395 13 16 9
-1345.07643501656 -578.912436706566 2582.29476952997 15 18 9
-1352.30954090197 -577.977540040837 2574.37953725668 17 20 11
-1293.05738954766 -586.52135677314 2573.4357850074 17 20 11
-1187.67150945735 -601.749462163921 2569.28422593364 21 24 17
-1198.94213572773 -600.241879302451 2560.62558880779 21 23 18
-1181.00643759719 -602.90154345199 2554.75619981265 21 23 20
-1163.39777380121 -608.986733966015 2845.32037892769 11 16 10
-1160.56096947196 -609.504031100255 2838.30327517542 15 18 11
-1207.19593680673 -602.894340878435 2821.85016790558 13 16 7
-1195.27086825234 -604.719813580696 2816.63718912175 12 15 6
-1194.45168506157 -604.945349312168 2809.30338127209 12 15 6
-1183.53831515319 -606.626215660268 2803.80381891629 13 16 9
-1226.12190019399 -600.592753494964 2788.63208494604 15 16 10
-1187.95759518913 -606.204320348975 2787.97801677632 13 14 6
-1134.66058898425 -614.002403730025 2789.75489406451 13 14 6
-1121.73635266282 -615.977343078225 2784.31488050963 12 15 8
-1149.17687144468 -612.125627328158 2771.98431618538 12 15 8
-1247.24336369005 -598.072566208555 2748.05729155016 13 15 10
-1207.26297492136 -604.058931909651 2739.76331428829 21 23 18
-1308.05562013806 -590.005973489111 2687.51432584377 22 24 19
-1309.2471555397 -589.935116142554 2680.12923765659 20 23 16
-1305.39681469443 -590.593796335637 2673.464683941 15 18 11
-1300.53881554367 -591.398545525047 2666.91790803243 14 17 10
-1275.51648574192 -595.123721023112 2663.09878761789 15 18 11
-1279.73468933532 -594.614652763528 2655.22534901822 16 19 12
-1276.89567580375 -595.127730592764 2648.29911891029 21 24 17
-1296.23395440775 -592.426326709466 2638.50378296078 19 22 15
-1291.37829264167 -593.230854775226 2631.85656659898 17 20 13
-1286.52359625232 -594.035282872728 2625.18105209697 14 17 10
-1301.82615830412 -591.916048274167 2616.04843875662 13 16 9
-1319.14205947723 -589.503188914142 2606.75915332622 16 19 12
-1322.34804779746 -589.136545684914 2599.18550722661 16 19 12
-1330.59163240406 -588.038145125867 2591.06098577965 16 19 12
-1342.86453971468 -586.353805535817 2582.53700791225 16 19 10
-1357.15064230117 -584.375832898082 2573.86198882946 17 20 11
-1241.66700921053 -601.348661610161 2571.37333033497 19 22 15
-1240.8482924815 -601.567329307791 2564.02866591012 21 23 18
-1247.08016330233 -600.760645477862 2555.99934150791 21 23 18
-1243.23963581709 -601.417913855075 2548.94343879772 17 19 16
-1178.14448446235 -614.299741768821 2849.93219402969 20 25 19
-1147.03104981143 -618.971982799538 2848.49936993193 16 21 15
-1185.59525210387 -613.424233313925 2833.44621981888 14 17 10
-1181.74732039606 -614.097389278806 2826.67196569647 15 18 9
-1190.01530068928 -612.992399393051 2817.60105141706 15 18 9
-1174.05293117575 -615.444510679376 2813.05564685676 15 18 9
-1194.43458696547 -612.56003555428 2801.79557047329 15 18 11
-1196.64361677888 -612.343627196078 2793.90771919942 16 17 11
-1178.66566570548 -615.093327690649 2789.6023722787 14 15 7
-1125.36529943666 -623.036152750002 2791.35516003883 14 15 7
-1123.54195060677 -623.414806132723 2783.98573140443 12 15 8
-1177.22185592483 -615.631243646874 2767.22823891828 12 15 8
-1176.40457248342 -615.859865964807 2759.81686814357 12 15 8
-1229.06473193564 -608.219964679897 2743.65216250219 14 16 11
-1178.80596926949 -615.722940141256 2744.32530695749 14 16 11
-1307.21428490268 -597.542654044933 2673.19615240759 17 20 13
-1305.38070007932 -597.915011181472 2666.23354228116 16 19 12
-1304.55591089532 -598.138424237996 2659.12111523202 17 20 13
-1262.39299899606 -604.461447922142 2657.54057668066 17 20 13
-1302.90659560376 -598.584867111332 2644.8770658997 17 20 13
-1306.11470472338 -598.212426480037 2637.22675641704 16 19 12
-1336.53948554192 -593.82039813492 2626.16552525791 14 17 10
-1287.33038121236 -601.18842931969 2625.07676511568 14 17 10
-1315.73673730709 -597.092603051651 2614.36820168673 15 18 11
-1323.98236376458 -595.973769433712 2606.18581707877 15 18 11
-1346.33580477142 -592.768611638705 2596.42219182995 16 19 12
-1339.4630188842 -593.882802201241 2590.06235837854 17 20 13
-1306.39291549237 -598.871644631092 2586.53733625557 17 20 11
-1287.4331489193 -601.775251381834 2581.32200093212 18 21 12
-1302.73081011977 -599.610988159822 2572.42927810702 18 21 12
-1237.43271306786 -609.373772423915 2571.80557387751 19 22 15
-1238.62873821117 -609.297238193223 2564.25110643346 21 23 18
-1244.86118307288 -608.474412017449 2556.21667893275 21 23 18
-1241.02072180861 -609.142714655379 2549.15566512677 17 19 16
-1207.22530701389 -617.49997153479 2844.13736379397 5 10 4
-1221.55315108174 -615.468321103622 2833.88857810027 17 20 13
-1157.11197136343 -625.203328250623 2838.92088751932 18 21 14
-1157.30467600285 -625.284881310395 2831.30175725049 16 19 10
-1190.81748804602 -620.38587162606 2817.42773616791 16 19 10
-1206.15230653131 -618.202058251759 2807.09444459151 16 19 10
-1187.1600519836 -621.150762837694 2803.10042927961 14 17 10
-1174.22744162551 -623.194385285687 2797.91395546391 14 15 9
-1146.15540700779 -627.504360297873 2795.33546577759 13 14 8
-1127.17128369604 -630.456189955009 2791.02029813502 16 17 9
-1123.32921281496 -631.142579943825 2784.00277292562 13 16 9
-1158.0309002945 -626.167233240067 2762.85350796398 11 14 7
-1152.16942241217 -627.155172441575 2756.21197515927 12 14 9
-1183.64241760664 -622.548410194329 2743.5309463416 13 15 10
-1287.48375078166 -607.50741678201 2690.52335747681 13 15 10
-1314.90037781033 -603.496108599389 2679.28859890708 13 16 9
-1313.06591304107 -603.873993298013 2672.3544450445 15 18 11
-1303.16417481162 -605.46326856396 2666.53264228251 16 19 12
-1288.22201322315 -607.810226979915 2661.34436951165 15 18 11
-1288.40665906556 -607.885343196569 2654.04711633357 14 17 10
-1258.34374967979 -612.505993999647 2650.71968112027 16 19 12
-1275.66963288345 -610.005043337794 2641.13484901165 15 18 11
-1306.09872084719 -605.532385722733 2629.99185319761 14 17 10
-1341.56404901754 -600.299764047268 2618.39059333414 15 18 11
-1277.23455406904 -610.076865647154 2619.00335248212 16 19 12
-1324.79211425847 -603.022495132168 2606.08707050712 15 18 11
-1323.96656371127 -603.246542623551 2598.99439417367 15 18 11
-1335.23475980327 -601.649637769491 2590.53596870184 17 20 13
-1285.03131459484 -609.30829504941 2588.8799561328 17 20 11
-1302.346590859 -606.800562396441 2579.72628673246 19 22 13
-1248.1221950739 -615.069357713208 2578.12586060443 19 22 13
-1169.7254995736 -626.984502209422 2578.68631788475 19 22 15
-1160.74913115842 -632.13762111416 2845.76454550134 13 18 12
-1175.08024020692 -630.068967893698 2835.4278837982 17 20 13
-1195.46855069878 -627.077806882463 2824.01294490134 15 18 9
-1203.73699429647 -625.929249608987 2814.98002717188 16 19 10
-1208.97498870084 -625.241120875095 2806.55005412941 16 19 10
-1188.97153658676 -628.395241340338 2802.74842108813 15 18 11
-1176.03780648595 -630.474427062863 2797.56752559201 15 16 10
-1165.12498536616 -632.24670161373 2791.9576923768 16 17 9
-1147.14747957622 -635.09614914186 2787.51851676564 15 16 8
-1154.40662551377 -634.100993753445 2778.65025022264 12 15 8
-1163.68351367962 -632.797663980332 2769.47816996854 11 14 7
-1124.71163941134 -638.961691303876 2760.68535483002 14 16 11
-1142.06141349393 -636.426648234698 2750.20339021159 11 13 8
-1281.23053159086 -615.722030047551 2691.43298604168 12 14 9
-1306.63238630333 -611.945716581857 2680.47386620946 12 15 8
-1316.90165544915 -610.479766591367 2671.7988703794 12 15 8
-1299.93916090853 -613.175502773472 2666.97206899869 13 16 9
-1286.00422295799 -615.409403852119 2661.63823656941 14 17 10
-1285.18067103218 -615.638968149759 2654.47084845479 14 17 10
-1281.33228328741 -616.33105875275 2647.69408728094 17 20 13
-1263.36866082229 -619.183032045579 2642.70959126925 16 19 12
-1305.89918832399 -612.777550862938 2630.01097509794 16 19 12
-1281.88792546286 -616.555270723776 2625.73692466681 17 20 13
-1278.04104553806 -617.24689247514 2618.90173608176 17 20 13
-1290.32228683533 -615.468257863074 2610.14395908905 17 20 13
-1296.55460846133 -614.615209296685 2602.14679854257 17 20 13
-1276.58212555813 -617.776914437639 2597.12663761622 17 20 13
-1285.83800286164 -616.459858393879 2588.79047286015 17 20 11
-1230.59925284629 -625.029619789247 2587.40320791788 17 20 11
-1228.96219206556 -625.485837228945 2572.66971467361 19 22 15
-1158.82065420144 -636.453702356117 2564.50039891367 19 21 16
-1199.30928226838 -630.342791945973 2553.06435027816 22 24 21
-1137.11418679378 -643.267994693346 2857.99611316047 10 15 11
-1191.03140134183 -635.148484000479 2832.32446919259 14 17 10
-1199.30100305866 -633.978625058277 2823.25983545796 15 18 11
-1191.41214829986 -635.310048782301 2817.27008327281 17 20 11
-1193.62221030979 -635.07804332095 2809.36796193919 17 20 11
-1199.87057986725 -634.220171149368 2800.73944706551 17 20 13
-1207.12796089905 -633.205459835163 2791.96115680023 18 19 13
-1197.22167901776 -634.8504835294 2786.25707732387 15 16 8
-1221.64014914178 -631.174634889084 2774.5160005944 14 15 7
-1212.7436983957 -632.663094541521 2768.62049036935 11 14 7
-1195.77367103525 -635.404570426278 2764.03898591267 11 14 7
-1168.71303179261 -639.712826855482 2761.04166843744 12 15 8
-1105.32358326576 -649.661215689017 2763.83840374131 15 17 12
-1059.09878546547 -656.949895557252 2763.53161790915 16 18 13
-1255.8088670186 -626.947405468944 2695.16811479763 14 16 11
-1311.47673105763 -618.399096988221 2679.76108267378 13 16 9
-1334.85923846241 -614.866850378189 2669.23734234279 11 14 7
-1303.77373391894 -619.804819176673 2666.42759487937 11 14 7
-1280.76076338441 -623.489074038258 2662.34533942092 14 17 10
-1282.96266623183 -623.250931983124 2654.75937063683 15 18 11
-1288.18980366041 -622.54137006238 2646.78606391249 16 19 12
-1278.29115276774 -624.186324676227 2640.78381313859 17 20 13
-1278.47656136885 -624.261313856183 2633.45688511032 18 21 14
-1279.67012711987 -624.178993236564 2626.0047522157 20 23 16
-1271.79061453171 -625.510023197909 2619.65029843067 20 23 16
-1242.74285561145 -630.140488473078 2615.74489017988 18 21 14
-1269.13864102005 -626.129734442808 2605.29940165328 18 21 14
-1255.21407280881 -628.403851263152 2599.52642811147 17 20 13
-1216.09508537453 -634.608118077511 2596.44009906258 16 19 10
-1246.51852569883 -629.966203657531 2585.69956748373 15 18 9
-1264.84520631512 -627.209293136299 2576.38309737335 15 18 9
-1262.00899481235 -627.753666641395 2569.313751387 18 21 14
-1172.71494386312 -641.899877397575 2563.16730825671 17 19 14
-1201.11650042382 -637.567978836427 2552.89980349104 20 22 19
-1048.00520077664 -664.937232260865 2875.64720645059 12 16 15
-1197.89436848861 -641.571302382888 2830.97539330828 15 17 12
-1161.72448033626 -647.37804670129 2830.38868746809 12 15 8
-1157.87721028174 -648.096123018302 2823.54034162877 15 18 11
-1178.26697382809 -644.99569404859 2812.18593584719 16 19 12
-1199.66372680026 -641.734943540704 2800.75519767501 16 19 12
-1211.97033381819 -639.905386834304 2791.07004145882 16 17 11
-1229.3234320919 -637.279159537895 2780.55606253581 13 16 9
-1231.53065172096 -637.040275410844 2772.77241707508 13 16 9
-1209.50916417036 -640.6235506227 2769.15615794266 13 16 9
-1202.63248569458 -641.818540841005 2762.8617038895 13 16 9
-1186.67236400369 -644.447826604501 2758.03821032563 13 16 9
-1151.53761960103 -650.105466048007 2756.26275999666 13 16 9
-1144.66646434208 -651.302346837154 2749.75040954694 13 15 10
-1267.71267928475 -632.405560391884 2693.40058937028 24 27 20
-1324.39257876133 -623.547866027553 2677.88006305053 23 26 19
-1331.63580310805 -622.505978371716 2669.68424494215 20 23 16
-1321.73047243592 -624.17694345797 2663.91513504743 18 21 14
-1306.78359709489 -626.646316189778 2658.77965299155 16 19 12
-1276.71050041751 -631.511263243002 2655.58806592699 15 18 11
-1282.94657853375 -630.628811977503 2647.46633429442 13 16 9
-1279.09801182965 -631.342941946544 2640.67290329701 13 16 9
-1256.09150318707 -635.092207235063 2636.26829152648 14 17 10
-1265.35296224428 -633.729672306964 2627.76280422296 16 19 12
-1285.70335815313 -630.608559313465 2617.96923100357 16 19 12
-1302.01854411293 -628.125418145034 2608.75866411741 16 19 10
-1256.83949291697 -635.392355447152 2606.71198566856 16 19 10
-1226.78672857311 -640.263195698568 2602.71941291238 16 19 10
-1254.56462301667 -636.167379834976 2577.45581010878 16 19 8
-1244.67485628951 -637.840327800527 2571.0762782649 17 20 11
-1228.74055915349 -640.473607881076 2565.23918284566 16 19 12
-1185.60386300827 -647.428600155788 2561.93078494709 17 20 13
-1161.94812839527 -654.584781792177 2853.01787131856 10 14 13
-1159.10972312998 -655.151858646361 2846.00988806313 14 19 15
-1170.41384594156 -653.454533599746 2836.25514540157 18 20 15
-1147.37401128392 -657.257046270618 2833.09585680919 17 20 13
-1151.60728498572 -656.692151110675 2824.69336879345 18 21 14
-1173.00881303718 -653.375773806121 2813.1357317508 18 21 14
-1179.25968862559 -652.486041621893 2804.45280612233 17 20 13
-1191.56855875071 -650.624677132452 2794.71335258462 17 18 12
-1217.00223568642 -646.657452366651 2782.71549588073 13 16 9
-1204.06548423045 -648.842907702271 2777.53858128424 13 16 9
-1197.1878692074 -650.057151640758 2771.25073279269 12 15 8
-1195.35918763303 -650.461697097818 2764.07125015893 12 15 8
-1200.59668190802 -649.731962052238 2755.70549755827 12 15 8
-1220.97432718913 -646.570748587253 2744.88998127197 12 15 8
-1195.93039518375 -650.702657015032 2741.48775610347 12 14 9
-1247.33130647254 -642.989177566261 2696.39218503406 20 23 16
-1252.5630818771 -642.255522367935 2688.26347964768 19 22 15
-1324.37668107591 -630.809659748462 2670.70424485473 15 18 11
-1295.30457555001 -635.592333630507 2667.58695641433 14 17 10
-1230.9324443014 -646.05892980704 2669.13508848553 12 15 8
-1262.38810906814 -641.102321000327 2657.49770632283 11 14 7
-1290.81408779295 -636.630957986554 2646.42544496862 10 13 6
-1283.93918620539 -637.843166577804 2640.04305620529 11 14 7
-1260.93059223078 -641.655136769474 2635.65261873898 12 15 8
-1266.15879700855 -640.918067052387 2627.65780727587 15 18 11
-1275.41963925434 -639.530399987058 2619.20341205273 16 19 12
-1278.62997889328 -639.117260077615 2611.5096258984 16 19 10
-1277.80742889774 -639.353933289217 2604.29544587374 16 19 10
-1238.67825377198 -645.769455760668 2601.38045704594 16 19 10
-1289.63651126487 -637.857763767561 2573.79815512255 16 19 8
-1247.49407572955 -644.764042229383 2570.79107527449 17 20 11
-1229.54305240709 -647.766389568886 2565.16202584029 16 19 12
-1226.70926256732 -648.327792990028 2557.97974746211 17 20 13
-1177.90426815474 -659.564551271606 2849.82697506418 5 9 8
-1178.09540102242 -659.646045995308 2842.26933771658 17 19 16
-1178.2865550786 -659.727546359992 2834.71086619208 17 19 14
-1176.45758920024 -660.138078051212 2827.53606758586 14 17 10
-1162.50770845313 -662.522970117267 2822.62412891813 14 17 10
-1178.8601475377 -659.972022122048 2812.03038661198 13 16 9
-1152.79301761278 -664.332676878097 2809.25518385971 10 13 6
-1171.16381941875 -661.451812738132 2798.35672145024 10 11 5
-1184.4830669388 -659.392976607101 2788.44841087217 13 16 9
-1169.52798091518 -661.944246974226 2783.53657057411 13 16 9
-1175.77802477388 -661.03754804515 2774.90436940746 13 16 9
-1185.05607166641 -659.636155536375 2765.7922943137 12 15 8
-1195.34235312815 -658.069491305701 2756.5605374381 11 14 7
-1181.40044186057 -660.45692834263 2751.34371609653 11 14 7
-1187.6479488592 -659.548770646286 2742.8029057337 14 16 11
-1270.15021790486 -646.509771767053 2700.32293043859 34 36 31
-1214.83838111492 -655.660145837279 2701.1687326609 12 15 8
-1264.46745412514 -647.654344360928 2686.52845053059 12 15 8
-1260.61790643503 -648.391620592774 2679.74850719038 13 16 9
-1286.02521267536 -644.34241140493 2668.86933717315 13 16 9
-1295.28856263693 -642.932961705216 2660.33099545688 15 18 11
-1296.48147091616 -642.843446954418 2652.92160812966 15 18 11
-1322.88984326359 -638.625317043635 2642.20684267885 16 19 12
-1318.02917323094 -639.525532559381 2635.65262490997 16 19 12
-1310.1439687724 -640.921368232245 2629.45104575531 16 19 12
-1303.26800799223 -642.152137682456 2623.08079989956 16 19 12
-1278.24305148043 -646.357399604644 2618.85818537437 16 19 12
-1268.34569733715 -648.084685471321 2612.7168521838 16 19 10
-1260.46603850368 -649.481634297821 2606.28801078315 16 19 10
-1284.84848482188 -645.588109051576 2596.1885935533 16 19 10
-1204.38734397231 -658.890110537989 2597.71997799641 16 19 8
-1294.47531378823 -644.318881598387 2573.29367332059 16 19 8
-1275.51060965687 -647.534386374255 2567.94574759034 17 20 11
-1226.31434248962 -655.714471827148 2565.48334534346 16 19 12
-1208.36444740417 -658.766572096731 2559.74745484567 16 19 12
-1150.41462478868 -671.642936976929 2855.2536585015 3 7 6
-1181.92851666914 -666.543439614001 2841.49398175146 14 16 13
-1204.34577123475 -662.946751145788 2829.65669704569 12 14 9
-1221.70881430243 -660.184887547125 2818.89967693912 12 15 8
-1211.79557489657 -661.937713753259 2813.35177159041 12 15 8
-1171.58135169331 -668.709325058028 2813.35371782715 13 16 9
-1160.66303080347 -670.631443436691 2807.79794391598 14 17 10
-1173.98480027946 -668.538107559253 2797.82810973425 15 16 10
-1181.2455201718 -667.448180990325 2789.00008558015 14 17 10
-1179.41699273388 -667.864288005068 2781.79284006126 14 17 10
-1169.51097839664 -669.619817977718 2775.95965090548 13 16 9
-1171.72246428405 -669.366404678203 2768.02486559541 12 15 8
-1196.14470757115 -665.428253857046 2756.40863567382 11 14 7
-1224.60198496353 -660.818536882968 2744.26166779329 11 14 7
-1224.79040835522 -660.898109886073 2736.81198954885 14 16 11
-1235.82410460723 -659.616976211334 2698.0620927611 18 21 14
-1281.41901483015 -652.148230092036 2684.06292179786 18 21 14
-1287.65776913792 -651.218599238881 2675.89657792512 16 19 12
-1278.76196744368 -652.804942699525 2669.87060041131 16 19 12
-1283.99139511662 -652.042393496047 2661.86467666687 16 19 12
-1305.36031211486 -648.594235131128 2651.72308890804 17 20 13
-1316.63958342306 -646.823012552912 2643.01897456735 17 20 13
-1313.79630584217 -647.401336239317 2636.18934230187 16 19 12
-1307.92775399747 -648.483302591394 2629.72332533932 15 18 11
-1307.10266107859 -648.725600804604 2622.6024918747 15 18 11
-1306.27749362834 -648.967816021116 2615.4753356811 14 17 10
-1271.1686253188 -654.92145931238 2612.38005664706 15 18 9
-1277.40438394163 -653.987849913034 2604.33506637592 15 18 9
-1202.9815315281 -666.497591364855 2605.38750946046 15 18 9
-1221.31912014394 -663.548045936428 2595.86087825572 15 18 7
-1220.50039585482 -663.791136239101 2588.48096140479 15 18 7
-1264.0345860552 -656.636111118832 2576.4686944959 15 18 7
-1241.03855288246 -660.576865166293 2571.44905919347 18 21 12
-1218.04572887841 -664.518533604832 2566.30301665908 17 20 13
-1226.298248851 -663.246419139346 2558.02511555771 15 18 11
-1223.46442810516 -663.824199532851 2550.82646076438 16 18 15
-1217.27419651472 -668.232471097425 2827.13705482886 13 15 10
-1222.51426347416 -667.463331384055 2818.72238729356 15 18 11
-1211.58980922332 -669.413403143465 2813.36698740182 14 17 10
-1190.56559208956 -673.06394552943 2809.81920597549 13 16 9
-1181.66516365351 -674.675465601393 2803.94702485368 13 16 9
-1188.92630684442 -673.566685707036 2795.12269997395 14 15 9
-1196.18651853692 -672.457297707 2786.33543421583 15 18 11
-1190.31757849705 -673.558910112952 2779.87281963385 15 18 11
-1165.262779022 -677.893547438403 2776.66833336198 14 17 10
-1200.98611931836 -672.099896068879 2755.58545628726 12 15 8
-1170.07032984775 -677.538799364482 2745.59546618017 11 13 8
-1223.32074723189 -669.002887281757 2707.32350317911 76 78 73
-1243.69326285307 -665.673755293723 2696.88876975038 19 22 15
-1281.21809926347 -659.44599383765 2684.07962149683 19 22 15
-1289.47549999991 -658.159153684255 2675.62677454576 17 20 13
-1310.84840303203 -654.655398532521 2665.38909432222 16 19 12
-1306.99568233637 -655.413076763416 2658.71125693591 16 19 12
-1314.24077604757 -654.294862402594 2650.52433132513 16 19 12
-1322.49388577665 -653.005319365648 2642.24209395458 16 19 12
-1305.5278469932 -655.980247746424 2637.24471399314 16 19 12
-1264.35712525229 -663.050882456388 2635.20070641837 15 18 11
-1282.69758144855 -660.054802313405 2625.60264084126 14 17 10
-1323.22295914423 -653.302292094294 2613.42851465578 14 17 10
-1270.96671602057 -662.252929280237 2612.39940367199 15 18 9
-1293.33653747796 -658.571286679177 2602.49786156976 15 18 9
-1245.49865100257 -666.991181387457 2585.80523412777 15 18 7
-1235.60566466485 -668.773767270673 2579.43381506635 15 18 7
-1220.67388330817 -671.41088728166 2573.51896891635 18 21 12
-1208.76831653253 -673.535735282174 2567.22234692289 17 20 13
-1213.9981380335 -672.75510201973 2559.21112349625 15 18 11
-1240.39150438579 -668.383649691535 2549.2474701224 13 15 12
-1201.72300020192 -678.199327050858 2837.57030978521 15 17 14
-1171.59920787851 -683.459083937016 2835.92684300699 13 15 10
-1193.00865057168 -679.915244007315 2824.31343098517 15 18 11
-1196.22972542743 -679.478493717381 2816.22542637711 15 18 11
-1186.31741284895 -681.286784196625 2810.58174413885 15 18 11
-1178.42666945352 -682.75028405629 2804.51466844501 15 18 11
-1176.5978894534 -683.17743049117 2797.31476544146 16 17 11
-1187.89948400392 -681.358310772898 2787.7802849304 17 20 13
-1182.03040051845 -682.476627169003 2781.29601645308 16 19 12
-1162.02382394148 -686.015178090277 2777.20372642968 14 17 10
-1182.4126744842 -682.639318712323 2766.1807399524 13 16 9
-1209.86701089147 -678.051753757066 2754.09090837504 13 16 9
-1185.82411575473 -682.282778751632 2750.56643271502 13 16 9
-1175.91904114826 -684.093416318348 2744.637345335 13 15 10
-1159.95807434382 -686.942626961121 2739.61074333893 15 17 12
-1215.04103322854 -677.839108098237 2708.55181116263 136 138 133
-1226.33212215108 -676.014070492269 2699.43428115872 22 25 18
-1245.69544610005 -672.802960502536 2689.20736952696 20 23 16
-1306.43035783593 -662.490185239183 2673.20724278305 16 19 12
-1299.55009787269 -663.778691947085 2666.95235486241 15 18 11
-1296.70674221889 -664.374520410633 2660.10697867524 17 20 13
-1315.05110428382 -661.331704957858 2650.40643899638 18 21 14
-1310.18963001322 -662.273302698967 2643.84854537455 15 18 11
-1301.29354899207 -663.908247243758 2637.78130082305 14 17 10
-1312.57302789439 -662.076457558007 2629.12478049222 14 17 10
-1248.20272916333 -673.247144916918 2629.8452925446 13 16 9
-1260.49315063958 -671.242284887478 2620.98095057408 13 16 9
-1276.815935751 -668.54263747124 2611.70585025149 15 18 9
-1295.15327048806 -665.495010210395 2602.28512943839 15 18 9
-1333.65578637594 -658.976148177224 2590.69492835837 15 18 9
-1288.64876048122 -666.930187050953 2581.18714845983 16 19 8
-1219.27039008512 -678.97967307396 2581.13740493074 16 19 8
-1195.26590293053 -683.220563252086 2576.10121980128 14 17 8
-1206.54549204211 -681.385501859471 2567.44390501742 17 20 13
-1203.71226737809 -681.980666414045 2560.20328750851 14 17 10
-1219.02159007951 -679.449160272211 2551.24910999159 14 16 13
-1181.30480361644 -689.20395428892 2841.53973310323 11 13 10
-1198.67455956542 -686.304756829469 2830.67713365184 18 20 15
-1171.58215524939 -691.12101727547 2828.36652490807 14 17 10
-1185.91916377138 -688.747300475529 2818.13616990907 14 17 10
-1187.12005577215 -688.653426026007 2810.41010740737 14 17 10
-1166.09580557345 -692.419616317002 2806.73944445955 14 17 10
-1151.13527042081 -695.134128241985 2801.86529878769 15 16 10
-1159.40909068956 -693.812403841879 2792.79885086303 11 14 7
-1180.81246735222 -690.208070274944 2781.48747373566 12 15 8
-1198.17295515973 -687.304661684776 2770.98230215902 13 16 9
-1186.24420744507 -689.492957221465 2765.51422169956 13 16 9
-1217.73976803154 -684.129300389039 2752.76395430373 13 16 9
-1206.82110149793 -686.141772319395 2747.11534987522 13 16 9
-1140.37142716468 -697.818193415406 2750.33639738357 13 15 10
-1138.54648396944 -698.251763031364 2742.97964203642 19 21 16
-1141.76945679379 -697.806575196348 2734.82651782679 16 18 13
-1207.57956084733 -686.462413461657 2717.12785128849 142 144 139
-1216.85400316461 -684.95982950017 2708.26530707064 106 108 103
-1253.37940752261 -678.708822669938 2695.43422288717 14 17 10
-1275.77012419738 -674.917749607344 2684.84284609443 14 17 10
-1303.203737206 -670.245682424842 2673.65368871008 15 18 11
-1290.26829599725 -672.609082952212 2668.23450127145 15 18 11
-1293.47976759926 -672.15759213585 2660.53765232941 17 20 13
-1274.49284388473 -675.577425020514 2655.82942830717 17 20 13
-1297.88360899232 -671.605456586526 2645.45508777262 13 16 9
-1276.88151524961 -675.377845651874 2640.91181800425 12 15 8
-1285.13707169181 -674.045136958373 2632.57097777867 14 17 10
-1270.19120155372 -676.761935748514 2627.13054186439 12 15 8
-1270.37708471959 -676.837351366361 2619.78460832499 12 15 8
-1270.56299792847 -676.912534906314 2612.4377497882 15 18 9
-1310.08103479922 -670.116364827438 2600.56338461493 15 18 9
-1321.35713710987 -668.251505986511 2592.07434029538 15 18 9
-1335.65689917991 -665.857066556969 2583.31263124266 15 18 7
-1310.63098229117 -670.33575966395 2578.83396222753 16 19 8
-1248.30354836484 -681.338380194086 2578.10902176159 16 19 8
-1212.1971333395 -687.759692557378 2574.38169040046 14 17 8
-1163.99843687948 -696.298754555128 2571.65348962694 15 18 9
-1234.75410194053 -684.028002153844 2557.21952708675 14 17 10
-1225.87137346028 -685.688651689449 2550.61214373032 15 17 14
-1089.94109413819 -712.694618537101 2867.14119865046 6 10 9
-1194.23546161438 -694.441473166597 2838.98458313465 10 12 9
-1195.43619716321 -694.344619266988 2831.2771592086 16 18 13
-1197.64701362255 -694.069777867962 2823.38222052149 14 17 10
-1192.78471084483 -695.041584694856 2816.82427163815 14 17 10
-1175.79847381656 -698.151583438529 2812.4806056899 14 17 10
-1186.09294124768 -696.451635551759 2803.07202249793 14 17 10
-1165.06841135992 -700.275606609737 2799.34092544196 15 16 10
-1175.3623040724 -698.575325659362 2789.95516186345 12 15 8
-1204.84688641676 -693.487253062042 2777.27934095933 13 16 9
-1199.98636788098 -694.459594923963 2770.65108324085 14 17 10
-1211.28582545567 -692.578926927899 2761.2662089487 14 17 10
-1208.44528229022 -693.194470175437 2754.28974275705 13 16 9
-1164.20227967548 -701.124029787429 2754.06505694208 12 15 8
-1118.95543414943 -709.234371723113 2753.7624328271 12 14 9
-1122.18011475315 -708.781836071166 2745.55045220346 19 21 16
-1291.35051072952 -679.214277783231 2697.07129953626 90 92 87
-1285.47795966862 -680.362940936721 2690.6899719084 13 16 9
-1304.84005186512 -677.046949835681 2680.62381468954 14 17 10
-1295.93963185189 -678.731035180552 2674.67338937329 16 19 12
-1286.03134698626 -680.593994962533 2668.81359047748 17 20 13
-1279.15190894252 -681.921372756495 2662.48484231715 17 20 13
-1274.29146367181 -682.891510283562 2655.84676320253 17 20 13
-1257.32385903658 -686.006409481449 2650.769617058 15 18 11
-1268.60866014294 -684.116737897241 2641.96723568037 13 16 9
-1287.96303082293 -680.795870213452 2632.20809817495 14 17 10
-1302.27071545933 -678.367768643196 2623.17289159783 12 15 8
-1275.21879359673 -683.271274074331 2619.19573617783 13 16 9
-1273.38718360652 -683.704089123585 2612.10035246863 15 18 9
-1283.65879457176 -681.989893604457 2603.60037715295 15 18 9
-1318.13346624846 -675.980719893293 2592.43372001073 15 18 9
-1285.03733820649 -681.959220123516 2588.86321304418 15 18 7
-1305.39002305221 -678.453154137934 2579.39351311745 16 19 8
-1288.43245110208 -681.569043788724 2573.92319141205 16 19 8
-1183.7598844292 -700.261904960955 2577.27152208436 15 18 9
-1227.30352643483 -692.637346358072 2565.39399477494 13 16 9
-1226.48468492911 -692.890191694653 2558.01750973904 13 16 9
-1240.78643488844 -690.455888677683 2549.22090953638 16 18 15
-1152.58880821336 -709.368174947687 2847.10639378658 14 19 15
-1219.48518725084 -697.519046795998 2826.61201850106 14 16 11
-1240.89580441902 -693.80266154792 2815.12864501309 14 17 10
-1179.6319526696 -704.995656799272 2811.74830554999 14 17 10
-1172.75037291369 -706.343771170979 2805.48099758057 14 17 10
-1164.85929926713 -707.873084024442 2799.35616432109 15 16 10
-1180.20529203703 -705.240905447813 2789.07688780302 13 16 9
-1196.55935495163 -702.426726079117 2778.70231816949 14 17 10
-1207.86057048793 -700.516696634995 2769.28026270941 14 17 10
-1206.02974113793 -700.959559501681 2762.13425551568 14 17 10
-1211.26923430503 -700.134869446029 2753.8016594518 12 15 8
-1167.02272823671 -708.183954570769 2753.58556344937 11 14 7
-1142.97875780613 -712.612753018675 2749.88143530704 15 17 12
-1127.0163854771 -715.593571360046 2744.76845587056 19 21 16
-1096.92053280195 -721.111889412907 2741.76471257105 14 16 11
-1311.3417352957 -682.853038997574 2694.05715432884 13 15 10
-1318.59074967769 -681.660844619358 2685.79642936683 14 17 10
-1297.57512738574 -685.544568479169 2681.66235944068 15 18 11
-1296.7492326095 -685.802735185046 2674.54650218556 17 20 13
-1314.0907540769 -682.796146069921 2664.89338818432 17 20 13
-1286.01542134994 -687.950971454188 2661.53666477081 15 18 11
-1281.15411027863 -688.934622842767 2654.91791399961 15 18 11
-1275.28475675446 -690.09962532151 2648.40339643858 13 16 9
-1270.42495388938 -691.083318123213 2641.72565527687 13 16 9
-1292.80744212467 -687.166295136367 2631.59110973201 15 18 11
-1306.1070271281 -684.881474220813 2622.69392347519 14 17 10
-1282.0789838508 -689.313732682533 2618.36359191176 13 16 9
-1255.02830573373 -694.291692759914 2614.25788294321 15 18 9
-1273.37134681091 -691.097940963387 2604.78036065086 15 18 9
-1287.67736236979 -688.629542388512 2595.85365522509 15 18 9
-1319.12638203134 -683.071574163942 2585.12168022106 15 18 7
-1307.20775734228 -685.324687589352 2579.19768518443 16 19 8
-1240.83772370228 -697.391548495133 2578.88687431277 16 19 8
-1262.20047864028 -693.648916673255 2569.30230413324 15 18 9
-1189.79318834846 -706.810568235841 2569.10527483657 13 16 9
-1225.27134178598 -700.521964773621 2558.13659101651 13 16 9
-1235.54180075753 -698.777092922084 2549.71457748789 17 19 16
-1212.20509860263 -706.250663855429 2827.99198202429 14 16 11
-1229.57515448407 -703.211458650367 2817.25866491913 13 16 9
-1200.45538400737 -708.615003849681 2815.33764407362 13 16 9
-1181.44489948678 -712.184373629067 2811.38969677108 13 16 9
-1168.50009428724 -714.653138562345 2806.23267913524 13 16 9
-1161.61900998662 -716.020767855971 2799.91572864826 14 15 9
-1165.85286084593 -715.368341656146 2791.59399219509 13 16 9
-1179.17829761086 -713.062194262051 2781.70932827364 12 15 8
-1205.63414784532 -708.366825700866 2769.64205984404 11 14 7
-1209.86428651953 -707.712570945037 2761.46737180698 11 14 7
-1219.14377497459 -706.139064338481 2752.47443352981 11 14 7
-1204.1828622629 -708.976637970789 2747.49223477829 11 14 7
-1145.79767847125 -719.720586367215 2749.41021675979 10 12 7
-1136.90299712353 -721.457638968619 2743.18795714324 13 15 10
-1299.85382706092 -692.007837563728 2702.98760728507 28 30 25
-1331.33598134123 -686.382049527031 2691.0427610744 14 16 11
-1297.19204043847 -692.714127721703 2688.9366038912 15 18 11
-1300.40390418244 -692.239150683068 2681.24032159088 15 18 11
-1299.57796410128 -692.499889281881 2674.13279829686 15 18 11
-1288.65860548281 -694.601308382926 2668.42506310954 15 18 11
-1301.96369087804 -692.28452121778 2659.34722538364 14 17 10
-1325.35921905854 -688.125361034784 2648.98771954269 14 17 10
-1288.20225900253 -695.014877458482 2646.69911916634 12 15 8
-1289.39596756558 -694.906549727407 2639.27865390438 13 16 9
-1283.52625108874 -696.087537547732 2632.75183317412 15 18 11
-1298.84540003086 -693.399356874164 2623.58183717632 14 17 10
-1298.02021031855 -693.65849153576 2616.43738426441 14 17 10
-1262.89603675044 -700.183942908947 2613.32632427612 15 18 9
-1235.84629134925 -705.236391730448 2609.09485647522 15 18 9
-1274.54984851731 -698.380508653954 2590.00913295985 15 18 7
-1312.05120227285 -691.630931814056 2578.67805337712 16 19 8
-1221.47282920834 -708.3039447766 2580.90612019387 16 19 8
-1241.83013670088 -704.68927461107 2571.37236202006 14 17 8
-1271.25970401315 -699.41250020385 2561.04933262269 14 17 10
-1216.99988238462 -709.449808448122 2558.93457820222 14 17 10
-1204.08333505807 -711.922792248358 2552.65929031683 18 20 17
-1166.32125280191 -722.013760894808 2844.36859629767 10 12 7
-1201.89152968002 -715.578268909518 2829.95712686935 15 18 11
-1208.14547198129 -714.541886367582 2821.31180533822 13 16 9
-1185.08905590096 -718.907104587983 2818.19638630456 13 16 9
-1175.1736794787 -720.851842950399 2812.52594246677 13 16 9
-1175.36504475684 -720.933699643625 2804.95883305837 13 16 9
-1181.61903004652 -719.897505468295 2796.30230434934 14 15 9
-1169.6854082637 -722.215888223366 2790.89436651041 13 16 9
-1184.02179564774 -719.687934024187 2780.84457118638 13 16 9
-1209.46929749497 -715.108174264878 2768.96408194784 11 14 7
-1209.65850589898 -715.188856546337 2761.48253164526 12 15 8
-1193.68573954871 -718.253695248643 2756.685571973 12 15 8
-1186.80574756423 -719.640524483696 2750.31463935707 14 17 10
-1169.82690447448 -722.893296393699 2745.52869384736 9 11 6
-1155.87995691543 -725.587167175657 2740.17035848025 14 16 11
-1289.92488275372 -701.266786345723 2689.99400756368 16 19 12
-1296.1664246085 -700.223621347187 2681.84062091843 16 19 12
-1290.29304466155 -701.421159409887 2675.43921091551 16 19 12
-1289.46781158718 -701.684727072194 2668.30101771637 16 19 12
-1311.85814596749 -697.651135292118 2657.98498023633 17 20 13
-1322.13383386398 -695.858379889791 2649.4100158759 17 20 13
-1296.07596952481 -700.792702699909 2645.6567213608 11 14 7
-1287.17736969971 -702.550795965958 2639.55569278116 12 15 8
-1296.44378529344 -700.944042678556 2631.11870972523 15 18 11
-1334.97039281629 -693.914407241765 2619.1260284467 13 16 9
-1293.78484327778 -701.655288349977 2616.94188360649 13 16 9
-1288.92453421036 -702.665194748823 2610.25578044388 15 18 9
-1241.69494659743 -711.531411373693 2608.41766194799 15 18 9
-1216.66433354798 -716.28416160784 2603.82827372602 15 18 9
-1201.91440134773 -719.242841732315 2590.46086609831 15 18 7
-1248.49786506541 -710.708883397516 2578.08682950082 16 19 8
-1269.86319436244 -706.851880425909 2568.52444738456 14 17 8
-1235.76383882765 -713.290598593062 2564.56123777916 15 18 11
-1219.81905243186 -716.360245517332 2558.66556185963 14 17 10
-1206.90131166696 -718.868562905559 2552.39897919339 18 20 15
-1181.46764848906 -726.8487707434 2833.87257338669 15 18 11
-1172.56106203114 -728.631146122168 2828.05761782245 14 17 8
-1177.80638106173 -727.768034390386 2819.53858106798 13 16 7
-1161.826623754 -730.87428563536 2814.97038663235 13 16 7
-1174.14604600944 -728.687963260205 2805.15810924951 13 16 9
-1205.66441928174 -722.908325859804 2791.96289095981 14 15 10
-1204.84312213147 -723.178459994361 2784.65449285174 13 15 10
-1164.61644437287 -730.825014289366 2784.20375985906 13 15 10
-1192.0878865128 -725.799486052285 2771.92495302138 12 14 9
-1216.52457850906 -721.339955188925 2760.30383522679 12 15 8
-1164.18301030831 -731.260291390102 2761.56833571928 11 14 7
-1155.47712916999 -733.127490199327 2747.81804411619 10 13 6
-1155.67014807956 -733.209367002954 2740.18628347004 15 18 9
-1104.35727900773 -742.947735836521 2740.55852758055 17 20 11
-1259.24737785084 -714.135153976108 2701.83133112272 17 20 11
-1249.33633613585 -716.107694818811 2695.96161974654 16 19 10
-1270.72588358227 -712.20750678934 2685.50840203298 17 20 11
-1293.12183350079 -708.116348145625 2675.02537594258 17 20 11
-1297.34397192743 -707.434995571746 2667.19246084503 17 20 11
-1289.45197547685 -709.027923016891 2661.03538951438 15 18 9
-1303.7673540478 -706.450381710724 2651.8599342005 14 17 8
-1311.01574748536 -705.198963274995 2643.68706812945 13 14 6
-1281.10657528817 -711.039287409933 2633.0414597237 15 16 8
-1269.18255963337 -713.391317457151 2627.22195325316 16 17 9
-1300.64811716428 -707.585912153491 2616.1092999029 16 17 9
-1301.8407294191 -707.470807361372 2608.72963406201 15 18 11
-1331.28223435701 -702.041641714227 2598.10366687712 14 17 10
-1254.79368010594 -716.539689775638 2599.53967954754 14 17 10
-1208.57813539846 -725.346794225806 2597.24088342259 14 17 8
-1217.84652881239 -723.713979051619 2588.75458354865 15 18 9
-1233.16518682591 -720.941097703251 2579.68539501396 17 20 9
-1250.49923047864 -717.787094760068 2570.49214631807 16 19 10
-1220.43248049647 -723.55893878457 2566.07875229737 13 16 7
-1222.63870566896 -723.253165624963 2558.39646914739 16 19 10
-1207.70324691525 -726.176740970224 2552.32709952503 15 18 11
-1142.84338935122 -741.676968815313 2841.29899734024 15 18 11
-1195.60320556733 -731.792358136221 2823.64955620224 13 16 7
-1164.45770180011 -737.816573263377 2822.01845860342 13 16 7
-1171.72497932366 -736.556557984562 2813.11676766195 13 16 7
-1178.99131271063 -735.296171311627 2804.25237562272 13 16 9
-1221.62835172132 -727.322389766776 2789.07484084655 14 15 10
-1217.77421901359 -728.170197670827 2782.34609069344 13 15 10
-1196.74279940057 -732.279768849889 2778.58693734222 13 15 10
-1160.55803715514 -739.268829769346 2777.31208207862 12 14 9
-1170.85394349971 -737.431761320511 2767.99449066344 12 15 8
-1137.70680555418 -743.847784436746 2765.94784905784 11 14 7
-1085.37031248553 -753.913097367311 2766.85833095996 11 14 7
-1119.91278616091 -747.468953829427 2753.51809871846 10 13 6
