ply
format ascii 1.0
comment KinectMotionCapture
element vertex 752
property float x
property float y
property float z
property uchar red
property uchar green
property uchar blue
end_header
-660.21155883495 290.99152863073 1902.75384450859 161 165 166
-664.964212709695 296.14468181306 1861.83680360436 110 114 115
-672.6452940342 298.111649111466 1842.73326074687 120 124 125
-681.267807849113 299.063622811407 1830.56943612336 132 136 137
-690.657017562642 299.148147420324 1824.3588199073 146 150 151
-699.958127943446 299.373980579729 1817.15089846915 144 146 145
-288.218565575743 267.534438469218 2225.36435148956 172 177 181
-297.234642603934 266.985354964349 2224.24064437081 165 168 175
-306.252019947921 266.435740705459 2223.11677637805 172 173 175
-314.301152929577 266.481194905382 2218.0811838044 159 161 158
-324.050824099654 265.483957491719 2219.89041023439 141 144 137
-332.837615144818 265.081327359773 2217.78724387286 139 144 140
-341.630997048599 264.677948880248 2215.68325698188 110 114 113
-349.041411490904 265.162912449307 2207.70267344153 112 116 115
-356.261992286589 265.79310258205 2198.73795073956 112 116 115
-363.300647480469 266.567980621763 2188.78762287978 154 158 157
-367.707268584452 269.111856129427 2167.06813273759 139 143 142
-371.565982648275 272.090802045742 2142.39257084907 132 137 133
-376.645898724534 274.324359082675 2122.60524888386 86 91 87
-385.921783931483 273.754304863458 2121.449174466 87 92 88
-396.900187440771 272.007466208362 2128.14571217213 106 111 107
-408.256405723113 269.968986065502 2136.81148332081 116 121 117
-419.766973297241 267.786469924335 2146.46629927099 126 130 129
-428.559515027859 267.512182061586 2143.35414990618 129 133 132
-437.767593080615 266.943879492995 2142.20653280738 134 138 137
-446.777447898636 266.521216004729 2140.07558216286 133 137 136
-456.972464435338 265.221403349681 2143.84540314147 132 136 135
-466.560009712365 264.360398467624 2144.66681606271 133 137 136
-477.284069178628 262.625224101232 2151.39506368426 135 139 140
-488.154069980387 260.746609093797 2159.1134038027 145 149 150
-498.419263162055 259.306510221951 2163.88276395658 148 152 153
-507.737967094363 258.593908751665 2163.72940850624 151 155 156
-516.33100932933 258.461190582025 2159.63409558212 155 159 160
-523.87573774727 259.19600524564 2149.62071828132 162 166 167
-531.46982920392 259.927199926727 2139.60143056696 167 171 172
-538.424716576149 261.232916863897 2125.62916982923 173 177 178
-547.314342239989 260.945725450774 2122.50493894455 174 178 179
-555.548493844947 261.233975843992 2115.43000328027 175 179 180
-564.471815573291 260.943535441497 2112.30181615079 170 174 175
-572.277241872928 261.658815766387 2102.25595673857 171 175 176
-578.863003502616 263.51979150744 2084.29730979546 175 179 180
-584.293940467374 266.522508646886 2058.41755381619 179 183 184
-592.618323737425 266.93602119432 2050.32334080193 177 181 182
-601.733460003545 266.630730824528 2047.17101519025 158 162 163
-611.00767156806 266.181043660492 2045.00714555252 152 156 157
-619.562221260043 266.444642581034 2037.89229101993 152 158 158
-628.861501373756 265.992223684883 2035.72530016938 154 160 160
-636.350734808346 267.391237225405 2020.67842341062 172 178 178
-641.998452478053 270.777234082413 1991.74730356415 171 177 177
-647.529459873755 274.437345243025 1960.81465240325 166 172 172
-653.749275760198 277.518606975535 1933.82855505577 167 171 172
-657.404200975882 283.568310509876 1885.99185294021 160 164 165
-663.331955302357 287.335023014864 1854.00172227886 153 157 158
-671.15567571182 289.110083953971 1835.8885713836 134 138 139
-680.640998512062 289.041917547401 1830.67405002708 140 144 145
-690.266027650426 288.830645478825 1826.45015810735 154 158 159
-700.36857983026 288.053867137415 1826.19939230603 165 167 166
-277.851657001477 259.44359758899 2223.656326038 250 254 255
-286.12302033169 259.333999988276 2219.60109585225 179 180 185
-295.899523792287 258.344130976927 2221.40695436659 178 179 184
-304.679942645156 257.940052898355 2219.30434676136 168 169 171
-313.467157112359 257.535186070882 2217.20113344952 149 151 148
-324.179848304836 255.961726898439 2222.92268679503 134 136 131
-332.958719045605 255.556585364632 2220.82051545435 120 125 121
-341.04084645365 255.587545275336 2215.78084354154 154 158 157
-347.523423462518 256.635112192709 2203.88357837016 170 174 173
-354.524637304189 257.387889362626 2193.93798117164 174 178 177
-361.122931709105 258.427459838596 2182.02653648044 139 144 140
-366.216192695997 260.477797717532 2163.24595901733 163 168 164
-368.093252946903 264.693899823461 2129.7445331125 158 163 159
-374.296615013772 266.1502525642 2114.85773422896 91 96 92
-384.24124308563 265.145074441381 2116.64265210175 97 102 98
-395.873627624057 262.985823539307 2126.28220474678 121 126 122
-407.657765251775 260.685563689377 2136.91063767492 119 124 120
-418.340818023389 259.10867737934 2142.63589874537 126 130 129
-427.144364655824 258.82792775352 2139.52263331944 127 131 130
-435.959571228536 258.545984902255 2136.40767567547 132 136 135
-445.584014036313 257.68887040481 2137.22447375783 135 139 138
-455.788485972344 256.401922740908 2140.993080879 135 139 138
-466.160768829734 254.972978021958 2145.74904750039 133 137 136
-476.88404340016 253.259415873224 2152.47757642604 137 141 142
-487.376339811726 251.690829756742 2158.22662090423 144 148 149
-497.274079952849 250.5519546268 2161.02542929808 146 150 151
-506.235331070283 250.126325670703 2158.90055191751 151 155 156
-515.38318463599 249.557350722073 2157.76045224934 156 160 161
-523.287666881147 249.982949072676 2149.71836830429 161 165 166
-531.580816269815 250.121532356228 2143.64439157533 165 169 170
-539.212409294532 250.825222286466 2133.62025605102 170 174 175
-547.741400625676 250.816994267044 2128.52492136246 172 176 177
-555.458074670494 251.514159187434 2118.49018541322 174 178 179
-563.880893979658 251.642540781579 2112.40005351057 171 175 176
-571.52383072108 252.474219176712 2101.36647820622 172 176 177
-577.792323306501 254.570692515801 2081.43118992449 173 177 178
-583.695890841859 257.082367459137 2058.51704714964 177 181 182
-591.559491281837 257.898525116491 2047.45597519357 176 180 181
-600.984341124188 257.306230306992 2046.28136943968 158 162 163
-609.96571459367 257.134171132934 2042.13769867642 153 157 158
-618.963702711901 256.960426427374 2037.991958942 149 155 155
-628.263393116576 256.505204311395 2035.82492427175 151 157 157
-635.890640771333 257.726222782882 2021.76897999611 171 177 177
-640.571482323327 262.013363788626 1985.90185721716 172 178 178
-644.366583080936 267.403367631749 1942.08038797984 169 175 175
-650.370560421523 270.68915180137 1913.10531320792 168 172 173
-656.010182598066 274.521049473304 1880.1430407057 159 163 164
-661.696872878404 278.48027226083 1846.16687197805 151 155 156
-670.034425630444 279.652695778151 1832.02241379863 145 149 150
-679.530517038826 279.572854466064 1826.80657932892 153 157 158
-689.993828554903 278.383854756145 1829.5349397601 163 167 168
-700.089032525556 277.610289254789 1829.28484224221 169 171 170
-282.771456967696 251.819141868165 2208.95362210215 171 171 179
-293.074630573801 250.547826889835 2212.71011093903 166 167 172
-303.842995749913 248.990439705254 2218.42467417552 158 159 161
-312.390340563803 248.725770213056 2215.34309860669 160 164 163
-322.869979171638 247.313905054642 2220.08562288669 169 174 170
-331.894507600331 246.762073425943 2218.96086832021 169 173 172
-340.920164825541 246.209811553273 2217.83597401963 175 179 178
-346.700027409911 247.655730192113 2203.00229311437 164 168 167
-354.161284192804 248.098339280241 2195.01571655825 161 165 164
-360.07567610841 249.535237208239 2180.16503067477 101 106 102
-362.933191133642 252.958671200909 2151.5822533022 111 116 112
-364.173862838957 257.509174993018 2115.13606272731 112 117 113
-372.381696043742 257.647191326824 2109.07273444676 87 92 88
-383.853586779655 255.656495629322 2117.72394451845 100 105 101
-395.911683896254 253.243785040364 2129.32617215521 125 130 126
-407.269662480055 251.259154260779 2137.99182208704 120 125 121
-417.121126394099 250.2662990002 2139.78809357539 126 130 129
-426.752590505762 249.414858730104 2140.60400049765 126 130 129
-436.171920536046 248.704566239914 2140.43808142456 133 137 136
-446.185396400582 247.571758077284 2143.22267097596 138 142 141
-456.178235779141 246.439694712536 2146.00959360866 138 142 141
-466.150269018097 245.308508901853 2148.79911041357 136 140 139
-476.484469227759 243.897518036117 2153.55978224343 137 141 142
-486.409590363885 242.768156212882 2156.35514859802 143 147 148
-496.313931162712 241.639610577765 2159.15310606646 147 151 152
-505.464243815208 241.070867165442 2158.01269890905 150 154 155
-514.615294149432 240.501598981022 2156.8722010753 152 156 157
-522.877630686002 240.628857032325 2150.80209943271 159 163 164
-530.992495975976 240.893083747641 2143.74211326083 165 169 170
-538.62305013623 241.572055149726 2133.71817247603 174 178 179
-546.642524420136 241.969487306273 2125.66205264778 176 180 181
-554.700457934854 242.364021472644 2117.60114096664 176 180 181
-563.454367577655 242.201316941311 2113.48583170908 167 171 172
-571.093429182624 243.00579985754 2102.45281161718 169 173 174
-577.038575822234 245.327052104301 2080.54190885425 172 176 177
-582.629098592361 248.054784711143 2055.6506487701 177 181 182
-590.499642862732 248.843087520407 2044.5887836198 177 181 182
-599.933179194166 248.25014974841 2043.41309553665 157 161 162
-609.070889606704 247.931598785754 2040.25822799499 151 155 156
-618.219765589521 247.611886091857 2037.10172984681 148 154 154
-626.666209387097 247.976951870219 2028.99241198317 148 154 154
-634.310753712914 249.161393462293 2014.93440550915 166 172 172
-638.730539767755 253.62577777738 1977.08401995256 168 174 174
-643.081631652122 258.350345551816 1937.22590737333 167 171 172
-648.831153719364 261.832180600657 1906.26645635706 169 173 174
-653.838905590923 266.257582698876 1868.3425585321 163 167 168
-660.311963405339 269.307730997339 1840.31725292709 142 146 145
-668.911720204367 270.17169060582 1828.1565000266 108 110 109
-678.781790820143 269.672696583837 1825.91840054981 133 135 134
-688.775672573539 269.037103957035 1824.67289700077 162 164 163
-697.959974055311 269.349400774525 1816.47163782549 157 159 158
-268.041677997452 246.069943504426 2190.65176816905 247 245 255
-279.416232345224 244.243244525876 2198.30700626882 163 163 171
-290.743533591707 242.419078063543 2205.96813460698 152 155 160
-301.286708953874 241.020123847928 2210.70245560642 136 141 145
-311.313082091395 239.904052379506 2213.4853915789 127 132 136
-321.319099223863 238.788946729491 2216.27062504828 101 109 111
-329.642212898712 238.657239844252 2212.20899494948 119 123 122
-338.921984011538 237.963213748826 2212.06044916726 135 140 136
-344.94801190227 239.229741915408 2198.20420780369 143 148 144
-352.192509061115 239.792086944065 2189.23667914866 150 155 151
-356.534124159589 242.167506571786 2167.52574499421 144 149 145
-358.078075160172 246.34974322303 2133.05805097104 128 133 129
-360.470744529698 250.10193604926 2101.50911625016 131 136 132
-371.120615661528 248.69239484543 2106.23039039752 82 86 85
-382.81874130353 246.588974157064 2115.86135164586 99 103 102
-395.098154944663 244.072096072792 2128.4441619771 136 140 139
-405.618969015131 242.669044600902 2133.18152459226 115 119 118
-415.900612512017 241.405999127304 2136.94067848205 122 126 125
-425.335829939746 240.697680628325 2136.77277155724 123 127 126
-434.968981927354 239.850967824529 2137.58821512422 132 136 135
-445.191444333565 238.590199471262 2141.35474846752 133 137 136
-455.781814555027 237.054722414898 2147.09146672251 133 137 136
-465.752355875489 235.934292059302 2149.88114138592 134 138 137
-475.510557274202 234.952188296581 2151.68926343988 135 139 140
-485.442275355711 233.833096482474 2154.48377948899 143 147 148
-495.539428690273 232.577623537615 2158.26593671835 145 149 150
-504.876386649905 231.871443899437 2158.11028636165 146 150 151
-513.847170364741 231.438787526508 2155.98423787573 152 156 157
-522.824148254924 231.005199049328 2153.85741884801 165 169 170
-531.4564459637 230.843881482694 2149.75728238833 169 173 174
-539.069711601332 231.499139692018 2139.73556155679 173 177 178
-546.052522695995 232.695577781764 2125.76010388555 175 179 180
-553.94255628698 233.206944273002 2116.71215035032 174 178 179
-562.699192813811 233.035704916591 2112.59652326991 166 170 171
-570.663407329319 233.541327876029 2103.5390872505 166 170 171
-576.443659010798 235.940909227776 2080.64086902839 174 178 179
-582.65629877804 238.061763696407 2059.70479954314 178 182 183
-589.899943896695 239.364172257964 2044.68858489134 177 181 182
-599.183043707503 238.906035532249 2042.52362830464 159 163 164
-607.582102206854 239.256083924011 2034.42026339384 151 155 156
-616.747443333923 238.929678558759 2031.26172811791 145 150 153
-624.923700216746 239.54360641396 2021.16985814936 148 152 155
-632.307881518244 240.959833284594 2005.12835884686 168 172 173
-637.023912048743 245.053502090877 1969.25735419357 172 176 177
-640.98628728687 250.072478584957 1926.42391454425 173 177 178
-646.100700358213 254.139842442944 1890.50326337823 158 162 161
-651.663507572337 257.927193494141 1856.54300714294 174 178 177
-659.051620503616 259.967489967486 1835.46045770276 78 80 79
-668.159424726735 260.267400385839 1827.26877755226 100 102 101
-677.305204798181 260.564234580581 1819.07236634153 120 122 121
-686.488895245878 260.858053940964 1810.87099181068 136 138 135
-695.131411123022 261.812764582089 1797.69697674222 119 121 120
-270.998000973619 234.944377340054 2204.42071577139 251 255 255
-281.080856712009 233.836443016558 2207.19658162032 156 160 159
-290.894985669338 232.86782703325 2208.99768872602 140 146 144
-300.202544510529 232.17606194802 2208.84566924528 136 141 145
-309.749154746392 231.346179705935 2209.67186838855 128 133 139
-318.805518320333 230.792140829193 2208.54314679686 101 108 116
-326.912377246758 230.788259939153 2203.50048028877 98 102 103
-335.512031871574 230.507599410905 2200.41265914536 111 116 112
-342.729909503392 231.049839152156 2191.44826512774 165 170 166
-349.303566754275 232.000410451699 2179.54012938388 162 167 163
-354.122583916891 234.04278487891 2159.78586953326 138 143 139
-354.56166690619 238.815127117981 2120.41582672422 124 129 125
-358.534790986462 241.523917230442 2095.72669858773 138 142 141
-370.296309113298 239.446767089523 2105.34967964618 97 101 100
-381.999502451003 237.372797576577 2114.98017118617 105 109 108
-394.711188284502 234.621155525755 2129.5250289423 144 148 147
-404.809464972262 233.50629644115 2132.29898858404 115 119 118
-415.095098084565 232.256372073326 2136.05736977069 119 123 122
-423.917828171019 231.957289943307 2132.94175864111 122 126 125
-434.778085632168 230.302036855146 2139.65279908825 132 136 135
-445.196323331427 228.919554802003 2144.40290845928 135 139 138
-456.174601625559 227.133091152698 2152.10749350948 133 137 136
-464.965979008566 226.833973311409 2148.99555483723 131 135 134
-474.727924467198 225.859633804343 2150.80318920775 132 136 137
-484.096315027653 225.155005199527 2150.6436121637 142 146 147
-494.391977470553 223.77770411726 2155.40900455817 146 150 151
-503.921406432409 222.939124485299 2156.23761099587 149 153 154
-512.716916799617 222.637384322602 2153.12516345742 153 157 158
-521.702303398613 222.200363636086 2150.99730411116 165 169 170
-529.4649992588 222.699235611401 2141.96503420704 167 171 172
-537.098906390934 223.328426494259 2131.94104635514 169 173 174
-544.271729617642 224.354486110728 2118.95001207699 169 173 174
-553.016915146633 224.176152641418 2114.83583269551 171 175 176
-561.284794779998 224.395664121295 2107.75686899416 168 172 173
-569.099686713977 225.011441480593 2097.71009036426 168 172 173
-574.57429757092 227.615619938956 2072.8338610458 175 179 180
-581.745270489586 228.884796770749 2057.82704323824 179 183 184
-589.608079244364 229.618707682081 2046.76628667368 175 179 180
-599.188465132814 228.893556400564 2046.58030791175 165 169 170
-607.724530082257 229.092907243693 2039.46792936077 158 162 163
-616.585016979477 229.025727045349 2034.33138123381 146 150 153
-624.322975158072 230.010857241006 2021.26992924088 147 151 154
-631.985877842684 231.122913089895 2007.21006264624 167 171 174
-636.966355023193 234.858761530357 1973.322373118 172 176 179
-640.371527147626 240.289193097836 1926.52639690932 171 175 176
-644.819337797672 244.916709451777 1885.64854261446 176 178 177
-649.095337440571 249.922730925434 1841.76807124321 160 162 161
-657.282184966568 251.121367800517 1826.63466405491 108 110 109
-666.786113039567 251.008866847393 1821.41793762379 91 93 90
-675.947550653055 251.28562232642 1813.21962532096 90 92 89
-684.55340480125 252.210475764586 1800.05002377867 107 109 106
-693.340253204064 253.000524928568 1787.86611759262 96 98 97
-254.137083665651 230.161246171265 2178.32029387709 232 253 254
-270.148875340655 225.932562950722 2203.54272682465 237 255 252
-279.732764950745 225.10651941042 2204.36450388207 139 153 140
-289.307102765316 224.280783259465 2205.18723186886 139 149 138
-297.888187322162 223.996946031094 2202.10173652587 122 128 126
-306.967871163519 223.441481241666 2200.97010845776 113 116 121
-316.529923100862 222.615452772143 2201.79437041921 131 133 145
-325.13109746981 222.329230846882 2198.70637426645 129 133 134
-332.803557953785 222.581119780026 2191.70163009 125 130 124
-339.114886158203 223.638202558052 2178.81802359914 82 87 81
-344.573148331535 225.228609357003 2162.00848155434 89 94 90
-350.119111279472 226.813162867289 2145.18825065453 137 142 138
-351.265274109402 231.074301454337 2108.75461626153 103 108 104
-357.040336821008 232.643899157747 2091.90559418248 133 137 136
-369.033887128539 230.461926229924 2102.50758214181 116 120 119
-380.531239605406 228.550651488266 2111.15540558649 115 119 118
-392.402822123895 226.375286529762 2121.77283727172 142 146 145
-401.891208738548 225.669493345452 2121.59828849639 122 126 125
-412.416061931371 224.297926903464 2126.33506413826 118 122 121
-421.67677533262 223.725494772581 2125.1808893342 124 128 127
-432.9660320661 221.82481928656 2133.85465398465 135 139 138
-444.002109564163 220.059517928207 2141.55197030576 135 139 138
-454.595835038137 218.561661131789 2147.28817077345 131 135 134
-464.374059176174 217.594615825233 2149.093754452 131 135 134
-473.945039974906 216.760197432698 2149.91716450764 134 138 139
-483.316805403303 216.057892022595 2149.75716018198 144 148 149
-492.870545579842 215.223556679375 2150.58272154663 147 151 152
-502.965750011224 213.994542873727 2154.36481203964 150 154 155
-511.947975769306 213.555304802133 2152.23735298704 153 157 158
-520.936356989785 213.115224171926 2150.10888771923 163 167 168
-528.173779767715 213.985227872573 2138.11813013364 167 171 172
-535.644387017781 214.71996664398 2127.10631581806 169 173 174
-542.82917315844 215.712416948437 2114.1138771479 170 174 175
-551.587886068674 215.524830739293 2109.99803399597 171 175 176
-560.198574881919 215.466068977455 2104.89263702344 168 172 173
-567.858360964554 216.186934444597 2093.85725084282 167 171 172
-573.9780706949 218.204686227995 2072.93304999404 173 177 178
-581.460715681865 219.175744969522 2059.90373690345 178 182 183
-588.854723703594 220.271902075524 2045.87722837307 175 179 180
-597.681724286748 220.196968620873 2040.74463928932 167 171 172
-605.787629199767 220.767005828495 2030.66190468389 161 165 166
-614.380429489196 220.945781202243 2023.54250008266 145 149 152
-623.149296023452 220.992810961271 2017.40915750055 146 150 153
-631.242919752809 221.682037093483 2006.31971426751 167 171 174
-637.599276136735 224.04065442904 1982.34178209478 172 176 179
-641.378093904914 228.961771522364 1938.52357967485 172 176 177
-643.933480547699 235.279684081622 1883.76909692904 177 179 178
-648.467521366193 239.911839790977 1841.87278230317 173 175 174
-656.652575920778 241.072368685593 1826.73969922311 77 79 78
-666.032135535743 241.076733796163 1820.53049837949 83 85 82
-675.317251159676 241.206507489887 1813.32482596162 115 117 114
-684.040525598339 241.971190996691 1801.14867996127 138 140 137
-693.05573477763 242.476730862573 1790.95263941061 174 176 175
-267.774379935272 217.713322649883 2196.80640466533 208 232 242
-277.126199930665 217.024262177882 2196.64885453172 132 149 141
-287.469360470918 215.803492831254 2200.4002201255 136 148 138
-296.556129678843 215.247606524406 2199.26770895558 124 129 123
-305.400834608961 214.823818204367 2197.15737100292 115 116 118
-314.252187561297 214.399245530117 2195.04596521322 115 116 121
-323.110162752528 213.973954874168 2192.93397516678 125 129 128
-329.856839202183 214.736358035064 2182.01243028207 149 154 148
-335.030229718984 216.418201723871 2164.23051064188 120 125 119
-339.606827308849 218.489168351962 2143.49874092604 94 99 95
-345.428762717942 219.895236942301 2127.65198715774 107 112 108
-355.988318080497 223.478303020771 2090.04540270789 152 156 155
-369.085515289511 220.672890234151 2105.55021989373 112 116 115
-381.226215560228 218.396282283117 2117.1420209925 146 150 149
-392.442914496648 216.646409011191 2124.81675619661 125 129 128
-401.712788753076 216.07405022537 2123.66143797883 125 129 130
-411.40036102273 215.240416088409 2124.47029604286 125 129 128
-420.872546515302 214.537118202269 2124.29776250052 133 137 136
-431.557854320584 213.053344436835 2130.02249694754 139 143 142
-442.206349777788 211.57131860733 2135.75182075483 133 137 136
-453.213034336146 209.831689041543 2143.45273753529 130 134 133
-463.392599404832 208.612858610202 2147.22427350195 134 138 137
-473.546180290611 207.395029080217 2150.99928977392 140 144 145
-482.726474327324 206.824524987126 2149.85514575371 143 147 148
-492.654419343944 205.737326300798 2152.65004866959 146 150 151
-502.377556730486 204.779762555701 2154.46248187971 149 153 154
-511.360102333504 204.337577720728 2152.33499067254 151 155 156
-519.991617620625 204.151614872351 2148.23501675693 160 164 165
-527.584770136149 204.734337773375 2138.21599694328 167 171 172
-533.841903339647 206.339227642569 2120.29903527795 174 178 179
-541.725927584894 206.785399492647 2111.25176309257 173 177 178
-550.32497987623 206.716808216014 2106.14784417486 172 176 177
-558.781229291678 206.774051127382 2100.05372773378 168 172 173
-566.290983913965 207.594184488965 2088.02887580704 166 170 171
-573.062622487538 209.046875593177 2071.05603509021 171 175 176
-580.078272926911 210.366386579082 2055.06054068968 174 178 179
-587.175608624063 211.680275689899 2039.05486725689 174 178 179
-596.172992726546 211.466110182251 2034.90954961556 168 172 173
-605.038175253625 211.377188074432 2029.77223248955 163 167 168
-613.633182794146 211.539339508558 2022.65259621499 145 148 153
-622.404475294018 211.572421397131 2016.51922788668 144 148 151
-630.921737344632 211.855665268461 2008.40128779882 167 171 174
-637.821256133782 213.64787694367 1988.38805243972 173 177 180
-641.577036758667 218.452928360903 1944.5730305739 175 176 178
-643.179434331986 225.504502825066 1882.88101266387 165 167 166
-647.060417879188 230.652233985743 1836.02616221532 162 164 163
-655.641401524769 231.397586834201 1823.86806444007 86 88 85
-665.028817856148 231.387834767011 1817.65792030177 111 111 109
-674.808604628268 231.000725976239 1814.42286570221 163 163 161
-683.051729650624 232.234843262114 1798.27441461174 179 179 177
-692.074123212916 232.715349759456 1788.07754341704 186 188 187
-265.397694461344 209.45471563881 2190.07045948445 140 168 215
-274.517219520367 208.897130790499 2188.93386505101 129 147 151
-284.136021362441 208.07877452067 2189.75102475539 132 143 139
-294.484385155678 206.87063341268 2193.50170775794 135 138 129
-304.07622140752 206.053221121104 2194.32247039136 131 132 126
-313.417650766033 205.365748286288 2194.16621276681 124 124 122
-321.325657544697 205.455167675454 2188.14018876127 130 132 127
-328.555450233061 205.930508535195 2179.1747242596 129 134 128
-333.035877296902 207.952806666366 2158.45508422361 138 143 137
-338.08571717764 209.710014613609 2139.68045713635 130 135 131
-343.006586351402 211.589639871023 2119.91415561978 92 97 93
-347.581861200428 213.719763310005 2098.17446781989 46 51 47
-354.713834496827 214.428864614837 2087.2049805351 160 164 163
-367.822517744627 211.668855495133 2102.70824476226 125 129 128
-379.974022843271 209.426735585779 2114.29860665935 158 162 161
-389.917316836844 208.468554233413 2116.0835672529 122 126 127
-400.056743660193 207.382992656862 2118.85207417831 124 128 129
-410.17562998507 206.298294215399 2121.62338243219 131 135 134
-420.891354494232 204.831843138354 2127.3442754357 135 139 138
-430.554722703634 204.003988710708 2128.15589853397 137 141 140
-440.809441251897 202.794766123603 2131.9182707575 133 137 136
-450.84048759014 201.713690257203 2134.70029111375 131 135 134
-462.215682529925 199.745568439288 2144.37119589982 133 137 136
-472.955518617378 198.160637967327 2151.09731929911 138 142 143
-482.894587546199 197.083838951704 2153.89080662935 140 144 145
-492.626029186425 196.134226729285 2155.70218257765 143 147 148
-501.789514183383 195.563599024655 2154.56013655174 148 152 153
-510.590839734874 195.244407854362 2151.44700926928 150 154 155
-518.867525079595 195.301503922324 2145.37530174935 161 165 166
-527.171915276525 195.356444334055 2139.29990223577 167 171 172
-533.42387281893 196.91496116823 2121.38370858409 173 177 178
-540.79239625825 197.715308173971 2109.37677384943 172 176 177
-548.724871163067 198.135878172482 2100.32352272974 172 176 177
-557.197012583071 198.178312845542 2094.2274620574 170 174 175
-564.884141283947 198.8425517363 2083.18881280375 168 172 173
-572.146477750693 199.876714472505 2069.17889936498 172 176 177
-579.322615671575 201.030417877365 2054.17174109083 175 179 180
-586.266198441318 202.427390862454 2037.1773492178 175 179 180
-594.965555429636 202.452929347064 2031.05273761259 170 174 175
-603.692445677897 202.47617880915 2024.92493631612 165 169 170
-612.007904619601 202.868588028313 2015.82396521321 147 150 155
-621.372136983024 202.392293116534 2013.64893158254 143 146 151
-630.037720137369 202.532360293384 2006.52054604671 166 167 171
-637.078128223597 204.149203187581 1987.49811773064 175 176 180
-638.79792533803 210.683512957757 1928.81611281341 176 177 179
-639.371792099033 218.549719868874 1859.18832683957 166 168 167
-645.261117247856 221.726585691449 1827.20454525264 139 141 140
-654.247143439347 222.072692596633 1818.0200132568 123 125 122
-663.775137256412 221.925781450659 1812.80037418112 117 117 115
-673.446792350497 221.654623791891 1808.57082132434 120 120 118
-681.704211522852 222.846684371802 1792.42093743204 88 88 86
-266.837427939348 199.240100954923 2197.97966640524 138 168 206
-274.424389918034 199.44909151894 2190.98570490811 129 141 139
-283.540177388549 198.890968387969 2189.84957832117 127 131 130
-292.903782625644 198.205101297008 2189.69078931815 136 134 135
-303.238430786658 197.010791165339 2193.44290725839 137 137 135
-312.341993265359 196.452401698146 2192.30830697954 131 139 128
-320.016459991916 196.654294791599 2185.30344409814 130 135 128
-326.546215683172 197.486844877547 2173.40109781403 128 133 127
-330.806674741363 199.579842394063 2151.7010352022 130 135 129
-336.333208795913 201.033973559674 2134.88333210728 132 137 131
-341.264614866346 202.860697995289 2115.11561469199 142 147 141
-343.601186967762 206.192138363561 2083.57478861514 29 34 28
-355.882684749473 203.977988544912 2095.14885453565 147 152 146
-368.534120818721 201.516443017765 2108.69278004911 156 160 159
-381.105684565185 199.059420959058 2122.2469015126 160 164 163
-390.600128333662 198.360946062084 2122.07157756784 122 126 129
-400.513067528572 197.412074175352 2123.86030174466 127 131 134
-410.202193270826 196.588613290336 2124.66893915361 136 140 141
-420.705375309793 195.266262397328 2129.40804935122 135 139 140
-430.364161504079 194.443808621668 2130.2204703042 131 135 136
-440.21367674277 193.497125817001 2132.01710365094 130 134 135
-450.245797078883 192.426612080992 2134.79896216361 130 134 135
-460.842713275787 190.984631155728 2140.53461730083 131 135 136
-472.172590547233 189.048632850374 2150.2113331366 136 140 141
-482.494955598588 187.734785066543 2154.97298583265 137 141 142
-492.972927215587 186.298711876191 2160.72370926118 140 144 145
-501.754627229309 185.975575134566 2157.61304152033 150 154 155
-510.547930019706 185.651281174129 2154.50092886904 155 159 160
-518.458213304421 185.941211842574 2146.4587185333 161 165 166
-527.288233788208 185.61365556424 2143.34227259088 167 171 172
-534.04745090083 186.758113259309 2128.38692764831 167 171 172
-541.908071511832 187.16164385903 2119.34292866107 169 173 174
-548.635790531254 188.418992213784 2103.38353010259 170 174 175
-556.272388987473 189.059366156956 2092.35124957223 172 176 177
-563.801000523175 189.817951453552 2080.32444676755 171 175 176
-571.069724248108 190.816053135982 2066.31383120222 173 177 178
-578.252093417736 191.930958204919 2051.30599747911 176 180 181
-585.665281683663 192.918990695165 2037.27738010998 177 181 182
-594.971801401059 192.445118244134 2035.10954229687 172 176 177
-603.836634146572 192.334091347182 2029.97232703371 168 172 173
-611.991303565479 192.826458818884 2019.88371144672 150 154 157
-620.626275746125 192.952500404021 2012.75918291534 144 147 152
-628.729906477319 193.55885157406 2001.66870911589 166 167 171
-634.951234422978 195.849036664696 1976.69988054093 174 175 177
-636.284590490657 202.584712315731 1915.04250959726 176 177 179
-636.486354238306 210.621239342811 1842.43740978436 167 169 168
-643.458663013537 212.750461515757 1818.38321449866 154 156 155
-652.723276931652 212.833345476666 1811.18022405492 86 88 85
-662.145319957111 212.793945142991 1804.96583678756 94 94 92
-671.350341466261 212.991300505071 1796.7622945696 94 94 92
-679.996393839094 213.782413290349 1783.58802872778 94 94 92
-256.37284560792 191.000530721945 2196.28398146585 48 85 153
-264.459115582762 190.943554549153 2191.24402416174 132 163 194
-273.576522645425 190.385268518674 2190.10769588826 132 143 135
-283.194007626157 189.57715141704 2190.9252332334 132 132 130
-292.308743339194 189.018318900558 2189.78923976772 125 123 128
-301.91264026125 188.210407988246 2190.60823201052 129 130 132
-311.024619793103 187.65109411221 2189.4725837676 122 132 121
-318.706545435667 187.835762458867 2182.46707568707 110 117 109
-325.242734670893 188.637501591399 2170.56376740552 129 134 128
-330.440616325903 190.177617068939 2152.77916465227 122 127 121
-336.422945004525 191.340872313178 2137.92096155941 124 129 122
-344.34188363822 195.993588451576 2089.55581469446 43 48 42
-354.163763536436 195.169222718332 2090.34764728372 138 143 137
-366.831745297137 192.747266591388 2103.88964400416 156 160 159
-379.202897017915 190.452563594915 2116.46042087523 143 147 146
-389.142622099336 189.510316539297 2118.24578488552 122 126 129
-398.855712203932 188.691000091235 2119.05118050075 132 135 140
-409.185672531922 187.505143184564 2122.80410146231 133 137 138
-420.520401454781 185.710145804599 2131.47191315282 132 136 137
-430.581398934996 184.64937853407 2134.25014230165 131 135 136
-440.220292254118 183.832939963014 2135.06502992702 131 135 136
-449.255247966435 183.381354500765 2132.93102300428 133 137 138
-460.44523085571 181.59357758045 2141.61687912923 133 137 138
-471.389447721577 179.929860441871 2149.32515132699 136 140 141
-481.905952647278 178.510829250478 2155.07078087816 139 143 144
-491.823841797303 177.456225057305 2157.86709313906 140 144 145
-501.536424000616 176.523252475953 2159.68077881368 147 151 152
-511.051666350265 175.711374095773 2160.51084507118 154 158 159
-519.124030336393 175.862686223889 2153.4564601673 161 165 166
-526.876800028445 176.251886167896 2144.42595807641 167 171 172
-534.152495260057 176.998006615654 2132.430750557 169 173 174
-542.001342109294 177.380247278746 2123.38803666318 169 173 174
-549.557558132107 177.998687891184 2112.36584514594 172 176 177
-556.506254935667 179.091361888492 2097.38723089739 162 166 167
-563.694159569656 180.059346256344 2083.38678038968 168 172 173
-570.632650205864 181.260894354016 2067.40122572748 169 173 174
-577.338005934596 182.694762586237 2049.42877892027 173 177 178
-585.06440678997 183.409124667191 2037.37740963808 175 179 180
-593.915116415767 183.288429169882 2032.24222258743 170 174 175
-603.086585795516 182.928816055124 2029.08300999322 166 170 171
-611.38953942487 183.27800918266 2019.98395355614 154 158 159
-619.880050278436 183.505800616911 2011.8692576228 148 152 153
-627.420325605141 184.556666835742 1996.81692797123 158 162 161
-634.067181051895 186.426985852473 1974.81964361424 173 177 176
-636.210813259803 192.290194014873 1919.10981546855 179 181 180
-635.990700488065 200.483818274148 1843.53364807787 179 181 180
-641.783496195722 203.606374656962 1810.5543687183 120 122 121
-651.324639750027 203.437212887446 1805.33290696064 119 121 120
-660.512685019851 203.617016409424 1797.13152949912 125 127 124
-670.350046682072 203.209848529825 1793.8895829873 131 133 130
-679.720055910922 203.267952241384 1786.67350508977 127 127 125
-255.262058002274 182.064610056124 2194.43075942476 111 144 189
-263.86311309948 181.751309211087 2191.34260919904 146 173 190
-272.728595624571 181.314790300279 2189.22971185093 132 142 133
-282.349402922679 180.511475708222 2190.04658167452 135 135 133
-291.713980269528 179.830264741477 2189.88765909621 125 124 130
-300.830355624599 179.270640965176 2188.75146309665 126 127 132
-308.499367831062 179.439735726169 2181.74736728035 119 129 121
-316.202067179614 179.606385811906 2174.73907394584 108 115 108
-322.522221212117 180.497684889182 2161.85480262928 119 124 118
-329.141807019771 181.263535922865 2149.9414217273 122 127 121
-336.052680412276 181.904485101828 2138.99970587959 115 120 114
-342.156733653933 187.393020942152 2082.79662728888 74 79 73
-354.223760523921 185.368993168962 2093.3892701334 165 170 166
-366.886624230586 182.988004043258 2106.93179767159 158 162 161
-379.469584224698 180.611505516829 2120.48404462615 118 122 121
-389.828321263423 179.438059111374 2124.23334174172 129 133 134
-398.678979535312 179.103601558627 2121.11409823088 130 134 137
-408.168652686581 178.409402103134 2120.93935837172 133 137 138
-419.510962503766 176.640916207586 2129.60615419439 133 137 138
-430.800175323575 174.875335117975 2138.27956855871 133 137 138
-440.027213472221 174.302689267364 2137.12959678992 133 137 138
-448.85878786355 173.967270111209 2134.01297763563 131 135 136
-459.461676833939 172.5625933893 2139.74778916674 131 135 136
-470.606086447071 170.80426626269 2148.43925501214 135 139 140
-481.317067202656 169.285432615948 2155.16856505388 140 144 145
-491.048663756825 168.359669540423 2156.97985886395 142 146 147
-500.580226199483 167.552427588803 2157.8081165292 146 150 151
-510.101707357023 166.745320234271 2158.63763192477 155 159 160
-518.716742370877 166.526753818557 2154.53980051016 163 167 168
-526.289270266851 167.011651787092 2144.52361214558 169 173 174
-533.041901815271 168.079549618483 2129.5695309289 171 175 176
-541.240275314695 168.204977281905 2122.49948894854 170 174 175
-549.134844576694 168.561819759507 2113.45113605313 165 169 170
-556.741861125079 169.149103962028 2102.42268697992 159 163 164
-564.403614220904 169.732453215882 2091.38741747174 166 170 171
-571.639038273771 170.661338119904 2077.38113978853 170 174 175
-577.999642569855 172.283007264742 2057.43584715856 173 177 178
-585.238161259544 173.317141849625 2042.42097874476 175 179 180
-593.009644980076 173.997994408699 2030.36407163366 172 176 177
-602.336208260285 173.516604098591 2028.19375230042 169 173 174
-610.200553853867 174.190612625515 2016.12503433133 154 158 159
-618.557150906916 174.513962675895 2007.01935156893 147 151 152
-625.967666618912 175.641006756083 1990.97508717154 155 159 158
-632.905044554393 177.222826555778 1970.95792154305 171 175 174
-635.86644746974 182.245820047836 1921.19485624974 180 182 181
-635.228851368244 190.579808203949 1842.64711710384 172 174 173
-641.933276740083 192.812770085165 1816.61046442322 108 110 109
-650.690973844182 193.320239613152 1805.43862740852 119 121 120
-659.753251386954 193.595199740122 1796.24500732609 129 131 128
-669.348654780639 193.410490067379 1791.01705547484 135 137 134
-678.84602751404 193.337770948278 1784.79311498037 130 130 128
-251.83064436589 174.194714037418 2183.79418549625 126 155 187
-260.716406048209 173.75409628487 2181.67876822335 119 143 153
-269.861390541294 173.193277025298 2180.53900512077 133 140 132
-280.256284418945 172.03559318484 2184.28374856645 140 140 138
-289.637451752367 171.355741585633 2184.12251180731 140 139 147
-298.526051855512 170.913599260062 2182.00674433119 126 129 136
-305.971558464661 171.183599311799 2174.02258786339 112 121 118
-314.172957464025 171.094949462149 2168.96810628042 116 122 118
-320.743769807865 171.833747938322 2157.06088326032 128 133 129
-328.776324984025 171.858675963683 2151.01948618681 108 113 109
-334.990634373352 172.826542995412 2137.1405349188 120 125 119
-343.329440123129 172.727977468272 2132.06917216704 155 160 154
-342.449097810361 177.457252562278 2086.81753639323 106 111 105
-352.726011590449 176.407216283044 2089.56879220464 165 170 166
-364.74263793632 174.418378042567 2100.16739179749 142 146 145
-377.347517140106 172.081156453487 2113.71704019859 117 121 120
-388.370221081816 170.568413543224 2120.40743298985 135 139 140
-398.291300661383 169.642673055398 2122.19508037908 129 133 136
-408.615657942426 168.483839053813 2125.94862940391 133 137 138
-420.153067627261 166.626499831501 2135.59899900678 133 137 138
-430.613051231527 165.354561740015 2140.34360762208 133 137 138
-440.036117662851 164.665680514323 2140.17716588243 133 137 138
-448.859660012285 164.325009853783 2137.06156290914 132 136 137
-459.651764888 162.823612984752 2143.78070322115 131 135 136
-470.015596527356 161.556008659515 2148.53729962041 133 137 138
-480.157557696288 160.405539477632 2152.31358857327 136 140 141
-488.585200163703 160.2953398186 2147.23092989368 139 143 144
-498.514322154041 159.260952657411 2150.02578712167 150 154 155
-508.422540262571 158.227536356427 2152.82301020506 156 160 161
-517.233154000412 157.884581264764 2149.70878639329 167 171 172
-524.64135927944 158.458641315855 2138.70518261648 170 174 175
-532.10440626326 159.028789580249 2127.69474522067 169 173 174
-539.622265437247 159.595027938197 2116.67747788418 167 171 172
-547.700797897165 159.814667281773 2108.61445615575 166 170 171
-555.817859662142 160.03134444885 2100.54663399862 166 170 171
-563.810176251006 160.359086261093 2091.48615945027 167 171 172
-571.685919522016 160.797317409813 2081.43249476362 172 176 177
-577.875051879775 162.481427988652 2060.50050901359 175 179 180
-584.793354227912 163.704547680876 2043.50972982417 176 180 181
-592.103519440172 164.695179101721 2028.48603491195 175 179 180
-601.435822211639 164.210556487851 2026.31500783629 173 177 178
-609.598142435885 164.628348675974 2016.22539359664 160 164 165
-618.242405596858 164.704321039953 2009.10007773009 151 155 156
-625.645427198532 165.790693947523 1993.05685565945 153 157 156
-632.713445976271 167.208722005002 1974.03126499536 165 169 168
-634.569743409249 172.996401217506 1916.34211923729 178 180 179
-635.133779034883 180.108584807163 1846.7175458246 175 177 176
-640.908558759887 183.057240662115 1813.74073244527 120 122 121
-649.545206223607 183.648517620329 1801.57609390797 111 113 112
-658.742781047696 183.789432129777 1793.37362962726 115 117 114
-668.223545822912 183.704632150638 1787.1517935223 139 141 138
-677.851354629166 183.506391406217 1781.91983330074 131 131 129
-248.653769654299 166.146658407459 2174.13424315867 131 150 165
-258.587673012959 165.233628047847 2175.92025674442 148 166 168
-269.517114806014 163.854253569341 2181.61424978126 123 128 121
-279.410770982937 162.9430107977 2183.40528126979 120 122 121
-288.300707421449 162.49806598015 2181.28935440718 118 118 126
-295.486076902053 162.866019547398 2172.32971645982 120 123 130
-302.957674314841 163.114885526638 2164.34211940107 142 151 150
-311.424804612524 162.897323165005 2160.26298324524 152 158 156
-318.491061302788 163.37281728593 2150.30999929878 153 157 156
-326.541959961712 163.382571872078 2144.26635302577 145 150 146
-331.849251720492 164.775161118616 2126.46848504348 142 147 143
-346.837899224572 161.321416187533 2149.80118536602 160 165 159
-344.096630692402 166.851490595242 2096.71745571446 104 109 103
-353.456043045441 166.273278413295 2095.55097908628 155 160 156
-365.018526024203 164.547173834275 2104.19018699034 131 135 134
-376.52817763723 162.823957138932 2112.83598033137 134 138 137
-387.984909340641 161.103633968021 2121.48837014427 133 137 138
-398.328334682963 159.957378544015 2125.23926619381 137 141 144
-409.273983853241 158.470091402958 2131.93944819688 132 136 137
-420.177487799319 156.985038734241 2138.64464352163 132 136 137
-431.038726625512 155.502203322585 2145.35534771314 133 137 138
-440.85133305287 154.589432495747 2147.1562574866 133 137 138
-450.053100744699 154.017351379907 2146.00943783421 134 138 139
-459.647535888847 153.218317264667 2146.82982774296 134 138 139
-469.425235251292 152.306488694963 2148.63533149909 132 136 137
-479.949385936333 150.943497479777 2154.37985932542 133 137 138
-488.371346237344 150.822494261294 2149.29817846613 137 141 142
-497.926090897463 150.024196991918 2150.12351957219 149 153 154
-506.559071883084 149.788123434129 2146.02349471083 154 158 159
-514.849832970181 149.774952966336 2139.94997539716 165 169 170
-522.991476130007 149.871655110886 2132.88708867542 167 171 172
-530.469485641882 150.413288384647 2121.87485913778 166 170 171
-538.688318463456 150.504266855129 2114.80235467569 164 168 169
-545.927508776657 151.261919893777 2101.80398528542 164 168 169
-554.228856793938 151.346805562016 2094.72119945991 167 171 172
-562.563275766499 151.42910664306 2087.63429338111 169 173 174
-570.93076940666 151.508882622603 2080.54326642909 171 175 176
-577.751523932376 152.694738915024 2063.56475876305 174 178 179
-584.504163423802 153.985307470599 2045.58678859639 176 180 181
-591.807012680643 154.938006094069 2030.56434683557 174 178 179
-600.235080075597 155.112952372986 2022.45782291127 171 175 176
-608.112901685715 155.725725767841 2010.38782474427 162 166 167
-616.483945830092 156.004227279302 2001.28021690858 154 158 159
-624.756936017727 156.389288612917 1991.17687790731 154 158 157
-632.10584069151 157.538423016756 1974.13255693097 163 167 166
-639.621010355866 173.502090526532 1808.88789826227 104 106 105
-647.75706821526 174.498436366847 1792.75343468341 115 117 116
-657.35478951067 174.292228346733 1787.52525018686 118 120 117
-666.36040337587 174.627243043428 1777.33061587789 131 133 130
-676.375335730372 174.090951066918 1775.07453673536 137 137 135
-244.182952638307 158.614753526132 2159.59574214665 150 167 177
-255.435382112974 157.136019506524 2166.25737698832 143 157 158
-266.89884461431 155.545501585812 2173.90089790173 128 133 127
-277.564975126713 154.299160594794 2178.61971319257 129 130 132
-285.973833174124 154.07754412107 2174.54761947669 106 106 114
-292.9322746891 154.535719199593 2164.60813583579 97 100 105
-300.424617064755 154.763736952659 2156.61824510011 94 103 102
-308.434538712524 154.762637159136 2150.57998136921 103 109 107
-315.763047150208 155.098565988677 2141.60232459351 120 124 123
-323.136133636726 155.431358833584 2132.6193532681 138 143 139
-329.629000192138 156.211829487553 2119.71382031246 97 102 98
-340.071921708242 155.074945026679 2123.45251541837 18 23 17
-345.296412380234 156.523520615466 2104.65690571722 133 138 132
-354.634548215802 155.946245814449 2103.49308180407 140 145 141
-365.075751947198 154.808425647957 2107.23199374351 126 130 129
-375.055741734899 153.895535011209 2109.01225564741 134 138 137
-386.31044524875 152.313058179338 2116.68156700363 130 134 135
-398.154452023352 150.398554685042 2127.30175300928 146 150 153
-409.096396186929 148.933090642785 2134.00209963619 137 141 142
-419.375720551971 147.803343538806 2137.7611919034 136 140 141
-429.424865810538 146.785793801506 2140.5407863276 132 136 137
-439.856278586974 145.547477903101 2145.28887187045 131 135 136
-450.057514113096 144.421389114223 2149.05745926032 132 136 137
-459.840571743066 143.517550437943 2150.86227329524 132 136 137
-469.221767496969 142.834832866848 2150.70128080557 135 139 140
-478.979652494804 141.931701998826 2152.50923437218 140 144 145
-487.594598956641 141.689162764198 2148.4114771399 141 145 146
-497.338012230681 140.786087856253 2150.22123654472 147 151 152
-506.153404963602 140.431869292898 2147.10644600457 155 159 160
-514.980415230511 140.076492570604 2143.99020871483 163 167 168
-522.933525602331 140.266616484307 2135.94291664934 165 169 170
-530.227727860507 140.890501044573 2123.94572146628 169 173 174
-537.238787198681 141.72812029384 2109.9676835179 166 170 171
-544.65882293573 142.343242011895 2097.95480813723 163 167 168
-552.970428272552 142.410871460564 2090.87078770252 166 170 171
-561.315078762348 142.475977687986 2083.78265007289 170 174 175
-569.371081854262 142.755169271242 2074.71435568076 167 171 172
-576.205824157414 143.896181432354 2057.73446078696 170 174 175
-583.438533884698 144.815392389353 2042.7206199446 173 177 178
-591.205758444774 145.405917715757 2030.6644822251 169 173 174
-599.333035142169 145.77688059674 2020.57936453373 164 168 169
-607.951419881803 145.821950466022 2013.45711925306 160 164 165
-615.735050494275 146.508100801344 2000.39099523196 155 159 160
-623.867801787195 146.975444809977 1989.29725342898 155 159 158
-631.219862406908 148.08054207284 1972.25265457949 161 165 164
-636.611582014851 150.781228197572 1940.33198495579 179 181 180
-637.283159289342 164.769646211361 1796.10175148398 97 99 98
-645.580764267898 165.616570429593 1780.95544864315 112 114 113
-655.462101838789 165.185158261315 1777.70783777563 125 127 124
-664.370854133189 165.599811692921 1766.5173943941 132 134 131
-674.536151212505 164.953060037274 1765.25052861268 146 146 144
-245.390438470114 148.54424269694 2166.52586561008 230 238 249
-256.114392717944 147.310910354836 2171.23743058278 133 140 146
-267.31325567 145.856521458539 2177.90568609777 129 133 134
-276.468532791345 145.293493722474 2176.76464435197 120 121 123
-285.130057699566 144.952036175061 2173.66926226974 115 119 120
-291.600203201498 145.6066764984 2161.77458323514 117 121 122
-298.857554559445 145.925342346035 2152.8060921725 114 118 117
-306.159341942592 146.24096583227 2143.83182349983 131 135 136
-313.269010193871 146.663769138774 2133.87380107533 126 130 131
-320.662528852867 146.97307103872 2124.88810152942 135 139 138
-323.936435938828 149.258678174165 2098.27173151227 45 50 46
-344.69176900288 147.114944610808 2104.75713878613 174 179 175
-355.369691770723 145.880453768003 2109.47445126626 128 133 129
-366.016421106525 144.647532070504 2114.19565237001 133 137 136
-375.978391537304 143.743612977396 2115.97813935689 142 146 147
-386.785852605278 142.40434893827 2121.68724923766 140 144 145
-398.406340077237 140.631837972202 2131.32702783166 144 148 151
-408.500353839096 139.622926375733 2134.10100018366 138 142 143
-418.159851243621 138.831811303923 2134.91324985244 137 141 142
-427.809555176623 138.040931938209 2135.72672106785 139 143 144
-438.860706627486 136.493430168853 2143.42134241256 137 141 142
-448.869673348717 135.488264335605 2146.20591826811 131 135 136
-458.269379589519 134.807293927676 2146.04261117801 133 137 138
-467.47114858569 134.233809257225 2144.89579505906 133 137 138
-477.627712846273 133.122660028277 2148.66991781597 135 139 140
-487.57006070842 132.120008759015 2151.46304095801 144 148 149
-497.491659594566 131.118199037185 2154.25851096467 147 151 152
