ply
format ascii 1.0
comment KinectMotionCapture
element vertex 751
property float x
property float y
property float z
property uchar red
property uchar green
property uchar blue
end_header
-374.057886023237 228.596607322246 1677.83947833651 198 200 195
-374.056368273559 228.153095703061 1685.34740300218 195 197 192
-375.873760546964 227.932305074802 1691.95562866994 173 175 172
-377.691465329321 227.711550511316 1698.56503739159 175 177 174
-378.597452503557 227.37983789668 1705.61568460558 182 184 181
-376.763822802976 226.715644748483 1713.97465068565 168 170 167
-375.838254024588 226.163005864613 1721.87917813301 117 119 118
-364.851574415047 224.392948279301 1734.52339886987 89 91 90
-324.565635083785 219.085056822586 1760.84222115911 103 105 104
-252.164340995847 209.916057082123 1801.86582771054 194 196 195
-221.802296999482 205.84239999288 1822.94704801993 190 194 195
-207.898942925635 203.761631908028 1836.25502293274 193 197 198
-192.135638991808 201.463322542353 1850.31359417045 194 198 199
-185.531100848583 200.270353822458 1860.1087310277 180 184 185
-183.510541180453 199.629585258618 1867.78845183181 177 181 182
-186.084699285567 199.53973147256 1873.39181797141 170 174 175
-184.977437449416 199.009983706266 1880.63620695945 169 173 174
-183.866136655378 198.480847481615 1887.86598618384 167 171 172
-182.750803533115 197.952278707057 1895.08115242214 162 166 167
-183.477078242746 197.643639813811 1901.48005904001 157 161 162
-183.278845050685 197.225717008601 1908.27284423833 158 162 163
-182.153518861337 196.698679463738 1915.4518749154 160 164 165
-180.099136435505 196.062848024293 1923.00913549112 183 187 188
-175.261916359453 195.09978025704 1931.71755558187 190 194 195
-171.341284626812 194.247251632056 1940.00255678865 190 194 195
-170.193917631473 193.723326438859 1947.10171924886 174 178 177
-171.826325999538 193.527251691015 1953.03874024495 142 146 145
-173.458971431768 193.331250616708 1958.97668792745 131 135 134
-175.091847298502 193.135367307488 1964.9155655188 120 125 121
-177.654998818736 193.048367926761 1970.48079751057 115 120 116
-180.219819266937 192.961305500566 1976.05218610118 113 118 114
-183.717999325072 192.982835231352 1981.26026598624 108 113 109
-187.219284594752 193.0041358033 1986.47973023427 107 112 108
-189.790528855204 192.9166914711 1992.07472806527 111 115 114
-191.429794278184 192.720834582519 1998.03734550726 128 133 129
-189.331616539296 192.091902372844 2005.43635848175 170 175 171
-188.162948488171 191.571971562624 2012.45895614102 179 183 182
-174.823847016479 189.647084436938 2024.06398506803 170 174 173
-143.666587939602 185.672329911474 2042.25516954257 183 187 186
-117.14566840072 182.243488658002 2058.52137511856 165 169 168
-104.652220899451 180.437914948569 2069.4442303322 140 144 143
-101.524612258084 179.712830333886 2076.85771194064 142 146 145
-98.3901704275443 178.988738110307 2084.24552077825 137 141 140
-95.2484462704395 178.265603740703 2091.60782552598 137 139 136
-96.8043713918076 178.081089682966 2097.26817803192 141 143 140
-98.3604350885532 177.896711235081 2102.92913065804 142 144 141
-101.801465230101 177.927161295005 2107.93065593273 151 153 150
-101.472992729509 177.528316164609 2114.25286177235 157 159 156
-103.02947546722 177.344322500507 2119.91561314779 152 154 151
-102.697143197594 176.946291948709 2126.22307368126 153 155 152
-105.197609887317 176.869748416688 2131.56217045874 149 151 148
-108.645544229287 176.900100472627 2136.59019682432 142 144 141
-114.936815297568 177.250800064267 2140.68640664171 134 136 133
-119.340479364529 177.387265373626 2145.4326151046 134 136 133
-121.852201694549 177.310012176131 2150.81305382283 140 145 141
-127.212079826011 177.55251314397 2155.28012267382 140 145 141
-146.821767490756 179.39198954989 2155.21273724762 163 167 166
-373.265182250107 222.017149769174 1670.74239953258 195 197 194
-369.625469099387 221.143742552362 1680.05721472561 181 183 180
-370.529433135447 220.814242422797 1687.10174727132 172 174 171
-374.165335678582 220.810319709572 1692.80602343212 166 168 165
-378.716361173308 220.914513267778 1698.07898130001 175 177 174
-378.709327070625 220.476694201949 1705.57001880833 186 188 185
-375.960234498843 219.714641443126 1714.36458762259 156 158 155
-375.032057568391 219.169756070048 1722.26432667334 171 173 170
-364.953156369299 217.545057017992 1734.47347308998 168 170 167
-305.424753562188 210.093299788467 1769.823577502 159 161 158
-242.135793630165 202.22183457078 1806.5336282887 184 186 183
-214.501526461956 198.566106363804 1826.31651757344 187 191 192
-198.74988965529 196.315989457507 1840.44790374104 189 193 194
-191.2354931031 195.037654797834 1850.70733945205 184 188 189
-186.463754153024 194.083643396016 1859.66552486713 174 178 179
-186.281091789632 193.668093368741 1866.51761954828 169 173 174
-186.095617572537 193.252933617328 1873.36044978999 166 170 169
-185.907756490187 192.838230355049 1880.19377724966 164 168 167
-182.951461302247 192.102401807765 1888.23652897756 162 166 165
-181.833494457154 191.581705034175 1895.44688668849 162 166 165
-182.558171435302 191.275597602619 1901.84053045239 162 166 165
-182.357505432162 190.862815845897 1908.62845791138 164 168 167
-183.079108759932 190.557294962941 1915.01106012992 177 181 182
-180.097507191578 189.825100863305 1922.96214882724 197 201 202
-174.330637742282 188.773944845372 1932.05966907572 190 194 195
-169.479328234078 187.830832980193 1940.72837697821 163 167 166
-170.183933531712 187.527841226685 1947.04946560231 146 150 149
-171.815635127055 187.331516063865 1952.98370439091 123 128 124
-172.518359154054 187.028965817226 1959.29901599269 118 123 119
-176.939180282953 187.151568611662 1964.10017319765 110 115 111
-180.434125793166 187.16763802816 1969.29279648365 99 104 98
-184.863342075185 187.289486505184 1974.12464701021 100 105 99
-185.569141003559 186.987114969996 1980.45148794719 108 113 109
-187.206541634197 186.790896090012 1986.40695323828 119 123 122
-188.844168753506 186.59479543147 1992.36333407624 150 154 155
-188.613906648313 186.18746557268 1999.04389002943 160 164 165
-186.511227660882 185.569336373223 2006.43301120541 175 179 180
-183.467268308814 184.846506060986 2014.15848947876 170 174 175
-171.053568471466 183.070318833971 2025.39691424752 138 142 143
-139.878744974065 179.189870233217 2043.58149627256 146 150 151
-114.279715817953 175.947134348304 2059.49167695689 165 169 170
-102.715676432897 174.28718323852 2070.0608604487 169 173 174
-100.523189613303 173.680682740962 2077.12388449933 160 164 165
-97.3850469731041 172.969958290764 2084.50732169082 128 132 131
-96.1211438708229 172.470082330776 2091.18899185326 125 130 126
-96.7357992587456 172.180540910993 2097.18460592889 128 133 129
-99.2331110722624 172.100766298066 2102.50994933403 133 138 134
-99.8466090633108 171.811676452187 2108.50155132203 135 140 136
-100.458794667768 171.52288280636 2114.48846768105 139 144 140
-102.957961331887 171.443355801857 2119.82085410992 142 146 145
-104.51382788849 171.25941173978 2125.48134904179 147 151 150
-105.12422191899 170.97131631279 2131.46205445667 146 150 149
-108.572222160706 170.996201822751 2136.48687420414 139 143 142
-112.023439883456 171.020938975998 2141.52261714092 135 139 138
-119.268908625908 171.461740061885 2145.32214088717 135 139 138
-123.677250707059 171.589692656743 2150.0812724401 130 134 133
-132.83671208015 172.236816797083 2153.32376747597 131 135 134
-156.257608519941 174.439864732357 2152.04998272578 151 155 156
-237.705449358328 182.966424323724 2132.5189379304 155 159 160
-372.472758135232 215.439132915304 1663.64726862699 134 136 131
-369.743926869568 214.686831757947 1672.52414937293 178 180 177
-366.098263798216 213.829478540292 1681.82700933143 166 168 165
-364.265950441415 213.184947023902 1690.20327606298 159 161 158
-367.897189935096 213.17593852917 1695.88609931639 147 149 146
-372.443749820225 213.272286871732 1701.13752419263 141 143 140
-372.430212277787 212.840072338391 1708.60795411218 118 120 117
-372.414126040709 212.408253665509 1716.06917115364 119 121 118
-372.395706918047 211.976841913945 1723.52105453447 117 119 116
-365.053963590001 210.702988673208 1734.42434716092 105 107 104
-305.497576241622 203.430691688665 1769.78478128237 134 136 133
-241.262750735289 195.644276625026 1806.93303517536 190 192 189
-212.696947673001 191.969117089603 1827.14136672218 183 187 188
-196.017406400382 189.664842927867 1841.69068282287 185 189 190
-188.496112134002 188.41330090112 1851.94142413882 181 185 186
-185.557792292853 187.687733677615 1860.05646424643 175 179 180
-188.133043437377 187.591536451551 1865.6608127337 173 177 178
-187.947725924574 187.181319181948 1872.5064161895 173 177 176
-188.681064244766 186.876036968907 1878.9336678411 168 172 171
-182.957607506272 185.839659486055 1888.20170136951 164 168 167
-180.914809746301 185.222345420474 1895.8136644395 160 164 163
-177.019028099668 184.397169025183 1904.20819791106 156 160 159
-176.812535444459 183.990029059862 1910.97805408466 165 169 168
-176.603642350547 183.583332711914 1917.7383489541 188 192 193
-174.540097494006 182.968930912186 1925.27604979556 196 200 199
-171.544726552945 182.251420534848 1933.18435702179 183 187 186
-168.542198921003 181.534831818693 1941.06760376858 149 153 152
-172.957037349792 181.649519349402 1945.84155109747 136 140 139
-175.518877370589 181.556389554661 1951.3980433264 116 121 117
-176.223584273492 181.25597109618 1957.72113383472 115 120 116
-175.996971844382 180.852320548176 1964.4175632441 102 107 103
-180.421922756266 180.966279072205 1969.22952500658 96 101 95
-183.920073314145 180.976504442989 1974.43035838185 99 104 98
-185.556541471457 180.779989043437 1980.38217437531 122 127 123
-186.260221184503 180.480368139737 1986.70195466335 140 144 143
-186.028734641319 180.077981808656 1993.38201462536 163 167 168
-184.860110396916 179.573050753114 2000.41424499027 169 173 174
-182.752205389491 178.965851712111 2007.79086370813 175 179 180
-181.574618414618 178.46230383949 2014.79069048073 164 168 169
-170.089509366319 176.829183622974 2025.6698664644 125 129 130
-141.711064564014 173.350736414701 2042.80169599041 167 171 172
-113.286620171285 169.877912562415 2059.76628834544 192 196 197
-103.593238923706 168.460519094273 2069.64042726854 193 197 198
-98.5804090596552 167.557345898503 2077.73465693195 195 199 200
-96.3782910374933 166.962422319698 2084.77016029806 184 188 187
-96.0528830922254 166.572826337626 2091.10865463651 165 170 166
-96.6664056731292 166.285842121231 2097.10167730605 151 156 152
-99.1633807129739 166.203304787696 2102.42402609938 138 143 139
-97.8893008640616 165.712808647405 2109.07383392329 142 147 143
-99.4427369522399 165.528654666783 2114.72517247068 154 159 155
-100.996292517629 165.344660167211 2120.37705530153 153 157 156
-104.440739911066 165.364244845759 2125.38440832972 148 152 151
-105.995979080063 165.180373344193 2131.04261970529 139 143 142
-108.498052280739 165.098199528411 2136.38412647665 138 142 141
-111.001673350535 165.016019993019 2141.73137657162 131 135 134
-118.248105515486 165.440679479623 2145.52428635602 128 132 131
-124.554186124386 165.763202127868 2149.65862067066 133 137 136
-140.364564715745 167.097112897062 2150.75216818252 137 141 142
-183.758103952472 171.361094087108 2143.10575476716 155 159 160
-263.358048469875 179.457127177222 2124.23466198377 155 159 160
-361.680968436265 207.295064949326 1669.093611527 175 177 172
-365.309022103661 207.280424510761 1674.76197973982 193 195 192
-364.388079088559 206.749057448436 1682.69711165417 185 187 184
-365.285588936138 206.424679582443 1689.7209149921 181 183 180
-368.005636482279 206.30668136966 1695.84910013753 171 173 170
-371.640206662061 206.291612116117 1701.5404631298 170 172 169
-371.624481160261 205.864459683604 1709.00596553053 165 167 164
-371.60641267132 205.437729782304 1716.46210662081 163 165 162
-369.756162969634 204.805887268909 1724.77979039144 132 134 131
-360.576509315272 203.353420036918 1736.54008446441 131 133 130
-310.150950296065 197.286865018852 1767.59581700201 171 173 170
-242.222044191854 189.282918938273 1806.47847554103 187 189 186
-213.642926564459 185.695948891563 1826.69305094359 187 191 192
-196.037025196236 183.342617180861 1841.66832158699 190 194 195
-192.187269747095 182.526544783109 1850.23948909639 187 191 192
-186.489702739036 181.507304612323 1859.61446572134 182 186 187
-188.144944898941 181.305989534611 1865.63295564129 180 184 185
-186.115576399393 180.696884828762 1873.29996188315 175 179 178
-185.924486004184 180.292310436371 1880.12862339779 173 177 176
-181.117551125317 179.379188391908 1888.98101960463 166 170 169
-178.147450175544 178.670763686984 1896.98981459616 160 164 163
-176.094702758337 178.064954975297 1904.57210041706 160 164 163
-175.886196598719 177.663008487263 1911.33683071059 191 195 194
-175.674858382288 177.26148349488 1918.09224126503 193 197 196
-171.755853838512 176.45496535191 1926.41233251481 168 172 171
-169.682521154122 175.852129534752 1933.92006620322 152 156 155
-168.531339612312 175.351304381412 1941.01965015588 132 136 135
-173.875049225417 175.55879147585 1945.40458254049 129 133 132
-176.437307234532 175.462623927723 1950.96070879967 115 120 116
-179.001461344232 175.366431963934 1956.52293047141 113 118 114
-178.775256156646 174.967651764544 1963.22487579441 103 108 104
-180.409126070433 174.770830317685 1969.16685179665 104 109 103
-181.11125424962 174.473482888451 1975.48230689632 113 118 112
-182.744841005736 174.276997463766 1981.42344373643 142 147 143
-183.445240116059 173.980138841959 1987.73278774973 156 160 159
-184.144191683363 173.683570473063 1994.0378695925 171 175 176
-183.907264596278 173.287019480684 2000.70048498619 174 178 179
-181.796078814832 172.690446275669 2008.07256045221 173 177 178
-180.616052301252 172.194899498699 2015.06745214615 155 159 160
-166.312333592411 170.299140003139 2027.00668539903 123 127 128
-135.10410848099 166.607002565661 2045.18614358805 171 175 176
-108.538064873369 163.420453421908 2061.43778289481 179 183 184
-101.653028557339 162.334993147375 2070.25936021685 171 175 176
-95.6950608409386 161.350917041793 2078.6906498213 166 170 171
-94.4294909938712 160.866563522542 2085.375002721 157 161 160
-95.0422202191046 160.581887930849 2091.36746638371 156 161 157
-95.6538795397592 160.297574281603 2097.35525718943 156 161 157
-98.1498062938049 160.212313192595 2102.67199426644 154 159 155
-94.0422880426897 159.432016730782 2110.30872606531 155 160 156
-97.4807829966426 159.446527640773 2115.2907755405 160 165 161
-99.9771120604365 159.361711036992 2120.60928693945 157 161 160
-104.366585472311 159.474956354178 2125.28814839382 151 155 154
-105.921085668158 159.290997019363 2130.9435606536 144 148 147
-110.317284985555 159.403811050349 2135.64712178541 143 147 146
-114.717925416277 159.516226977184 2140.36692055843 132 136 135
-121.020357727266 159.825690253095 2144.47853543144 128 132 131
-127.329883252933 160.134456000626 2148.61697465992 129 133 132
-147.898044666624 161.92029313297 2148.17802899427 131 135 136
-216.986315123053 168.722826474431 2132.32481392322 149 153 154
-279.5163881907 174.825084193172 2118.95720970841 153 157 158
-358.154056940687 200.027427762867 1670.89393471215 189 191 186
-362.689688386367 200.108114480258 1676.0948965044 187 189 186
-362.675524735017 199.685272749163 1683.56891930094 185 187 184
-362.659004523077 199.262840677519 1691.03352226492 188 190 187
-364.46440148864 199.041632166683 1697.59694787649 180 182 179
-367.183073404575 198.920818083054 1703.71824778314 176 178 175
-370.81738135163 198.900118051309 1709.40508217812 168 170 167
-372.625889524643 198.67879522097 1715.97998691783 173 175 172
-369.858744442713 197.957122308059 1724.73395304341 153 155 152
-354.262360802823 195.836592275291 1739.52450718094 144 146 143
-294.641966544495 188.924282339571 1774.87364414532 165 167 164
-244.09885441503 183.021905476513 1805.59657851655 193 195 192
-215.507133420531 179.52298489852 1825.81994991235 184 188 189
-199.73088664748 177.424831069831 1839.95683465252 188 192 193
-191.283593373432 176.126471505104 1850.63628538558 186 190 191
-187.421644112631 175.327391867678 1859.1729080015 185 189 190
-187.234989711158 174.926940183665 1866.0206423537 184 188 189
-185.202589709077 174.328352971776 1873.6830334159 175 179 178
-183.164690790528 173.730546153034 1881.32550077838 175 179 178
-179.275092271798 172.935314162349 1889.76189632144 166 170 169
-178.148496962754 172.43827418222 1896.9551538978 163 167 166
-175.168977159231 171.744015598747 1904.93699325637 183 187 186
-174.032855339394 171.248395122352 1912.09577696564 194 198 197
-172.892678778334 170.753388013023 1919.23989346332 194 198 197
-169.894982037998 170.061657793995 1927.15677071754 156 160 159
-168.74522940625 169.568090361848 1934.26624207841 141 145 144
-168.519670845631 169.173676084705 1940.97241559285 129 133 132
-173.864299215141 169.370153513289 1945.35380821326 121 125 124
-176.426248231237 169.271090057193 1950.90695891723 108 113 109
-178.989868385188 169.171948858447 1956.46626514588 103 108 104
-178.762374778767 168.778336042969 1963.16576021545 111 116 112
-179.463869381598 168.483242571423 1969.48028600118 129 134 130
-179.231565747832 168.090467754553 1976.16338047291 147 152 148
-182.729401437893 168.089739484692 1981.35612925042 161 166 162
-184.362485496958 167.893167783444 1987.2953452044 166 170 171
-184.126500234747 167.501309779653 1993.96534933909 172 176 177
-182.952560560922 167.012287133196 2000.98788829302 170 174 175
-182.710487345282 166.621465388402 2007.6359432895 160 164 165
-179.655624007333 165.938794539204 2015.34536276048 137 141 142
-163.468734201584 163.893910268028 2027.99124201402 105 109 110
-131.305066550308 160.198659949313 2046.51861341071 175 179 180
-106.601215993731 157.287346786081 2062.06441033438 171 175 176
-97.8309645937481 156.031877378751 2071.57278846648 159 163 164
-90.9260581663696 154.972536515317 2080.33615336582 151 155 156
-91.5367669317497 154.690390814106 2086.3227126975 141 145 144
-94.0301364111566 154.602284355206 2091.62722967489 139 144 140
-93.6972269114911 154.223845688252 2097.9458453793 146 151 147
-94.3049919695764 153.942610800906 2103.92112132044 150 155 151
-92.0792514905839 153.371865051438 2110.88418374993 153 158 154
-97.4058693329019 153.57410079061 2115.2014132862 165 170 166
-99.9018594131362 153.486536163404 2120.5169311475 156 160 159
-104.291803608061 153.591596412059 2125.19237290329 152 156 155
-106.792363432506 153.50383542788 2130.52473335969 145 149 148
-110.242230037492 153.512236538826 2135.54514613912 139 143 142
-115.591585527232 153.71261526477 2139.94655270537 133 137 136
-120.946815019135 153.912516815404 2144.36946702687 138 142 141
-129.157230063221 154.39960242984 2147.8845485108 138 142 141
-157.338196634027 156.898046786124 2144.98700907841 129 133 134
-237.876039041118 164.65764205223 2125.48941772285 144 148 149
-291.879943183839 169.724919272439 2114.88112837195 153 157 158
-359.185833683646 193.695839640822 1662.9337164676 174 177 170
-359.172416197298 193.277576248426 1670.41340015193 208 210 205
-359.15668950037 192.859717039217 1677.88383634757 200 202 199
-360.96078813774 192.638066580971 1684.44216249857 188 190 187
-363.677124169491 192.514273294289 1690.55290881222 157 159 156
-367.307852020987 192.488088009114 1696.22391693471 136 138 135
-370.028611696971 192.363963542122 1702.34994925997 122 124 121
-373.665007342226 192.337267164275 1708.04167811267 105 107 104
-374.560201387622 192.017821768782 1715.05999743464 157 159 156
-369.045269704276 191.016870033487 1725.12460958545 167 169 166
-346.109316245069 188.168595167707 1743.37866965238 158 160 157
-280.035607206505 180.75603363498 1781.72818171802 176 178 175
-236.798994924936 175.784729862569 1808.99412767752 192 194 191
-213.698218799786 172.956997741571 1826.64827408129 193 197 198
-202.508094759236 171.394462626624 1838.66723532118 191 195 196
-195.897445424878 170.318773281957 1848.51372658138 185 189 190
-192.956526221539 169.631841995406 1856.64443749712 179 183 184
-187.244910463485 168.655803995655 1865.99452945595 178 182 183
-181.521849681055 167.681255832271 1875.30399790963 173 177 176
-180.401687757474 167.190786385024 1882.52436065328 173 177 176
-179.277253073728 166.700933941165 1889.73017804203 166 170 169
-180.921391028499 166.500700937861 1895.70812338982 173 177 176
-179.791005707448 166.01179666371 1902.89244585325 193 197 196
-176.805197732103 165.331197874177 1910.8604915636 193 197 196
-175.66525780548 164.843745236258 1918.01025613633 177 181 180
-170.812976521126 163.972953755804 1926.72101532933 138 142 141
-171.517711105593 163.678900840878 1933.04822748483 128 132 131
-172.221241102993 163.385174983249 1939.3711737315 124 128 127
-175.711096943778 163.378878207902 1944.53170825231 118 123 119
-177.344278089076 163.181067742249 1950.47050257746 104 109 105
-178.047083309521 162.887830073461 1956.79106608622 106 111 107
-179.680014125825 162.690395157978 1962.72916809159 128 133 129
-181.31317190474 162.493049525925 1968.66816913354 145 150 146
-182.946552226491 162.29582257167 1974.60807136036 159 164 160
-182.712925239443 161.908342016387 1981.28959500034 165 170 166
-182.47685125175 161.521382671591 1987.96143344903 170 174 175
-183.17282885066 161.2298951014 1994.25868128035 173 177 178
-181.996234303012 160.748833551721 2001.27638942786 169 173 174
-181.752123748143 160.363338015219 2007.91931384968 153 157 158
-176.819350409561 159.504440889098 2016.33873129399 130 134 135
-158.746003519537 157.321375996415 2029.68689490961 114 118 119
-127.502195695774 153.817744210735 2047.85325406187 189 193 194
-106.540458377226 151.359913873748 2061.99380778341 159 163 164
-98.7052302304079 150.228325608653 2071.15470665612 149 153 154
-94.6190309081842 149.475970208735 2078.88730296081 149 153 154
-94.2900491777334 149.101785236858 2085.22318726289 130 134 133
-95.8428708400181 148.916431456966 2090.87148707691 138 143 139
-94.5669832925082 148.449019878534 2097.52915765409 138 143 139
-94.2304972085304 148.076266044981 2103.83808330815 140 145 141
-92.0026193998789 147.516230342949 2110.79904299229 144 149 145
-98.2751614942985 147.801408260436 2114.78434884554 153 158 154
-100.771537362423 147.71096846157 2120.0994838288 147 151 150
-103.269468991336 147.620522030383 2125.42039085965 146 150 149
-104.821748476212 147.436530699909 2131.06753785445 148 152 151
-110.16631733355 147.626624520165 2135.44375021922 144 148 147
-116.465201120813 147.909557481766 2139.52636929005 131 135 134
-123.721000479959 148.285173055982 2143.32309387178 133 137 136
-135.736288397206 149.126035052955 2145.60206792691 145 149 148
-173.441793108344 152.47990423142 2139.64135139141 135 139 140
-254.024760973224 160.014797094485 2120.16943668231 148 152 153
-298.539099251418 164.003034706093 2112.61299097044 155 159 160
-362.023927509193 187.132589270016 1661.53466912844 199 201 196
-360.19085373133 186.528235578367 1669.93347874082 188 190 187
-359.263233709665 186.01992413214 1677.85837634749 190 192 189
-361.066688393533 185.79791490237 1684.41408511579 185 187 184
-361.95810703633 185.480783558889 1691.41984807917 181 183 180
-364.674500249558 185.353979806335 1697.52890604588 184 186 183
-368.306599967736 185.322025213054 1703.20043617886 167 169 166
-373.770852202335 185.479539162191 1708.00136926355 153 155 152
-374.664971999972 185.162442015032 1715.0171826752 131 133 130
-367.314083806563 183.99319268699 1725.9525636433 94 96 93
-340.698330785487 180.838702752261 1745.93713155368 90 92 89
-265.415518147725 172.679560625637 1788.58968589784 191 193 190
-235.000736149247 169.163036593269 1809.82684498758 192 194 191
-217.40006002689 166.973763666202 1824.92509407216 183 187 188
-208.045473158213 165.636669587121 1836.10873597525 165 169 170
-197.753687819343 164.20759462053 1847.65099211157 169 173 174
-192.969597870865 163.345423218868 1856.62037463602 156 160 161
-190.019260761658 162.672600177746 1864.72409689821 147 151 152
-184.29441772461 161.718981835277 1874.04016218304 147 151 150
-184.097387835459 161.329824805796 1880.85650523663 149 153 152
-179.278414493504 160.472424364379 1889.69938469259 152 156 155
-180.921850095328 160.271911551732 1895.67454568458 172 176 175
-174.23777493589 159.229430983106 1905.26845850751 185 189 188
-174.023086640503 158.842966108461 1912.02093904533 163 167 166
-172.879053032469 158.363554323013 1919.16058115462 134 139 135
-172.658383795111 157.978084447758 1925.89148381765 111 116 112
-173.363439061294 157.686333983394 1932.22134024826 112 117 113
-175.925022630233 157.581088464008 1937.76923108744 112 117 113
-177.558700641995 157.382758402105 1943.70954213451 109 114 110
-180.123128887811 157.27752317546 1949.26707217717 105 110 106
-180.826759332592 156.986479142504 1955.59301355149 128 133 129
-181.529395317582 156.695759443233 1961.91453843631 162 166 165
-183.16327597769 156.498041374383 1967.85598825735 164 168 167
-183.864193783436 156.207866989495 1974.17147816235 167 171 170
-184.563887746886 155.917993005669 1980.48261383828 168 172 171
-180.588781545487 155.166284889202 1988.62901481032 167 171 172
-179.411492101326 154.69278445595 1995.64891663636 170 174 175
-178.230071997217 154.219963936539 2002.6539113936 160 164 165
-179.855118392419 154.024321831267 2008.56387197523 132 136 137
-174.917338143492 153.18425796021 2016.97659007408 117 121 122
-153.080161756018 150.689633892838 2031.73990086316 142 146 147
-126.512105005467 147.739986500118 2048.13363312843 179 183 184
-108.358660987774 145.622095806336 2061.22463036238 187 191 192
-100.520093161339 144.51707641048 2070.38990385238 193 197 198
-94.5494851927058 143.59721095996 2078.81480192385 167 171 172
-96.1028575413092 143.411418008876 2084.46486905854 159 163 162
-96.7138259167895 143.134303979096 2090.45463998307 158 163 159
-96.3799818883935 142.766154722206 2096.77628216033 157 162 158
-96.0436180983923 142.398520649373 2103.08796519434 151 156 152
-95.7042713620044 142.031383289719 2109.38981575427 156 161 157
-99.144412136273 142.029327079339 2114.36751622522 156 161 157
-100.694992553835 141.844954590535 2120.00811427268 146 150 149
-103.192581727295 141.751731654268 2125.32599689359 130 134 133
-103.796502033161 141.47680472083 2131.29098053516 131 135 134
-108.192657527148 141.565361934242 2135.97906447448 137 141 140
-113.542301310407 141.744290426592 2140.36799886351 138 142 141
-122.697172177207 142.28518604659 2143.52731214513 132 136 135
-141.36964830579 143.730247114253 2143.62755116122 153 157 156
-195.265877549381 148.518986563299 2132.44456086899 143 147 148
-271.138322668756 155.376888248028 2114.53851259792 154 158 159
-308.061058655043 158.520337536477 2109.43593050937 148 152 153
-361.224238610919 180.187912040802 1661.97371610834 191 193 188
-358.477366023329 179.50124048713 1670.82504805798 179 181 178
-357.546441172929 179.00077756743 1678.74263063206 148 150 147
-359.347764797814 178.778552674115 1685.29029103736 142 144 141
-360.236693112386 178.46390447255 1692.28837562594 145 147 144
-362.037930557174 178.241891728777 1698.83585000155 161 163 160
-368.410739654698 178.48136221015 1703.16457030318 164 166 163
-371.131056018845 178.351158639441 1709.28604769314 175 177 174
-372.021947143358 178.036658910671 1716.29151354828 155 157 154
-364.664172285194 176.89412872964 1727.21819475055 146 148 145
-336.198760234867 173.63885186544 1748.06527940865 135 137 134
-266.384625978096 166.256283168214 1788.13247220823 188 190 187
-228.607482259084 162.099184114847 1812.80262079865 176 178 175
-214.669581614639 160.333266927442 1826.18111143977 177 181 182
-205.307274639594 159.02833177861 1837.35639356603 176 180 181
-197.769498064634 157.908583752716 1847.62914713331 181 185 186
-192.060305473095 156.973518012342 1857.01503259663 176 180 181
-190.028600737391 156.405221071683 1864.69912873815 172 176 177
-186.14561189368 155.655250014413 1873.18864009302 178 182 181
-183.177988989723 154.997596899899 1881.23776108473 173 177 176
-179.278999309687 154.249866342446 1889.66927900469 182 186 185
-176.296786915972 153.594247173671 1897.66551620725 198 202 201
-171.455876456093 152.75783309572 1906.44112615768 172 176 175
-171.237718169609 152.37675903152 1913.18319775164 142 146 145
-172.871154394316 152.177561554373 1919.12206345019 121 126 122
-174.504831155081 151.978466232418 1925.06188670742 118 123 119
-177.067310318068 151.869997747768 1930.61106790022 124 129 125
-179.631456199136 151.761480914834 1936.16640676601 118 123 119
-180.337307537372 151.472223426945 1942.50079279096 112 117 113
-181.041966599983 151.183262689274 1948.83093948276 122 127 123
-178.950919011868 150.62408193534 1956.30046272722 141 146 142
-180.5831376933 150.426122834663 1962.23558977229 162 166 165
-181.28249239162 150.13824500892 1968.5476551155 161 165 164
-182.914425705492 149.9406366276 1974.4819440726 163 167 166
-181.74342707264 149.473672754789 1981.52932929013 163 167 166
-176.827979032049 148.648413737228 1990.03430951099 165 169 170
-174.710116327605 148.093489613349 1997.40696089752 165 169 170
-175.39631233696 147.808137263092 2003.67083603814 161 165 166
-178.892841359925 147.791522804091 2008.84963273116 126 130 131
-172.074955772628 146.791408336813 2017.97348140009 111 115 116
-149.286119180977 144.274784715992 2033.08589538929 147 151 152
-122.70229903983 141.405941541927 2049.47211682832 182 186 187
-107.356961588806 139.612054288909 2061.50466102832 171 175 176
-101.394713157013 138.711967289119 2069.97215447752 162 166 167
-97.3041155965189 137.991336166956 2077.70937905624 146 150 151
-96.974202021165 137.627396969948 2084.04827224671 151 155 154
-97.5847473658069 137.352786937592 2090.03805343354 151 156 152
-96.306386965487 136.901099426048 2096.69647014557 152 157 153
-95.9682381094349 136.538733669138 2103.00578074058 159 164 160
-95.627567281892 136.176897793468 2109.30513326651 167 172 168
-97.1758310264583 135.992461082696 2114.93708941481 160 165 161
-98.7242256117979 135.808211421918 2120.56964944282 142 146 145
-100.272723891012 135.624123067611 2126.20269630633 132 136 135
-103.717379354508 135.616612988624 2131.1946446689 134 138 137
-108.11399505605 135.697029681411 2135.87929777012 140 144 143
-113.464728181987 135.865195864587 2140.2645528939 138 142 141
-124.522685575219 136.560400826527 2142.79350650262 133 137 136
-147.006766884765 138.308195750846 2141.65133727306 149 153 152
-213.301179951479 144.089389829004 2126.47014732738 150 154 155
-282.551000780124 150.122167697521 2110.73168283946 158 162 163
-317.590460667429 152.98992374096 2106.25544819382 149 153 154
-325.972153767091 153.401816661327 2110.35897879786 156 160 161
-354.050449812572 172.623466224568 1665.63271976566 201 203 198
-354.028326648336 172.220709052494 1673.08987079001 198 200 197
-356.739158434974 172.088244665092 1679.17377741879 179 181 178
-359.451519733191 171.955610686575 1685.26418477584 178 180 177
-360.339362436441 171.643283164399 1692.25970385784 174 176 173
-361.225861136238 171.331176153872 1699.25130116044 168 170 167
-367.59929767074 171.556984524561 1703.57372547114 151 153 150
-370.318649719298 171.423859746021 1709.68977824862 113 115 112
-369.375486346847 170.932899567854 1717.56792112253 111 113 110
-361.094109574914 169.727764335856 1728.92224427252 104 106 103
-336.281988998536 166.918075279842 1748.02746538096 101 103 100
-268.271913110703 159.92275268925 1787.24461946921 182 184 181
-229.559231739323 155.791454087026 1812.35390955521 179 181 178
-217.453674075506 154.248704547081 1824.88378615506 184 188 189
-204.406493790939 152.619829186291 1837.7595475668 191 195 196
-195.942227265845 151.437911216454 1848.44949507261 183 187 188
-187.46240247159 150.258023703742 1859.0829596987 172 176 177
-189.114893624654 150.05514938587 1865.09025124682 171 175 176
-187.99785625029 149.586753676362 1872.33708005427 173 177 176
-184.104814760962 148.853614392463 1880.79989460677 179 183 182
-174.655186298128 147.591373098358 1891.67792382825 191 195 194
-167.964809195586 146.596217283174 1901.27924616593 180 184 183
-165.892526280231 146.043747884358 1908.82267616085 134 138 137
-169.375922476931 146.020745443237 1913.94775118391 121 125 124
-173.789953877125 146.085515054219 1918.68718661252 115 120 116
-178.208550447444 146.149886654861 1923.44332034016 124 129 125
-178.915485230678 145.862446339924 1929.78380527442 123 128 124
-179.621421134345 145.575359753038 1936.11987586749 116 121 117
-180.326153398827 145.288542347425 1942.45164753113 125 130 126
-181.029470948966 145.00205472272 1948.77930386661 154 158 157
-179.868129927403 144.5408985618 1955.86528356476 162 166 165
-177.769705155816 143.992976271656 1963.31545380003 168 172 171
-177.53271377849 143.620550184747 1969.99306169902 167 171 170
-178.226831842614 143.335834164894 1976.28768064453 169 173 172
-177.050517158067 142.877204070829 1983.31966089315 172 176 175
-173.998766570886 142.245101598335 1991.07349264592 170 174 175
-173.748698952601 141.87493167009 1997.70490446808 170 174 175
-174.433042751143 141.592176401066 2003.9635423741 161 165 166
-176.991333819131 141.483325794596 2009.4969327393 119 123 124
-173.9211215019 140.854232146389 2017.18319029843 116 120 121
-152.061513094401 138.493736535981 2031.94789707973 138 142 143
-122.647456090182 135.445489829133 2049.40262793409 169 173 174
-106.353616606407 133.61339533049 2061.78576831738 184 188 189
-98.5040285293959 132.562044602078 2070.94400936393 186 190 191
-96.2921746098435 132.030223065913 2077.98227555499 183 187 188
-95.9602113838178 131.671640384274 2084.31601159512 181 185 184
-97.5122555679988 131.485784418058 2089.96110773116 176 181 177
-97.1760249439591 131.128092510025 2096.28049116917 175 180 176
-96.8370451758105 130.770891853425 2102.58997772437 180 185 181
-95.5497733795685 130.328394492651 2109.22111035001 175 180 176
-95.2047814670931 129.972372880394 2115.50809035604 140 145 141
-96.7509771207022 129.788204237869 2121.1325373322 130 134 133
-98.297282149967 129.604210686288 2126.75750094199 132 136 135
-102.689197541945 129.676924840445 2131.41983973537 135 139 138
-105.187027174222 129.578518443145 2136.7353425668 137 141 140
-112.436196688269 129.906738060095 2140.47752850688 129 133 132
-123.496718647211 130.575088317022 2142.99904919057 124 128 127
-155.502270122516 133.115386941261 2138.74165794446 118 122 121
-232.30302356477 139.648733315984 2120.18100891645 125 129 128
-289.208488404427 144.384084880346 2108.44712410749 157 161 162
-319.498542566975 146.732608307146 2105.49292053837 148 152 153
-326.929538938975 147.040708560427 2109.89749165197 156 160 161
-354.176285367164 166.205676497988 1658.15174567471 179 180 174
-348.690997650378 165.282761348664 1668.37568827842 192 194 189
-348.663081296509 164.885526565103 1675.8148168721 186 188 185
-352.281449776595 164.837830139549 1681.42542704049 180 182 179
-356.815821084223 164.877027468883 1686.59551595951 177 179 176
-358.613971007574 164.654404225268 1693.13114153552 162 164 161
-362.240940247898 164.605821474561 1698.77405408418 157 159 156
-366.786272448629 164.643909979443 1703.9841385973 157 159 156
-370.420541372233 164.594692303342 1709.65282355812 143 145 142
-369.47549714318 164.111444845409 1717.5288525879 129 131 128
-362.106120426216 163.022145141761 1728.44606529911 105 107 104
-328.10315375617 159.424078406655 1751.89572673424 99 101 98
-263.729652382291 152.979021862521 1789.37596785897 194 196 193
-228.672227967317 149.311489652019 1812.76309787494 193 195 192
-216.559396953337 147.808811830729 1825.29034011404 189 193 194
-203.504337621518 146.222641708015 1838.16381001926 188 192 193
-195.033970192161 145.070002125181 1848.8505199266 177 181 182
-186.54827734804 143.919445413751 1859.48071556609 171 175 176
-185.430500884924 143.45854372373 1866.72953161344 171 175 176
-183.385080116448 142.912412389054 1874.37669701678 177 181 180
-178.561000039554 142.10975856251 1883.23518031342 188 192 191
-172.801845915807 141.222756124168 1892.46591305261 181 185 184
-167.957414483632 140.422860398289 1901.25057707622 158 162 161
-169.588928943879 140.222932037281 1907.18184619818 124 128 127
-172.1478799966 140.108531734338 1912.71418316952 118 122 121
-174.708749562905 139.994061098761 1918.25266977892 121 126 122
-177.271083611683 139.879543925802 1923.79749336596 123 128 122
-178.905745260323 139.679829240687 1929.74058228536 119 124 118
-178.680273237836 139.310107393451 1936.463595629 120 125 121
-180.313968625581 139.110836618008 1942.40337727241 138 143 139
-180.084857800765 138.741903793467 1949.11244958131 156 160 159
-177.988412945834 138.203868772283 1956.57528414058 162 166 165
-174.953243673659 137.58193620607 1964.39709981254 169 173 172
-173.778660102069 137.130305120883 1971.44085517458 171 175 174
-176.337998976886 137.017556768494 1976.97474598594 175 179 180
-175.158076212444 136.566933110798 1983.99931400837 176 180 181
-174.90987079643 136.201371303555 1990.64054914894 173 177 178
-173.722426318994 135.752036375905 1997.63800416191 171 175 176
-175.342915132624 135.555968232188 2003.53077435806 149 153 154
-176.025591066854 135.275976464588 2009.78496454092 111 115 116
-172.951675573013 134.660214759516 2017.46681904456 118 122 123
-154.838710298479 132.702579996685 2030.80928312355 151 155 156
-122.592000076555 129.491051654412 2049.33373046409 176 180 181
-103.466837368511 127.458594531849 2062.76811434359 191 195 196
-98.4353480764217 126.685243125459 2070.8750278894 179 183 184
-96.221132338421 126.164049371728 2077.91123493692 178 182 183
-95.8873941479004 125.810719396118 2084.24262618787 171 175 174
-96.4949118586023 125.541340785143 2090.22446920887 163 168 164
-94.2674193260551 125.022346872566 2097.21277098497 166 171 167
-94.8699282958905 124.753915892002 2103.17754483955 170 175 171
-92.6333093579164 124.236439624963 2110.13292022297 163 168 164
-93.2312520946166 123.969034903488 2116.08045945264 134 139 135
-93.827863977562 123.701971842681 2122.02327318982 139 143 142
-96.3193522302022 123.601078381083 2127.31366151934 141 145 144
-100.71028365449 123.665819040695 2131.9673129865 143 147 146
-105.105646404673 123.730278260912 2136.63723941209 144 148 147
-113.30676206985 124.124958925994 2140.0594544772 134 138 137
-130.077724144908 125.261624669046 2140.69860962693 129 133 132
-169.714718441905 128.375013795051 2133.96466807771 124 128 127
-248.462625112194 134.85944868373 2114.80896741097 125 129 128
-293.011045401818 138.367540124856 2107.07685139408 147 151 152
-314.729930031852 139.895156441504 2106.85003898332 145 149 150
-317.38547404297 139.776863246206 2112.73854890904 156 160 161
-354.281974268344 159.390655899361 1658.13782099944 201 202 196
-346.059339381636 158.23450032944 1669.74116445069 189 191 186
-346.027789945277 157.84255254881 1677.17014205803 184 186 183
-349.644156553781 157.78939765978 1682.76987348151 187 189 186
-356.916813952657 158.074002177743 1686.57172904424 182 184 181
-359.628228658422 157.935441089077 1692.65487982199 143 145 142
-363.256050601095 157.881084170759 1698.2973127802 125 127 124
-365.97186527609 157.742194639917 1704.39566339762 133 135 132
-369.60532912763 157.687344064242 1710.05873198826 134 136 133
-368.657666644958 157.211865726994 1717.9299449716 128 130 127
-359.447780047765 155.981201430254 1729.71709579262 126 128 125
-315.32477631739 151.56488759949 1757.93875601002 116 118 115
-257.344598144372 145.900501534506 1792.37292685937 193 195 192
-233.302183306393 143.345122123539 1810.60015192861 196 198 195
-218.424742281047 141.631058835884 1824.41937150233 196 200 201
-203.521465614904 139.920279705659 1838.14567087299 188 192 193
-192.28042584704 138.546550539207 1850.09479418834 180 184 185
-183.787428669476 137.42549074243 1860.7164930771 173 177 178
-181.742295004678 136.88936311394 1868.37104025651 173 177 178
-179.691450086251 136.35403329939 1876.00581539103 179 183 182
-176.710621308682 135.7364521373 1884.03120489527 175 179 178
-171.871747231297 134.953850141278 1892.8474206437 157 161 160
-168.875374810016 134.338406140541 1900.81737795961 138 142 141
-171.433769389872 134.220950811124 1906.34572007248 110 114 113
-173.994080273424 134.103439846259 1911.88021289757 112 117 113
-175.627534821994 133.903243779549 1917.81851617186 128 133 127
-177.261253581627 133.703147129898 1923.75786317677 135 140 134
-177.035458243314 133.338257286552 1930.48272678641 140 145 139
-178.668200640498 133.138620156468 1936.4187388655 153 158 154
-179.369967776132 132.856824760826 1942.74267222108 163 168 164
-180.0705303247 132.57535642248 1949.06233966783 173 177 176
-179.837016924068 132.212081291534 1955.75956706966 173 177 176
-176.800548486263 131.603224211234 1963.58481437156 176 180 179
-174.691384941005 131.077318070028 1971.00808446631 178 182 183
-174.446491954106 130.716030495681 1977.66338751135 177 181 182
-174.198707248945 130.355200200326 1984.30917189777 176 180 181
-173.012000686679 129.913231794077 1991.31401748111 178 182 183
-173.695316920684 129.635144471644 1997.57178733852 147 151 152
-178.128351043875 129.683433581583 2002.37137122759 127 131 132
-179.750460807214 129.487105758941 2008.26999574463 122 126 127
-177.615797314659 128.965629161636 2015.60231513756 141 145 146
-157.617273019378 126.901308129922 2029.67028179798 171 175 176
-126.298203853488 123.867269878243 2047.85368711158 181 185 186
-105.283693975896 121.731301204359 2062.00058424644 172 176 177
-99.3078328305681 120.895443542986 2070.45901642264 171 175 176
-95.2062774473497 120.222986060634 2078.18597106751 169 173 174
-93.9268017651429 119.794187496706 2084.85469783976 154 158 157
-94.5317319180861 119.527577663104 2090.82868182704 157 162 158
-93.2453219782112 119.100028770277 2097.47245203656 160 165 161
-93.8461869687459 118.834307899379 2103.43190411707 161 166 162
-92.5528168863119 118.408026112968 2110.05063266608 155 160 156
-94.0966636720031 118.223594789596 2115.66619291309 141 146 142
-94.6928441585011 117.959065576936 2121.60900469889 141 145 144
-98.1332172235096 117.935529589708 2126.57493543571 140 144 143
-102.526044664989 117.991992553335 2131.23040033919 142 146 145
-106.923311797972 118.048144226845 2135.90215241478 143 147 146
-117.980203770605 118.663639251879 2138.37682564435 135 139 138
-145.226577249085 120.635362083783 2135.57403024591 131 135 134
-211.552050594966 125.873671261826 2120.16541192358 137 141 140
-270.352406006914 130.462999437177 2107.58112310666 137 141 140
-296.81595387354 132.335588614079 2105.70558222526 150 154 155
-311.864741187508 133.249696546587 2107.60369846463 150 154 155
-361.689113505185 153.628354230207 1646.93139108661 167 166 161
-352.565118532893 152.417209862475 1659.05069356038 193 194 188
-345.247427998775 151.372449106168 1670.187926498 160 162 157
-346.126115006046 151.067635880626 1677.1541964088 158 160 157
-350.655508820152 151.09068551055 1682.29561005787 170 172 169
-355.189526203827 151.113258167953 1687.45388897908 179 181 178
-357.899236987099 150.97184696909 1693.52891401619 171 173 170
-361.525984379372 150.912003683021 1699.16296455148 153 155 152
-364.239869221262 150.770268591015 1705.25328256098 153 155 152
-367.87201556645 150.709894843206 1710.90797246701 130 132 129
-367.83847692343 150.32370095206 1718.33226822198 129 131 128
-354.950125310082 148.799758632538 1731.86397858932 121 123 120
-300.696520271144 143.624366513086 1764.85669971554 197 199 196
-250.033490885611 138.784390959972 1795.80514938782 188 190 187
-232.414606077553 136.871758751392 1811.01044965853 193 195 192
-213.844767842038 134.881986735451 1826.53359360561 193 197 196
-198.008395773373 133.138785903623 1840.67134364759 189 193 194
-188.601385846903 131.964424413791 1851.76216082693 185 189 190
-184.715430376317 131.27631767259 1860.27971556818 175 179 180
-182.668694862901 130.75058551624 1867.93487855453 178 182 183
-177.84280178551 129.98412269939 1876.81040866706 180 184 183
-173.007332847437 129.219048906098 1885.65033341996 171 175 174
-172.79170559886 128.85693276591 1892.41377130236 155 159 158
-174.426578134669 128.65576397236 1898.35672515655 132 136 135
-175.134200975566 128.374526175592 1904.70368065932 105 109 108
-175.840862185351 128.093652240503 1911.04636651496 119 123 122
-176.546319755949 127.813047486688 1917.38475344117 148 153 147
-177.250372713761 127.532756903886 1923.71905268904 157 162 158
-177.023267491497 127.173022485402 1930.44137879916 165 170 166
-177.72441115233 126.893465437554 1936.76441049062 179 184 180
-178.424105060255 126.614213339802 1943.0831810857 183 188 184
-178.190507827856 126.255778535473 1949.78222414294 185 189 188
-177.020975960093 125.818409159062 1956.8537395875 182 186 185
-175.847344525111 125.381744983659 1963.91047936947 182 186 185
-174.669593005675 124.94571617419 1970.95232322217 184 188 189
-174.42294841516 124.589577512878 1977.60530268294 183 187 188
-171.365834112668 123.996733794679 1985.36307691174 182 186 187
-171.111663863326 123.641884319767 1991.98892900108 172 176 175
-172.729772876121 123.445398215162 1997.87259958453 129 133 132
-177.162566270236 123.485541221706 2002.66614667049 120 124 123
-180.661064336236 123.446653848746 2007.83726306 130 134 133
-177.585222564922 122.857008713919 2015.52845430815 153 157 156
-156.636396457483 120.775758882696 2029.95376902061 179 183 184
-125.301471790749 117.835641337327 2048.13853160683 182 186 187
-104.275781140061 115.764104445619 2062.28459557677 183 187 188
-99.2378564247818 115.028034573009 2070.3911532663 179 183 184
-94.1899861522395 114.293360460958 2078.46166626114 184 188 189
-93.85168721154 113.950739286036 2084.7828853167 172 176 177
-93.5106527001808 113.608622234311 2091.09426601155 167 172 168
-91.2762535366527 113.11119412717 2098.07054034104 157 162 158
-93.766794938412 113.003990799203 2103.35250045702 141 146 142
-93.4182068277565 112.663426114111 2109.63681620117 138 143 139
-94.9620244164779 112.478853751526 2115.25217900078 144 149 145
-94.6093408387481 112.139224858821 2121.5218798887 136 140 139
-97.1010771834449 112.03276426726 2126.80874551848 130 134 133
-102.443278367876 112.158614161855 2131.13653594885 132 136 135
-108.741719393752 112.361331924938 2135.16686745641 138 142 141
-126.461600690677 113.490614998079 2135.42726325576 141 145 144
-169.906466817157 116.700965309402 2127.30620914371 138 142 141
-238.18252380298 121.908429924924 2111.32761116193 138 142 141
-279.866976131009 124.947977217686 2104.35529033219 146 150 149
-298.715032670371 126.134423575055 2104.94507823375 155 159 160
-310.906069723621 126.780237539818 2107.75250224581 154 158 159
-316.424464685678 126.887125020581 2112.72249376406 146 150 151
-352.692602129042 146.002796606557 1651.57797005155 196 198 193
-349.9347290594 145.380933043727 1660.42844671754 199 201 196
-346.257908291053 144.680567590135 1669.71473810966 198 200 197
-347.136230038678 144.377977290114 1676.6810553218 187 189 186
-351.666900219727 144.392589824118 1681.82188113049 155 157 152
-357.116205694647 144.485819892599 1686.52673434903 136 138 133
-358.91232242781 144.262175378491 1693.05416631164 103 105 100
-360.708751669926 144.038566929155 1699.58278132815 98 100 95
-363.421656412892 143.893912454739 1705.66761727722 119 121 116
-366.136515655886 143.74915460248 1711.75871561195 138 140 135
-365.182198689748 143.289465152229 1719.61519007912 151 153 150
-352.284539637238 141.808393271442 1733.13940989978 122 124 121
-290.650464847731 136.168296173378 1769.60892409808 182 184 181
-253.753328838818 132.658414301101 1794.0586675009 174 176 173
-236.128115338279 130.801435437624 1809.27560718541 167 169 166
-212.023821895353 128.400502462493 1827.37059851658 174 178 177
-197.099778814023 126.786320316295 1841.07985351406 170 174 173
-189.531809259517 125.800125298024 1851.32482484337 173 177 176
-188.413766662395 125.361725515449 1858.58685931369 195 199 198
-185.443275060436 124.768171143394 1866.66672700485 186 190 189
