ply
format ascii 1.0
comment KinectMotionCapture
element vertex 758
property float x
property float y
property float z
property uchar red
property uchar green
property uchar blue
end_header
-280.379241477187 123.571906665911 1770.08850142677 109 113 112
-255.771601550144 125.675033785624 1756.31984661503 108 112 111
-252.053736115485 125.942785098758 1745.4724257327 133 137 136
-257.286814265855 125.424369323259 1735.93910235792 158 162 161
-276.441518050205 123.683795713295 1728.54905297507 148 152 151
-293.60470478719 122.118451470843 1720.95688810207 112 117 113
-302.811157665607 121.251608387172 1712.20749840907 125 130 126
-314.999042702594 120.123283440656 1703.98646297246 113 118 114
-314.260823395274 120.128996189966 1693.72727810327 117 121 120
-318.493520803874 119.698520675557 1684.28788604077 122 126 125
-314.773032924716 119.965322769473 1673.53261538739 120 124 123
-308.071396781628 120.493182900589 1662.24676460853 128 133 129
-293.419680474732 121.717487697108 1649.54143146455 136 138 133
8.36490645445265 139.766417971146 2082.41239856348 143 145 142
-130.760408154488 127.760466922035 2068.44822018645 162 164 163
-163.924864297534 124.872182844921 2059.82775816676 148 152 151
-169.175780244805 124.370985112278 2049.61575930388 132 136 137
-174.426214472641 123.869657410819 2039.43177294306 138 142 143
-181.668990527465 123.197880483168 2029.41347458679 137 141 142
-188.910766753806 122.526114657354 2019.43426491156 152 156 157
-197.147934556032 121.769204159814 2009.56844428704 166 170 171
-204.38763916954 121.097449684846 1999.67021260544 168 172 173
-220.59333089876 119.659812680165 1990.52922992401 160 164 165
-240.781736460214 117.882233648533 1981.80696243351 154 158 159
-259.971215033954 116.190245358709 1973.10996098963 151 155 156
-269.196864685616 115.349111329479 1963.6378992995 151 155 156
-279.41720644685 114.423078865411 1954.30682861693 152 156 157
-290.632028744697 113.412174283722 1945.12504620346 152 156 157
-293.878130725202 113.081295120479 1935.23467347522 153 157 158
-301.107082371372 112.410437767561 1925.7576682681 153 157 158
-306.343633797453 111.90947500577 1916.11666173664 153 157 158
-318.549080067249 110.814094833707 1907.23532125961 149 153 154
-320.796776583246 110.567872315552 1897.3488286833 145 149 150
-323.04415887014 110.321478373166 1887.47443320675 140 144 145
-322.304495009453 110.329481308504 1877.2741655127 142 146 147
-320.569823024642 110.422028537359 1866.95420229316 136 140 141
-312.863005470455 111.023148207824 1855.91549700956 135 139 140
-310.133783995805 111.199748780202 1845.43873652707 133 137 138
-312.381113553512 110.952108475793 1835.56506364227 131 135 136
-312.637746415232 110.873852352149 1825.4509369823 131 135 136
-307.919095838481 111.218956329004 1814.69255984289 131 135 136
-306.185894015869 111.309554798845 1804.30372037608 128 132 133
-300.473239898414 111.738551767264 1793.36703621666 130 134 135
-292.771792359173 112.336408070649 1782.12427298223 130 134 133
-277.112909976719 113.610808260994 1769.71878102041 171 175 174
-263.445753208194 114.715100200468 1757.51275170552 164 168 167
-260.721634092541 114.887986631997 1746.83258539944 147 151 150
-262.970701816683 114.637696018202 1736.87880846269 172 176 175
-276.159298570691 113.457200942196 1728.59863805502 157 161 160
-292.329414646419 112.023483426826 1720.85228359873 118 123 119
-298.553479717721 111.435377022532 1711.63041659811 114 119 115
-311.736808063156 110.25592443252 1703.55727318945 112 117 113
-312.987310851213 110.090422948258 1693.6137513579 107 111 110
-314.237632793954 109.92480455778 1683.67717206288 120 124 123
-306.541019677884 110.518822990548 1672.24134201363 116 120 119
-296.857308552679 111.281117483608 1660.42321922617 118 123 119
-285.186917546034 112.21159172423 1648.20635840841 130 132 127
2.6860240441211 128.274127800875 2082.79008585237 121 123 118
-141.433675183347 116.237417593716 2069.14516232303 160 162 159
-165.627818048575 114.182473838411 2060.00896368664 147 152 148
-168.885492287984 113.860127496551 2049.67546887835 129 133 132
-174.136318063725 113.372710001891 2039.49111517773 127 131 130
-183.372851921537 112.555509937527 2029.61003466622 144 148 147
-197.591508756308 111.326281798862 2020.13670881003 159 163 162
-205.82866995849 110.591730154278 2010.29515335239 166 170 169
-212.071892345068 110.02193095668 2000.34420897479 166 170 169
-223.296134075037 109.04037376448 1990.82579348983 158 162 161
-232.526297438616 108.223636181181 1981.20351532636 155 159 158
-250.721360538956 106.666216600099 1972.3987183014 152 156 157
-259.948333281686 105.849878308 1962.90156938179 153 157 158
-276.146849091031 104.457725567137 1954.08988400727 154 158 159
-288.358945617823 103.394977692098 1944.99299128458 151 155 156
-292.601340028674 102.990342714822 1935.19302757223 150 154 155
-298.835066645336 102.421225975641 1925.6139435494 155 159 160
-307.059467098077 101.687685848494 1916.2722084751 156 158 157
-317.274364045365 100.78993146385 1907.18430280723 151 153 152
-319.522297961635 100.549542614571 1897.29479555019 147 149 148
-319.778553196096 100.473262621338 1887.19754968834 142 144 143
-318.043546296674 100.560965582476 1876.87614990217 143 145 144
-315.313356953093 100.730456490815 1866.42958328067 138 140 139
-313.579138834988 100.817496177769 1856.08596780365 139 141 140
-310.849638158762 100.986308586104 1845.6117571552 141 143 142
-311.106400021749 100.908693332955 1835.49327679621 139 141 140
-308.377444645278 101.076880414584 1824.99708251668 136 138 137
-306.643941907409 101.162712458405 1814.61488603939 131 133 132
-303.915669144434 101.330222651739 1804.09128606917 126 128 127
-299.197895388736 101.661288812555 1793.28356699984 124 126 125
-291.495691927567 102.23768262238 1782.03797825217 126 128 125
-281.804959396736 102.977328631824 1770.46995812266 129 131 128
-272.115570225549 103.716346914979 1758.84876084043 142 144 141
-267.40130091249 104.0454597696 1747.90197870292 157 159 156
-266.666044711683 104.046842531728 1737.52233615968 137 139 136
-293.779854194775 101.757195804173 1731.36658097668 149 151 148
-283.097608125828 102.576635805063 1719.51853470952 118 120 115
-292.306157691444 101.759995634475 1710.74110323905 112 114 109
-305.490904435182 100.616596989349 1702.65123586034 117 119 114
-307.736403888149 100.3725498967 1692.85294792266 102 104 101
-303.021641282435 100.700356757962 1681.91471830764 120 122 119
-293.336760129193 101.436194249827 1670.11391677879 115 117 114
-290.61194512195 101.599812947249 1659.45099734768 114 116 113
-281.923221961716 102.252972573031 1647.73627929927 131 133 128
-7.9792446596767 116.414868604342 2083.42930918928 127 129 126
-70.0779137249792 111.390991929907 2075.88715452663 116 118 115
-154.102743430725 104.614342560218 2069.95752760048 154 156 153
-170.322198784202 103.263625037119 2060.37194224826 141 145 144
-171.585881395077 103.109259356964 2049.92526405234 128 132 131
-171.852650835766 103.034366511506 2039.41857600031 127 131 130
-182.086938724416 102.162299497747 2029.60038629052 148 153 149
-192.319810648176 101.290384382704 2019.837700491 161 166 162
-209.527544067723 99.8610224686549 2010.65050429652 166 170 169
-218.760617315609 99.0691383253637 2000.94118348364 167 171 170
-226.995766963655 98.3569691476525 1991.20227909914 162 166 165
-231.244436830622 97.9632193161436 1981.17806124183 159 163 162
-248.444681218824 96.5349809191461 1972.28476868184 149 153 154
-261.657507976277 95.4253546668531 1963.13369928695 149 153 154
-274.868497401612 94.3160525122712 1954.05478718729 148 152 153
-281.104774627897 93.763572223925 1944.39387944419 154 158 159
-288.336171231715 93.1316015023785 1934.86307029222 159 163 164
-298.554550922753 92.2612939177566 1925.66851719364 153 157 158
-310.763202159887 91.2322818273136 1916.73317642503 160 162 161
-315.999466104623 90.7595145258 1907.13367977413 155 157 156
-317.251689356531 90.6043584339603 1897.13402434084 151 153 152
-316.512463070262 90.6078153343751 1886.92109832878 144 146 145
-315.77333724414 90.6109904084807 1876.70394338278 144 146 145
-313.043077490767 90.7726075569369 1866.25167438293 137 139 138
-309.317527910849 91.0132234808078 1855.66611583731 137 139 138
-311.565375096568 90.7776142313215 1845.78513027682 136 138 137
-308.835972709208 90.9383129054803 1835.29836625615 134 136 135
-306.10694698925 91.0986562190981 1824.79649920975 132 134 133
-301.387993798492 91.4171622930332 1814.02139049439 129 131 130
-302.640429790027 91.2599389257018 1804.01120077832 128 130 129
-297.922128027741 91.5777645442011 1793.20057657271 127 129 126
-293.204715532179 91.8951702221639 1782.36407063136 125 127 124
-283.513107781023 92.607965644202 1770.80142705125 118 120 117
-274.817647049739 93.2409970454051 1759.3284244824 123 125 122
-265.128657221549 93.952585339931 1747.66216728326 129 131 128
-261.409484098835 94.1889797340869 1736.83218673564 124 126 123
-287.530868558453 92.0528329775709 1730.51116922461 149 151 146
-267.897001288965 93.554007264829 1717.26337711151 111 113 108
-283.07428067051 92.2881088288592 1709.38322460034 113 115 110
-292.282861093806 91.4967284628013 1700.63170913749 121 123 118
-293.534875697059 91.337441590488 1690.63577310252 106 108 105
-289.815215878707 91.5728852139868 1679.8237934421 111 113 110
-284.107461727465 91.9658716567434 1668.65693629962 110 112 109
-287.34820961292 91.6481366253294 1658.98993330998 111 113 110
-276.67095033977 92.4349909441015 1646.92132258032 127 129 124
-160.791053761963 93.5239165997149 2070.42292758093 152 154 153
-172.025932715164 92.6024724538526 2060.55331732213 137 141 140
-176.280732001481 92.2200549111153 2050.30170826204 127 131 132
-177.543992993065 92.0684873304671 2039.87451279229 129 133 134
-184.788119697135 91.45503444693 2029.86605025125 166 170 171
-191.034557945709 90.9185149295987 2019.82515200403 170 174 175
-204.256947462903 89.8436446376204 2010.33765510462 166 170 169
-213.49082549389 89.0766073264968 2000.61423440676 166 170 169
-222.723660854275 88.3096644115318 1990.94099103161 167 171 170
-231.955215293314 87.5428224380843 1981.31791888323 165 169 170
-252.145952654397 85.9310404337694 1972.68253666413 158 162 163
-265.359500807167 84.8574586264832 1963.54197439025 157 161 162
-271.597322103461 84.3216726917885 1953.83864415344 147 151 152
-279.826541368065 83.6323741086273 1944.35607638083 142 146 149
-288.054853894957 82.9431787467079 1934.91838267836 142 146 149
-304.250439871042 81.6402740893921 1926.31703305564 159 163 164
-312.475665290393 80.9514385910012 1916.99105581573 152 153 155
-314.72438548829 80.7228442210226 1907.08348195234 147 149 148
-315.976771589188 80.570795774232 1897.08079856635 145 147 146
-315.237554031119 80.5718645937447 1886.86496728861 143 145 144
-316.489729177388 80.4194371709726 1876.87012182504 141 143 142
-311.767800546003 80.7264796363532 1866.18967010867 141 143 142
-309.037778665435 80.8799308846541 1855.71933630089 141 143 142
-309.294684079157 80.8033727618629 1845.59638054708 138 140 139
-308.556182963355 80.8031404916452 1835.35115121371 137 139 138
-306.822484242427 80.8792084619055 1824.97545531134 134 136 135
-303.098091973359 81.1079926192428 1814.33196100892 132 134 133
-299.374451657273 81.3364083976318 1803.66800703036 128 130 129
-296.646414449528 81.4880258552272 1793.11813635015 124 126 123
-291.928711441389 81.7921846469775 1782.27876116051 118 120 117
-283.23138481366 82.401660168937 1770.85339179963 121 123 120
-268.565504229664 83.4689329967501 1758.5237140504 121 123 120
-257.881383348727 84.229900274802 1746.69548321239 117 119 116
-253.167432965001 84.5320878368728 1735.69800111808 113 115 112
-266.35966357047 83.4598900053087 1727.39208844728 144 146 141
-273.582187038806 82.8459434015052 1718.23674986591 120 122 117
-276.824847123342 82.537320476197 1708.49547060143 112 114 109
-287.029246764785 81.6947392630283 1699.88640150112 103 105 100
-286.29267580122 81.6911903760862 1689.55284921609 106 108 105
-285.556435011891 81.6874304139881 1679.21549073016 106 108 105
-282.831533482442 81.8358873266291 1668.53967332979 108 110 107
-285.078411765719 81.6031468551869 1658.69963610611 112 114 111
-276.388715885588 82.2081300739631 1646.97120720553 115 117 112
-152.254643556242 83.6594875879902 2080.57980162758 166 168 167
-164.488822556756 82.6939615871125 2070.7149139064 149 151 150
-170.738811641275 82.1742473700119 2060.55328092681 132 136 137
-172.99981061336 81.9514769268749 2050.17206331622 126 130 133
-171.272417856033 82.0254640768688 2039.53834949848 134 138 141
-178.517504506527 81.4312918287982 2029.51307098718 173 177 180
-184.764827805027 80.9113420197727 2019.45537319949 171 175 176
-200.978954841197 79.6497308772891 2010.17371251473 167 171 172
-209.217111147961 78.9817005045708 2000.36469034125 167 171 172
-220.444270351891 78.0913876697203 1990.83954581899 170 174 175
-238.645511482724 76.6825359965534 1981.95281073774 169 173 174
-262.823193153994 74.8296774276742 1973.67695609515 164 168 171
-275.040626399665 73.8663107593702 1964.47819379701 158 162 165
-275.300081947782 73.7917895802089 1954.25775707003 156 160 163
-280.541019876956 73.3469021746628 1944.50552020078 150 154 157
-292.754437206289 72.3840076023601 1935.45489593714 146 150 153
-310.943275226352 70.9774195263662 1927.06467265607 158 162 163
-319.168636642845 70.3110549651249 1917.75750773839 154 155 157
-318.429009511622 70.310267200805 1907.55569054167 149 151 150
-318.685349523248 70.2353450756103 1897.45658926865 146 148 147
-320.933234435015 70.0124079418051 1887.57841079711 143 145 144
-323.181042332783 69.7893381284148 1877.71242462655 142 144 143
-315.471312009914 70.3048176993929 1866.7049314786 137 139 138
-305.771255286706 70.9674358387331 1855.41862649351 137 139 138
-302.045860690549 71.1865386866566 1844.80391156158 138 140 139
-307.280920847009 70.7410554257033 1835.28075862806 136 138 137
-308.533277085931 70.5907404766855 1825.28110364791 133 135 134
-302.817852503309 70.9565697391116 1814.38487424695 128 130 129
-290.136107658609 71.8381843800116 1802.53460141435 130 132 131
-276.460960689077 72.7927703486017 1790.48011409276 126 128 125
-262.787715959079 73.7465948059351 1778.35046300832 119 121 118
-256.082031324786 74.1839286867426 1767.12564117502 119 121 118
-250.372229424547 74.547135673936 1756.00684227128 115 117 114
-243.66832968367 74.9835442224525 1744.71126706947 107 109 106
-240.944867382035 75.1250758953267 1733.97176387128 100 102 99
-259.112913117387 73.7208604476593 1726.38739786252 138 140 135
-279.268009864539 72.1700933427854 1719.21048740158 137 139 134
-278.532062346299 72.1645597654367 1708.85976249405 106 108 103
-284.758462671246 71.644148332946 1699.61931133829 103 105 100
-283.027506884507 71.7119117863831 1689.11817052698 103 105 102
-286.269258763143 71.4119751972293 1679.43103860228 107 109 106
-280.560851099368 71.7732505037193 1668.25567401766 105 107 104
-283.802301958562 71.4731239687859 1658.58010302642 110 112 109
-274.117822564687 72.1274836748894 1646.6761147786 119 121 116
-159.941626017577 72.5313889230229 2081.08134697796 157 159 158
-162.203802469729 72.3144719584918 2070.66039438191 139 140 142
-167.457038740449 71.882863772546 2060.43242913627 126 130 133
-173.706845630937 71.37971830398 2050.29570717662 129 132 139
-176.964618514516 71.0910313916123 2039.99449791544 147 150 157
-184.209828577131 70.5163774930078 2029.98535333133 166 169 174
-194.444800419798 69.7274648410745 2020.22971707863 167 171 174
-207.668905954785 68.7244606506406 2010.75231654415 167 171 172
-217.900834115264 67.9359681897025 2001.11608910402 166 170 171
-234.111607478048 66.7193338821676 1992.01379425434 167 171 172
-251.316688549418 65.4317828834093 1983.08252665383 169 173 176
-268.519374132359 64.1446745699311 1974.2453583609 169 173 176
-274.758301634396 63.6426099279355 1964.53500109857 165 169 172
-276.014124608817 63.4970888497107 1954.40500137492 163 167 170
-288.229846270498 62.5672933641823 1945.30917985888 165 168 173
-303.432744781315 61.4239573170209 1936.56866586808 149 152 157
-318.63328819618 60.2810713415556 1927.91135564972 137 141 144
-318.889639357767 60.2069114908014 1917.81263706918 151 152 154
-322.134210935358 59.9189482559788 1908.02815760706 155 157 156
-320.398178952129 59.9868477516323 1897.72555821115 152 154 153
-322.646330723129 59.7698233371848 1887.85262336722 138 140 139
-322.902337772583 59.6949898559955 1877.76663058841 135 137 136
-320.170889635953 59.8333208947863 1867.33580489194 136 138 137
-312.461297410874 60.3268417424735 1856.29933681808 136 138 137
-305.748366232088 60.748774359182 1845.34119835573 137 139 138
-307.000994063154 60.6017781808877 1835.33449205413 136 138 137
-306.262545492343 60.5967153929981 1825.08202244268 134 136 135
-303.533200396609 60.733496228142 1814.56733813334 131 133 132
-267.956627455067 63.2129045610538 1799.68885103802 125 127 126
-199.073136693729 67.9456290818093 1759.19945554559 133 135 132
-224.215229631345 66.0933551385037 1752.34918207726 115 117 114
-241.393393986457 64.8091439212156 1744.47349899287 110 112 109
-234.690052083473 65.2264529426178 1733.13561395256 109 111 108
-241.916118554122 64.6513438509257 1723.87417850824 140 142 137
-278.985944300586 61.951470138055 1719.26261618227 150 152 147
-274.270962198291 62.2270256988743 1708.28618662011 104 106 101
-280.498114327778 61.7235345484112 1699.03452003418 114 116 111
-279.761849307142 61.7155528296866 1688.68425080633 105 107 104
-282.009583171457 61.4951285595119 1678.82399870014 104 106 103
-276.301018053671 61.8404957224091 1667.63770702434 103 105 102
-278.548654393201 61.6197973208614 1657.78097218343 109 111 108
-275.824145871905 61.7525146412249 1647.07289470102 121 123 118
-166.632464476307 61.5153287193288 2081.52778720035 152 153 155
-160.915483179437 61.8545488464752 2070.66382874485 135 136 138
-160.185769689015 61.8494412554752 2060.06991382567 125 129 132
-166.436530425754 61.362817170151 2049.91365163912 131 134 141
-176.67489390593 60.6012405304544 2040.05480974791 151 154 161
-188.905814667142 59.7024528721246 2030.38892379805 160 163 168
-200.138361559303 58.8725853210954 2020.71811124618 167 171 174
-214.359892635962 57.8369217893514 2011.33096003898 167 171 172
-229.576463452877 56.7329494339923 2002.09835066298 165 169 170
-247.781041134643 55.4234412882206 1993.18787904138 161 165 166
-260.003021199621 54.5261604861672 1983.8823692071 163 167 170
-267.23998771472 53.972157112141 1974.21758395998 160 164 167
-270.489719020373 53.6925583016103 1964.24042552551 169 173 176
-274.735433008211 53.3443127361958 1954.3712678524 165 169 172
-289.941462528102 52.2421114454874 1945.55255051398 167 170 175
-311.123350400868 50.7292219139401 1937.39391773823 172 175 180
-319.350471679778 50.1074631332089 1928.06586555247 162 166 169
-319.606767638857 50.0336780932288 1917.96970692013 146 147 149
-319.863033342328 49.9597360557668 1907.87456220991 157 159 158
-320.119263015243 49.8855935439923 1897.7806104448 155 157 156
-318.383575464166 49.9480865208683 1887.46806913194 140 142 141
-322.623604511287 49.5999890150834 1877.82125761076 136 138 137
-326.863038714268 49.2518548118266 1868.1976552563 136 138 137
-321.143835619262 49.5872850542708 1857.41646308238 136 138 137
-311.442539144398 50.1956759350378 1846.12038683294 135 137 136
-304.729613468981 50.5985210289398 1835.14153856796 134 136 135
-301.999959021313 50.727746798358 1824.63083275612 133 135 134
-300.26637384807 50.7883896528671 1814.23413671554 132 134 133
-229.900090465055 55.3148703990238 1753.25964116638 116 118 115
-237.128046818132 54.7594395721495 1743.9454715751 115 117 114
-228.434296422453 55.2942896164427 1732.30020358644 136 138 135
-265.034945952884 52.6073036019568 1706.93134906292 108 110 105
-271.263196125051 52.1206555598382 1697.65485199779 105 107 102
-274.506463973042 51.8382310626942 1687.92727387476 106 108 105
-275.759924831554 51.6918083611901 1677.88862573004 105 107 104
-273.035029200145 51.8172463982277 1667.18786191808 110 112 109
-276.277461099011 51.5346393259479 1657.49275954764 113 115 112
-272.558539224974 51.7276480817782 1646.6063751743 113 115 110
-158.362236675104 51.5280428751642 2081.14941656696 135 137 136
-155.637627133461 51.6526545088492 2070.43658404759 117 118 120
-155.905467529411 51.5788419779926 2059.88919931256 129 133 134
-165.148574755567 50.910764780899 2049.91132544462 143 146 151
-178.379410129158 49.9788470464331 2040.24722666561 153 156 161
-196.594195246625 48.7173643616355 2030.99870392576 169 172 177
-208.824022341558 47.8521152863828 2021.42089817846 167 171 172
-221.051915707765 46.9871440838298 2011.90964281866 170 174 175
-239.259944004394 45.7269650998677 2002.92659985764 168 172 173
-257.465201281261 44.4673019040686 1994.04308697359 168 172 173
-268.690455690891 43.6692984507358 1984.6821783274 167 171 172
-269.947237747175 43.5301059929979 1974.53081433558 169 173 176
-273.197000090972 43.259066638507 1964.56163330763 167 171 174
-280.432574131496 42.7247451099273 1954.97240364049 167 171 174
-296.635772653491 41.5983404381711 1946.26304144321 168 172 175
-310.843743441124 40.6039489946501 1937.45018809627 166 170 173
-317.078892278838 40.1359758415144 1927.92411894078 166 170 171
-318.331568787063 39.9967841851366 1917.92389006174 166 168 167
-320.580467475934 39.7917297821265 1908.03461555633 153 155 154
-320.836644282843 39.7179914686072 1897.94316397483 148 150 149
-320.096532277729 39.7097735265934 1887.74299458868 144 146 145
-320.352709457214 39.6356900043505 1877.65115778704 147 149 148
-326.584596927509 39.1676248152454 1868.25245534714 147 149 148
-322.856810670271 39.3557912362377 1857.70732245101 146 148 147
-315.146350845831 39.80604425764 1846.65830550627 140 142 141
-306.441056170845 40.321385550339 1835.44328094959 139 141 140
-302.715451892515 40.5084308950088 1824.81166503355 139 141 140
-298.990127738686 40.6951797264102 1814.15945772026 134 136 135
-276.350366339234 42.1263810832515 1800.98347930453 138 140 139
-252.244459954535 43.533520819722 1766.86736669591 121 123 120
-240.56198510017 44.2415254946413 1754.88391382209 132 134 131
-241.818566300273 44.0985334219025 1744.72699546349 121 123 120
-255.797537496918 42.937686197384 1705.57735017868 140 142 137
-263.021891185951 42.4025675102965 1696.43511957809 107 109 104
-267.26065831425 42.0635087253511 1686.8473332983 107 109 106
-267.520071805836 41.985547647505 1676.62484678799 99 101 98
-268.773997993619 41.8422270860024 1666.57134280238 99 101 98
-274.006170480062 41.4379354346369 1657.2052783945 106 108 105
-273.270370357161 41.4249834086798 1646.83150261949 120 122 117
-160.796368259317 40.8728179230774 2091.90817239079 160 162 157
-156.07592933092 41.1163087425827 2081.10126105825 135 137 134
-154.348657738318 41.169497044047 2070.44047950161 123 125 124
-153.619231151745 41.1591364280822 2059.8297110925 131 135 136
-158.874062726485 40.7689636783611 2049.59321080773 151 155 158
-169.114451695789 40.0625454734976 2039.71443066387 160 164 167
-187.331000381382 38.8504872466254 2030.44072496046 171 175 178
-208.536699903257 37.449327715764 2021.48074230723 164 168 169
-226.747980379195 36.2384019505022 2012.41415243729 165 169 168
-246.950822341943 34.9016306641949 2003.60096578092 170 174 173
-262.166322529791 33.881234776322 1994.49993827167 174 178 177
-269.404678507402 33.3662940031743 1984.82279042853 174 178 177
-274.648358348952 32.9777128593302 1975.01452266414 164 168 169
-278.894900762401 32.652215899253 1965.1467377369 166 170 171
-284.137201453714 32.263656814917 1955.39239562726 166 170 171
-291.372036132182 31.7490383165549 1945.85321838691 164 168 169
-305.581430263721 30.7932803203764 1937.02621744967 158 162 163
-312.814004902065 30.2790052927718 1927.58506398727 156 160 161
-320.045337186015 29.764869088632 1918.18329030809 165 167 166
-321.297792827375 29.6286921714734 1908.19493066604 157 159 158
-321.553914086562 29.5553437653959 1898.10606873451 149 151 150
-320.813910644703 29.544798056841 1887.90848173203 143 145 144
-320.073771881364 29.5340664385608 1877.70665915802 142 144 143
-321.326119244843 29.3973150222829 1867.73123932598 137 139 138
-316.602274214777 29.6377513857339 1857.05417060639 140 142 141
-309.887456522467 30.0035132587986 1846.10945180939 140 142 141
-306.161047531505 30.1803595358308 1835.49833587735 139 141 140
-302.435156504269 30.3568878590317 1824.86663473427 139 141 140
-303.688054332988 30.2191677665955 1814.85933593567 133 135 134
-300.95838696716 30.3324469128641 1804.33201275449 132 134 133
-296.237923443903 30.5709777038979 1793.52073697772 148 150 147
-288.531919832252 30.9973571540347 1782.27192219783 129 131 128
-282.817641035717 31.2978507357632 1771.26075908539 115 117 114
-271.132361970711 31.9741135256845 1759.36214727459 124 126 123
-253.476856602567 33.0258106999006 1746.52682843442 112 114 111
-255.773950711732 32.5775805221591 1695.37531988487 105 107 102
-258.023976632695 32.3750018989142 1685.444647546 100 102 99
-259.278740302019 32.2349544856097 1675.36192633499 103 105 102
-265.50696571049 31.7823138276772 1666.12291163088 101 103 100
-269.744942424131 31.454764059624 1656.57837499007 113 115 112
-271.99332420597 31.2522180244201 1646.71199629429 120 122 117
-258.329367576223 32.0487505876741 1634.05044615462 136 138 133
-152.523705207879 30.8267796931378 2091.55257119763 172 175 168
-143.812967849792 31.2988407865307 2080.50379460632 130 132 127
-145.07934200228 31.1647770781141 2069.98304512204 121 123 120
-146.34532086262 31.0305816667996 2059.46827882358 120 125 121
-150.603438552878 30.7147002028201 2049.1490915706 153 157 156
-159.847869445942 30.0962783454128 2039.18212508212 164 168 167
-178.066421563328 28.9336826159879 2029.88322734429 171 175 174
-204.260306705084 27.287885871164 2021.25513209623 179 184 180
-227.459086531155 25.8242648466901 2012.54792411042 174 179 175
-252.648883567302 24.2405099699417 2004.12152430845 173 178 174
-263.876899181333 23.5032834284931 1994.71795579602 169 174 170
-269.121929761043 23.1286540876716 1984.88120166491 167 172 168
-272.372408116685 22.8747846204396 1974.90247211623 151 155 154
-280.606309210614 22.3191474189713 1965.38043753228 157 161 160
-286.845756402065 21.8843308083806 1955.72197476416 160 164 163
-295.077511530276 21.3289798335722 1946.28411928266 159 163 162
-307.294666598299 20.5326152047292 1937.27554305862 159 163 162
-321.503017339348 19.616072346976 1928.53142763165 157 161 160
-327.737888068052 19.1819039400371 1919.05252487259 164 166 165
-329.986424883714 18.9887771330518 1909.19020055979 161 163 162
-326.256504062135 19.1568459110205 1898.69758974324 158 160 159
-327.508666973462 19.0236547155343 1888.73320163117 153 155 154
-324.775780684566 19.1310386876898 1878.32535533056 147 149 148
-322.043278138887 19.2381854536195 1867.90225632188 148 150 149
-315.32707793626 19.5855819445349 1856.99185148448 140 142 141
-311.599727058377 19.7522581712479 1846.40662793941 116 118 117
-309.864534490036 19.7984473711477 1836.04791045823 115 117 116
-306.13807885372 19.9645551543087 1825.42708742059 122 124 123
-305.399427906488 19.9502357897703 1815.17258838162 133 135 134
-298.686484449235 20.2959506181218 1804.12376822502 130 132 131
-297.948448062226 20.2811675449169 1793.84475214894 105 107 104
-291.23719037234 20.6261828601638 1782.73862006876 113 115 112
-292.490572562827 20.4910121669124 1772.71512808279 122 124 121
-277.817466618727 21.3149751231741 1760.41591982369 123 125 122
-262.150898237916 22.198131720204 1747.8907360654 129 131 128
-252.505068956571 22.4743982566553 1694.95271355988 105 107 102
-253.760629263449 22.3376692420065 1684.85174482272 90 92 89
-256.010543220079 22.1411029599124 1674.92257923848 101 103 100
-265.22381785363 21.5261442519638 1666.17702576622 118 120 117
-270.456996809235 21.1504463101611 1656.80232678001 139 141 138
-270.716103058601 21.0735048265817 1646.59294312181 113 115 110
-262.023924763919 21.5337827975344 1634.80616223111 130 132 127
-141.525495933121 20.8365999334565 2080.45624918634 104 106 101
-126.829579826232 21.6304847646836 2069.00692074545 83 85 80
-121.113934791732 21.9034482247116 2058.01959522119 100 105 99
-122.381820938592 21.771570301863 2047.44209868721 176 181 177
-139.608242669163 20.7154505686583 2037.92525726574 172 177 173
-171.792800588004 18.7936999420181 2029.53223972829 122 127 123
-193.99973198258 17.450272361074 2020.60147221843 153 158 154
-227.17317383087 15.4727933698376 2012.60777006317 167 172 168
-257.350515944714 13.669502222256 2004.5652437334 156 161 157
-259.605458115956 13.481774882285 1994.458373467 174 179 175
-258.869036428661 13.4669145419796 1984.11616636899 178 183 179
-262.120451285687 13.2213784754677 1974.10978286591 178 182 181
-265.371420852642 12.9758109102213 1964.1207690204 177 181 180
-274.602575703709 12.3847317036791 1954.69270988831 160 164 163
-282.836024070885 11.8514114415079 1945.2216564331 156 160 159
-307.014762167523 10.3975408447148 1937.33291558292 166 170 169
-326.20727696098 9.23210160280674 1929.08261596879 167 171 170
-335.431866530315 8.64233949008944 1919.92188977235 161 163 162
-336.683389423991 8.51271289707686 1909.9770183746 157 159 158
-331.956379571902 8.72780101360887 1899.39642486791 154 156 155
-332.211730973946 8.65531027257149 1889.3385725151 147 149 148
-327.485935650819 8.86983183545414 1878.7192274758 148 150 149
-325.749118350001 8.91181711382325 1868.41949632106 149 151 150
-317.039815941617 9.35532474154022 1857.28397841212 143 145 144
-312.316070022966 9.56886555652267 1846.58348249477 128 130 129
-308.588880189566 9.72473299165685 1835.9803591255 131 133 132
-306.853863819836 9.76568363471453 1825.60913043337 138 140 139
-305.119324496695 9.80641411054034 1815.22834549755 140 142 141
-299.401794650648 10.0761206680822 1804.31118792685 129 131 130
-298.663392104098 10.0591424836145 1794.03480090442 98 100 97
-292.947338065384 10.3282204301503 1783.06861350485 115 117 114
-294.200676503286 10.196377437552 1773.05040455018 104 106 103
-276.539607794971 11.1514170833794 1760.3287369067 113 115 112
-259.87657308946 12.0484242622733 1747.65561890171 104 106 103
-250.230940857938 12.2972290048221 1694.68973343546 107 109 104
-252.48141971307 12.1067618141714 1684.74503839549 91 93 90
-258.71147211366 11.6880781908184 1675.4710789588 118 120 117
-261.956049618902 11.440641240875 1665.72988182703 138 140 137
-265.200162636864 11.1932229173281 1656.00685846688 136 138 135
-263.470339154118 11.2307622879008 1645.43833578881 93 95 90
-254.777986545224 11.6669064918013 1633.63245472105 122 124 119
-41.7301807500707 15.686724690428 2064.16808335636 135 138 131
-63.2309271779796 14.3803352861905 2043.77840237931 20 25 18
-114.377916075265 11.499439444609 2036.33973562256 26 31 24
-163.523045602885 8.73033724924355 2029.04437955535 32 37 31
-174.761488190759 8.0520762122385 2019.30592618967 28 33 27
-204.946850989975 6.32991115599596 2011.03703063913 19 24 18
-266.041986115977 2.90570251739175 2005.31657245058 19 24 18
-248.353310993133 3.82227910178445 1993.64188523602 5 10 4
-239.640744755007 4.24394594610977 1982.6104781488 10 15 9
-245.884800892985 3.84192560132246 1972.80709588854 20 25 19
-248.140009726484 3.65945709416854 1962.68612527874 21 26 20
-267.342070074847 2.54462342198697 1954.11708867451 10 15 9
-286.54145689516 1.4304189928622 1945.65321844079 7 12 8
-303.744594055261 0.426427852363409 1937.10239036359 2 7 3
-332.905470854849 -1.23442429086307 1929.83162792383 0 2 0
-341.133502193425 -1.74421974285099 1920.58822505301 40 42 39
-344.3778536531 -1.98011036748624 1910.86826011994 106 108 107
-334.667733057322 -1.50459317251894 1899.77439155401 161 163 160
-330.937371962871 -1.35780710771138 1889.28546117642 163 165 162
-328.203784248437 -1.2659613870134 1878.88834523802 154 156 155
-327.463179607556 -1.28369937280978 1868.70653266263 166 168 167
-321.741643592749 -1.02835115478789 1857.93053316607 155 157 154
-316.020907318114 -0.77335839560061 1847.12289538881 135 137 134
-314.285334144579 -0.737131696173121 1836.77768109965 141 143 142
-315.537711762025 -0.864847662348539 1826.80145561994 153 155 154
-311.810508241116 -0.719795016832281 1816.18725511782 143 145 144
-304.100288834116 -0.356810544637209 1805.02581479143 140 142 141
-298.382767073174 -0.103311282870999 1794.09093908085 75 77 74
-294.657527923827 0.0408282672135218 1783.39898372153 77 79 76
-287.945897888457 0.348168222318923 1772.26695129267 123 125 122
-274.26632206467 1.03641337079274 1760.09958267797 122 124 121
-261.584063645049 1.66954333092162 1748.00257841975 109 111 108
-240.990277554875 2.48910639849248 1693.31422903281 111 113 108
-250.207267704213 1.92425723253914 1684.47726409923 94 96 93
-255.442765063636 1.5769268993378 1675.0330880255 133 135 132
-258.687796971329 1.33826679857849 1665.28355517654 134 136 133
-259.942783068453 1.208180214604 1655.21216067619 121 123 120
-260.2026185656 1.13230498454614 1644.97542034937 106 108 103
-249.5202695262 1.65284002205868 1632.81045739536 121 123 118
-181.149460808866 5.31668473935038 1610.25347742622 144 146 141
23.14577513408 8.15300694494087 2049.44836465246 109 110 104
-183.182543787532 -2.84041699805487 2030.47848728308 29 32 25
-207.387211553619 -4.16688631863532 2021.72244359206 28 31 24
-250.538429844329 -6.4845995549698 2014.50694871727 27 30 23
-267.753704306619 -7.44375423466492 2005.52989476299 28 31 24
-253.055022330166 -6.73279210248698 1994.09963007837 31 34 27
-223.40106905928 -5.24020384731416 1981.35269846964 32 35 28
-188.765679615115 -3.48820688007273 1968.01662340991 26 29 22
-257.825875450456 -7.15778713567589 1963.62380825888 24 27 20
-274.037803359426 -8.06368009365654 1954.81003987346 25 28 21
-280.278623988373 -8.44827379627888 1945.15182390068 26 28 23
-289.509049405041 -8.98893350008614 1935.81573495897 25 27 22
-313.689263020851 -10.3099321256518 1928.01199339734 27 29 24
-343.846211338887 -11.9422238147605 1920.9501333044 11 13 8
-347.090595031269 -12.1694427656655 1911.23821958087 7 9 6
-337.379522042164 -11.7209206648392 1900.15258859245 1 3 0
-328.666205063008 -11.3248546406723 1889.12303487643 10 12 7
-321.946998502119 -11.0331056874289 1878.27037889434 45 47 44
-322.203007250806 -11.1052012518815 1868.18725946774 98 100 97
-319.470181413077 -11.0216759408515 1857.75143293331 153 155 150
-314.745500119681 -10.8346245889225 1847.05905235604 147 149 144
-313.009624378942 -10.8034233237801 1836.71094272881 157 159 156
-317.25033632862 -11.0834834858349 1827.11049426968 164 166 161
-313.522706129651 -10.9488805991405 1816.50174967797 163 165 160
-311.787510392869 -10.9181410937856 1806.1358921266 146 147 142
-304.077217251266 -10.5768638871598 1794.95402601401 29 31 26
-280.435831446107 -9.40777174220569 1781.53540465302 5 8 1
-285.672951215211 -9.74030417329361 1772.04370803622 163 168 162
-274.979393766742 -9.24513226959628 1760.29890034529 148 153 147
-262.296101140394 -8.64706318943609 1748.20467079604 123 128 122
-251.605652507811 -8.15298902671921 1736.33718114102 153 158 152
-240.705251300658 -7.8331767366473 1693.37076979575 62 63 58
-250.918016205628 -8.4243263789599 1684.69540028592 57 60 53
-256.154078974104 -8.7573382821774 1675.2538248833 71 76 69
-255.419064583914 -8.78092029996358 1664.83792628554 83 88 82
-254.684379192866 -8.80464555863236 1654.41834024876 72 74 71
-252.95474829626 -8.77694493209516 1643.82240176335 155 157 154
-247.246430911273 -8.54348485384737 1632.51559541107 167 169 166
12.4752083227664 -3.42945946066797 2050.17771837511 113 114 108
-178.902993606611 -13.1136247380125 2030.26558207196 24 27 20
-228.047606873498 -15.6112433685366 2023.28190140565 20 23 16
-285.164864496918 -18.5028384888254 2017.16058331782 20 23 16
-243.795193079376 -16.5687776508972 1993.44328022613 27 30 23
-226.106572472603 -15.7513520447901 1981.66000165051 30 33 26
-185.485502894099 -13.7987219975224 1967.82217021846 23 26 19
-304.663505264394 -19.8184037661494 1957.67646453092 23 26 19
-300.193530398185 -19.7143366953155 1936.93084750924 24 27 20
-341.575713949313 -21.8777476629406 1920.80471271608 21 23 18
-325.883438426204 -21.1605344333977 1909.10607592575 18 20 15
-317.169624161318 -20.7887037516027 1898.06993581466 17 19 14
-316.429520229291 -20.8110539618932 1887.86360155131 5 7 2
-325.654021945683 -21.3255031555064 1878.7778493761 5 7 2
-324.913433101445 -21.3479118278958 1868.59040438965 1 3 0
-339.117850729298 -22.107830701018 1860.16817942342 0 1 0
-318.451126361373 -21.1474091707506 1847.59924021459 20 22 17
-319.703445853592 -21.2685375764461 1837.63235968525 37 39 34
-316.971132861366 -21.1932963854156 1827.16759452192 21 23 18
-312.247230139607 -21.0201141474926 1816.4298930815 88 90 85
-312.503797781865 -21.0925085529416 1806.32460928561 175 176 170
-303.797000438461 -20.7236038110741 1795.01108192608 43 46 39
-267.207766314547 -18.9825209631192 1779.80998299388 3 6 0
-276.429490779085 -19.4970816776046 1770.84198048781 169 174 167
-279.675619922735 -19.7174655004469 1761.06918751625 174 179 173
-262.012695837749 -18.9095712592601 1748.26204101767 150 155 149
-247.339200134621 -18.24931903053 1735.80228592086 149 154 148
-231.462494649857 -17.7160209267263 1691.9968503927 78 79 74
-242.672050163023 -18.3281778627242 1683.45838146943 69 72 65
-245.918662913281 -18.5493506449495 1673.66584035249 62 65 58
-251.154839083662 -18.8680825628421 1664.22584077082 75 78 71
-248.430251076404 -18.7964059612579 1653.45532905251 82 84 79
-246.70114068375 -18.7736710740468 1642.84304042932 95 97 94
-237.013112387882 -18.3611135938262 1630.81812695821 126 128 125
-3.46538087398152 -15.2615707254624 2040.24639990942 19 22 15
-271.396185482993 -27.9449820027293 2036.70660676693 23 26 19
-193.84361539197 -24.3698396079371 2020.91732067437 22 25 18
-219.046696016004 -25.6102552259125 2012.33107870569 21 24 17
-276.165156063656 -28.3443535110952 2006.34119847329 20 23 16
-302.35630892136 -29.6291103516143 1998.19822240587 21 24 17
-142.314550022482 -22.26014703824 1964.2258275881 25 28 21
-318.855539122091 -30.7522833494241 1938.81422476124 27 30 23
-341.043673798123 -31.8471975567938 1930.89425743649 30 33 26
-339.304657847614 -31.8245607620319 1920.65968221666 24 26 21
-318.62764829482 -30.9183666029534 1908.43449848765 21 23 18
-287.986406026064 -29.5481128450204 1895.02540107005 22 24 19
-316.150283280582 -30.9211130287173 1887.92174605934 22 24 19
-329.36186885242 -31.596283556658 1879.28567159428 26 28 23
-386.416682187376 -34.3141693737482 1875.79140828981 16 18 13
-359.765106497875 -33.1310126977876 1862.70272654238 21 23 18
-340.091615531322 -32.2737296651271 1850.31220493616 23 25 20
-345.327532701456 -32.5767276579361 1840.8992218583 24 26 21
-301.748999982916 -30.6080978700087 1825.33266409588 29 31 26
-300.013959772917 -30.5874348210123 1814.94058390797 19 21 16
-284.334328080861 -29.9184669831682 1802.69598021361 32 33 27
-298.536914600068 -30.639174206828 1794.396748554 22 25 18
-258.95744754676 -28.8602982197618 1778.77108025312 16 19 12
-263.201036091889 -29.1184895294486 1769.08168556806 18 23 16
-271.427119478771 -29.5615503652044 1759.98606988874 13 18 11
-263.720793592579 -29.2648463008364 1748.61061527231 5 10 4
-247.102674058573 -28.801594865742 1694.59883661636 141 140 135
-242.387144049792 -28.6450087421905 1683.51608091868 99 99 91
-245.63400255017 -28.8573416236626 1673.72342664032 117 117 109
-251.865665134887 -29.20778899626 1664.4504776724 111 111 103
-251.131075991958 -29.2357562171249 1654.02257523345 87 86 81
-245.421354382855 -29.0336767385969 1642.72763196474 92 91 87
-233.742894091353 -28.5558817150131 1630.34941946177 116 115 111
-133.425449232209 -32.0982964318375 2027.30345035126 22 25 18
-249.424746141837 -37.2751593655822 2024.97303410173 26 29 22
-210.779461512917 -35.6310258459019 2011.79976623919 25 28 21
-250.944576727059 -37.4612498511321 2004.48114206992 22 25 18
-268.162470601365 -38.2794044200113 1995.5531074795 21 24 17
-277.398938755902 -38.7456212348541 1986.06077844945 23 26 19
-344.733215746281 -41.8275360788927 1971.52819203477 25 28 21
-327.549983077612 -41.2479706638077 1939.73720612351 27 30 23
-335.7813537438 -41.6686828338582 1930.45894152875 30 33 26
-333.0457131248 -41.6074929747591 1920.10914430927 29 32 25
-313.364305737797 -40.8024121028578 1907.97197317846 28 31 24
-287.705016180365 -39.7356835324394 1895.08446224208 27 30 23
-297.930377375426 -40.2443031573876 1886.00540045596 22 25 18
-317.12401377343 -41.1460097024261 1877.9944405086 22 25 18
-330.335591074707 -41.7848927620619 1869.39765197438 30 33 26
-360.485565541615 -43.1657798604373 1862.87829302933 21 24 17
-318.889244195924 -41.4025267250012 1847.83585413272 25 28 21
-322.134463410708 -41.6044975317321 1838.118394812 20 23 16
-322.390373356904 -41.6755614730754 1828.04024460647 23 26 19
-320.653975418626 -41.6595029185859 1817.70560997982 23 26 19
-257.1568996758 -38.9418622026131 1799.20043489933 14 15 9
-230.523447734087 -37.838359333696 1785.31788818092 28 31 24
-248.713564958477 -38.6951277226723 1777.45869840949 20 23 16
-282.099040882835 -40.276268144534 1761.6128526539 4 9 2
-228.166782120752 -38.3550287705298 1681.31032559385 96 93 86
-232.41032869945 -38.6021235234941 1671.64381051855 119 116 107
-239.638768795832 -38.9790739484927 1662.50237307257 137 134 127
-245.871096107289 -39.3124909631803 1653.23105495581 142 139 132
-241.156312781012 -39.1695822714123 1642.09510575811 136 133 128
-257.338246861981 -47.7229675238739 2056.46006660169 28 31 24
-170.782895540281 -44.2011413203416 2040.47198048944 39 42 35
-185.018943048593 -44.8510708860209 2030.93164827015 41 44 37
-208.232804444373 -45.8718052130161 2022.11053792055 21 24 17
-221.466679180192 -46.4794051713627 2012.67587778668 22 25 18
-212.7512853127 -46.1798557789657 2001.6238639358 20 23 16
-207.029995126305 -46.0043114496372 1990.76189413217 20 23 16
-232.230687574318 -47.105522287297 1982.41845772744 24 27 20
-247.45413732606 -47.7942798961416 1973.36282136458 25 28 21
-343.713531743703 -51.8841812397084 1961.47476234262 23 26 19
-300.091852154892 -50.1452135644515 1947.34794025073 19 22 15
-335.248489180986 -51.653431921291 1940.56428001559 15 18 11
-348.465286748962 -52.2569956134977 1931.8013885913 19 22 15
-338.749693086923 -51.9161182778466 1920.77686050327 23 26 19
-321.060277192417 -51.247489486784 1908.86489796716 20 23 16
-288.420614370198 -49.9645142355733 1895.25096204337 19 22 15
-285.688636219029 -49.9124432643784 1884.74823173401 23 26 19
-301.894433894458 -50.6389277559354 1876.36668910539 21 24 17
-296.171983656712 -50.4639904943363 1865.54008151631 23 26 19
-283.474424670848 -50.0028304618083 1853.85642832741 17 20 13
-275.76098305445 -49.7467636022284 1842.70612320869 20 23 16
-281.998728032845 -50.0635422154508 1833.24092893424 19 22 15
-296.206332897826 -50.7071036722353 1824.81907133195 13 16 9
-324.360115576849 -51.9221208539885 1818.27957728127 21 24 17
-303.695401365819 -51.1352806571763 1805.44569591029 22 23 15
-267.094968962952 -49.696256439897 1790.34861243041 21 24 15
-241.979459087663 -48.852318508442 1755.96909232934 19 24 17
-220.912643919026 -48.4263863498582 1680.23754558395 14 7 0
-227.147615505714 -48.7432256108766 1670.880679946 57 48 39
-233.381711486933 -49.0598617703255 1661.55825407794 93 84 75
-238.619756586072 -49.3357456272174 1652.10054202212 112 103 94
-236.890642190466 -49.3276474358463 1641.46336930323 90 81 74
-159.51525372043 -54.2799313590628 2039.81087281329 29 32 25
-149.803795227269 -53.9667808737572 2028.594957044 40 43 36
-183.997813066073 -55.348396073813 2020.46156421024 21 24 17
-228.164591962404 -57.1136694867406 2013.25577196059 21 24 17
-226.432025975765 -57.107727743974 2002.76050873608 19 22 15
-215.720895621299 -56.7558475120059 1991.53933073795 18 21 14
-214.986942460472 -56.7887593150087 1981.08126280381 22 25 18
-239.18981507398 -57.7820882480908 1972.74375559664 25 28 21
-284.593667661732 -59.651053839173 1956.19498799374 22 25 18
-327.73473432306 -61.3706341914724 1950.01848298675 16 19 12
-317.02132642075 -61.0184095788839 1938.89601400588 12 15 8
-338.217277485242 -61.8928393055773 1930.87327194595 15 18 11
-346.448534152823 -62.2686193747536 1921.64770744103 17 20 13
-323.772161626226 -61.4574434751224 1909.23688311877 21 24 17
-314.315455652877 -61.2145798924968 1887.98888770086 20 23 16
-289.652679264099 -60.32902811251 1875.07714297963 22 25 18
-356.690277772406 -62.9592929227885 1872.62472641693 20 23 16
-250.303607424555 -58.9427387717487 1850.02530228675 24 27 20
-247.574828687414 -58.8996334008332 1839.38790122276 22 25 18
-295.667787257172 -60.8022083004487 1835.02795474073 25 28 21
-327.811358344505 -62.092945254324 1828.91437844777 18 21 14
-243.376171921192 -58.9236691617798 1807.900686001 19 22 15
-325.333400776532 -62.1187950581859 1808.39997844409 18 19 11
-349.498264644645 -63.1026801959019 1801.55812469669 17 20 11
-354.733050906035 -63.3626991975205 1792.24481376911 20 23 14
-263.346990580022 -59.9333348365235 1769.39883279344 21 26 19
-281.535229745882 -60.6890744607033 1761.73084575024 2 7 0
-290.75713547398 -61.102191836379 1752.85535609241 19 24 17
-184.787099432546 -57.4377883315713 1674.47682108134 23 16 8
-199.98422505944 -58.0789798367411 1666.50109552812 30 21 12
-210.202167215748 -58.5304142795387 1657.77339652177 84 74 65
-225.395382432378 -59.1706059853109 1649.95157685565 94 84 75
-225.657627624056 -59.2431952480941 1639.62418553747 123 110 104
-175.165532803001 -57.3888094256292 1620.35581092865 137 126 120
-172.198769935465 -65.2784871680459 2040.72912210873 28 31 24
-189.430742360514 -65.958418538028 2031.3992624099 26 29 22
-227.616101145641 -67.3887643928454 2023.66008760563 28 31 24
-227.878785419611 -67.4594636648712 2013.31756475697 23 26 19
-240.11464093804 -67.9589073169977 2003.8969210259 20 23 16
-242.371682170782 -68.1008631479747 1993.74783329743 20 23 16
-241.635780629746 -68.1357320225003 1983.3638134587 18 21 14
-208.978333011782 -67.0292757300128 1970.25543649965 26 29 22
-218.219685710545 -67.4213902677535 1960.65176787825 24 27 20
-274.337990747152 -69.4878518624377 1955.35078042224 14 17 10
-331.445735985895 -71.5878515774542 1950.45119346009 10 13 6
-337.684798326999 -71.8704812103868 1940.97117863235 12 15 8
-331.956493878578 -71.7260243100218 1930.34064641221 15 18 11
-356.14316889016 -72.6485017461661 1922.72159726881 17 20 13
-322.496526674048 -71.5089634598475 1909.19240621949 19 22 15
-325.743500927961 -71.6849068488972 1899.43430012637 18 21 14
-329.986879454484 -71.896261147975 1889.8034036707 17 20 13
-321.270798353871 -71.6462614633168 1878.73437139917 19 22 15
-269.694003835341 -69.8717970416493 1862.66584327604 20 23 16
-336.733390596468 -72.3169515331358 1860.34229280194 20 23 16
-260.246743652786 -69.6586443290191 1841.01677238793 21 24 17
-313.325440474952 -71.6058509958208 1837.30844014317 20 23 16
-343.477093738352 -72.73721695115 1830.99138460153 18 21 14
-304.870435966966 -71.4271772731266 1815.94972109952 17 20 13
-258.298334179436 -69.8358582009614 1799.64327531158 19 20 12
-292.690541504019 -71.1782803963764 1783.80603323707 19 22 13
-265.056087997897 -70.2604832553768 1769.73853695454 13 19 9
-264.319590755132 -70.2961019411797 1759.36766932514 14 19 12
-302.428211087411 -71.7066511713377 1754.65827997405 20 25 18
-177.528603146532 -67.6657307309645 1673.40624138257 92 83 76
-186.754126875127 -68.0545839487955 1664.42472550403 25 15 6
-203.941964055297 -68.7239093737247 1656.83121191497 47 34 25
-219.136749374527 -69.3224457319846 1648.99275350407 84 70 61
-220.394682739394 -69.4295462837319 1638.82152541331 118 103 96
-211.699884067666 -69.1861810103736 1626.90425378636 135 120 113
-164.654690236782 -75.4731539464159 2050.84653550358 22 25 18
-165.920037251003 -75.5777543119246 2040.39756560941 26 29 22
-184.151695034775 -76.2439498596879 2031.1194493124 25 28 21
-207.370810990251 -77.0745885722675 2022.29708259715 34 37 30
-216.879539682995 -77.5131020924006 2002.19361423548 17 20 13
-252.064823088826 -78.7374638022714 1994.60446243758 22 25 18
