ply
format ascii 1.0
comment KinectMotionCapture
element vertex 784
property float x
property float y
property float z
property uchar red
property uchar green
property uchar blue
end_header
-11.7564806714654 -364.567697048187 1850.00002384186 27 30 23
-6.72954274341464 -366.144984960556 1858.00004005432 22 24 19
-303.14889550209 -344.534873962402 1728.00004482269 21 23 20
-296.034276485443 -341.762006282806 1713.99998664856 15 17 12
-290.865182876587 -341.182202100754 1710.99996566772 20 23 16
-284.038931131363 -338.607996702194 1697.99995422363 18 21 12
-280.903071165085 -340.420752763748 1707.00001716614 17 20 9
-273.186147212982 -336.64932847023 1687.99996376038 18 21 10
-263.662457466125 -330.483943223953 1656.99994564056 21 24 13
-261.032104492188 -332.89447426796 1669.0000295639 18 21 10
-258.489459753037 -335.504531860352 1682.000041008 17 20 9
-255.271703004837 -337.316751480103 1690.99998474121 15 18 7
-250.077188014984 -336.535602807999 1687.00003623962 15 18 7
-245.631471276283 -336.751669645309 1687.99996376038 15 18 7
-240.608513355255 -336.169511079788 1684.99994277954 12 15 4
-236.441791057587 -336.784243583679 1687.99996376038 12 15 6
-231.571331620216 -336.401164531708 1685.99998950958 12 15 6
-227.24974155426 -336.816012859344 1687.99996376038 15 18 9
-222.125217318535 -336.033344268799 1684.00001525879 16 19 10
-216.505199670792 -334.45218205452 1675.99999904633 19 22 13
-209.410727024078 -330.475896596909 1656.00001811981 19 22 15
-204.28067445755 -329.492598772049 1651.00002288818 22 25 18
-199.419319629669 -328.908115625381 1648.00000190735 29 32 25
-195.165172219276 -329.321295022964 1649.99997615814 30 33 26
-190.899610519409 -329.734265804291 1651.99995040894 31 34 27
-186.961114406586 -330.745816230774 1656.99994564056 32 35 28
-182.774648070335 -331.35798573494 1659.9999666214 29 32 25
-178.678691387177 -332.169532775879 1664.00003433228 34 37 30
-174.874365329742 -333.579748868942 1671.0000038147 34 37 30
-170.827552676201 -334.590554237366 1675.99999904633 34 37 30
-166.653752326965 -335.401475429535 1679.99994754791 34 37 30
-162.071779370308 -335.413604974747 1679.99994754791 35 38 31
-157.864332199097 -336.224049329758 1684.00001525879 37 40 31
-153.452575206757 -336.634963750839 1685.99998950958 36 39 32
-149.382576346397 -337.844252586365 1692.00003147125 33 36 29
-145.792782306671 -340.251386165619 1703.9999961853 13 16 9
-144.290655851364 -347.850203514099 1741.99998378754 15 18 11
-143.622025847435 -358.045071363449 1792.99998283386 23 26 19
-140.895053744316 -363.647282123566 1820.99997997284 6 8 3
-136.521935462952 -365.255385637283 1828.9999961853 7 9 4
-131.960913538933 -366.463869810104 1835.00003814697 8 10 5
-127.228364348412 -367.272585630417 1838.99998664856 10 12 7
-122.872300446033 -369.27929520607 1848.99997711182 9 11 6
-117.441691458225 -368.090182542801 1843.00005435944 7 9 4
-112.226456403732 -367.499828338623 1840.0000333786 8 10 5
-107.43509978056 -368.307203054428 1843.99998188019 9 11 6
-102.677099406719 -369.314044713974 1848.99997711182 10 12 7
-97.1522629261017 -367.524147033691 1840.0000333786 12 14 9
-91.8765366077423 -366.532772779465 1835.00003814697 13 15 10
-86.2964913249016 -364.142745733261 1822.99995422363 14 17 10
-81.4954116940498 -364.948272705078 1827.00002193451 15 18 11
-76.755978167057 -366.152942180634 1832.99994468689 16 19 12
-72.1792355179787 -368.356168270111 1843.99998188019 17 20 13
-67.3601105809212 -369.560211896896 1850.00002384186 17 20 13
-62.7100467681885 -371.962428092957 1861.99998855591 16 19 12
-57.6538220047951 -372.166961431503 1863.00003528595 19 22 15
-52.1122850477695 -368.974983692169 1847.00000286102 21 24 17
-46.9383150339127 -367.980033159256 1842.00000762939 21 24 17
-42.1100184321404 -369.781464338303 1850.99995136261 22 25 16
-36.9921959936619 -369.185268878937 1848.00004959106 25 28 17
-31.8215042352676 -367.789536714554 1840.99996089935 24 27 16
-26.7908312380314 -367.7918612957 1840.99996089935 24 27 16
-21.7600744217634 -367.793768644333 1840.99996089935 22 25 16
-16.7837683111429 -368.993997573853 1847.00000286102 25 28 21
-11.7047177627683 -367.996245622635 1842.00000762939 28 31 24
-301.551282405853 -347.407072782516 1718.99998188019 11 15 14
-295.497685670853 -345.808833837509 1710.99996566772 21 23 20
-289.996892213821 -344.816654920578 1705.9999704361 20 22 17
-283.853620290756 -343.015730381012 1697.00002670288 20 23 16
-279.897779226303 -343.842267990112 1700.99997520447 20 23 14
-272.844851016998 -340.827882289886 1685.99998950958 20 23 12
-266.668438911438 -338.823795318604 1675.99999904633 22 24 11
-260.076642036438 -336.21284365654 1662.99998760223 20 23 12
-257.5503885746 -338.858217000961 1675.99999904633 19 22 11
-254.198104143143 -340.49266576767 1684.00001525879 19 22 13
-249.467551708221 -340.307265520096 1682.99996852875 17 20 11
-244.741916656494 -340.12171626091 1682.000041008 16 19 10
-240.449443459511 -340.542525053024 1684.00001525879 15 18 9
-236.985921859741 -342.176645994186 1692.00003147125 13 16 7
-233.066201210022 -343.20393204689 1697.00002670288 13 16 7
-230.195641517639 -345.849126577377 1710.00003814697 13 16 9
-222.901150584221 -341.819703578949 1690.00005722046 14 17 10
-215.45672416687 -337.385177612305 1667.99998283386 19 22 15
-209.775388240814 -335.579663515091 1659.00003910065 23 26 17
-204.389959573746 -334.178239107132 1651.99995040894 22 25 16
-199.405163526535 -333.383440971375 1648.00000190735 29 32 23
-194.914683699608 -333.397507667542 1648.00000190735 31 34 27
-190.770372748375 -334.018290042877 1651.00002288818 31 34 27
-186.157867312431 -333.829522132874 1649.99997615814 35 38 31
-182.541191577911 -335.461437702179 1657.99999237061 33 36 29
-178.128823637962 -335.676938295364 1659.00003910065 37 39 34
-174.129083752632 -336.701542139053 1664.00003433228 37 39 34
-170.101568102837 -337.725907564163 1669.0000295639 36 38 33
-166.145518422127 -338.952422142029 1674.99995231628 37 39 34
-161.86685860157 -339.571684598923 1677.99997329712 38 41 34
-156.915232539177 -338.774055242538 1674.00002479553 40 43 32
-153.259098529816 -340.809404850006 1684.00001525879 33 36 27
-150.077655911446 -344.058930873871 1700.00004768372 23 26 17
-147.150665521622 -348.117917776108 1720.00002861023 19 22 15
-145.273655653 -355.010449886322 1753.99994850159 19 21 16
-144.412100315094 -364.939212799072 1802.99997329712 17 19 14
-141.503274440765 -370.212733745575 1828.9999961853 9 11 6
-137.332543730736 -372.449934482574 1840.0000333786 9 11 6
-133.173257112503 -374.889343976974 1851.99999809265 10 12 7
-128.39463353157 -375.709056854248 1855.99994659424 11 14 7
-123.128660023212 -375.111490488052 1853.00004482269 16 19 12
-117.496356368065 -373.298794031143 1843.99998188019 19 22 13
-112.339772284031 -372.902810573578 1842.00000762939 14 17 8
-107.018977403641 -371.89906835556 1837.00001239777 12 15 8
-101.780690252781 -371.097385883331 1832.99994468689 15 18 11
-96.775121986866 -371.105134487152 1832.99994468689 17 20 11
-91.8693765997887 -371.517449617386 1835.00003814697 18 21 14
-86.7157503962517 -370.917022228241 1832.00001716614 16 19 10
-81.6228464245796 -370.518684387207 1830.00004291534 16 19 10
-76.6243487596512 -370.524883270264 1830.00004291534 18 21 12
-71.8995928764343 -371.948063373566 1837.00001239777 18 21 12
-67.0271366834641 -372.763454914093 1840.99996089935 20 23 14
-62.368355691433 -374.995857477188 1851.99999809265 20 23 14
-57.3398284614086 -375.20307302475 1853.00004482269 23 26 17
-51.8260411918163 -371.96758389473 1837.00001239777 23 26 17
-46.7052794992924 -371.16152048111 1832.99994468689 23 26 17
-41.9929474592209 -373.797446489334 1845.99995613098 23 26 15
-37.029292434454 -374.610543251038 1850.00002384186 24 27 16
-31.7844152450562 -372.385859489441 1838.99998664856 29 30 22
-26.6868509352207 -371.37570977211 1833.99999141693 24 25 17
-21.6047037392855 -370.162636041641 1827.99994945526 34 35 29
-16.7006608098745 -372.189164161682 1838.00005912781 27 28 23
-11.7037883028388 -373.000234365463 1842.00000762939 34 35 30
-299.427598714828 -349.615305662155 1707.00001716614 11 15 14
-295.824557542801 -350.862890481949 1713.00005912781 28 30 29
-290.488481521606 -350.062042474747 1708.99999141693 20 22 17
-284.002780914307 -347.827106714249 1697.99995422363 20 23 16
-276.753604412079 -344.567477703094 1682.000041008 19 22 13
-271.532654762268 -343.765735626221 1677.99997329712 18 21 10
-266.173750162125 -342.758864164352 1672.99997806549 19 21 8
-261.623352766037 -342.776209115982 1672.99997806549 21 23 10
-257.533311843872 -343.408018350601 1675.99999904633 19 22 11
-253.879249095917 -344.654470682144 1682.000041008 18 21 12
-248.561501502991 -343.646734952927 1677.00004577637 17 20 11
-243.415892124176 -342.843651771545 1672.99997806549 16 19 10
-238.434240221977 -342.245221138 1669.99995708466 15 18 9
-235.149025917053 -344.105929136276 1679.00002002716 13 16 7
-232.363492250443 -346.786379814148 1692.00003147125 12 15 6
-228.025957942009 -347.212255001068 1694.00000572205 12 15 8
-221.039220690727 -343.538403511047 1675.99999904633 13 16 9
-213.375046849251 -338.634133338928 1651.99995040894 17 20 13
-208.369761705399 -337.829053401947 1648.00000190735 21 24 15
-204.62292432785 -339.073717594147 1654.00004386902 20 23 14
-199.51194524765 -338.063031435013 1649.00004863739 27 30 21
-195.137232542038 -338.28216791153 1649.99997615814 29 32 25
-191.449865698814 -339.731305837631 1656.99994564056 30 33 26
-186.821281909943 -339.53994512558 1656.00001811981 34 37 30
-182.638004422188 -340.168505907059 1659.00003910065 34 37 30
-178.545251488686 -341.001898050308 1662.99998760223 37 39 34
-173.90701174736 -340.809792280197 1661.99994087219 37 39 34
-169.783294200897 -341.642737388611 1666.00000858307 36 38 33
-165.934830904007 -343.090653419495 1672.99997806549 38 40 35
-161.66190803051 -343.718111515045 1675.99999904633 39 42 35
-156.71606361866 -342.909663915634 1672.00005054474 36 39 28
-152.519583702087 -343.741595745087 1675.99999904633 29 32 21
-149.095341563225 -346.419274806976 1689.00001049042 22 25 16
-147.054001688957 -352.583646774292 1718.99998188019 21 24 17
-146.256476640701 -362.235128879547 1766.00003242493 17 19 14
-145.041838288307 -371.47656083107 1810.99998950958 12 14 9
-141.569837927818 -375.384896993637 1830.00004291534 7 9 4
-137.322023510933 -377.446889877319 1840.0000333786 8 10 5
-133.091136813164 -379.713803529739 1850.99995136261 9 11 6
-128.038883209229 -379.723846912384 1850.99995136261 10 13 6
-122.786924242973 -379.118144512177 1848.00004959106 16 19 10
-117.168694734573 -377.281039953232 1838.99998664856 19 22 13
-111.965142190456 -376.674443483353 1835.99996566772 16 19 10
-106.661133468151 -375.657200813293 1830.9999704361 16 19 10
-101.495139300823 -375.049769878387 1827.99994945526 20 23 14
-96.7147648334503 -375.878244638443 1832.00001716614 20 23 14
-92.062421143055 -377.321898937225 1838.99998664856 19 22 13
-87.2769057750702 -378.354847431183 1843.99998188019 17 20 11
-82.1070149540901 -377.745985984802 1840.99996089935 17 20 11
-76.7857804894447 -376.315951347351 1833.99999141693 18 21 12
-72.1287354826927 -378.168523311615 1843.00005435944 19 22 13
-67.3130825161934 -379.405200481415 1848.99997711182 20 23 14
-62.3634159564972 -380.025953054428 1851.99999809265 21 24 15
-56.8711534142494 -377.157896757126 1838.00005912781 22 25 16
-51.4834113419056 -374.494612216949 1825.00004768372 22 25 16
-46.5487018227577 -374.908864498138 1827.00002193451 22 25 16
-41.7621433734894 -376.759260892868 1835.99996566772 23 26 15
-36.8662327528 -377.993643283844 1842.00000762939 24 27 16
-31.7818820476532 -377.380758523941 1838.99998664856 18 19 11
-26.6556199640036 -375.946611166 1832.00001716614 19 20 12
-21.5793456882238 -374.71729516983 1825.99997520447 17 18 12
-16.6720692068338 -376.565754413605 1835.00003814697 23 24 19
-11.6774411872029 -377.182513475418 1838.00005912781 13 13 11
-299.408942461014 -354.248106479645 1707.00001716614 7 11 12
-298.050761222839 -358.209937810898 1725.99995136261 24 26 25
-293.699413537979 -358.64382982254 1728.00004482269 20 22 17
-285.322576761246 -354.096055030823 1705.9999704361 20 23 16
-275.913119316101 -348.094791173935 1677.00004577637 19 22 13
-269.735097885132 -346.036702394485 1667.00005531311 18 21 10
-266.156315803528 -347.299724817276 1672.99997806549 18 20 7
-263.169765472412 -349.393099546433 1682.99996852875 18 20 7
-258.745431900024 -349.618017673492 1684.00001525879 17 20 9
-253.862261772156 -349.219918251038 1682.000041008 16 19 10
-247.803717851639 -347.160547971725 1672.00005054474 16 19 10
-243.253916501999 -347.177177667618 1672.00005054474 16 19 10
-238.703489303589 -347.193598747253 1672.00005054474 15 18 9
-235.833048820496 -349.701792001724 1684.00001525879 13 16 7
-231.660798192024 -350.340932607651 1687.00003623962 13 16 7
-227.471694350243 -350.979954004288 1690.00005722046 12 15 8
-220.232471823692 -346.841871738434 1669.99995708466 14 17 10
-214.651539921761 -345.19562125206 1661.99994087219 16 19 12
-210.377871990204 -345.626085996628 1664.00003433228 17 20 13
-205.845385789871 -345.640897750854 1664.00003433228 17 20 11
-200.344502925873 -343.993633985519 1656.00001811981 18 21 12
-195.477992296219 -343.384712934494 1652.99999713898 26 29 22
-190.627291798592 -342.775464057922 1649.99997615814 27 30 23
-186.356455087662 -343.204617500305 1651.99995040894 32 35 28
-182.294443249702 -344.049155712128 1656.00001811981 37 40 33
-179.06890809536 -346.555560827255 1667.99998283386 37 40 33
-174.417316913605 -346.360832452774 1667.00005531311 37 40 33
-169.363096356392 -345.334678888321 1661.99994087219 38 40 35
-164.732366800308 -345.13932466507 1661.00001335144 39 41 36
-161.456912755966 -347.852826118469 1674.00002479553 40 43 36
-156.516849994659 -347.033560276031 1669.99995708466 28 31 20
-152.235120534897 -347.668617963791 1672.99997806549 23 26 17
-148.377925157547 -349.342525005341 1680.99999427795 24 27 20
-147.21392095089 -357.666581869125 1720.99995613098 22 25 18
-148.646846413612 -373.057126998901 1794.99995708466 22 25 18
-145.991742610931 -378.887802362442 1822.99995422363 4 6 1
-142.023086547852 -381.600737571716 1835.99996566772 7 9 4
-137.609958648682 -383.274286985397 1843.99998188019 8 10 5
-133.008971810341 -384.531885385513 1850.00002384186 7 9 4
-128.167316317558 -385.165572166443 1853.00004482269 6 9 2
-123.176015913486 -385.383158922195 1853.99997234344 7 10 1
-118.306323885918 -386.016219854355 1856.99999332428 8 11 2
-113.115005195141 -385.609477758408 1855.00001907349 13 16 7
-107.41001367569 -383.331447839737 1843.99998188019 17 20 11
-102.153405547142 -382.508158683777 1840.0000333786 20 23 14
-97.0238968729973 -382.100254297256 1838.00005912781 23 26 17
-92.6558598875999 -384.810298681259 1850.99995136261 23 26 17
-87.7432823181152 -385.441094636917 1853.99997234344 19 22 13
-82.5018882751465 -384.616255760193 1850.00002384186 19 22 13
-77.1146193146706 -382.959365844727 1842.00000762939 20 23 14
-72.0838829874992 -382.965266704559 1842.00000762939 21 24 15
-67.2713369131088 -384.21830534935 1848.00004959106 22 25 16
-61.9544051587582 -382.560133934021 1840.0000333786 22 25 16
-56.4334653317928 -379.238188266754 1824.00000095367 22 25 16
-51.1972233653069 -377.371281385422 1815.00005722046 22 25 14
-46.4176051318645 -378.83061170578 1822.00002670288 24 27 16
-41.4858721196651 -379.249960184097 1824.00000095367 24 27 16
-36.5230701863766 -379.461050033569 1825.00004768372 24 27 16
-31.6065289080143 -380.295425653458 1828.9999961853 21 22 14
-26.755329221487 -382.377058267593 1838.99998664856 34 35 29
-21.7194184660912 -382.171094417572 1838.00005912781 29 30 25
-16.6889037936926 -381.964713335037 1837.00001239777 23 23 21
-297.686636447906 -362.473249435425 1723.99997711182 15 17 16
-291.981160640717 -361.230432987213 1718.00005435944 20 22 17
-286.307692527771 -359.987318515778 1712.00001239777 19 22 15
-276.059746742249 -352.855980396271 1677.99997329712 18 21 12
-270.202904939651 -351.191461086273 1669.99995708466 17 20 9
-266.934186220169 -352.89141535759 1677.99997329712 18 20 9
-263.465046882629 -354.381114244461 1684.99994277954 18 20 9
-259.035438299179 -354.608863592148 1685.99998950958 16 19 8
-253.543376922607 -353.364050388336 1679.99994754791 16 19 10
-247.786954045296 -351.698279380798 1672.00005054474 15 18 9
-243.528291583061 -352.13565826416 1674.00002479553 15 18 9
-239.54364657402 -352.993607521057 1677.99997329712 15 18 9
-235.676750540733 -354.061871767044 1682.99996852875 14 17 8
-231.91936314106 -355.340331792831 1689.00001049042 13 16 7
-226.513668894768 -354.093998670578 1682.99996852875 12 15 8
-220.876350998878 -352.426499128342 1674.99995231628 13 16 9
-214.894652366638 -350.127398967743 1664.00003433228 16 19 12
-210.110068321228 -349.721670150757 1661.99994087219 18 21 12
-205.335855484009 -349.315613508224 1659.9999666214 16 19 10
-200.088143348694 -348.067581653595 1654.00004386902 18 21 12
-196.173325181007 -349.134117364883 1659.00003910065 25 28 19
-191.537603735924 -348.937749862671 1657.99999237061 26 29 20
-186.906844377518 -348.741084337235 1656.99994564056 31 34 27
-181.730672717094 -347.491800785065 1651.00002288818 36 39 32
-178.51896584034 -350.030809640884 1662.99998760223 35 38 31
-174.509018659592 -351.096302270889 1667.99998283386 36 39 32
-169.044822454453 -349.21470284462 1659.00003910065 38 41 34
-164.422541856766 -349.016606807709 1657.99999237061 38 40 35
-160.673260688782 -350.712895393372 1666.00000858307 38 41 34
-156.692489981651 -351.987957954407 1672.00005054474 26 29 18
-152.314573526382 -352.420657873154 1674.00002479553 25 28 19
-148.984462022781 -355.379521846771 1687.99996376038 25 28 19
-149.169966578484 -367.180913686752 1743.99995803833 24 27 20
-149.79475736618 -380.877673625946 1809.00001525879 18 21 14
-147.902399301529 -388.889938592911 1847.00000286102 11 13 8
-142.630964517593 -388.269484043121 1843.99998188019 7 9 4
-137.823194265366 -388.9120221138 1847.00000286102 8 10 5
-132.998660206795 -389.55420255661 1850.00002384186 9 11 6
-128.503158688545 -391.248941421509 1858.00004005432 8 11 4
-122.96711653471 -389.784723520279 1850.99995136261 7 10 3
-117.787435650826 -389.372944831848 1848.99997711182 8 11 2
-112.679325044155 -389.171451330185 1848.00004959106 10 13 2
-107.518061995506 -388.758838176727 1845.99995613098 12 15 4
-102.31190174818 -388.135403394699 1843.00005435944 14 17 6
-97.5968465209007 -389.406889677048 1848.99997711182 20 23 12
-92.4983769655228 -389.203816652298 1848.00004959106 23 26 15
-87.6890048384666 -390.264004468918 1853.00004482269 20 23 12
-82.4953317642212 -389.638930559158 1850.00002384186 20 23 12
-77.1503522992134 -388.170957565308 1843.00005435944 21 24 13
-71.9216167926788 -387.123823165894 1838.00005912781 21 24 13
-66.9019743800163 -387.129366397858 1838.00005912781 22 25 14
-61.8821159005165 -387.134522199631 1838.00005912781 22 25 14
-56.3670769333839 -383.769154548645 1822.00002670288 22 25 14
-51.1931180953979 -382.299065589905 1815.00005722046 23 26 15
-46.2610349059105 -382.513642311096 1815.99998474121 24 27 16
-41.482537984848 -384.202241897583 1824.00000095367 24 27 16
-36.3400354981422 -382.520288228989 1815.99998474121 24 27 16
-31.5175913274288 -384.208112955093 1824.00000095367 24 25 17
-26.7386268824339 -387.159436941147 1838.00005912781 31 32 26
-21.8712761998177 -389.899760484695 1850.99995136261 23 24 19
-16.7693141847849 -388.848125934601 1845.99995613098 25 25 23
-290.24338722229 -357.993423938751 1680.99999427795 19 21 18
-291.112810373306 -364.826947450638 1713.00005912781 19 21 18
-286.122024059296 -364.419519901276 1710.99996566772 19 21 16
-278.509438037872 -360.603928565979 1692.999958992 19 22 13
-271.641314029694 -357.639849185944 1679.00002002716 18 21 12
-267.234742641449 -357.870548963547 1679.99994754791 19 21 10
-262.822180986404 -358.10112953186 1680.99999427795 19 21 10
-259.17175412178 -359.396785497665 1687.00003623962 16 19 8
-254.12991642952 -358.774900436401 1684.00001525879 16 19 10
-248.955652117729 -357.939690351486 1679.99994754791 14 17 8
-245.257258415222 -359.2349588871 1685.99998950958 13 16 7
-240.669131278992 -359.251588582993 1685.99998950958 13 16 7
-237.06066608429 -360.759705305099 1692.999958992 12 15 6
-232.040509581566 -360.136777162552 1690.00005722046 12 15 6
-227.843582630157 -360.792130231857 1692.999958992 11 14 7
-221.124485135078 -357.398182153702 1677.00004577637 13 16 9
-215.783342719078 -356.134921312332 1671.0000038147 17 20 13
-209.715843200684 -353.59251499176 1659.00003910065 18 21 12
-205.32114803791 -353.820532560349 1659.9999666214 17 20 11
-199.831783771515 -352.129906415939 1651.99995040894 20 23 14
-195.922613143921 -353.210061788559 1656.99994564056 22 25 16
-191.177114844322 -352.797836065292 1654.99997138977 23 26 17
-186.554774641991 -352.598488330841 1654.00004386902 29 32 23
-181.607216596603 -351.759284734726 1649.99997615814 30 33 26
-178.398415446281 -354.330897331238 1661.99994087219 31 34 27
-173.972994089127 -354.55721616745 1662.99998760223 33 36 29
-169.337823987007 -354.356795549393 1661.99994087219 35 38 31
-164.013564586639 -352.663606405258 1654.00004386902 33 36 29
-160.46829521656 -354.808032512665 1664.00003433228 31 34 27
-156.493201851845 -356.099396944046 1669.99995708466 25 28 17
-153.303802013397 -359.309732913971 1684.99994277954 25 28 19
-151.708975434303 -366.571605205536 1718.99998188019 25 28 19
-151.55328810215 -377.885490655899 1771.99995517731 20 23 16
-151.604831218719 -390.479326248169 1830.9999704361 12 15 8
-148.691713809967 -396.035760641098 1856.99999332428 8 10 5
-142.929285764694 -394.127607345581 1848.00004959106 6 8 5
-137.663260102272 -393.498659133911 1845.00002861023 8 10 7
-133.060172200203 -394.788861274719 1850.99995136261 13 15 10
-128.700599074364 -396.931976079941 1860.99994182587 13 15 10
-123.090349137783 -395.235478878021 1853.00004482269 14 17 10
-117.841899394989 -394.605070352554 1850.00002384186 15 18 9
-112.426571547985 -393.334299325943 1843.99998188019 12 15 4
-107.626065611839 -394.196271896362 1848.00004959106 12 15 4
-102.581359446049 -394.204586744308 1848.00004959106 11 14 3
-97.6418927311897 -394.639104604721 1850.00002384186 13 16 5
-92.5911217927933 -394.646733999252 1850.00002384186 18 21 10
-87.8239795565605 -395.933836698532 1855.99994659424 21 24 13
-82.5333446264267 -394.873976707459 1850.99995136261 21 24 13
-77.0604610443115 -392.747044563293 1840.99996089935 21 24 13
-71.6419667005539 -390.61963558197 1830.9999704361 21 24 13
-66.7146220803261 -391.051888465881 1832.99994468689 21 24 13
-61.809815466404 -391.697078943253 1835.99996566772 21 24 13
-56.5172210335732 -389.781773090363 1827.00002193451 22 25 14
-50.9633757174015 -385.519176721573 1807.000041008 23 26 15
-46.1299456655979 -386.376440525055 1810.99998950958 23 26 15
-41.4564535021782 -388.940185308456 1822.99995422363 22 25 14
-36.5772135555744 -390.010118484497 1827.99994945526 21 24 13
-31.6014364361763 -390.226244926453 1828.9999961853 25 26 20
-26.6782809048891 -391.295403242111 1833.99999141693 27 28 22
-21.7868015170097 -393.430918455124 1843.99998188019 17 17 15
-282.283067703247 -352.63267159462 1634.99999046326 15 17 16
-283.107370138168 -359.336853027344 1666.00000858307 18 20 17
-284.933060407639 -367.551475763321 1703.9999961853 19 21 16
-278.326809406281 -364.981263875961 1692.00003147125 19 22 15
-272.27059006691 -363.057821989059 1682.99996852875 19 22 13
-268.330514431 -363.938570022583 1687.00003623962 20 22 11
-264.211744070053 -364.603459835052 1690.00005722046 20 22 11
-259.768843650818 -364.836722612381 1690.99998474121 16 19 8
-255.319952964783 -365.069836378098 1692.00003147125 16 19 10
-250.420480966568 -364.655464887619 1690.00005722046 14 17 8
-245.82228064537 -364.672422409058 1690.00005722046 13 16 7
-240.652546286583 -363.826006650925 1685.99998950958 12 15 6
-235.784098505974 -363.410949707031 1684.00001525879 11 14 5
-231.063202023506 -363.211393356323 1682.99996852875 10 13 6
-226.481840014458 -363.22745680809 1682.99996852875 10 13 6
-220.976978540421 -361.732512712479 1675.99999904633 14 17 10
-213.701963424683 -357.215374708176 1654.99997138977 16 19 12
-208.184003829956 -355.503708124161 1646.99995517731 18 21 12
-203.574866056442 -355.302661657333 1646.00002765656 16 19 10
-198.72872531414 -354.669600725174 1643.00000667572 19 22 13
-195.317208766937 -356.626778841019 1651.99995040894 21 24 15
-190.701097249985 -356.425017118454 1651.00002288818 21 24 15
-186.428263783455 -356.870621442795 1652.99999713898 27 30 21
-181.263640522957 -355.588853359222 1646.99995517731 28 31 24
-178.063169121742 -358.193010091782 1659.00003910065 29 32 25
-173.960000276566 -359.069794416428 1662.99998760223 32 35 28
-169.528916478157 -359.298586845398 1664.00003433228 34 37 30
-164.695292711258 -358.663409948349 1661.00001335144 31 34 27
-160.552576184273 -359.539389610291 1664.99996185303 28 31 24
-156.949833035469 -361.710906028748 1674.99995231628 25 28 17
-154.383808374405 -366.473644971848 1697.00002670288 23 26 17
-152.932852506638 -374.259889125824 1733.00004005432 23 26 17
-154.278293251991 -389.605134725571 1804.00002002716 19 22 15
-152.255475521088 -397.175908088684 1838.99998664856 12 15 8
-148.920401930809 -401.723086833954 1860.00001430511 7 9 4
-142.918199300766 -399.142622947693 1848.00004959106 6 8 5
-138.0255818367 -399.585545063019 1850.00002384186 8 10 7
-133.04977118969 -399.81210231781 1850.99995136261 13 15 10
-128.552198410034 -401.550382375717 1858.99996757507 13 15 10
-123.080670833588 -400.264233350754 1853.00004482269 12 15 8
-117.386758327484 -398.113578557968 1843.00005435944 12 15 8
-111.990951001644 -396.826595067978 1837.00001239777 16 19 8
-107.151664793491 -397.483348846436 1840.0000333786 15 18 7
-102.684214711189 -399.651914834976 1850.00002384186 14 17 6
-97.7924466133118 -400.307983160019 1853.00004482269 12 15 4
-92.7338674664497 -400.315582752228 1853.00004482269 15 18 7
-87.7696499228477 -400.754898786545 1855.00001907349 21 24 13
-82.4821442365646 -399.681478738785 1850.00002384186 21 24 13
-76.9705772399902 -397.311389446259 1838.99998664856 21 24 13
-71.6362148523331 -395.588994026184 1830.9999704361 21 24 13
-66.7820423841476 -396.458745002747 1835.00003814697 21 24 13
-61.8048310279846 -396.67996764183 1835.99996566772 21 24 13
-56.2961362302303 -393.227845430374 1820.00005245209 21 24 13
-50.9874559938908 -390.639424324036 1807.99996852875 22 25 14
-46.0498034954071 -390.643388032913 1807.99996852875 22 25 14
-41.6350066661835 -395.616412162781 1830.9999704361 21 24 13
-36.7143042385578 -396.483898162842 1835.00003814697 19 22 11
-31.8234711885452 -397.999137639999 1842.00000762939 17 18 12
-26.6470219939947 -395.84082365036 1832.00001716614 19 20 14
-21.666893735528 -396.274954080582 1833.99999141693 12 12 10
-295.385658740997 -373.6652135849 1710.99996566772 7 9 8
-289.716154336929 -372.373551130295 1705.00004291534 19 21 18
-284.580290317535 -371.736854314804 1702.00002193451 15 17 12
-277.157306671143 -368.0419921875 1684.99994277954 15 18 11
-272.252708673477 -367.623120546341 1682.99996852875 16 19 10
-268.630832433701 -368.951588869095 1689.00001049042 16 18 7
-263.412445783615 -368.095487356186 1684.99994277954 17 19 8
-259.597778320313 -369.205325841904 1690.00005722046 17 20 9
-255.906194448471 -370.533555746078 1695.99997997284 16 19 10
-251.736909151077 -371.206283569336 1699.00000095367 12 15 6
-246.823534369469 -370.786368846893 1697.00002670288 11 14 5
-241.49227142334 -369.710743427277 1692.00003147125 10 13 4
-236.327692866325 -368.853271007538 1687.99996376038 11 14 5
-232.008025050163 -369.306713342667 1690.00005722046 10 13 4
-227.407827973366 -369.322896003723 1690.00005722046 10 13 6
-220.829486846924 -366.060644388199 1674.99995231628 14 17 10
-214.977860450745 -363.890677690506 1664.99996185303 16 19 12
-209.685757756233 -362.594544887543 1659.00003910065 19 22 13
-205.291524529457 -362.828075885773 1659.9999666214 19 22 11
-200.044706463814 -361.531317234039 1654.00004386902 19 22 11
-195.302933454514 -361.108541488647 1651.99995040894 18 21 12
-190.109595656395 -359.811097383499 1646.00002765656 19 22 13
-185.850664973259 -360.262185335159 1648.00000190735 23 26 17
-181.140154600143 -359.838575124741 1646.00002765656 25 28 19
-178.15725505352 -362.912595272064 1659.9999666214 31 34 27
-173.528596758842 -362.707108259201 1659.00003910065 31 34 27
-169.618025422096 -364.031761884689 1664.99996185303 32 35 28
-164.980292320251 -363.825768232346 1664.00003433228 30 33 26
-161.697462201118 -366.680592298508 1677.00004577637 27 30 23
-158.530697226524 -369.97264623642 1692.00003147125 22 25 16
-156.646206974983 -376.544564962387 1722.00000286102 19 22 13
-156.80368244648 -388.583481311798 1776.99995040894 19 22 15
-155.805662274361 -398.436009883881 1822.00002670288 16 18 13
-152.657628059387 -403.258949518204 1843.99998188019 8 10 5
-147.8680819273 -403.926730155945 1847.00000286102 6 8 5
-142.443090677261 -402.844548225403 1842.00000762939 8 10 7
-137.567192316055 -403.292894363403 1843.99998188019 8 10 7
-132.39249587059 -402.866065502167 1842.00000762939 7 9 6
-127.435758709908 -403.094977140427 1843.00005435944 8 10 5
-122.606039047241 -403.760969638824 1845.99995613098 11 14 7
-117.63222515583 -403.989195823669 1847.00000286102 13 16 9
-111.738227307796 -400.936096906662 1832.99994468689 13 16 7
-106.910221278667 -401.600956916809 1835.99996566772 15 18 9
-102.398537099361 -403.578013181686 1845.00002861023 15 18 9
-97.5207835435867 -404.242187738419 1848.00004959106 12 15 6
-92.2260358929634 -403.156071901321 1843.00005435944 13 16 7
-87.0056226849556 -402.288228273392 1838.99998664856 13 16 7
-82.1188762784004 -402.951329946518 1842.00000762939 14 17 8
-76.8388286232948 -401.645183563232 1835.99996566772 15 18 9
-71.786917746067 -401.432365179062 1835.00003814697 15 18 9
-66.7766481637955 -401.437997817993 1835.00003814697 16 19 10
-61.5978725254536 -400.349348783493 1830.00004291534 17 20 11
-56.353434920311 -398.603975772858 1822.00002670288 18 21 12
-51.1807128787041 -397.076904773712 1815.00005722046 17 20 9
-46.351682394743 -398.17476272583 1820.00005245209 16 19 8
-41.5406748652458 -399.709790945053 1827.00002193451 15 18 7
-36.6112887859344 -400.369316339493 1830.00004291534 15 18 9
-31.6826738417149 -401.247173547745 1833.99999141693 11 12 6
-26.6303066164255 -400.593221187592 1830.9999704361 22 23 17
-21.8423251062632 -404.533356428146 1848.99997711182 7 7 5
-290.377199649811 -377.882301807404 1708.99999141693 14 16 13
-280.382007360458 -370.824873447418 1677.00004577637 13 15 10
-275.658935308456 -370.621830224991 1675.99999904633 12 15 8
-272.234797477722 -372.187793254852 1682.99996852875 19 22 13
-268.772065639496 -373.753756284714 1690.00005722046 21 22 14
-264.489084482193 -374.213814735413 1692.00003147125 18 19 11
-259.119510650635 -373.125553131104 1687.00003623962 17 20 9
-255.285322666168 -374.248892068863 1692.00003147125 16 19 10
-249.497324228287 -372.496485710144 1684.00001525879 13 16 7
-245.643049478531 -373.619556427002 1689.00001049042 12 15 6
-240.619212388992 -372.972667217255 1685.99998950958 11 14 5
-236.871182918549 -374.316662549973 1692.00003147125 11 14 5
-232.678115367889 -374.996840953827 1695.00005245209 11 14 5
-228.064507246017 -375.013053417206 1695.00005245209 11 14 7
-222.923025488853 -374.144017696381 1690.99998474121 12 15 8
-217.157319188118 -372.1684217453 1682.000041008 16 19 12
-211.187303066254 -369.749844074249 1671.0000038147 17 20 11
-204.782038927078 -366.445660591125 1656.00001811981 18 21 10
-199.66733455658 -365.353882312775 1651.00002288818 18 21 10
-195.525079965591 -366.032242774963 1654.00004386902 17 20 9
-190.673068165779 -365.382492542267 1651.00002288818 18 21 10
-186.175212264061 -365.396440029144 1651.00002288818 22 25 16
-181.23671412468 -364.524751901627 1646.99995517731 23 26 17
-177.714675664902 -366.530150175095 1656.00001811981 29 32 23
-173.410981893539 -366.986006498337 1657.99999237061 29 32 23
-169.503390789032 -368.326991796494 1664.00003433228 31 34 25
-165.860056877136 -370.331853628159 1672.99997806549 30 33 26
-163.420602679253 -375.214338302612 1695.00005245209 27 30 23
-160.860762000084 -380.096822977066 1717.00000762939 25 28 19
-158.726289868355 -386.307626962662 1745.00000476837 17 20 13
-157.497480511665 -395.175099372864 1784.9999666214 18 21 14
-156.905189156532 -406.25673532486 1835.00003814697 14 16 11
-151.983544230461 -406.4901471138 1835.99996566772 8 10 5
-147.93661236763 -409.158647060394 1848.00004959106 7 9 6
-142.89590716362 -409.170001745224 1848.00004959106 8 10 7
-137.854799628258 -409.180998802185 1848.00004959106 8 10 7
-132.453933358192 -408.084481954575 1843.00005435944 7 9 6
-126.803442835808 -406.101882457733 1833.99999141693 7 9 4
-122.197881340981 -407.440334558487 1840.0000333786 10 12 7
-117.622904479504 -408.999919891357 1847.00000286102 10 13 6
-112.095072865486 -407.237499952316 1838.99998664856 12 15 8
-106.377676129341 -404.588848352432 1827.00002193451 13 16 9
-101.890869438648 -406.590223312378 1835.99996566772 12 15 8
-96.9853103160858 -407.041162252426 1838.00005912781 11 14 7
-91.968446969986 -407.048761844635 1838.00005912781 11 14 7
-86.4309370517731 -404.619783163071 1827.00002193451 11 14 7
-81.2652707099915 -403.740674257278 1822.99995422363 11 14 7
-76.5396803617477 -405.07584810257 1828.9999961853 12 15 8
-71.8202292919159 -406.632214784622 1835.99996566772 12 15 8
-66.8440088629723 -406.859278678894 1837.00001239777 13 16 9
-61.7275089025497 -406.200110912323 1833.99999141693 13 16 9
-56.7199736833572 -406.204879283905 1833.99999141693 12 15 8
-51.9096553325653 -407.759726047516 1840.99996089935 12 15 8
-46.9845533370972 -408.64971280098 1845.00002861023 12 15 6
-41.7191721498966 -406.438440084457 1835.00003814697 11 14 7
-36.4682637155056 -403.783679008484 1822.99995422363 11 14 7
-31.5764434635639 -404.893934726715 1827.99994945526 11 12 6
-26.700846850872 -406.668305397034 1835.99996566772 14 15 9
-21.8995977193117 -410.65725684166 1853.99997234344 5 5 3
-16.981802880764 -414.202809333801 1870.00000476837 27 27 27
-289.169251918793 -380.950003862381 1702.00002193451 10 12 11
-282.704412937164 -378.50633263588 1690.99998474121 22 24 19
-274.325221776962 -373.376131057739 1667.99998283386 17 20 13
-273.02560210228 -377.871125936508 1687.99996376038 15 18 9
-268.754184246063 -378.336787223816 1690.00005722046 16 17 9
-264.002472162247 -378.130704164505 1689.00001049042 14 15 7
-258.487641811371 -376.804918050766 1682.99996852875 16 19 8
-253.306716680527 -375.926703214645 1679.00002002716 16 19 10
-249.035805463791 -376.391649246216 1680.99999427795 15 18 9
-245.18983066082 -377.528190612793 1685.99998950958 14 17 8
-240.887939929962 -377.992868423462 1687.99996376038 12 15 6
-237.27460205555 -379.577100276947 1695.00005245209 12 15 6
-232.93624818325 -380.041480064392 1697.00002670288 11 14 5
-228.586539626122 -380.505710840225 1699.00000095367 11 14 7
-223.698079586029 -380.073815584183 1697.00002670288 12 15 8
-219.852790236473 -381.433546543121 1702.99994945526 17 20 13
-211.930319666862 -375.62558054924 1677.00004577637 18 21 12
-205.138131976128 -371.608793735504 1659.00003910065 18 21 10
-199.410915374756 -369.38351392746 1649.00004863739 18 21 10
-194.919720292091 -369.39799785614 1649.00004863739 17 20 9
-189.966127276421 -368.516057729721 1644.99998092651 18 21 10
-185.484856367111 -368.529945611954 1644.99998092651 20 23 12
-180.893123149872 -368.319541215897 1644.00005340576 21 24 15
-177.272140979767 -370.125263929367 1651.99995040894 25 28 19
-173.188745975494 -371.034622192383 1656.00001811981 26 29 20
-169.796153903008 -373.512268066406 1667.00005531311 30 33 24
-166.838765144348 -377.110064029694 1682.99996852875 28 31 22
-164.661407470703 -382.724523544312 1707.99994468689 26 29 22
-162.347316741943 -388.339102268219 1733.00004005432 21 24 15
-159.896478056908 -393.953710794449 1758.00001621246 17 20 11
-159.249857068062 -404.498428106308 1804.99994754791 15 18 11
-155.439510941505 -407.423973083496 1817.999958992 12 14 9
-151.971712708473 -411.469876766205 1835.99996566772 8 10 5
-147.364735603333 -412.602156400681 1840.99996089935 6 8 5
-143.116652965546 -414.854764938354 1850.99995136261 8 10 7
-137.396410107613 -412.848591804504 1842.00000762939 7 9 6
-132.227912545204 -412.410974502563 1840.0000333786 7 9 6
-128.245264291763 -415.783375501633 1855.00001907349 7 9 4
-122.653044760227 -414.000153541565 1847.00000286102 8 10 5
-117.80458688736 -414.682179689407 1850.00002384186 8 10 5
-112.390875816345 -413.346409797668 1843.99998188019 10 13 6
-106.543831527233 -410.216927528381 1830.00004291534 10 12 7
-100.994847714901 -407.983601093292 1820.00005245209 10 12 7
-91.6108042001724 -410.464942455292 1830.9999704361 10 12 7
-86.3766521215439 -409.351289272308 1825.99997520447 11 13 8
-81.2586918473244 -408.685475587845 1822.99995422363 11 14 7
-76.5334814786911 -410.037010908127 1828.9999961853 10 13 6
-72.1273198723793 -413.405895233154 1843.99998188019 10 12 7
-66.9477358460426 -412.514746189117 1840.0000333786 10 12 7
-61.823446303606 -411.847442388535 1837.00001239777 10 12 7
-57.0864491164684 -413.870006799698 1845.99995613098 9 11 6
-52.4411126971245 -417.013317346573 1860.00001430511 9 11 6
-47.3881363868713 -417.241543531418 1860.99994182587 10 13 6
-42.1476922929287 -415.675818920136 1853.99997234344 10 13 6
-36.8453375995159 -412.988603115082 1842.00000762939 10 13 6
-31.8156704306602 -412.991374731064 1842.00000762939 15 16 10
-27.0912833511829 -417.702198028564 1863.00003528595 6 7 1
-22.0277216285467 -418.152630329132 1865.00000953674 7 8 3
-17.1710997819901 -423.983722925186 1891.00003242493 3 3 1
-289.660334587097 -386.244475841522 1705.00004291534 8 10 9
-285.527944564819 -386.942654848099 1707.99994468689 14 16 13
-279.569774866104 -385.148674249649 1700.00004768372 17 19 14
-272.198915481567 -381.31520152092 1682.99996852875 15 18 9
-268.736302852631 -382.919132709503 1690.00005722046 17 18 10
-264.453649520874 -383.390128612518 1692.00003147125 18 19 11
-258.62380862236 -381.594985723495 1684.00001525879 15 18 7
-253.742069005966 -381.159126758575 1682.000041008 15 18 9
-248.574331402779 -380.269795656204 1677.99997329712 15 18 9
-245.318323373795 -382.326453924179 1687.00003623962 14 17 8
-240.72852730751 -382.343322038651 1687.00003623962 12 15 6
-237.537920475006 -384.626477956772 1697.00002670288 11 14 5
-231.95905983448 -383.056372404099 1690.00005722046 11 14 7
-226.95592045784 -382.39261507988 1687.00003623962 11 14 7
-222.759425640106 -383.088618516922 1690.00005722046 12 15 8
-217.384323477745 -381.744265556335 1684.00001525879 16 19 12
-210.524991154671 -377.679228782654 1666.00000858307 17 20 11
-203.886821866035 -373.840302228928 1649.00004863739 18 21 10
-199.27541911602 -373.628288507462 1648.00000190735 18 21 10
-194.668978452683 -373.415976762772 1646.99995517731 17 20 9
-189.952075481415 -372.976720333099 1644.99998092651 18 21 10
-185.132846236229 -372.310400009155 1641.99995994568 18 21 10
-180.87962269783 -372.777581214905 1644.00005340576 20 23 14
-176.829650998116 -373.697996139526 1648.00000190735 23 26 17
-172.966569662094 -375.071734189987 1654.00004386902 25 28 19
-169.783294200897 -378.032714128494 1667.00005531311 29 32 23
-167.420834302902 -383.034616708755 1689.00001049042 26 29 20
-165.612816810608 -389.624118804932 1718.00005435944 21 24 15
-161.304458975792 -390.543818473816 1722.00000286102 14 17 8
-160.520777106285 -400.308609008789 1764.99998569489 13 16 7
-159.678637981415 -410.527288913727 1809.99994277954 11 14 7
-156.880855560303 -416.20996594429 1835.00003814697 7 9 4
-151.711568236351 -415.768295526505 1832.99994468689 6 8 3
-147.35321700573 -417.594641447067 1840.99996089935 5 7 4
-142.950803041458 -419.420689344406 1848.99997711182 6 8 7
-138.504356145859 -421.246469020844 1856.99999332428 6 8 7
-133.079752326012 -420.122981071472 1851.99999809265 7 9 6
-127.682060003281 -418.999075889587 1847.00000286102 7 9 6
-123.307302594185 -421.277642250061 1856.99999332428 7 9 4
-118.877626955509 -423.555850982666 1866.99998378754 7 9 4
-113.052278757095 -420.842736959457 1855.00001907349 7 9 6
-108.456417918205 -422.666609287262 1863.00003528595 6 8 5
-103.761091828346 -424.263268709183 1870.00000476837 6 8 5
-97.1279740333557 -417.691797018051 1840.99996089935 7 9 6
-91.5533825755119 -415.20369052887 1830.00004291534 7 9 6
-86.6534635424614 -415.664672851563 1832.00001716614 7 9 6
-81.6532522439957 -415.671527385712 1832.00001716614 7 9 6
-76.6109526157379 -415.451020002365 1830.9999704361 7 9 6
-72.1605569124222 -418.633669614792 1845.00002861023 6 8 5
-66.9058859348297 -417.277902364731 1838.99998664856 6 8 5
-62.1212683618069 -418.87155175209 1845.99995613098 6 8 5
-57.3600865900517 -420.918613672256 1855.00001907349 8 10 9
-52.5495819747448 -422.965288162231 1863.9999628067 8 10 9
-47.3333299160004 -421.834826469421 1858.99996757507 9 11 8
-42.1442352235317 -420.703887939453 1853.99997234344 9 11 6
-37.1623374521732 -421.614855527878 1858.00004005432 10 12 7
-32.452080398798 -426.38298869133 1878.99994850159 10 13 6
-27.2635463625193 -425.477772951126 1875 15 16 10
-22.5337464362383 -432.968258857727 1907.99999237061 8 9 4
-17.2604843974113 -431.381434202194 1901.00002288818 14 14 12
-12.3365102335811 -440.913468599319 1942.999958992 10 10 8
-287.682503461838 -394.553601741791 1720.99995613098 14 16 13
-280.37366271019 -390.903890132904 1705.00004291534 17 19 14
-271.534085273743 -384.960889816284 1679.00002002716 17 20 13
-268.082439899445 -386.583745479584 1685.99998950958 19 20 12
-263.654500246048 -386.830866336823 1687.00003623962 21 22 14
-259.066969156265 -386.848390102386 1687.00003623962 14 17 6
-253.573924303055 -385.489910840988 1680.99999427795 15 18 9
-249.446049332619 -386.195093393326 1684.00001525879 15 18 9
-245.592176914215 -387.358814477921 1689.00001049042 14 17 8
-241.710558533669 -388.52247595787 1694.00000572205 11 14 5
-237.80120909214 -389.686018228531 1699.00000095367 11 14 5
-232.491672039032 -388.555705547333 1694.00000572205 10 13 4
-226.536244153976 -386.278212070465 1684.00001525879 10 13 6
-220.107510685921 -383.082687854767 1669.99995708466 14 17 10
-214.916199445724 -381.951332092285 1664.99996185303 16 19 12
-209.625259041786 -380.590260028839 1659.00003910065 16 19 10
-204.737409949303 -379.917025566101 1656.00001811981 17 20 9
-200.590848922729 -380.620092153549 1659.00003910065 17 20 9
-196.309298276901 -381.093502044678 1661.00001335144 16 19 8
-190.861731767654 -379.272282123566 1652.99999713898 16 19 8
-186.133727431297 -378.82736325264 1651.00002288818 17 20 9
-180.756092071533 -377.00542807579 1643.00000667572 17 20 11
-177.245512604713 -379.084020853043 1651.99995040894 21 24 15
-172.953486442566 -379.556179046631 1654.00004386902 23 26 17
-169.872239232063 -382.78192281723 1667.99998283386 27 30 21
-167.606294155121 -388.072967529297 1690.99998474121 22 25 16
-165.503740310669 -394.052684307098 1717.00000762939 16 19 10
-162.88435459137 -399.114340543747 1738.9999628067 13 16 7
-162.145286798477 -409.22537446022 1782.99999237061 13 16 7
-161.518752574921 -420.254796743393 1830.9999704361 11 14 7
-158.407419919968 -425.316840410233 1853.00004482269 7 9 4
-153.520464897156 -425.788074731827 1855.00001907349 6 8 3
-148.302063345909 -425.340801477432 1853.00004482269 5 7 4
-143.712624907494 -426.729530096054 1858.99996757507 6 8 7
-138.940900564194 -427.658915519714 1863.00003528595 6 8 7
-132.99734890461 -424.914985895157 1850.99995136261 7 9 6
-127.948388457298 -424.925327301025 1850.99995136261 7 9 6
-123.629443347454 -427.460581064224 1861.99998855591 7 9 4
-119.186475872993 -429.766029119492 1871.99997901917 7 9 4
-114.018253982067 -429.545819759369 1871.00005149841 8 10 7
-108.622342348099 -428.406864404678 1866.00005626678 5 7 6
-104.085639119148 -430.711299180985 1876.00004673004 5 7 6
-96.8563631176949 -421.535670757294 1835.99996566772 7 9 8
-91.7961001396179 -421.313673257828 1835.00003814697 7 9 8
-87.261289358139 -423.616975545883 1845.00002861023 7 9 8
-82.3596864938736 -424.312680959702 1848.00004959106 7 9 8
-78.1108662486076 -428.681761026382 1866.99998378754 7 9 8
-72.4284276366234 -425.243705511093 1851.99999809265 7 9 8
-67.227840423584 -424.330949783325 1848.00004959106 7 9 8
-62.1834881603718 -424.336314201355 1848.00004959106 7 9 8
-57.6336570084095 -428.015112876892 1863.9999628067 8 9 11
-52.7144148945808 -429.397374391556 1870.00000476837 8 10 9
-47.4312826991081 -427.794069051743 1863.00003528595 8 10 7
-42.1180464327335 -425.501525402069 1853.00004482269 9 11 6
-37.1192805469036 -426.193684339523 1855.99994659424 9 11 6
-32.2939865291119 -429.411351680756 1870.00000476837 10 11 5
-27.3485369980335 -431.939780712128 1881.00004196167 13 14 8
-22.4374160170555 -436.304867267609 1899.99997615814 5 6 0
-17.2681398689747 -436.765789985657 1901.99995040894 18 19 14
-12.08789460361 -437.226265668869 1904.00004386902 13 14 9
-286.159485578537 -397.131025791168 1712.00001239777 24 26 21
-278.053283691406 -392.277956008911 1690.99998474121 22 25 18
-271.354407072067 -389.280200004578 1677.99997329712 19 22 15
-267.746597528458 -390.69002866745 1684.00001525879 18 21 14
-263.32426071167 -390.939801931381 1684.99994277954 17 20 13
-259.049475193024 -391.421437263489 1687.00003623962 17 20 13
-254.310846328735 -391.206830739975 1685.99998950958 18 21 14
-249.873265624046 -391.456097364426 1687.00003623962 16 19 12
-246.15678191185 -392.86544919014 1692.999958992 14 17 10
-242.407098412514 -394.274741411209 1699.00000095367 11 14 7
-238.484308123589 -395.451903343201 1703.9999961853 10 13 6
-233.161434531212 -394.308149814606 1699.00000095367 9 12 5
-226.520150899887 -390.843123197556 1684.00001525879 11 14 7
-221.14609181881 -389.466494321823 1677.99997329712 14 17 10
-215.546071529388 -387.625306844711 1669.99995708466 15 18 11
-211.50529384613 -388.569205999374 1674.00002479553 14 17 10
-206.329613924026 -387.423753738403 1669.0000295639 14 15 7
-202.389672398567 -388.599336147308 1674.00002479553 14 15 9
-198.067516088486 -389.078348875046 1675.99999904633 13 14 8
-194.195806980133 -390.485763549805 1682.000041008 13 14 6
-188.374504446983 -387.946218252182 1671.0000038147 13 14 8
-182.06262588501 -384.245336055756 1654.99997138977 16 17 11
-177.339464426041 -383.794516324997 1652.99999713898 15 16 10
-173.149541020393 -384.504288434982 1656.00001811981 19 20 14
-169.248327612877 -385.910421609879 1661.99994087219 24 25 19
-165.908664464951 -388.70957493782 1674.00002479553 17 18 12
-166.069373488426 -400.100499391556 1723.00004959106 11 12 6
-164.744988083839 -408.472925424576 1758.99994373322 16 19 12
-162.496477365494 -414.987832307816 1786.99994087219 14 16 11
-161.41802072525 -424.986273050308 1830.00004291534 12 14 9
-159.249857068062 -432.662516832352 1863.00003528595 9 11 6
-154.584273695946 -433.836042881012 1868.00003051758 6 8 3
-148.770570755005 -431.757628917694 1858.99996757507 7 9 4
-143.237486481667 -430.37560582161 1853.00004482269 8 10 5
-137.73675262928 -428.993135690689 1847.00000286102 8 10 5
-132.986798882484 -429.932922124863 1850.99995136261 6 8 3
-127.799987792969 -429.478764533997 1848.99997711182 7 9 4
-123.22124838829 -431.114733219147 1855.99994659424 8 10 5
-118.540294468403 -432.518064975739 1861.99998855591 8 10 5
-113.156020641327 -431.365966796875 1856.99999332428 8 10 5
-108.147941529751 -431.607127189636 1858.00004005432 8 10 5
-102.301940321922 -428.363442420959 1843.99998188019 9 11 6
-97.4287763237953 -429.068386554718 1847.00000286102 9 11 6
-92.3889055848122 -429.076105356216 1847.00000286102 9 11 6
-87.4906703829765 -429.78036403656 1850.00002384186 8 10 5
-83.0659940838814 -433.03969502449 1863.9999628067 8 10 5
-78.0208334326744 -433.27859044075 1865.00000953674 8 10 5
-72.969987988472 -433.517098426819 1866.00005626678 8 10 5
-67.331463098526 -430.037915706635 1850.99995136261 9 11 6
-62.2456856071949 -429.810911417007 1850.00002384186 9 11 6
