ply
format ascii 1.0
comment KinectMotionCapture
element vertex 780
property float x
property float y
property float z
property uchar red
property uchar green
property uchar blue
end_header
-334.903416749868 -102.446480718216 1860.40508030506 16 19 12
-276.342959745827 -100.910038778961 1843.25092209397 19 22 15
-239.720410806632 -99.9736213464049 1828.48789380188 20 23 16
-265.897122206578 -100.749402209941 1821.46516392406 19 22 15
-308.016594743802 -101.958407486738 1816.64682583527 17 20 13
-273.392784142033 -101.077689988988 1801.93202150077 18 19 13
-261.953653207502 -100.890866494435 1779.87824103828 15 18 11
-282.141325645163 -101.501425872917 1772.43768238831 16 19 12
-267.455273964777 -101.164666728321 1760.12131641985 18 21 14
-234.838707348892 -100.341975652706 1745.11048304482 18 21 14
-266.978005143104 -101.276005470618 1739.53760171232 16 19 12
-264.249205838172 -101.264216361937 1728.86737951834 15 20 13
-251.560412430842 -100.982820586785 1716.64812014005 16 21 14
-189.668277245636 -99.750958752711 1633.83031810123 69 49 40
-207.851556473759 -100.304333457278 1626.56414168384 141 119 108
-219.064666495312 -100.669408335317 1618.15204794363 120 100 89
-210.369103784373 -100.498341609418 1606.18700900383 117 100 92
-100.427898897454 -105.579200379561 2025.62695132416 22 23 15
-97.7047866238188 -105.576933877883 2014.72423560416 23 26 19
-81.0082869140305 -105.228071038717 2002.77049072003 17 20 13
-107.230799712637 -105.943858564328 1994.02209974347 17 20 13
-137.441588297334 -106.757571584583 1985.7349022464 18 21 14
-142.700005395209 -106.952453170106 1975.5586311197 19 22 15
-122.013734325014 -106.5052075906 1963.20263593653 19 22 15
-140.243721212767 -107.020887230291 1954.15143643401 21 24 17
-139.514797931112 -107.06748986304 1943.48208323879 25 28 21
-136.790607288952 -107.064840613613 1932.62192486144 17 20 13
-198.441022054122 -108.777963321137 1907.0457718571 15 18 11
-243.586928725892 -109.953283314137 1901.31388265722 14 17 10
-236.867339034495 -109.850748384463 1890.27303729682 16 19 12
-219.179284040569 -109.47869748113 1877.98944355741 20 23 16
-195.510723533443 -108.960260087274 1864.93428072754 20 23 16
-267.56555980748 -110.793396022385 1862.79686126066 18 21 14
-251.873210043099 -110.47066856014 1850.68688242993 18 21 14
-264.09723887732 -110.833097365771 1841.86625768905 18 21 14
-275.322996054783 -111.17064036817 1832.9894308913 18 21 14
-278.57258120059 -111.312451859833 1823.16593030097 19 22 15
-295.77600547207 -111.795656310228 1815.16306155476 20 23 16
-306.000369315572 -112.10758306846 1806.33417337417 18 19 13
-242.997444015033 -110.754864465884 1767.05033893428 18 21 14
-277.136198605387 -111.650237993963 1761.60823893908 19 22 15
-290.347275702905 -112.034370197957 1753.3045319492 19 22 15
-269.683758222422 -111.592961567215 1740.04365560303 16 19 12
-248.027003950223 -111.128056938986 1726.51898017785 16 21 14
-191.043004870701 -109.931619978649 1686.50380060659 6 11 4
-171.457918276939 -109.774958027461 1630.7883702619 53 33 24
-196.612945083936 -110.447239416013 1624.69958149837 151 129 118
-208.823086914666 -110.805751983359 1616.43523870442 126 106 95
-207.095464120598 -110.827157324246 1605.70809040955 119 102 94
-50.4901743739596 -115.241589831399 2011.44352538425 21 24 17
-82.7076400913596 -116.018912934974 2002.98383042564 18 21 14
-96.9544889542227 -116.399030340533 1993.32037215814 16 19 12
-132.158475182465 -117.240208067 1985.40235793162 15 18 11
-168.355725797582 -118.102028238846 1977.75945298246 15 18 11
-134.692968638052 -117.426357042009 1964.37134978051 15 18 11
-206.807971610224 -119.076110286584 1960.08863431921 20 23 16
-194.10075187627 -118.86099219464 1948.51837574598 22 25 18
-178.402138287501 -118.580652659927 1936.59837119121 17 20 13
-142.752738762246 -117.863442519165 1922.67408657341 13 16 9
-177.936661171205 -118.699086759337 1915.55550212905 11 14 7
-208.128011319193 -119.424237623645 1908.12311729932 12 15 8
-249.286929927392 -120.388236038708 1902.00146194374 13 16 9
-259.521681884566 -120.674961407079 1892.79362960591 12 15 8
-176.008741692361 -118.914012138685 1873.34069337396 18 21 14
-208.186386110441 -119.680416087639 1866.45840167688 18 21 14
-202.467243407233 -119.619380882334 1855.38022492452 17 20 13
-248.597805378331 -120.688216403215 1850.3964170599 17 20 13
-268.06177436965 -121.237514101274 1832.18898757195 18 21 14
-288.259323967149 -121.739132424706 1824.48869260196 19 22 15
-290.51102219327 -121.850256461151 1814.58153288782 21 24 17
-261.86339409866 -121.290643754323 1800.61033185265 20 23 14
-246.176565051492 -121.013057102913 1788.2267907541 20 23 14
-228.498852643927 -120.692833703316 1775.48332452907 21 24 15
-217.799334328423 -120.524283391077 1763.62078706201 20 23 14
-242.973910576337 -121.132270767437 1756.82764759473 18 21 12
-280.102067499755 -121.997826167541 1751.91517532148 18 21 12
-278.367962106133 -122.022570701022 1741.43780410633 16 19 10
-233.794974658513 -121.122612398649 1724.47303836035 15 18 9
-224.094917774434 -120.976326843384 1712.63234150034 16 19 10
-186.103267663277 -120.602478432421 1633.44067619789 77 62 55
-211.259163225777 -121.205293049702 1627.39252152861 153 139 130
-205.548900682544 -121.146128714131 1615.96526856606 106 92 83
-90.3972743564765 -126.914338523539 2003.64088531575 20 23 16
-103.646254295062 -127.236352999454 1993.92250122651 17 20 13
-132.863743406323 -127.865632885618 1985.54675637157 13 16 9
-160.080928110802 -128.455365265196 1977.16665174117 14 17 10
-152.36407045143 -128.372057827884 1965.96436165352 15 18 11
-148.640233069913 -128.365729464225 1955.06964931331 20 23 16
-200.797396305189 -129.432660328278 1949.2150525194 22 25 18
-157.158926317214 -128.659698711782 1934.70723448513 18 21 14
-145.453629000239 -128.500359115055 1923.02664820723 14 17 10
-157.693902036263 -128.800023805704 1913.64785984784 12 15 8
-206.843134438573 -129.805556973734 1908.08573382106 11 14 7
-235.037504735969 -130.408737107005 1900.60755375349 12 15 8
-246.271376718034 -130.686930969751 1891.4679720277 11 14 7
-218.606147956174 -130.222293882098 1878.11671098659 17 20 13
-182.966184943821 -129.606483019995 1863.71474001878 18 21 14
-166.278793670514 -129.352932086883 1851.30266729953 15 18 11
-203.44077512003 -130.124935603954 1845.15933939042 16 19 12
-231.623851812372 -130.724887122014 1838.13534395816 18 21 14
-263.790829440196 -131.399552418287 1831.75912448767 20 23 16
-263.053869572957 -131.448433447951 1821.40142253021 20 23 16
-282.254814694426 -131.875483891253 1813.61446151638 19 22 15
-248.621339131623 -131.300604670247 1798.96438462807 18 21 12
-240.908362129023 -131.21760202732 1787.61942255395 19 22 13
-228.212936417978 -131.040569931317 1775.54731889951 20 23 14
-235.451514880563 -131.240691248114 1766.19950445858 20 23 14
-223.75470969715 -131.082974796611 1754.18527337434 18 21 12
-202.095041695082 -130.737655473297 1740.65539990408 16 19 10
-249.190051897866 -131.689033478567 1737.21189280006 15 18 9
-238.491223863233 -131.550378243701 1725.29027773365 15 18 9
-172.268907956351 -130.431376868955 1694.24662286531 17 20 11
-194.776154002104 -131.235980807931 1635.0582287018 170 160 151
-208.980372790851 -131.564827444802 1627.10662722391 129 116 108
-197.295926898598 -131.409947494265 1614.60630660992 65 55 45
-117.056765393167 -138.07975192792 2005.70202940493 24 27 20
-157.258631830183 -138.81109953084 1998.12692898094 20 23 16
-115.600834403788 -138.188583212049 1984.26235294578 14 17 10
-144.817652103919 -138.737178172906 1975.99948242232 15 18 11
-161.055346475377 -139.070732066682 1966.79320503008 16 19 12
-120.40423477779 -138.466722024377 1952.68147938904 18 21 14
-142.62884889695 -138.89853892293 1944.03842708716 19 22 15
-155.869701670896 -139.181894383217 1934.67918981969 16 19 12
-145.161541139411 -139.071536841979 1923.09193717575 14 17 10
-160.395950345923 -139.386994013075 1914.00878861439 14 17 10
-125.744917503938 -138.884532735496 1899.94245654535 12 15 8
-152.9495399052 -139.395628650806 1892.1377640219 11 14 7
-169.177697322464 -139.726279670489 1883.30734072 12 15 8
-186.400980004182 -140.072581178216 1874.67533234434 16 19 12
-208.608899949172 -140.499585379938 1866.69923849229 16 19 12
-232.335330166205 -141.078038929209 1838.32005000732 17 20 13
-239.577172300126 -141.259387894333 1828.86483629001 20 23 16
-257.785324138121 -141.618448121047 1820.83519203607 19 22 15
-245.085070154768 -141.475680634647 1808.91500329069 15 18 11
-246.343325683507 -141.559387637856 1798.76562689871 15 18 9
-235.639155738196 -141.449451666542 1787.01263088543 17 20 11
-239.888189633409 -141.581532831919 1777.25514520388 19 22 13
-222.209171328351 -141.359352358789 1764.44812224504 19 22 13
-197.556554393187 -141.025240725574 1750.54721692306 16 19 10
-186.858766743367 -140.916782582702 1738.5431919141 14 17 8
-201.074563083733 -141.209657848193 1730.17772290032 14 17 8
-214.292032764047 -141.485962801597 1721.73994822679 14 17 8
-250.423503107768 -142.129849907519 1716.90196390082 21 24 15
-244.70670686446 -142.100976915476 1705.70687084766 20 23 14
-195.48341550152 -141.693009543905 1635.29620898371 63 54 47
-201.722460315964 -141.85590400992 1625.94544155913 54 45 36
-200.99064499173 -141.907634508018 1615.38361349959 70 61 52
-159.695348969504 -149.317306566558 2008.94463631595 24 27 20
-149.248795006068 -149.30579915712 1987.026755079 18 21 14
-168.483195914245 -149.636593730705 1978.03557816292 16 19 12
-131.817926438826 -149.198816300164 1964.39749040001 16 19 12
-145.062328177976 -149.446947616446 1954.93736825103 17 20 13
-156.309007105748 -149.667194088022 1945.36879095522 18 21 14
-229.689107954632 -150.801807810425 1931.30294692924 16 19 12
-136.157439275487 -149.589580415823 1911.70853377861 16 19 12
-117.469282721964 -149.400850567606 1899.19805085894 13 16 9
-169.618338068918 -150.177214469175 1893.97232685362 11 14 7
-195.822518187533 -150.59890639581 1886.2562177228 13 16 9
-195.089797680538 -150.653794487159 1875.72637696087 16 19 12
-204.331775952062 -150.843946417146 1866.31511068247 17 20 13
-203.129443581653 -151.021249424103 1834.89040201721 16 19 12
-224.334328451218 -151.371859325823 1827.08093329159 17 20 13
-217.617241145648 -151.345321073827 1815.86068664489 17 20 13
-253.773904017555 -151.896137229531 1810.13802346396 16 19 12
-238.082885734534 -151.748550648541 1797.77862815153 17 20 11
-235.353812595253 -151.775506660798 1787.07750682568 17 20 11
-211.691700692215 -151.521746403873 1773.4861202839 18 21 12
-195.274813794757 -151.429945538948 1750.32812471178 15 18 9
-198.52927641132 -151.537532715165 1740.35074310189 13 16 7
-205.769455423658 -151.698152471357 1730.98278736548 15 18 9
-253.864682285188 -152.402941536595 1727.82960315031 13 16 7
-254.125098122549 -152.469371973048 1717.58032220946 19 22 13
-304.202791041928 -153.197980349837 1715.13624517773 19 22 13
-169.300732652633 -151.78965486196 1630.87834990214 47 40 32
-187.492473299422 -152.09334791075 1623.55888565172 67 60 52
-107.481859469413 -159.269910381689 2005.16873101865 20 23 16
-152.95054758125 -159.90607903307 1987.40964893912 22 25 18
-157.211479576936 -160.019605282669 1977.19774232507 18 21 14
-131.524890300637 -159.803903661248 1964.46343177931 14 17 10
-191.949168476036 -160.599242599431 1948.68622794739 12 15 8
-182.233985047167 -160.558671007791 1937.32322134667 13 16 9
-197.468872751401 -160.790732175131 1928.30159085439 13 16 9
-214.697507152699 -161.04392470919 1919.56039198307 14 17 10
-169.061475182636 -160.612360747654 1904.53200114097 14 17 10
-203.251568100478 -161.049577248773 1897.5753551913 10 13 6
-205.51099074539 -161.139177761355 1887.3894087342 14 17 10
-220.739228036835 -161.369085162206 1878.63933674882 15 18 11
-265.891155918657 -161.921966672948 1873.34044430524 15 18 11
-223.259938082534 -161.525520700995 1858.16961121561 15 18 11
-156.697226676095 -160.872499274786 1839.93878307322 15 18 11
-167.935149647294 -161.058972798045 1830.73935689514 14 17 10
-236.27718578324 -161.922585919733 1818.31938018567 14 17 10
-225.570778759074 -161.871873994578 1806.59955153248 16 19 12
-237.797748897701 -162.066696789761 1797.84393285161 18 21 14
-245.038242669109 -162.207811626584 1788.48461812058 15 18 11
-224.364380573332 -162.051043001582 1775.33174544805 14 17 10
-190.734467764813 -161.757023636468 1760.25018288628 15 18 11
-255.789507302651 -162.512685743761 1759.07951915086 15 18 11
-226.14860713194 -162.261466101477 1744.48021637075 15 18 11
-204.48526480084 -162.095688986921 1730.90116981173 16 19 12
-198.769725339862 -162.099223881439 1719.61283547051 15 18 11
-242.14436366839 -162.684402878863 1705.52557337877 17 20 13
-90.0291721915916 -170.001307444316 1971.76412430525 18 21 14
-125.242199862026 -170.359406932886 1964.02075619134 14 17 10
-204.901044767052 -171.213158742523 1939.52903227211 8 11 4
-177.220221208537 -171.052855275962 1926.451175116 10 13 6
-202.699639206018 -171.392193561633 1908.04154353659 13 16 9
-203.961639999734 -171.467929180203 1897.74502348567 9 12 5
-202.230202361652 -171.519310299796 1887.13478682771 13 16 9
-208.480599546229 -171.635152446799 1877.39085060783 14 17 10
-244.658455009284 -171.991972310879 1871.04820582656 14 17 10
-209.008212762411 -171.769608692357 1856.62552960509 14 17 10
-211.267012527875 -171.852722004673 1846.48021767882 14 17 10
-198.828817030457 -171.882920948789 1824.1321574505 14 17 10
-263.91544274866 -172.466976311592 1821.91125447138 14 17 10
-235.256644843597 -172.302584389836 1807.95225068286 14 17 10
-232.527106644452 -172.34502154272 1797.25268305108 16 19 12
-237.774287884985 -172.450697272453 1787.61133053 12 15 8
-200.150620895625 -172.217079621905 1772.11268957049 12 15 8
-176.488964224601 -172.094844766592 1758.36228913803 13 16 9
-247.530799043732 -172.719047591971 1758.00637317031 16 19 12
-213.901377649954 -172.518353634129 1742.80539878345 16 19 12
-209.180962898492 -172.545367603684 1731.70709532355 16 19 12
-200.270606574388 -172.731810436524 1688.64490678822 19 22 15
-150.370647027796 -180.984838173793 1987.38270320217 14 17 10
-117.689605220402 -180.872527958634 1974.12903140934 14 17 10
-64.0471689347488 -180.646285207005 1958.91425442595 11 14 7
-126.216648260349 -181.055137859144 1953.55984684959 11 14 7
-219.322951326566 -181.630348758568 1951.34551431011 9 12 5
-145.259470319074 -181.428054922116 1912.89352050831 8 11 4
-198.419902290824 -181.781057676855 1907.70242885129 11 14 7
-234.608726713752 -182.04107613992 1901.03501700862 13 16 9
-176.996930638948 -181.798250589046 1884.53240433516 15 18 11
-198.480284798642 -182.044444020171 1865.95150544451 17 20 13
-232.663710149345 -182.290942322935 1859.45090484098 18 21 14
-176.065638543453 -182.057093958027 1842.4269510301 18 21 14
-216.230783400456 -182.334077875394 1836.77491789532 17 20 13
-245.418910238505 -182.552034496505 1829.98839963707 16 19 12
-246.677348360675 -182.62295790423 1819.8362881133 16 19 12
-266.883795656137 -182.792425741937 1812.13555310559 15 18 11
-229.249956823761 -182.660833298206 1796.92491619897 15 18 11
-220.537969494258 -182.680100473333 1785.3974423667 16 19 12
-213.82141325407 -182.709858928986 1774.09599277634 17 20 13
-216.078782447306 -182.785899258275 1764.01418699296 15 18 11
-202.384812031847 -182.780039021504 1751.66739173535 14 17 10
-214.611178549422 -182.906920237146 1743.01763987999 13 16 9
-235.806711949828 -183.07894087004 1735.76541436676 14 17 10
-267.963290909416 -183.305762118281 1730.28579610924 15 18 11
-153.342658797001 -191.611742700093 1977.14964636847 18 21 14
-119.662803964953 -191.587394657024 1963.73043879868 15 18 11
-126.921558043298 -191.675456275892 1953.71441247477 13 16 9
-190.085261981145 -191.914197004485 1948.79307780358 11 14 7
-223.292665645074 -192.07017410809 1941.4278186829 7 10 3
-123.278960531858 -192.005076471799 1900.17568703748 11 14 7
-162.469446880919 -192.175093637944 1893.61405081352 13 16 9
-240.834516392446 -192.510622771849 1881.13581690092 16 19 12
-176.507424842823 -192.477187600143 1853.08027984598 16 19 12
-228.649931945994 -192.675036363396 1848.73164889198 16 19 12
-246.868395833368 -192.785830417775 1840.57486790877 18 21 14
-262.09160910253 -192.8884246637 1832.1485263906 17 20 13
-224.712568670188 -192.924996148221 1806.79892386546 15 18 11
-242.926002651114 -193.034177877361 1798.83113545318 15 18 11
-197.315788115043 -192.987937366345 1782.37997920948 18 21 14
-199.574607809747 -193.0583544531 1772.24752060867 18 21 14
-225.762662934733 -193.185782664793 1765.47758980271 15 18 11
-275.87494523733 -193.368978690615 1762.26726162689 12 15 8
-223.296687558789 -193.308493449047 1744.39088236513 10 13 6
-232.531048023428 -193.394243560031 1735.38944500188 12 15 8
-85.4188002731786 -202.221767234039 1960.91560968947 19 22 15
-144.600742769049 -202.289390491198 1955.35706631151 15 18 11
-163.838385525358 -202.35666859228 1946.51280564469 13 16 9
-249.961636805208 -202.418800112221 1944.00477489893 9 12 5
-129.972078009965 -202.630651788181 1900.95232788561 10 13 6
-253.999164542015 -202.681692748441 1903.24641587215 13 16 9
-237.294200769308 -202.749725191901 1891.17584584167 14 17 10
-194.645928529396 -202.822626757859 1876.16760869342 13 16 9
-179.943228957364 -202.891663562147 1864.06618756531 13 16 9
-208.14642338225 -202.952285608151 1856.82568711479 14 17 10
-210.405706589126 -203.017596935372 1846.68059502399 15 18 11
-250.574500241462 -203.073609324244 1841.12321653615 17 20 13
-243.852412296643 -203.140164728966 1829.99845539576 17 20 13
-299.973167719018 -203.189592049969 1826.76743443213 16 19 12
-247.628174878185 -203.333146095438 1799.55517556676 15 18 11
-219.96510638697 -203.406587220139 1785.53241193386 17 20 13
-209.258714229587 -203.475058328752 1773.68403267271 17 20 13
-143.710871492671 -203.563551107809 1754.10060223587 16 19 12
-251.663018024434 -203.588657535688 1758.91898978692 12 15 8
-238.226923366375 -203.721936035047 1736.3441201403 12 15 8
-139.508571122916 -212.660534385295 1986.78974194962 10 13 6
-104.823514294884 -212.824712545829 1973.34672382318 10 13 6
-132.326194146291 -212.887329810407 1954.37445545453 19 22 15
-181.520496152323 -212.818633285479 1948.20427829468 20 23 16
-75.9555794203131 -213.18332588574 1927.89179266951 18 21 14
-52.5432013236653 -213.388880919224 1904.03744167631 11 14 7
-146.648184517562 -213.188819268215 1902.74114472572 10 13 6
-167.876810165652 -213.195422201658 1894.37317232076 15 18 11
-163.153290019343 -213.27644746586 1883.34757006902 15 18 11
-137.47261710777 -213.418661546721 1869.99772517887 13 16 9
-179.919610232737 -213.428299265095 1853.67586122759 15 18 11
-190.163107296379 -213.464434431839 1844.395304293 15 18 11
-218.363778365265 -213.446397436581 1837.33788335673 14 17 10
-239.36429428624 -213.643948256376 1798.5720423147 13 15 10
-262.565054468535 -213.637367218699 1791.36602489089 12 14 9
-224.193216528628 -213.885082830833 1765.47419125709 12 14 9
-110.780859803032 -214.304403707369 1738.92424557004 12 14 9
-158.910974290199 -214.219564151873 1735.2460496973 13 15 10
-133.492591493405 -223.337572201385 1975.79258957109 10 13 6
-114.786518273139 -223.510061086399 1963.59450319885 12 15 8
-195.944754901525 -223.131356166165 1960.04099737541 16 19 12
-148.279270417593 -223.463607716085 1945.29419120968 19 22 15
-76.6568070266715 -223.930632117619 1928.05392077597 19 22 15
-97.896299279407 -223.882022108428 1919.32052722293 16 19 12
-57.2360242426577 -224.178919234344 1904.599611888 10 13 6
-127.389160804806 -223.854994271431 1900.88696716675 9 12 5
-96.7145174663693 -224.096245624463 1887.06231397366 15 18 11
-143.898141029767 -223.898587227066 1881.38923655684 15 18 11
-103.517163038075 -224.263824264872 1855.6790470285 14 17 10
-163.930324542441 -224.054786408473 1841.40541887038 17 20 13
-153.221410106933 -224.183187114545 1829.58194640165 15 18 11
-228.317455723424 -223.81806419524 1828.28698669345 12 15 8
-257.555076731288 -223.973755937027 1780.52475819903 13 15 10
-271.777352812644 -223.954835536775 1772.24082063256 13 15 10
-177.100384981332 -224.771362205208 1717.01402231154 17 19 14
-89.2510741455816 -234.291223779283 1972.25349254561 17 20 13
-132.469990587987 -234.005230589071 1965.18777881393 15 17 12
-160.702623342464 -233.841486892375 1957.04695790567 12 12 10
-179.943657581414 -233.751070700355 1948.24879112352 12 14 11
-163.233818608949 -233.958486743003 1936.20977662604 12 14 9
-139.537205106843 -234.224474054617 1923.40876718638 11 14 5
-112.848648737212 -234.516133280352 1910.1818747975 10 13 2
-44.2332775890746 -235.15914668691 1892.55886928393 5 8 0
-154.853785098745 -234.438797559571 1872.10520257556 15 18 11
-104.22000304255 -234.933647534741 1855.86135226796 18 21 14
-116.466829548565 -234.898767077515 1846.5763156247 18 21 14
-174.616854292422 -234.474592875745 1842.76858513645 16 19 12
-148.938617040493 -234.759535492793 1829.17029532022 13 16 9
-222.044966902522 -234.205271016544 1827.61697552352 11 14 7
-189.913019148099 -234.677494390306 1792.27517882484 16 19 12
-259.006148662662 -234.151215537518 1791.10039175864 14 17 10
-237.322745777882 -234.402155438028 1777.85794249459 14 17 10
-215.642131623816 -234.653699599874 1764.49652637606 13 16 9
-193.231985554386 -234.977546004487 1740.46195031412 13 16 9
-212.442752456849 -234.876475962273 1732.85817517754 15 18 11
-227.662280064802 -234.809240390069 1724.75823224614 15 18 11
-42.0063812694491 -245.518709664103 1968.47039099005 15 18 9
-117.194754650557 -244.763667966861 1963.98560715286 17 20 13
-158.414336274976 -244.379979364917 1956.94007349894 16 16 14
-186.645314999837 -244.137965616385 1948.94793815151 14 16 15
-96.5784137212102 -245.342846006334 1908.67691854142 8 11 0
-138.783725859064 -244.94394712569 1902.23943993149 8 11 2
-147.039056617416 -244.921109102807 1892.50098196883 13 16 9
-194.755727918355 -244.593131779992 1866.1344788146 22 25 18
-198.279106810606 -244.688041625264 1845.66052951486 14 17 10
-223.491963202505 -244.471722291378 1838.26567125887 12 15 8
-179.848694413852 -245.029052594499 1822.51704197111 12 15 8
-191.090034319378 -244.96928486059 1813.44846505982 13 16 9
-274.425097808951 -244.16026120297 1803.50471617103 15 18 11
-226.327242825985 -244.900281049965 1766.10113008692 13 16 9
-230.579290586397 -244.917065243683 1756.34964912109 13 16 9
-185.96242681297 -245.490180805656 1739.51804892008 13 16 9
-238.083969950172 -244.961176942909 1736.76920074903 15 18 11
-264.271846193528 -244.726507621539 1730.39505370017 15 18 11
-111.094558172208 -255.263437772213 1995.56911477374 17 24 8
-105.641688442778 -255.48133116385 1973.78457574037 16 20 6
-83.9366574286928 -255.850992548941 1961.25995470704 14 18 4
-122.434878088632 -255.463205151628 1943.24522548028 14 16 11
-180.629667799526 -254.730506954189 1938.0191943107 12 14 9
-177.899439108408 -254.837393292093 1927.27741292602 12 14 9
-136.225478657773 -255.483041530078 1912.68288643939 12 15 8
-90.5634127270196 -256.185253632131 1897.45463155079 8 11 4
-164.719116827241 -255.226718464827 1894.44047433624 7 10 3
-131.041596391683 -255.763214077095 1880.31851495406 9 12 5
-206.182371043739 -254.787219138053 1877.9312969132 18 21 14
-235.394631367709 -254.447961888637 1870.79985176129 17 20 13
-273.586223986591 -253.982265697167 1864.86218584844 13 16 9
-241.906800371722 -254.490597289603 1850.90356977582 13 16 9
-206.239818805642 -255.055623509121 1836.28968557162 13 16 9
-171.841938962622 -255.671244737382 1811.12874644928 17 20 13
-271.14968337007 -254.410003850413 1803.18006450583 14 17 10
-196.584303928172 -255.524000549429 1782.93066879302 12 15 8
-159.937919597675 -256.106344943134 1767.46848068506 11 14 7
-169.182673955819 -256.042631388381 1758.22129653015 11 14 7
-26.8676069999851 -267.291011332029 1989.21714725192 20 27 11
-80.0978852961074 -266.488839127454 1982.53655718037 13 20 4
-113.339569239917 -266.013689409506 1974.50916134191 15 19 4
-111.611873746691 -266.11379694345 1963.7003500285 14 18 4
-85.1839198981295 -266.693245296595 1939.9792025388 15 18 9
-135.664142439897 -265.999838173077 1923.32972414893 12 14 9
-115.960135560648 -266.396729072182 1910.78523474884 13 15 10
-112.236086579944 -266.52885896243 1899.75012662846 13 16 9
-40.614290957635 -267.789287902281 1881.63186079662 11 14 7
-111.778593953109 -266.67661676743 1878.36371052175 6 9 2
-244.094282307001 -264.609907835365 1871.87767193658 15 18 11
-219.662734020999 -265.151930976881 1848.38658714923 14 17 10
-210.942812689599 -265.364838023964 1836.96128601511 14 17 10
-230.168664554314 -265.10994893329 1828.93309734403 17 20 13
-199.758875302939 -265.753032137943 1804.32557282891 15 18 11
-185.586405552273 -266.191075390192 1771.09539797181 11 14 7
-218.772324087323 -265.698303452445 1765.26642887213 12 15 8
-64.8130667449163 -277.508776012543 1981.4188044419 19 22 11
-132.567189761765 -276.423110742318 1954.96133222537 17 21 7
-145.822277839427 -276.238888940096 1945.54777842784 16 20 6
-176.056072279609 -275.726437048266 1937.78536614687 14 17 8
-118.392278655538 -276.90988470899 1921.7742507129 12 15 8
-146.626511218906 -276.435038051949 1913.90494212971 11 12 7
-90.9699993920956 -277.581855397512 1897.69795497002 12 15 8
-91.2419145923504 -277.647509823654 1887.00007231139 9 12 5
-89.5169313147854 -277.751613600053 1876.09029214517 6 9 2
-146.699909780032 -276.712757454074 1871.6205917467 9 12 5
-210.392346760897 -275.680823994219 1847.39889020151 13 16 9
-206.663295657138 -275.82092512959 1836.55072346933 12 15 8
-242.85838759977 -275.182859115459 1830.60264918845 14 17 10
-226.153314712708 -275.575265470629 1818.1880560009 15 18 11
-250.366503710887 -275.169127125438 1810.94998892329 14 17 10
-106.932078077437 -278.038246118398 1781.7979903007 14 17 10
-283.815706288292 -274.646667222916 1794.86284403204 11 14 7
-201.261412645769 -276.327964907729 1773.35482189134 11 14 7
-179.576606827271 -276.81921956423 1759.8998478722 12 15 8
-285.365292024683 -275.003798456555 1733.91620537836 18 21 14
-209.826679208842 -276.554533393957 1712.12704364772 16 19 12
-99.7615726215653 -287.58102776215 1973.58355584199 14 17 8
-170.771894380012 -286.305860551033 1937.39051485968 15 18 7
-188.01887624568 -285.99599619538 1928.53680064474 14 17 8
-142.339484764936 -287.074176534108 1913.58200253229 13 14 8
-91.6729850375773 -288.263949457721 1897.87071741304 11 14 7
-74.9677473280279 -288.704537238507 1885.41083255524 12 15 8
-121.715208471787 -287.88174824774 1858.34754867904 13 16 9
-214.098835054897 -285.970291239744 1847.93974721764 11 14 7
-211.367373116515 -286.098666176525 1837.2230926058 10 13 6
-184.680123707751 -286.759607312736 1823.53928839602 12 15 8
-200.915017094757 -286.466146735612 1815.11572302725 13 16 9
-260.322856574244 -285.276469560726 1802.07833534932 14 17 10
-132.853070325403 -288.185667366847 1774.70710507435 12 15 8
-213.210890655774 -286.526007868144 1764.71319427753 14 17 10
-329.460066408898 -284.05681715996 1760.81706593095 20 23 16
-139.706475078493 -297.33497835431 1966.36372173783 14 17 10
-208.916216607336 -295.694821555243 1961.8273295382 15 18 7
-155.229720835028 -297.094753762996 1946.58848849582 15 19 5
-149.503030605063 -297.30806502784 1935.51072312494 14 18 4
-151.768570552278 -297.323144971678 1925.16570574965 13 17 3
-126.065581050903 -298.031969461327 1912.07968787968 13 16 7
-155.300265453766 -297.377160093158 1904.41064760554 12 15 8
-107.62874073654 -298.632352000096 1888.90893240833 13 16 9
-107.899457536099 -298.696712068319 1878.25927718221 10 13 6
-97.1854925699058 -299.034187463594 1866.40870864977 9 12 5
-147.383189843822 -297.854661793254 1861.33257789358 12 15 8
-163.626139798716 -297.519439033985 1852.6296501688 11 14 7
-238.034929688191 -295.800094650564 1840.54092191342 12 15 8
-167.421160671011 -297.631315136531 1821.52077420872 13 16 9
-183.658458205815 -297.293795425057 1813.05055372078 13 16 9
-220.853584852829 -296.431211540609 1807.36689073255 12 15 8
-167.222585982502 -297.840756964756 1789.94871657743 13 16 9
-190.707078879994 -297.387270333922 1772.1332945457 11 14 7
-257.82609367356 -295.770408116861 1771.05908541371 16 19 12
-325.93367424515 -294.126171348874 1770.4951804223 18 21 14
-327.186634425049 -294.158799681015 1760.5982841619 20 23 16
-236.658920449483 -296.498445848135 1737.12832178492 18 21 14
-172.345856630781 -298.247807407559 1706.61030258687 16 19 12
-160.909643171461 -298.667971781049 1683.79076026226 15 18 11
-96.1733152062405 -309.013688445841 1973.47853533366 27 23 24
-131.420194739113 -308.119319886947 1965.75692289418 22 20 21
-118.969249915357 -308.607070895615 1943.41586633772 12 18 4
-62.2911653703979 -310.239426743583 1927.50598422347 15 19 4
-60.5671519319504 -310.360188923955 1916.54041287363 15 19 5
-77.3699947053785 -310.11487992857 1885.86771653797 13 16 9
-144.558068067082 -308.331484376943 1882.27326999978 10 13 6
-134.378633658317 -308.823874153788 1849.37438522305 11 14 7
-216.52077750417 -306.61950594837 1848.43479538046 13 16 9
-152.887105772683 -308.450702908044 1830.39339796225 14 17 10
-225.55847674461 -306.640072482207 1808.08138718147 11 14 7
-193.881297864869 -307.587095732065 1793.56400576889 12 15 8
-210.11457506258 -307.203386372192 1785.3005088688 11 14 7
-240.317121106152 -306.43032519451 1779.03921435752 12 15 8
-242.57435199069 -306.43372815967 1769.04080656448 18 21 14
-316.67493099453 -304.436153869818 1769.28744447812 19 22 15
-293.98238539593 -305.132934709566 1755.8895920282 19 22 15
-186.489111060901 -308.194836619674 1729.82229760681 18 21 14
-136.873038673268 -309.6454824249 1711.88472981522 16 19 12
-183.29419177873 -308.48246553679 1697.94000498205 16 19 12
-144.660193673411 -309.628148806841 1681.33013027352 14 17 8
-143.930787118757 -309.7148139722 1670.63664899921 21 24 13
-69.1666051159596 -320.576925424707 1960.58364040697 28 24 23
-111.680824196272 -319.439532739062 1942.85662135576 11 17 3
-65.9898341285676 -320.895371047387 1927.94963615984 14 18 4
-61.5420231301793 -321.177113341009 1905.93285081046 12 15 8
-127.825125595816 -319.525556711438 1859.34991969365 9 12 5
-136.889061376518 -319.530327794467 1817.97873176314 15 18 11
-125.716683593904 -320.078909332021 1784.71901754325 12 15 8
-150.938781700465 -319.377572552498 1777.4744106534 12 15 8
-194.122330762338 -318.126270171641 1772.82745133581 14 17 10
-217.340346162789 -317.483647135046 1765.62997312333 19 22 15
-205.892236345801 -317.967043568064 1743.21681274032 20 23 16
-132.320948315567 -320.28667953759 1721.92852019716 17 20 13
-187.463231231162 -318.664324017705 1719.62646421895 16 19 12
-137.654163733817 -320.457950871588 1669.74606060966 14 17 6
-90.8569408419169 -330.607458856827 1962.51567600652 24 19 13
-120.3805251921 -329.782104336142 1943.73854323614 16 19 10
-70.9617761304746 -331.560425552545 1917.73706367844 11 17 7
-103.477162439871 -330.632372168544 1899.47402664786 17 20 13
-105.830341628626 -330.913901142816 1846.30950981189 16 19 12
-133.063522005022 -330.081548698623 1838.83116406975 13 16 9
-190.249323343215 -328.253776586393 1835.10753801024 13 16 9
-64.7067681992515 -332.492012513495 1809.20274479198 13 16 9
-98.9261636618237 -331.425975597876 1802.7149316272 14 17 10
-117.167228917216 -330.88966385305 1794.36029846704 14 17 10
-188.578788099895 -328.651816343558 1782.63664758657 15 18 11
-190.839819317734 -328.644344158565 1772.49206171346 17 20 13
-226.036511241188 -327.53916656263 1766.95830541761 20 23 16
-270.209971343819 -326.133304163188 1762.8963098842 20 23 16
-248.515236822425 -326.922509054986 1749.51879274201 16 19 12
-197.944908195168 -328.940361831308 1690.04219286346 14 17 10
-139.075416355208 -339.717357473032 1945.52074822549 18 21 12
-131.349481229544 -340.066864626597 1934.21783878136 12 17 10
-125.892383850643 -340.4082020343 1912.46598625758 15 20 16
-109.447593088428 -341.142389381641 1889.51168785745 17 20 13
-132.694289153448 -340.381647041255 1881.32009732948 15 18 11
-54.050541562348 -343.273516059828 1862.11654256054 10 13 6
-195.423523901482 -338.344145644899 1856.70589052207 16 19 12
-77.8433682485806 -342.636757436677 1832.44715128772 15 18 11
-160.269300610854 -339.816312296593 1821.07761908954 13 16 9
-134.844782695979 -340.87015795645 1796.74683456838 15 18 11
-160.07176005636 -340.031311117054 1789.45917724821 14 17 10
-196.276326775929 -338.795847151653 1783.78223577235 16 19 12
-194.544219863287 -338.926140193428 1773.11342713822 18 21 14
-208.047945924282 -338.574023601325 1754.16251211697 19 22 15
-231.265222850161 -337.802898239304 1747.13187194913 18 21 14
-163.470497105954 -340.518469265264 1695.20984842773 16 19 12
-149.040106107461 -341.173735412967 1671.83621699737 14 19 12
-168.234374325721 -348.997767466474 1969.2518477449 23 26 15
-115.525841316398 -351.098171068934 1954.14688369369 19 27 16
-158.040344086376 -349.610585873559 1936.79411160192 19 23 24
-168.300639919102 -349.288550752896 1927.24157624669 22 22 22
-225.524147574603 -347.156584267879 1922.36155238596 22 19 14
-161.839208234301 -349.682462145305 1905.57797585396 17 18 12
-182.0882323869 -348.97370031833 1897.15616515013 9 12 5
-72.0064785132832 -353.438375543979 1853.41561778592 7 10 3
-167.168537322254 -349.834092922322 1853.56849603491 10 13 6
-182.947045193714 -349.434321028836 1823.97871988168 24 27 20
-169.232716634027 -350.034600609692 1811.78608996021 7 10 3
-187.736822565121 -349.456130305815 1793.2055073723 12 15 8
-111.940036111677 -352.6709637249 1740.60239833402 17 20 13
-211.01866550447 -348.891861125689 1744.31181084964 17 20 13
-232.240006413865 -348.134143319274 1737.05854480154 18 21 14
-200.362311874083 -349.638382198147 1690.67155292631 16 19 12
-173.689816478585 -350.742893943404 1675.94416359816 11 14 7
-50.9830935648399 -364.29105397971 1959.43602302411 27 24 17
-44.535248202084 -364.709435922009 1937.20582272017 13 22 19
-182.736298770184 -359.087694698927 1939.18418135946 16 20 23
-117.041671276251 -361.870384202546 1922.44478677398 18 18 18
-106.31914393216 -362.386795698808 1910.74606261561 19 15 6
-183.532381172893 -359.272865993331 1907.87170060496 14 15 7
-133.10823591764 -361.50033944794 1881.57416024403 9 12 5
-133.377073465911 -361.56158837735 1871.00129316958 7 10 3
-139.639785309605 -361.374619388396 1861.10119268724 7 10 3
-171.872993999109 -360.11251697819 1854.21598588804 10 13 6
-166.146288030245 -360.420342185937 1843.04667864339 18 21 14
-211.357166741172 -358.618476989459 1837.97212923974 17 20 13
-179.662367345802 -360.001142046529 1823.68498478634 8 11 4
-241.627861404047 -357.706408844635 1790.08844372714 20 23 16
-171.538554217688 -360.821117175157 1749.20172522897 17 20 13
-215.72270590002 -359.051939963936 1745.11196518656 16 19 12
-269.66099315717 -357.071686161382 1712.02486552666 18 21 14
-198.07898862585 -360.119272479058 1690.43251406448 15 18 11
-38.8917050160615 -376.214549942297 1871.64595284417 11 14 7
-131.086293473864 -372.22505203722 1870.85765645457 10 13 6
-219.271884516913 -368.408514676694 1870.12718305131 10 13 6
-188.831274416473 -369.892722059805 1845.82110972514 23 26 19
-165.123787631458 -371.010002567357 1832.52168799084 31 34 27
-189.361079091805 -370.009883559864 1824.98870867287 29 32 25
-204.606366492609 -369.406033486859 1816.45815912242 27 30 23
-254.323937400344 -367.413093591365 1791.90292491178 23 26 19
-226.628446220344 -368.706525956058 1777.84674442999 22 25 18
-216.906875349387 -369.20475225807 1766.14553672366 16 19 12
-236.137247424101 -368.420438161742 1758.50913838319 15 18 11
-244.384642933448 -368.121968872957 1749.3860938541 12 15 8
-260.615968043677 -367.468929495132 1741.48807712546 14 17 10
-181.825270019024 -371.230551264962 1687.97649420312 16 19 12
-101.648021165151 -383.570599325251 1953.2303748461 16 16 4
-66.9299387650275 -385.267503761272 1939.42306226731 12 15 8
-173.162778884461 -380.382275814955 1938.49391558125 9 13 12
-12.5018944044801 -387.963058311926 1912.66720757869 9 14 10
-71.0217197453948 -385.379610847621 1896.71552523722 8 11 2
2.65595341760072 -388.90134772122 1878.3037336407 10 13 6
-132.523364686446 -382.650762356624 1881.72325889156 12 15 8
-138.787431874436 -382.43057354085 1871.80585575048 12 15 8
-139.055832838745 -382.490655905823 1861.25130445674 10 13 6
-246.223305222342 -377.541346410727 1862.96113403978 13 16 9
-158.840170953645 -381.778826396763 1831.87684106575 14 17 10
-168.096859336177 -381.415538929869 1822.48489329058 21 24 17
-161.638554828695 -381.859438467188 1800.64539855496 23 26 19
-235.067671018731 -378.548961515712 1789.43666121552 23 26 19
-255.299299671678 -377.666089721446 1781.88167277286 21 24 17
-272.533037189185 -376.923116133865 1774.01995768965 15 18 11
-195.918016495979 -380.594021202627 1752.9065826495 14 17 10
-239.108889431626 -378.62945164531 1748.73923233378 13 16 9
-238.372034801749 -378.731059292969 1738.3208035541 15 18 11
-219.668399844594 -379.678533076577 1725.19530231588 15 18 11
-220.718679417592 -379.894287119185 1683.91507815913 18 23 16
-104.082140141669 -394.014388815156 1964.21664653747 29 14 11
-130.617513195842 -392.85620055903 1945.25272383158 18 20 9
-37.915237229095 -397.515267820225 1926.05611293688 14 20 18
-76.1761410167399 -395.699811848165 1918.84946975108 15 21 19
-73.4502146805771 -395.910611212428 1907.82796362598 15 20 13
-133.692032595006 -393.004202685884 1903.14726541138 15 18 11
-124.966238923212 -393.510363053909 1891.64592764053 17 20 13
-150.219017560501 -392.333275715635 1883.71304363559 14 17 10
-87.8043860666118 -395.573520276289 1855.62256580437 9 12 5
-215.072989636766 -389.893215694607 1776.4983027789 19 22 15
-203.354050281333 -390.544765851322 1764.489548446 14 17 10
-153.963018940892 -393.14067532885 1736.51757623027 13 16 9
-201.150437273733 -390.858608458005 1732.94358814954 15 18 11
-291.029690460614 -386.643167633436 1705.55540466667 17 22 15
-49.7891739637195 -407.475215549941 1959.73071023015 33 16 9
-114.327706533472 -404.265199219114 1943.88748152548 20 20 10
-107.599431255877 -404.692592427562 1932.61710294113 16 22 20
-93.8742649917779 -405.485108632114 1920.64163917099 15 24 23
-186.172162484382 -401.034551142755 1877.19323144843 12 15 8
-236.757134870536 -399.088904730727 1779.57800066152 16 19 12
-173.10915748982 -402.498707221748 1760.39140774463 13 16 9
-192.346859306735 -401.557414069036 1752.63708970798 12 15 8
-228.555392935759 -399.72359596322 1747.44757426094 13 16 9
-153.208233328184 -403.819497816848 1715.44295370757 15 18 11
-317.441854598875 -395.31568339095 1719.95962223157 17 20 13
-98.4930847845344 -415.580307987151 1963.94100954404 40 23 13
-92.7645223287756 -415.972505880858 1952.75366734645 28 25 6
-87.0365451184707 -416.364496333984 1941.5343496746 24 24 12
-118.303514801149 -414.724720187524 1933.71046561549 17 23 23
-152.565727802963 -412.918779065917 1926.34364684004 15 23 25
-122.841799715907 -414.627490350376 1912.8849397745 19 25 23
-98.120555536112 -416.061984071591 1899.76723269404 18 20 15
-134.376058923057 -414.143679868443 1892.83269105961 18 20 15
-251.931415554778 -408.3852971763 1802.31000829012 20 23 16
-291.14498826574 -406.289457620629 1797.28830429376 18 21 14
-206.510709508014 -411.030767517342 1775.56205198555 16 19 12
-261.700333939789 -408.051182755813 1772.85768899644 12 15 8
-210.033590761297 -410.973861734807 1755.27056006935 11 14 7
-183.336666611364 -412.51786826995 1741.01671064545 10 13 6
-172.618940169734 -413.178973421191 1728.97498968482 12 15 8
-115.977203620571 -416.380304174149 1709.96918235174 18 21 14
-188.125425790823 -412.457555496878 1710.37146893716 19 22 15
-99.198698928475 -426.180395578621 1964.0990933919 38 26 12
-16.4650052912942 -431.025101060644 1946.20602086246 23 22 1
-148.74025943955 -423.481377479512 1947.1810876114 22 24 11
-161.273520679084 -422.911129978533 1927.27602521648 17 22 25
-173.537710345993 -422.279034208039 1917.96294469193 16 18 17
-164.806164616671 -422.857813614696 1906.5991197365 17 19 16
-90.3713641228303 -427.305311119611 1877.66698995453 12 14 9
-280.87583714415 -417.004374517979 1796.02785899267 18 21 14
-273.14364324223 -417.520760766898 1784.78105749797 18 21 14
-137.574729484378 -425.448444697617 1755.6793789025 17 20 13
-100.892524530229 -427.645998293954 1739.88289761341 16 19 12
-146.100038547267 -425.09398951922 1735.74529850327 15 18 11
-177.587731042883 -423.404674827805 1719.3573177509 16 19 12
-171.862869776359 -423.805327319763 1708.00691757168 13 16 9
-89.4455968628662 -437.562157463027 1941.95365650167 18 22 8
-167.716715960552 -432.913724786194 1938.48939977774 17 21 20
-164.983439510773 -433.154980762906 1927.73178437841 16 20 21
-154.251355408761 -433.87924162002 1916.17407400213 15 15 13
-128.524141235995 -435.510006470927 1903.04493165433 15 17 12
-75.8082634201935 -438.77324436518 1886.97846617981 10 12 7
-289.327269305077 -426.568300598353 1807.43971179039 17 20 13
-297.576779232917 -426.136431710075 1798.37726267767 18 21 14
-255.880962535149 -428.735267955008 1782.53977119035 19 22 15
-79.3515848477577 -439.521335397218 1747.68994751142 19 22 15
-188.751436031702 -433.018130369953 1742.04478203166 18 21 14
-259.916981751641 -428.762517452037 1742.10271060585 12 15 8
-221.233965390599 -431.181103811378 1726.04189383771 20 23 16
-25.8653848026071 -452.154512799905 1947.22908275467 18 21 4
-137.156851447173 -445.212200819973 1946.34083509113 12 18 6
-152.426390687753 -444.325938728234 1937.17499669261 15 17 14
-120.693639089741 -446.406451388769 1923.61253599355 16 17 12
-113.963694778575 -446.908604121661 1912.32711800341 17 14 7
-128.231700492725 -446.08394115534 1903.12105228255 10 11 5
-98.5070102379901 -448.03865080427 1889.4373240608 13 15 10
-243.088439988553 -439.618794784236 1801.49473376481 16 19 12
-280.830273246983 -437.432481563325 1775.87452590578 19 22 15
-228.151119122809 -440.843867132071 1758.20437699334 18 21 14
-221.421908719811 -441.339763204412 1746.89699324981 17 20 13
-217.689697592493 -441.645260813173 1735.9947411905 17 20 13
-211.960701355876 -442.077432811673 1724.77210674826 17 20 13
-218.215052278321 -441.748063418085 1715.3516786194 12 15 8
-133.864536634184 -455.956232415459 1946.14597918854 12 18 8
-110.129696892006 -457.5973724988 1933.36245049801 16 18 13
-84.3979459051516 -459.370525095957 1920.25773756558 17 18 12
-93.6701122076395 -458.837843220516 1910.44274172963 15 13 1
-79.9424634941568 -459.820289017208 1898.3603689129 6 7 1
-185.200888847076 -452.957620527213 1898.52046357807 15 17 12
-86.7576751869881 -459.60182139478 1866.89115637933 13 15 10
-226.817754945224 -450.937783979972 1799.47879757617 15 18 11
-268.043123184453 -448.281277223542 1794.65680484602 18 21 14
-304.267486825132 -445.953725475428 1789.37873086439 19 22 15
-246.584304520213 -449.839590666153 1771.22374443297 18 21 14
-196.900441865823 -453.197629881843 1753.88764296259 16 19 12
-177.188158679999 -454.572488485491 1740.61655389337 15 18 11
-202.686332942563 -453.021786264864 1723.50324242934 14 17 10
-93.8324549813672 -469.313819892479 1931.95768868007 14 16 2
-48.0968274890583 -472.530527095502 1916.90460326832 15 12 5
-76.373797315302 -470.669334695715 1908.85352568802 21 9 21
-198.647884504798 -462.353914684639 1910.42783842837 30 14 24
-105.917340857139 -468.796994894556 1890.42049072364 24 18 18
-133.453036978299 -467.058497590832 1872.09173026502 7 17 6
-349.18651950243 -452.72741731001 1825.62024943351 17 22 16
-201.551627694811 -462.962341503953 1796.28621358021 19 22 15
-209.80878233672 -462.464713204733 1786.98626516155 13 16 9
-279.010438137724 -457.767419144539 1786.04840975531 15 18 11
-249.297774235038 -459.884080935826 1771.72075829652 19 22 15
-161.649033428717 -465.99531605021 1749.00539497933 17 20 13
-148.929933250134 -466.942755029371 1736.65120109224 14 17 10
-169.174192125711 -465.61670716885 1729.08775291169 13 16 9
-170.970777381382 -465.70038923546 1697.88928790058 13 16 9
-61.9814195951243 -482.064336876349 1950.6790259567 18 20 15
-133.280874828504 -477.061692934992 1946.2960864479 15 22 4
-78.5332814054853 -481.045200211129 1930.64641165773 14 17 0
-102.811075499928 -479.392890604438 1922.2213963377 14 14 6
-182.094261126855 -473.8140063354 1919.31860756016 22 9 26
-204.36147441975 -472.301236695916 1911.10790402326 30 14 24
-57.8962063012267 -482.912823910179 1874.76465271217 9 10 5
-93.1659246728871 -480.471047644281 1867.81190655355 13 19 9
-315.930826320236 -465.054895320443 1821.46905755105 21 26 19
-188.273448654049 -474.263971298837 1794.66522573602 20 23 16
-211.52100675364 -472.670814186698 1787.33372678243 16 19 12
-267.738363341814 -468.71471252452 1784.62802614207 16 19 12
-271.993965647554 -468.47920453064 1774.99918836323 18 21 14
-157.896551488924 -476.866452093589 1727.550827678 16 19 12
-160.427771064421 -476.824561118428 1706.89262583765 15 18 11
-154.70216696244 -477.304691134292 1695.48592139738 16 19 12
-195.912729280731 -474.415776974213 1691.48281173048 23 26 19
-33.6698024686268 -494.882955843546 1948.31899931774 18 18 18
-17.9381775498695 -496.129495778359 1936.04974631803 14 20 6
-129.256228919095 -487.968225415927 1935.44062393885 14 22 0
-142.529028377802 -487.06415392037 1926.10776717438 17 21 6
-214.8138007426 -481.786847334559 1922.62761907886 21 21 23
-144.064961820587 -487.106501962324 1905.14085925091 16 18 15
-101.328755856956 -490.351984932674 1890.16290307609 14 17 8
-98.5994710504792 -490.632142473682 1879.19818613683 15 17 6
-12.8743868262693 -497.067903687329 1859.17685704136 21 19 7
-259.462204446146 -479.498024357175 1783.6174270398 16 19 12
-191.571449731423 -484.828807885226 1732.64053458046 15 18 11
-135.166465299324 -489.168530094142 1703.15931728804 16 19 12
-172.389305999356 -486.465653053683 1698.36845815785 16 19 12
15.6580392959338 -509.465868816051 1944.1334498589 18 16 17
-102.681816005408 -500.46562235876 1943.75519062208 12 18 8
-118.959692799452 -499.296268559309 1934.59215148685 11 20 0
-179.251912410578 -494.745492240125 1929.70717585537 13 20 2
-117.49828504463 -499.567459400377 1913.20152159425 15 20 16
-126.769918346774 -498.933830496624 1903.50642161424 7 19 9
-102.034823280419 -500.913150808532 1890.34506233055 11 19 4
-226.677093328012 -492.070591055653 1799.92858719293 23 24 16
-236.933161160906 -491.351574681956 1790.9675446129 22 25 18
-184.229792774882 -495.485718298943 1773.4770557972 19 22 15
-146.522612264442 -498.465040638 1757.7832802508 16 19 12
-187.757337985738 -495.356320792667 1753.08111629205 16 19 12
-187.022767992356 -495.483621502873 1742.53648398373 18 21 14
-230.770369141569 -492.315999965035 1717.90201102961 18 21 14
-20.0627122487234 -517.556277133683 1947.34295325366 21 19 22
-102.38782574599 -511.095532414624 1943.83176966641 17 20 13
-117.936060381683 -510.020433484899 1923.97630822547 14 23 4
-104.20032381497 -511.192817031941 1912.00609620299 13 20 12
-110.472573464498 -510.773229508184 1901.9736683067 5 19 6
-44.7265008981463 -516.084929889895 1884.52946826329 5 22 6
-63.2779368794649 -514.766676395986 1864.89338556569 20 12 0
-236.126270363595 -501.518342362257 1811.58734007684 8 6 0
-170.417409064783 -506.833227308826 1792.68537545052 19 20 12
-210.662492236137 -503.694202131272 1787.57692354403 17 20 13
-197.933283037961 -504.782035215088 1775.46708078542 14 17 10
-135.238888577142 -509.859495658871 1756.33804793619 12 15 8
-106.528363539569 -512.224804765662 1741.68452154483 13 16 9
-226.702744531658 -502.697362434311 1748.39835398848 15 18 11
-119.328187237997 -511.418139351701 1711.62444696782 19 22 15
-100.822536908705 -521.746555541268 1954.46426971195 21 19 20
-44.0551765851325 -526.495793569936 1938.70625105037 18 20 15
-139.386905235626 -518.738499442913 1936.68702802506 13 21 6
-136.653359294235 -519.043540806383 1925.86213266754 12 18 4
-107.908220428564 -521.488402900903 1912.47601671592 5 10 3
-2.41474556130017 -530.331897877745 1880.26745054955 7 19 5
-52.7049085805604 -526.271989078645 1874.66084692271 20 22 11
-101.987981717195 -522.292489718739 1869.22030534391 23 16 6
-165.130024336586 -517.693916603438 1792.11385658912 21 22 16
-179.390024191912 -516.590224366073 1783.52028770611 17 20 13
-198.645594002595 -515.073153928164 1775.68585187898 16 19 12
