ply
format ascii 1.0
comment KinectMotionCapture
element vertex 752
property float x
property float y
property float z
property uchar red
property uchar green
property uchar blue
end_header
-347.911693686 284.914569516693 2197.71404847075 140 144 145
-355.389755712005 285.43368714211 2189.72517323713 141 145 146
-360.422611243123 287.636193259708 2170.95173328816 147 151 150
-363.991812836107 290.904280914963 2145.303612033 128 132 131
-367.91750013512 294.010558102424 2120.6193569583 121 125 124
-375.675353029737 294.510776444227 2112.59561524898 84 89 85
-384.762301681899 294.092247044494 2110.45479259403 88 93 89
-394.91742135067 292.91058065636 2113.22183450244 108 113 109
-406.519345431189 290.663505301446 2122.86517944636 105 110 106
-418.062852456885 288.419554226279 2132.51580626569 129 133 134
-427.91416929253 287.394430994417 2134.31242135385 130 134 135
-436.944083638737 286.976969456935 2132.17895369965 134 138 139
-445.980310218798 286.558568294198 2130.04470079046 136 140 141
-455.807387569461 285.53343647965 2131.84434084565 138 142 143
-465.81256402894 284.357378165952 2134.62983974272 138 142 143
-475.606219317336 283.333240806939 2136.43364805482 136 140 141
-485.196469947502 282.460504830273 2137.25451398867 141 145 146
-494.776751792066 281.587809204429 2138.07686413051 145 149 150
-504.164376014839 280.865890035221 2137.9149323732 154 158 159
-513.007641216086 280.595062185692 2134.79668417604 157 161 162
-522.216888917654 280.022235800436 2133.6489330253 163 167 168
-530.9032495711 279.8993692318 2129.5419485704 167 171 172
-538.403991504072 280.824493709981 2118.52587225057 172 176 177
-545.113977646998 282.494726405176 2102.56759933402 174 178 179
-552.737677146931 283.411062225567 2091.53620178137 171 175 176
-561.39812242784 283.426679957799 2086.42439962008 168 172 173
-567.344128809367 285.978223425666 2064.51254283397 171 175 176
-573.879149401754 288.074641345932 2045.55192094555 175 179 180
-580.35645324563 290.313239214729 2025.59019997335 171 175 176
-590.299954971111 289.271732170467 2027.37535407844 163 167 168
-599.026437515033 289.419498515393 2021.24727575028 153 157 158
-608.517595540635 288.822680883093 2020.06440703782 152 156 157
-617.285401758937 288.966558002865 2013.9309417328 156 162 162
-625.654525866424 289.552484875779 2004.82300418136 163 169 169
-632.534570261381 291.762081417231 1984.81109994333 171 175 176
-638.151459124259 295.442153288908 1954.87536581542 168 172 173
-644.86297256167 298.078597630499 1931.86006759274 168 172 173
-648.28224426408 304.53934130338 1883.0440040847 167 171 170
-652.603995332209 310.246960989482 1839.15597557215 139 143 142
-659.926221748795 312.703724401605 1817.07262426169 124 126 125
-668.839394013903 313.389735350557 1806.88884205051 138 140 139
-677.921694753489 313.925329055171 1797.6917965535 148 150 149
-687.635763853212 313.724808232891 1793.45676465997 158 160 159
-271.447692174269 282.185098973772 2194.16259842095 248 254 252
-282.052844215825 280.718983051368 2198.88960223391 160 166 164
-295.350439806725 277.58352959136 2214.3702800368 166 172 168
-305.863769620572 276.122277855692 2219.10872991127 161 168 161
-315.619440453802 275.11719295502 2220.91722828484 158 163 156
-322.965102155528 275.626739000026 2212.94490103537 155 160 153
-330.349706459057 276.133535427927 2204.96772122044 155 159 158
-338.007457353818 276.486366257242 2197.96454688687 123 127 128
-345.930127693095 276.685877552709 2191.93664330128 155 159 160
-353.652270038578 277.033979194029 2184.92544574948 162 166 167
-358.921824925119 279.035988857891 2167.13068221876 128 132 131
-362.274574983635 282.385540762467 2140.50167120407 136 140 139
-366.430626260894 285.275271632116 2116.796925432 143 147 146
-374.852187200552 285.305269053351 2111.71465648709 94 99 95
-384.587746106449 284.433849437457 2112.51762560934 105 110 106
-396.013658539591 282.364502307123 2121.17478062714 100 105 101
-406.547358663231 280.896338979736 2125.9107066088 112 117 113
-417.049702932413 279.429516256127 2130.6505420853 131 135 136
-426.498539445766 278.710565564797 2130.48096357863 133 137 138
-436.144649551456 277.842156852206 2131.29508745321 137 141 142
-445.780901578397 276.973895874384 2132.11020089995 137 141 142
-455.799882304594 275.808215782906 2134.89394977547 137 141 142
-465.604512920391 274.791859783845 2136.69636793966 137 141 142
-475.202972689704 273.924366533339 2137.51643588369 142 146 147
-484.038652915073 273.649988138442 2134.39890332818 151 155 156
-493.813356911767 272.633896276492 2136.20505546191 151 155 156
-503.207143288038 271.914095378701 2136.04258939463 148 152 153
-512.236036611041 271.4895297193 2133.9090275978 153 157 158
-521.09376158816 271.211569591065 2130.78899368871 169 173 174
-529.08959890296 271.669453361951 2122.73566441729 171 175 176
-536.436085096551 272.713285669102 2110.730598322 173 177 178
-543.842751439538 273.752808881691 2098.71827371644 174 178 179
-552.308822375914 273.906651330893 2092.62243694742 172 176 177
-560.474877139816 274.351660718794 2084.54789944889 167 171 172
-566.745584809541 276.552476919632 2064.61205995453 173 177 178
-573.278059243265 278.599786236216 2045.65188513741 175 179 180
-580.064172864163 280.494163660141 2027.66814748813 171 175 176
-589.544263318615 279.899126095104 2026.48665525538 163 167 168
-598.724119943724 279.595326553062 2023.32624899947 152 156 157
-608.210459706517 278.998815871756 2022.14398076939 152 156 157
-617.407379001837 278.692677677543 2018.98169162061 155 161 161
-625.477758870012 279.548247688809 2007.89471102334 162 168 168
-631.789040583594 282.287479405517 1983.92140156857 171 175 176
-636.30990739993 287.048720945384 1946.05737969885 168 172 173
-643.310821574352 289.333939646816 1925.02250538046 168 172 173
-647.398369689031 294.939662797199 1881.1639723528 169 173 172
-652.619571715663 299.518263681832 1844.22096113378 126 130 129
-659.925365913573 301.918683397736 1822.14004911492 122 124 123
-669.070631538295 302.292771160259 1813.94349865958 154 156 155
-677.892175263274 303.095709947262 1802.76291585627 139 141 140
-687.59285817449 302.88785996168 1798.52957378102 189 191 190
-271.10270523775 272.867444151935 2195.23811583035 247 255 255
-282.207465111321 271.118796840318 2201.91888977227 158 166 168
-295.500304415519 268.0296324711 2217.40003923095 171 177 177
-305.271748467179 267.031814249512 2219.20655006357 156 160 159
-314.785914228394 266.183456976429 2220.03708700755 139 141 138
-321.893714609298 266.822173114319 2211.08617591292 130 132 129
-329.519932069812 267.160681288687 2204.08721475246 115 117 116
-336.945341982582 267.645197198847 2196.10476104495 114 118 119
-344.409775625884 268.12684138304 2188.1176852379 116 120 121
-351.913207187921 268.605672703928 2180.12575012872 152 156 155
-356.062740256791 271.299681341063 2157.43002031624 150 154 153
-360.555732295466 273.83823369105 2135.69976561037 144 148 147
-364.721622746524 276.664360697135 2111.99395946609 149 153 152
-374.02885267097 276.092787417053 2110.83397741318 98 102 101
-383.552521555429 275.373548638611 2110.65506102767 114 118 117
-395.836789000346 272.742622927938 2123.23780624199 117 122 118
-406.576587697089 271.143906308149 2128.95604324582 118 123 119
-416.86497829541 269.840354910581 2132.7142215394 131 135 136
-425.695418672364 269.56368505153 2129.59758918922 133 137 138
-433.93190361353 269.724927061045 2123.53038390863 138 142 143
-443.789783966905 268.714286382398 2125.32614176929 137 141 142
-454.221837154168 267.265916597119 2130.07470056209 137 141 142
-465.009838478928 265.527355572566 2136.79497753637 138 142 143
-474.418075684614 264.810725044171 2136.63069974195 141 145 146
-484.010040353635 263.948361118131 2137.45132445946 148 152 153
-494.149050211774 262.649939053822 2141.2283713471 150 154 155
-503.529947031023 261.933465122978 2141.06726479014 154 158 159
-511.824707048617 262.086936070477 2134.99304785808 160 164 165
-520.502338019773 261.948351335318 2130.88719420916 166 170 171
-527.972946731745 262.82104827768 2119.87501640321 168 172 173
-535.670466527729 263.545323003992 2109.84259939827 171 175 176
-543.756212335351 263.977173542504 2101.77811863607 173 177 178
-552.213881026187 264.11769571437 2095.6833654961 172 176 177
-560.207141421453 264.688001310611 2086.62237465193 169 173 174
-566.631014628392 266.69352319698 2067.67562240284 172 176 177
-573.31146660518 268.548586063845 2049.70517423556 176 180 181
-579.928492359699 270.540760389883 2030.73459310951 173 177 178
-588.941446446219 270.376185177833 2026.58696156319 165 169 170
-597.971024416305 270.209953707068 2022.43725981619 154 158 159
-607.31288721754 269.756016493169 2020.26495889642 153 157 158
-616.080162687023 269.872514938447 2014.13163192648 156 162 162
-624.162965061165 270.699940800737 2003.04317519052 163 169 169
-630.065403454809 273.80315324466 1976.09662687141 173 177 178
-635.150086236648 277.893057874194 1942.19524097455 172 176 177
-641.621977598611 280.691703711126 1917.19404482201 170 174 175
-645.987543352104 285.89508502328 1875.31725058594 161 165 164
-651.477181889246 290.091247214531 1840.3573616812 137 141 140
-659.421542657322 291.725614051687 1823.23745346225 139 141 140
-668.440117639469 292.222150533883 1814.04870368757 152 154 153
-676.898422645922 293.421818922019 1799.88910459229 164 166 165
-269.23817092656 264.43470869801 2190.45408996961 236 246 255
-281.862093270929 261.826784855652 2202.99414741716 167 176 185
-294.659758976624 259.076486027771 2216.52082502677 161 168 178
-304.434734917335 258.086355995053 2218.32687485395 158 161 168
-312.982026621566 257.827482938893 2215.24529064818 146 146 154
-320.82194788079 258.00536097808 2209.22777062898 142 141 146
-327.978444319081 258.618608936635 2200.27084962383 155 156 158
-335.882786543653 258.791755907576 2194.2453027081 173 177 176
-341.729481429647 260.27205720361 2179.40319098121 163 167 166
-347.652875540144 261.747320509469 2164.55128064316 151 155 154
-352.068513471812 264.233407733288 2142.83081743758 136 140 139
-356.822407612329 266.567084971552 2122.07623032134 144 148 147
-363.232095700121 267.879912718327 2108.17198850506 160 164 163
-373.205329197674 266.873479626542 2109.95333989476 98 102 101
-383.594560456051 265.578524231516 2113.69891123286 109 113 112
-395.44788984299 263.274486056313 2124.31895965733 129 133 132
-405.556196595038 262.127093844499 2127.09151301243 131 135 134
-415.021511718066 261.412468368458 2126.91986668239 128 132 133
-424.073010938605 260.985240782587 2124.78373108203 132 136 137
-432.524672626683 260.988090491053 2119.69801750295 139 143 144
-442.39440985 259.984637513309 2121.49227676779 139 143 144
-453.035423776632 258.40836890334 2127.22278241088 140 144 145
-464.027379667848 256.547635338331 2134.925856165 141 145 146
-474.397913553682 255.118204816984 2139.68204232704 147 151 152
-483.605582866509 254.547151205534 2138.53448348134 149 153 154
-494.114892420269 252.976973615616 2144.28140901106 149 153 154
-503.122060954687 252.548536397017 2142.15056853503 149 153 154
-511.955055868664 252.261282276749 2139.03364526701 159 163 164
-519.733213538163 252.825819212616 2129.99927289416 163 167 168
-527.0303485268 253.81292648093 2118.00075518961 167 171 172
-534.215312866012 254.937620227843 2105.00794602292 172 176 177
-542.144313681775 255.491027177533 2095.95501889636 172 176 177
-550.617861476015 255.616771794064 2089.85832305433 170 174 175
-558.462339248484 256.305409193128 2079.80790068111 169 173 174
-565.548574233572 257.696051894372 2064.81109752191 169 173 174
-572.552345059994 259.222393608033 2048.81678121422 175 179 180
-580.106008632678 260.320553265868 2035.77803043951 173 177 178
-588.491976002598 260.71094186788 2027.67619298975 165 169 170
-597.368281180068 260.677034492646 2022.53758321214 152 156 157
-605.97069195808 260.921728145275 2015.41680568531 151 155 156
-614.605974421656 261.163730460947 2008.291933054 154 160 160
-623.131543291988 261.543045786141 2000.1727033234 160 166 166
-629.877311650735 263.736272266964 1979.16991195263 172 176 177
-635.085950823985 267.597298251161 1946.26134687291 170 174 175
-640.468076752553 271.446677415305 1913.33140261199 169 173 174
-644.179473437779 277.234176500038 1866.49603079517 159 163 162
-649.68825698425 281.336129087101 1831.53376053535 131 135 134
-657.654877132359 282.925480673656 1814.41119302343 141 143 142
-667.067903425927 282.982449153913 1808.19767720706 153 155 154
-676.266258251681 283.314215960289 1799.99461298402 150 152 151
-685.029759437526 284.196527704314 1787.81313715366 184 186 185
-249.53375513578 261.433586271878 2153.6183078637 235 244 253
-268.893328426713 255.108919952695 2191.52937050583 214 224 234
-282.520647781807 251.963054589047 2207.97685551856 155 164 173
-294.067092631942 249.972835058398 2216.61876042358 144 151 161
-301.634187202444 250.282737768103 2209.627012513 169 172 179
-310.448546597934 249.873155543291 2207.52042409242 172 173 178
-317.82940608951 250.32231973292 2199.54386338033 173 172 177
-327.147871998345 249.623947307849 2199.39050016222 178 179 181
-335.288989346078 249.640070754168 2194.34350572499 158 162 161
-342.061343503216 250.51099568132 2183.41847062598 123 127 126
-347.284228090766 252.376258442328 2165.62989139077 106 110 109
-349.20197412177 256.371951994971 2133.13165567739 113 117 116
-353.532049701736 258.933879931807 2110.4137430567 111 115 114
-360.193422340575 260.066968102649 2097.48649320111 150 154 153
-371.071078707848 258.498796221625 2103.18744594418 92 96 95
-381.480477318887 257.215993543741 2106.93046851215 122 126 125
-393.781350083922 254.659794936943 2119.51070442078 122 126 125
-404.114648491975 253.380708060993 2123.26345432749 122 126 125
-413.383799915958 252.809111990054 2122.10822430635 127 131 132
-422.449072082729 252.377991017752 2119.97038017682 131 135 136
-430.914003688083 252.368884524681 2114.882801808 139 143 144
-440.598663926145 251.513278967523 2115.69208113732 139 143 144
-451.651311454709 249.673523428856 2123.38752568902 141 145 146
-462.850247411271 247.69588665845 2132.07276451326 143 147 148
-473.613210900889 246.001502610767 2138.79604972284 142 146 147
-483.012785454902 245.289932968517 2138.63283964847 148 152 153
-492.965784828168 244.158347225131 2141.4247328205 148 152 153
-502.348057865083 243.446832146568 2141.26344146075 148 152 153
-511.906307341628 242.595487321228 2142.08848488528 154 158 159
-519.853406836168 242.999112805338 2134.04138069296 165 169 170
-526.787905513292 244.23523837721 2120.07184761023 172 176 177
-533.620914968031 245.605612321919 2105.10669887722 179 183 184
-541.88865462094 245.859206733918 2098.02790315716 171 175 176
-549.521118310529 246.665274557974 2086.99570227229 165 169 170
-557.70136766951 247.051655666008 2078.91930749896 165 169 170
-564.303472468582 248.819110438681 2060.95886730907 171 175 176
-571.951859382768 249.750814571062 2048.91666134298 179 183 184
-579.660302809872 250.678125398057 2036.86697224873 177 181 182
-587.73579786891 251.325317485156 2026.78758915992 168 172 173
-596.312987804916 251.555701885938 2019.66999672798 150 154 155
-604.923075228793 251.783333583818 2012.54830613318 147 151 152
-613.42059803012 252.145802280594 2004.43262075118 152 158 158
-622.38453092621 252.093591689808 1999.28312375319 158 164 164
-629.550215958665 253.821082057948 1981.25245732687 171 175 176
-635.709717291774 256.637127897143 1955.28227241388 170 174 175
-639.447360153993 262.041462349756 1910.46024874488 168 172 173
-642.763928304306 268.112857712546 1860.65010000095 154 158 157
-647.121082131819 273.348566719873 1816.7588961933 104 108 107
-655.252669698272 274.755518665323 1800.623909164 106 108 107
-664.579562172174 274.932469103359 1793.41289900396 151 153 152
-674.181167875721 274.835036486096 1788.18394330009 156 158 157
-683.449378057049 275.142585059763 1779.97222531951 158 160 159
-248.159215778652 252.569509403128 2150.7898839169 245 253 255
-267.788012213778 246.211290986139 2189.67536482745 173 181 184
-281.173169439634 243.254830782569 2205.14464408358 145 155 156
-291.488438056027 241.995943887153 2208.89959080577 137 146 145
-299.567526635497 242.006221978601 2203.8601123169 127 133 131
-307.669523959322 242.01465496119 2198.81802007993 115 120 116
-315.554176867979 242.161942379279 2192.79499837464 117 119 116
-324.892068033202 241.46478106377 2192.63920780997 149 153 152
-333.051788174334 241.468461772144 2187.5899246216 160 164 163
-340.770047816944 241.750548991625 2180.5793854548 172 176 175
-346.227818140327 243.428987774514 2163.76967296087 152 156 155
-347.919036560976 247.47668749545 2130.29188249946 136 140 139
-350.685672036747 250.954860670136 2100.71237483677 143 147 146
-357.593693520112 251.913932422962 2088.76249002779 135 139 138
-369.15310579268 249.945372198459 2097.40271963614 98 102 101
-380.659642335604 247.9794637951 2106.04954083948 114 118 117
-392.966067428649 245.460954509601 2118.62898459692 125 129 128
-402.461321687288 244.749826597188 2118.45359282905 123 127 126
-411.121038936843 244.592707110452 2114.35026378602 128 132 133
-420.618419736886 243.880518031167 2114.1746094329 135 139 140
-430.313707438343 243.029966270163 2114.98230893988 136 140 141
-440.798009323663 241.627299862776 2119.72422704584 138 142 143
-451.64490640092 239.950265700776 2126.43723241833 135 139 140
-462.44936125155 238.275455070778 2133.15528820545 140 144 145
-473.403071771318 236.465204459095 2140.86300181076 141 145 146
-482.420157154595 236.031151181142 2138.73117882906 146 150 151
-491.815784899539 235.321861023931 2138.56821502144 146 150 151
-501.023363260507 234.749350012925 2137.42067136401 148 152 153
-511.13553916269 233.491961985325 2141.2007186403 153 157 158
-518.906612930351 234.012788149119 2132.16758567603 172 176 177
-525.669407231789 235.349654391704 2117.21152788912 173 177 178
-531.990676060613 237.090297966607 2099.28620497437 173 177 178
-540.444030934125 237.190185251708 2093.19209718382 171 175 176
-548.590574757939 237.559963331303 2085.12019265424 170 174 175
-556.117447922523 238.470174573842 2073.09320748647 167 171 172
-563.380730486403 239.647460994137 2059.08279906924 171 175 176
-570.396613078483 241.090821017298 2043.08694954539 173 177 178
-578.745630126064 241.445610113743 2034.98981702745 172 176 177
-586.825553951221 242.067854797625 2024.90994695291 166 170 171
-595.709723648166 242.011349196232 2019.77041524138 154 158 159
-604.022744778165 242.492305066403 2010.66975544725 154 158 159
-612.816229938873 242.565835907985 2004.53327081644 152 158 158
-622.208736160741 242.099116866772 2002.35468355767 157 163 163
-629.644313508813 243.512126732563 1986.30653853554 174 178 179
-635.924077641718 246.126765052957 1961.32980330258 177 181 182
-638.425581463815 252.618278843481 1907.58927473977 175 179 180
-639.629421816589 260.696911135273 1841.91330103287 150 154 153
-646.2303867034 263.540354790534 1814.88026482892 86 90 89
-653.478872529213 265.840396616342 1791.79884153077 91 93 92
-662.457911015991 266.399303237303 1781.60717432925 134 136 135
-671.970676754543 266.421965252615 1775.38106169591 122 124 123
-681.866178979127 266.043373330412 1772.13178433186 117 119 118
-253.967749870523 239.80106965904 2175.29273803826 246 255 251
-268.20546884499 236.469501586858 2193.679912025 175 186 180
-281.080856712009 233.836443016558 2207.19658162032 140 149 146
-290.646465454545 233.006156710154 2208.02041092637 135 144 143
-299.219443120962 232.728688712072 2204.93591050224 130 135 138
-307.075289978706 232.864042771733 2198.91627477914 119 124 128
-313.757498489928 233.686452882254 2188.00261708585 107 110 115
-322.634094233339 233.266097514966 2185.88829030767 116 120 119
-330.812337904792 233.257489840387 2180.83672785325 160 165 161
-339.942515336076 232.697763181115 2179.69880970712 161 166 162
-345.859729603205 234.057857736471 2164.84797386979 153 157 156
-344.820222258365 239.659661012544 2119.61390317911 137 141 140
-346.939290218555 243.467364012983 2087.09103874559 121 125 124
-354.990971649416 243.710562443113 2080.03899292303 137 141 140
-368.108444989776 240.811736469016 2095.54152576785 106 110 109
-379.838647923234 238.736106011995 2105.16865104401 129 133 132
-391.937251490908 236.391289620359 2116.76588518694 127 131 132
-401.227885850809 235.818265240912 2115.6079779838 123 127 128
-410.103539549708 235.516346568874 2112.48552950145 127 131 132
-419.196427775157 235.077613520295 2110.3442590972 135 139 140
-429.916260587108 233.55401533267 2116.06478990369 136 140 141
-440.998941571135 231.761525211944 2123.75612171716 137 141 142
-452.033983917056 229.971564811134 2131.45363215785 134 138 139
-461.854484722843 228.993942908825 2133.25396781129 141 145 146
-472.426728816246 227.477596970717 2138.99289771878 140 144 145
-481.449505706519 227.040254723683 2136.86037313203 150 154 155
-491.223929915886 226.064075110211 2138.66645507409 152 156 157
-500.431997032386 225.491323935 2137.51885105531 152 156 157
-510.726519081959 224.113080225065 2142.2843882465 156 160 161
-519.206876536471 224.076235474742 2137.19495787063 166 170 171
-525.252101633916 225.910888965095 2118.29614891164 170 174 175
-531.913889683037 227.337987417963 2102.34453111763 173 177 178
-539.508138620421 228.091993240639 2091.31723631134 170 174 175
-548.161672420839 228.042207556895 2086.20646889953 166 170 171
-555.684455410275 228.922489798886 2074.1800729784 165 169 170
-563.105313531454 229.931464141881 2061.15813040525 167 171 172
-569.954465455829 231.466946597289 2044.17515818368 175 179 180
-577.517137287601 232.465873819617 2031.13578482532 177 181 182
-585.299087468855 233.327732009994 2019.07685462117 174 178 179
-594.350511948546 233.126962974486 2014.92451751237 154 158 159
-603.567138386117 232.792365863637 2011.75984397429 146 150 151
-612.503405943554 232.720387863401 2006.61385150379 152 158 158
-621.461667226949 232.646498594069 2001.46487911082 159 165 165
-628.196162412846 234.676416239702 1980.46392463339 172 176 177
-632.836807545823 238.801981343122 1943.59455653609 172 176 177
-634.568876243894 245.933786204269 1883.90175961752 170 174 175
-636.885088249052 252.782574004913 1826.15242484813 145 149 148
-644.043640386659 255.02883195825 1803.0823663805 95 99 98
-652.209258083392 256.351530339737 1786.94359473963 86 88 87
-660.580311756183 257.537984309601 1771.78723179647 90 92 91
-670.484138023608 257.154081818827 1768.53668935754 94 96 95
-680.636249512422 256.508349327548 1767.27146637593 90 92 91
-256.961206176874 228.664179559576 2189.0570814417 232 251 255
-268.116577138803 227.01998964766 2195.7315046029 143 158 161
-279.481389994328 225.242313591003 2203.38758901445 140 147 153
-288.561149754321 224.687590492526 2202.25594951892 131 136 142
-298.871997581055 223.455203269179 2206.01137814358 109 111 123
-307.211131444263 223.306231369705 2201.94779428678 124 123 137
-312.921570276602 224.642055396368 2187.12306698559 133 133 145
-319.184559274903 225.702785020086 2174.24548333803 140 144 147
-326.454217527999 226.220079247772 2165.27493336687 114 119 115
-335.395489474469 225.791958077534 2163.15231556314 91 96 92
-341.816042040999 226.841935835221 2150.25533749717 107 112 108
-340.582418735407 232.45291757139 2104.0375397927 94 98 97
-343.861290936409 235.500034485252 2076.41085765146 141 145 144
-354.158728001222 234.38523592573 2079.15972282743 143 147 146
-368.158058079564 230.997058718889 2098.5844825154 124 128 127
-380.098741947744 228.817888829734 2109.19330078085 145 149 148
-390.907910634932 227.309412618123 2114.90264317508 124 128 129
-400.626093301563 226.469140231099 2115.70769872414 122 126 127
-409.918216018043 225.895274507392 2114.54960799854 133 137 138
-419.622233142647 225.054976348829 2115.35619112263 139 143 144
-430.127519626249 223.683730724539 2120.09540772927 136 140 141
-441.201438588065 221.916078369952 2127.78800785068 135 139 140
-451.833005525791 220.415870577298 2133.51949211868 134 138 139
-461.25979029856 219.711075396451 2133.35262826083 141 145 146
-471.641776745228 218.345504832161 2138.10721703807 143 147 148
-480.667559311468 217.905044718898 2135.97432557152 150 154 155
-490.445651938027 216.93660431886 2137.77992933586 151 155 156
-499.28924703344 216.626664774467 2134.66150270038 152 156 157
-509.050040008553 215.658311184248 2136.46926513033 156 160 161
-517.546484190014 215.609305932125 2131.37809951902 164 168 169
-524.659546443345 216.607221292738 2118.39459717395 169 173 174
-532.18427247379 217.338572109421 2107.37603807658 175 179 180
-539.252873650938 218.458415747568 2093.39007601899 171 175 176
-547.398046758993 218.789611030146 2085.31844415306 167 171 172
-554.92215365112 219.639589502661 2073.29196282059 168 172 173
-563.155047564682 219.964298129695 2065.20916073037 169 173 174
-569.35324225591 221.977139553919 2044.27517835372 173 177 178
-576.757569535932 223.073176763671 2030.24738235666 173 177 178
-584.386861474045 224.034475197404 2017.19979429696 171 175 176
-594.200506816805 223.17715976385 2017.99274128192 156 160 161
-603.557853802366 222.708052097882 2015.81854797834 148 152 153
-612.920992849477 222.238097666813 2013.64363408964 149 155 155
-621.287218884295 222.670631042344 2004.53622188811 159 165 165
-627.448619616319 225.162077911882 1979.57458212813 172 176 177
-630.570326844575 230.605349424914 1931.80601948219 173 177 178
-629.217693079122 240.531133839285 1849.31233220919 172 176 177
-635.326928413672 243.624214999408 1819.31670197148 115 119 118
-643.798276394171 244.527238656584 1806.16394349168 89 93 92
-652.588765273586 245.169442702713 1794.98765943873 92 94 93
-661.184961530837 246.063350729248 1781.81958490651 126 128 127
-670.332493418918 246.441810439882 1772.6148127546 156 158 157
-679.880034149574 246.434279745432 1766.384680188 180 182 181
-256.363116332262 219.46934983866 2189.15593377524 183 205 229
-267.774379935272 217.713322649883 2196.80640466533 132 149 165
-277.880779908108 216.625117158979 2199.57904010908 133 140 150
-286.971670210749 216.069266925707 2198.44601455591 129 134 140
-296.802244701212 215.114892148766 2200.24503185258 122 122 130
-304.913948558326 215.08893386976 2195.20181886581 118 118 126
-312.326338484525 215.458360956532 2187.2215333267 131 131 139
-318.111428854846 216.75063968791 2172.38760462989 134 138 139
-325.856112617123 216.981324814267 2165.37390325476 141 146 142
-333.401769995803 217.34145574985 2157.37701120654 96 101 97
-340.296642914507 218.093999889768 2146.436998242 83 88 84
-339.06608679016 223.578921708732 2100.21914974575 96 100 99
-341.453281063891 227.077193592617 2068.67132670748 151 155 154
-352.438892386575 225.577961684395 2074.35862575937 142 146 145
-367.551574394151 221.590331895992 2098.68494037412 152 156 157
-378.845432173349 219.83614038486 2106.35005798274 145 149 150
-389.664360854109 218.345884757295 2112.0581344042 118 122 123
-399.602471811755 217.37967248715 2113.84376295914 128 132 133
-411.40036102273 215.240416088409 2124.47029604286 138 142 143
-421.489420341419 214.146417383495 2127.24511075396 141 145 146
-431.557854320584 213.053344436835 2130.02249694754 133 137 138
-441.005011041834 212.350685472001 2129.85308516531 135 139 140
-451.040321826812 211.258650167345 2132.63484247384 139 143 144
-460.470394779804 210.556213564812 2132.46756205931 146 150 151
-470.472379461544 209.465283543046 2135.25323508905 145 149 150
-479.88532799469 208.762892725977 2135.0880915803 148 152 153
-489.667148067695 207.802187778872 2136.89320981032 147 151 152
-499.065600848421 207.099707651048 2136.73011578971 148 152 153
-508.459377223546 206.39707501677 2136.56736548975 154 158 159
-516.776980734107 206.465506990726 2130.49028150319 168 172 173
-523.891220079011 207.43029363433 2117.50695977608 171 175 176
-531.417402075443 208.134169072478 2106.4882913382 174 178 179
-538.657426905468 209.090133705268 2093.4890552899 170 174 175
-546.969634189091 209.274242803542 2086.40465299077 165 169 170
-554.489638004917 210.094322958483 2074.37876243413 164 168 169
-562.719189325608 210.399897041467 2066.29666813861 163 167 168
-569.07137749355 212.230948344364 2046.35163412248 174 178 179
-575.840826431829 213.80060284552 2028.37083127332 174 178 179
-583.62817855955 214.601827347832 2016.31138661485 172 176 177
-593.293928257757 213.876346653024 2016.11499609035 159 163 164
-603.252331629212 212.897345117646 2017.89812595209 149 153 154
-612.610382002411 212.424905417388 2015.72361337594 151 157 157
-620.826999294598 212.962179207277 2005.6271488014 158 164 164
-626.559979587258 215.766952889949 1977.69460641239 172 176 177
-628.713661819337 221.963808482641 1922.9905728014 173 177 178
-629.401258241916 229.77742392062 1855.36434700105 173 177 178
-634.429208709118 233.797817232794 1817.43899508699 97 101 100
-641.865553874229 235.671611256942 1796.35086502745 88 92 91
-651.063488612827 235.908864594958 1788.14810212666 115 117 116
-659.801624560501 236.643758023376 1775.97042021769 169 171 170
-669.695131200798 236.249434485417 1772.72119305067 176 178 177
-677.456780196703 238.100295067392 1751.59252739063 175 177 176
-254.479860126301 210.92654713662 2184.3747744232 150 175 241
-265.143321664504 209.585208861235 2189.09417295821 135 154 196
-275.020593451988 208.636486551352 2190.88710755397 131 138 148
-284.136021362441 208.07877452067 2189.75102475539 133 137 140
-293.991728736379 207.130652103085 2191.54688915142 136 137 131
-303.345397577602 206.442730518919 2191.3893455623 128 129 121
-311.249444011747 206.532790399011 2185.36381409763 132 133 127
-316.799692793655 207.91573756655 2169.55126637239 137 139 134
-323.374143536207 208.775985718654 2157.6430291995 132 137 133
-330.474934137317 209.373713522685 2147.68565399582 122 127 123
-338.08571717764 209.710014613609 2139.68045713635 95 100 96
-340.732456275723 212.878046594636 2110.11696884731 74 78 77
-340.615735702871 217.708697207719 2067.79283192061 143 147 146
-352.493695954187 215.713981073399 2077.4010646033 143 147 146
-366.28732987737 212.567265494722 2095.84317097657 159 163 164
-376.941488572508 211.221204588723 2100.56374288828 134 138 139
-388.206067758187 209.492617863456 2108.23244686298 120 124 125
-398.789532986015 208.150015398697 2112.96183179379 134 138 139
-411.843634567127 205.276895924696 2129.47989246056 136 140 141
-422.126182063928 204.066796306732 2133.23879410546 138 142 143
-431.570244565332 203.367260848882 2133.06976023793 132 136 137
-440.007879247934 203.303458358673 2127.98597267241 136 140 141
-449.65430569373 202.475727663529 2128.79970967677 136 140 141
-459.290842708973 201.648121847123 2129.61492076347 141 145 146
-470.071207937878 200.06069651564 2136.3357526669 142 146 147
-479.861252909519 199.107858563297 2138.13982376074 147 151 152
-489.449117897352 198.281890240674 2138.96110451643 147 151 152
-498.842740470307 197.58225351409 2138.79836552046 149 153 154
-507.505890546092 197.386362157639 2134.69446991662 154 158 159
-515.292279838978 197.818092539916 2125.65966029591 169 173 174
-522.242330476902 198.874896896584 2111.68865865646 171 175 176
-529.783504516015 199.550255463848 2100.66819439844 173 177 178
-537.208847324055 200.347042471887 2088.65417831761 170 174 175
-545.366071529337 200.638916851424 2080.58090582745 168 172 173
-553.561845374963 200.927919846163 2072.50307040051 166 170 171
-561.145996648635 201.713246094155 2060.46926614354 163 167 168
-567.671464504824 203.366713352853 2041.51076260618 176 180 181
-575.394734459735 204.142251248417 2029.45962293752 173 177 178
-583.641266264407 204.540547080502 2020.36747830038 171 175 176
-592.993433302302 204.066660655605 2018.19370373959 163 167 168
-601.904508662962 203.963738948117 2013.05093659546 155 159 160
-610.837622031011 203.85890565444 2007.90542427239 150 156 156
-619.218422459972 204.246614746116 1998.79631131579 155 161 161
-626.375034422427 205.742065182095 1980.76738822386 170 174 175
-630.446190014625 210.066540404137 1939.93757657023 172 176 177
-629.586807354759 219.05478995451 1861.41579210152 171 175 176
-633.398031017728 224.081817366341 1814.56996514313 125 129 128
-640.709621702374 226.023320820715 1792.48953829665 117 121 120
-649.281085479504 226.853764476941 1779.32447709415 124 126 125
-658.914680797739 226.700155770352 1774.09167721322 103 105 104
-669.179633360989 225.933277415614 1773.82061873289 110 112 111
-673.478607324618 231.26991461599 1723.88980651085 183 185 184
-254.138786819987 201.587558556327 2185.44961934764 148 177 243
-263.273421511721 201.028981276596 2184.3111419349 120 143 177
-272.661249334923 200.342374813585 2184.14909177471 123 132 131
-282.792696767051 199.273299760365 2186.91879133303 131 131 133
-293.396721539708 197.950556547864 2191.64531798682 138 136 139
-301.53193805299 197.900614972332 2186.59923391872 136 135 133
-308.484598345407 198.483619396551 2176.66014300658 125 128 117
-315.010334662889 199.316813733926 2164.75829661994 128 130 129
-322.539484034632 199.63938592701 2156.76356358301 132 133 137
-330.107695922846 199.959230724832 2148.76396295745 131 132 134
-337.254379434839 200.528829618028 2138.80069439755 107 111 112
-340.002939934991 208.207473937226 2067.89432634294 151 155 154
-353.216408852841 205.487462262175 2083.38440860612 153 157 156
-366.997715494192 202.395819474852 2101.82790831905 139 143 144
-377.203504893715 201.317646187711 2104.58811413048 124 128 129
-387.602971097483 200.114998864039 2108.33240538663 129 133 136
-397.553692726892 199.163779741574 2110.11642072036 139 143 146
-410.202193270826 196.588613290336 2124.66893915361 134 138 141
-420.293465182988 195.515824314246 2127.44342189105 134 138 141
-430.973996869155 194.06994993503 2133.16865256281 130 134 137
-440.614841698787 193.248221071925 2133.983310583 130 134 137
-450.641560858214 192.17805142187 2136.76584222445 136 140 143
-459.866898111534 191.605215317092 2135.61608321836 139 143 146
-470.055475258032 190.412088529258 2139.38642684136 146 150 153
-479.838404763127 189.467736507829 2141.19136355596 149 153 156
-489.605979053756 188.523765479769 2142.99821550722 150 154 157
-498.989412667525 187.827286180437 2142.83673971814 154 158 161
-507.823342351068 187.500406557622 2139.71980414876 159 163 166
-515.23738844853 188.157138223373 2128.71525375958 167 171 172
-521.296363315959 189.793561286302 2109.81501067462 168 172 173
-528.321127388946 190.80947404204 2095.83479292674 171 175 176
-535.587778552736 191.6978116282 2082.83265243156 169 173 174
-543.9286410359 191.847038992393 2075.74476599275 168 172 173
-551.80642211865 192.360417640246 2065.69040883223 167 171 172
-558.59458667553 193.724888901003 2048.71549782547 168 172 173
-565.789944321007 194.839474168118 2033.70604405955 176 180 181
-573.533486568952 195.58350117299 2021.65245751139 170 174 175
-583.346577479714 194.742704384996 2022.44543018492 166 170 171
-592.086207419896 194.751913790006 2016.3160760242 167 171 172
-600.555016236278 195.001365956737 2008.20427160277 162 166 167
-608.622763117763 195.611048272318 1997.11826712317 147 153 153
-617.320000115756 195.733182953421 1989.98597859939 152 158 158
-625.062766207386 196.697770834719 1975.9162936066 169 173 174
-630.524503139845 199.706814000424 1944.99400155438 173 177 178
-630.316915683938 207.881674205491 1871.43169468918 173 177 178
-630.903674015515 215.670207188619 1800.79481737688 99 103 102
-638.119945301183 217.672169892287 1777.71843951239 80 84 83
-647.11305934689 218.107627376985 1767.52510059449 91 93 92
-656.903825175648 217.821296962383 1763.28072337911 92 94 93
-667.443467964687 216.816136579147 1764.99138688618 96 98 97
-254.055875295653 192.127512872541 2187.50049337444 145 175 235
-261.656870701907 192.319215684907 2180.50482611519 120 144 170
-271.308026477673 191.509339250743 2181.31792590857 128 135 128
-281.448542659185 190.450257294165 2184.08646742412 127 127 127
-292.06203303167 189.14291661615 2188.81177226498 128 122 132
-299.717023140957 189.329957854984 2181.80961933084 133 131 136
-306.199387161821 190.135753045612 2169.91301743635 131 137 127
-312.742418415391 190.937447000444 2158.00909569907 136 138 137
-319.817846093777 191.487248505865 2148.05477158166 121 121 123
-327.409466676412 191.786192323022 2140.05230473142 148 149 151
-330.430840768641 194.553700298428 2112.45849317202 13 17 16
-325.17190936266 201.877693889568 2048.59870958545 189 193 192
-341.416025655297 197.595665049863 2076.81583211007 146 150 149
-355.497948175267 194.430783060183 2096.2296967096 157 161 160
-368.369399449724 191.886951539401 2110.75430969033 133 137 138
-378.118051335053 191.066265434688 2111.55527101251 123 127 128
-388.071295971664 190.123186966906 2113.33895005173 131 135 138
-397.374822103134 189.547818391718 2112.17944020507 137 141 144
-407.932514824188 188.23857026764 2116.91195355489 132 136 139
-418.252736997588 187.052885820865 2120.66608932641 132 136 139
-429.360681514328 185.380798706865 2128.35395132332 131 135 138
-440.220292254118 183.832939963014 2135.06502992702 132 136 139
-449.849329350652 183.016678869575 2135.88090681458 139 143 146
-459.077807963585 182.443373892296 2134.73075702014 142 146 149
-469.270463288363 181.26336757605 2138.50079742704 147 151 154
-479.246935526488 180.205685744161 2141.28956670099 149 153 156
-488.828244889218 179.390526713933 2142.11163709405 150 154 157
-497.476976292431 179.179160167908 2138.00958160867 152 156 159
-505.779022677085 179.207464490711 2131.93454473419 157 161 164
-513.929884534738 179.353838079962 2124.87061703422 168 172 173
-520.173435274417 180.820139407276 2106.95547507933 170 174 175
-527.551952132786 181.559828971663 2094.94745296428 171 175 176
-534.477714583117 182.65488971288 2079.97169450202 168 172 173
-542.994405262731 182.66736996325 2073.86991296063 164 168 169
-550.048650083697 183.753379668263 2058.87814449368 161 165 166
-557.179269385794 184.834135686236 2043.87685877841 163 167 168
-564.706523214422 185.671259872658 2030.84209121124 173 177 178
-572.92917384876 186.027569455305 2021.75303737226 172 176 177
-582.743111662037 185.19203398987 2022.54589050186 167 171 172
-591.330323428573 185.306187639439 2015.42735349427 164 168 169
-599.054479650654 186.128799684846 2002.36829215842 161 165 166
-606.990603549389 186.828484812143 1990.29054906279 153 157 158
-615.850239598175 186.814730396965 1984.14627932359 152 156 157
-623.748740015033 187.624829741133 1971.06525354596 171 175 174
-629.496440739364 190.315534258969 1942.12372770174 173 177 176
-629.964038232138 197.702691159108 1873.51815216366 173 175 174
-628.404494524692 207.180847325836 1787.02047617973 93 95 94
-637.089683774663 207.829888807565 1774.84962779366 105 107 106
-646.345280866784 208.005983608791 1766.63958976214 118 120 119
-656.013846245776 207.82816934188 1761.40248956884 128 130 129
-665.459632663942 207.882042833489 1754.17696626621 123 125 124
-245.892233924695 182.7448413815 2194.59033934389 102 128 202
-252.943445714335 183.16717834619 2185.6473002665 136 162 199
-261.31385279144 182.974707239893 2181.5799282511 113 133 144
-270.206315397656 182.536529265261 2179.46366831745 138 143 136
-280.602661469183 181.365551803345 2183.20802527746 137 137 137
-289.739250815163 180.805058335154 2182.06930898164 123 120 131
-296.924167024264 181.217503950524 2173.10961043167 128 127 135
-303.187723323655 182.113065572349 2160.23239095234 113 118 112
-310.949784011145 182.276053444484 2153.21669931798 126 129 122
-317.801425444121 182.921313538953 2142.282363916 126 129 120
-325.408334486513 183.199813958805 2134.27804299332 120 123 114
-328.210928298754 186.013369972505 2105.70372555539 0 6 0
-328.658541606405 190.144648269512 2066.33430643213 168 173 166
-343.057741280403 186.910932743084 2086.71668535616 165 170 164
-356.004052992627 184.406195629081 2101.23161297436 142 147 143
-368.865153946955 181.906381794665 2115.75740169484 122 126 125
-378.818173018164 180.971559359224 2117.54108714132 124 128 129
-388.327292973478 180.277019367472 2117.36416160152 134 137 142
-397.196870121083 179.941356573759 2114.24256030079 132 135 142
-407.3325533022 178.887447361825 2117.01145105524 132 136 139
-418.066666894823 177.476351849582 2122.72990343294 133 137 138
-429.374829961135 175.709593381603 2131.40095601912 134 138 139
-441.031821460026 173.707596244727 2142.04471083696 134 138 139
-450.246291762238 173.135362843816 2140.89630637492 137 141 142
-459.266156788093 172.681274857757 2138.76418927095 139 143 144
-467.906789235666 172.463347181907 2134.66316176584 144 148 149
-478.085315723447 171.297198165498 2138.43468860663 149 153 154
-487.488122245958 170.604892062977 2138.27102447185 150 154 155
-495.962861295073 170.502471937085 2133.18246793017 154 158 159
-504.460047899507 170.398176360532 2128.09135527396 158 162 163
-513.158954293615 170.174356439815 2123.98307104186 169 173 174
-520.109072506817 171.123985017566 2110.01234321301 171 175 176
-527.130263613338 172.068637927658 2096.0327590105 170 174 175
-534.222503667032 173.008406278885 2082.04432118272 166 170 171
-541.554255143222 173.82621538483 2069.03424228766 162 166 167
-549.448796253524 174.289076347558 2058.97792661132 163 167 168
-556.740506739612 175.21488312137 2044.96463282016 166 170 171
-564.904870610094 175.5533760551 2035.88289974423 173 177 178
-572.009656452716 176.702703825698 2019.87672994377 173 177 178
-581.365085451704 176.220549603093 2017.70281035122 170 174 175
-590.574165579499 175.853464081481 2014.53892383632 166 170 171
-599.196495032137 175.948329847007 2007.41605514307 162 166 167
-607.117730078178 176.618716693188 1995.34048751295 153 157 158
-615.675277868386 176.823039308906 1987.21772783927 152 156 157
-622.857194661384 178.17721733538 1969.18601888995 171 175 174
-627.357886079379 181.827328750066 1931.32744091231 175 179 178
-626.966582330501 197.695483493042 1781.17829536212 93 95 94
-635.797232420082 198.19884299688 1769.99736506973 113 115 114
-645.19359069828 198.240546602381 1762.77804215571 122 124 123
-653.996894694089 198.850858651447 1750.59255574024 130 132 131
-663.227130537676 199.114578867062 1741.37776478599 130 132 131
-241.909839173204 175.114407607696 2182.00676005824 145 168 220
-251.315079856871 174.43427656395 2181.84251982322 146 168 192
-259.951103867125 174.112954945803 2178.75002680631 132 150 154
-269.609024220784 173.312713262484 2179.56249731632 137 143 133
-279.007714145605 172.632073845693 2179.39907591606 143 143 145
-286.920353810946 172.666106874931 2173.3728598804 135 131 145
-295.105615918086 172.579082259854 2168.32038780617 135 135 145
-302.830583284547 172.727922507162 2161.30960272499 112 118 114
-311.067051228915 172.637128147731 2156.25075039249 120 126 116
-317.200494437339 173.610684319034 2142.38187576364 112 118 106
-325.507109194126 173.514796625922 2137.31452320551 133 139 127
-339.22336076259 174.851322633264 2114.43642573126 178 184 174
-344.027000682775 176.632685222161 2093.67708513679 162 167 160
-356.066703938346 174.642794905435 2104.27280763834 139 144 140
-367.602803349413 172.891346819111 2112.91537479689 124 128 127
-377.782141415238 171.84657362171 2115.67903388918 127 131 132
-386.867943963814 171.388312394222 2113.53845889353 134 137 142
-396.384181392242 170.695289810927 2113.36064113912 130 133 140
-406.523594887632 169.651773506784 2116.12903900305 131 135 136
-418.088041826686 167.792741717298 2125.77603897375 132 136 135
-429.186486555656 166.169756718292 2133.46519744808 134 138 137
-439.83505518819 164.781967846461 2139.19426395385 134 138 137
-449.256413299547 164.09277739521 2139.02803621677 136 140 139
-458.67334404245 163.40339371909 2138.86260176668 137 141 140
-468.278736177142 162.598075051802 2139.6814005892 142 146 145
-478.635340261338 161.330513107965 2144.438898833 146 150 149
-487.647363786028 160.8725649505 2142.30777046764 148 152 151
-495.9261586818 160.874908179258 2136.23570360912 156 160 159
-503.686336512111 161.22042717625 2127.2043920586 162 166 165
-511.670053877538 161.447779006907 2119.15318238287 167 171 172
-518.631881170567 162.360917917012 2105.18108942432 169 173 174
-525.664799826548 163.269139705028 2091.20013763302 168 172 173
-533.4541175722 163.714665817621 2081.15699886123 164 168 169
-541.461461195746 164.042468102665 2072.09488913727 162 166 167
-548.683123573476 164.937441527394 2058.09041813444 169 173 174
-557.118280548688 165.030017372229 2050.99091349024 169 173 174
-564.623443097898 165.802555877509 2037.95907286824 173 177 178
-571.562881815014 167.024866561449 2020.96565811542 172 176 177
-579.67519373196 167.447220680073 2010.88251287193 172 176 177
-588.750998798844 167.186520018312 2006.72729103779 168 172 173
-597.993171712762 166.811264493779 2003.55929625424 163 167 168
-605.923836138844 167.45089092725 1991.48263289969 152 156 157
-614.49150004245 167.635338542581 1983.35866313497 151 155 156
-621.964939877098 168.717285126747 1967.30666494172 163 167 166
-630.075336782982 169.344087959282 1955.20760580675 174 178 177
-627.626549775747 178.719492533215 1865.79787115883 181 183 182
-626.994369064771 186.943376108992 1786.2420590625 104 106 105
-634.764490488481 188.315332448972 1767.12897146721 113 115 114
-643.400415264087 189.010223528386 1753.95646315483 109 111 108
-652.226732783372 189.589026717337 1741.7679474964 124 126 123
-661.848357968676 189.495255625514 1735.52879673887 125 127 124
-243.918612639382 164.715622704493 2191.86105362347 149 165 188
-250.201655607827 165.444233890808 2179.98952907928 142 155 163
-259.098262719853 164.999819668145 2177.87276835874 137 148 144
-269.012014829178 164.087714725619 2179.66129426422 123 126 119
-277.911530712185 163.642428392339 2177.54417284293 114 114 116
-284.840107605246 164.127738644905 2167.60834467077 108 106 117
-292.307739114524 164.37715838981 2159.62148134375 122 122 132
-299.814460798738 164.623819116353 2151.62974705977 145 151 149
-307.838425780545 164.635976337526 2145.58945562319 158 164 160
-313.999628457241 165.571930756032 2131.71721579968 133 140 133
-321.634454390423 165.809654118179 2123.70951839901 156 163 156
-321.454602680089 169.968560141335 2082.40271597869 0 2 0
-321.040929207735 174.343794647 2039.10914924219 186 191 185
-343.194234841906 167.311808909787 2092.79762821955 179 184 178
-354.570446822769 165.69875005654 2100.45209684284 131 133 130
-365.679104155917 164.202959609001 2107.13195878403 136 141 137
-376.310652312383 162.938543524383 2111.85489707982 138 142 141
-385.407481100238 162.476536534252 2109.71319620776 138 142 143
-395.359185140008 161.556728421922 2111.49700622271 132 137 140
-405.923919063936 160.295257403046 2116.22851505273 129 133 134
-417.490685116598 158.465789663355 2125.87514775589 130 134 133
-428.999012033941 156.639569558337 2135.52930503386 132 136 135
-440.046285731529 155.043700959634 2143.22453767157 133 137 136
-450.450252748056 153.790560605308 2147.97608732269 136 140 139
-460.235116924086 152.878633929011 2149.7806972108 138 142 141
-469.425235251292 152.306488694963 2148.63533149909 142 146 145
-478.806695523708 151.620885103405 2148.47407333057 145 149 148
-488.371346237344 150.822494261294 2149.29817846613 147 151 150
-496.815838915743 150.699547962417 2144.21369081639 153 157 156
-504.553363132029 151.024410409622 2135.18502043251 158 162 161
-511.077648810349 152.131560110458 2119.25164496386 166 170 171
-517.683802393197 153.233163379961 2103.30782720232 168 172 173
-524.546132376778 154.217270052205 2088.3402769305 167 171 172
-533.200028739707 154.07904256553 2083.22969718137 164 168 169
-540.863406444832 154.608180016273 2072.1943676964 164 168 169
-548.581583438971 155.133438243543 2061.15220979994 170 174 175
-556.027687613425 155.877220372575 2048.12781504285 167 171 172
-563.860740735289 156.394294359405 2037.07134283769 172 176 177
-570.958597706518 157.461796219062 2021.06625320504 171 175 176
-579.069815442068 157.859495055731 2010.98330943773 170 174 175
-587.840445856582 157.811573604178 2004.84999678443 167 171 172
-597.387872920187 157.209618534209 2003.66011955795 163 167 168
