ply
format ascii 1.0
comment KinectMotionCapture
element vertex 754
property float x
property float y
property float z
property uchar red
property uchar green
property uchar blue
end_header
-1303.18076820747 95.7336531427192 2636.5561793966 91 96 90
-1304.36817842883 95.5871062456778 2629.1082104002 83 88 82
-1300.55113216433 95.9954967089017 2622.27880262913 71 76 70
-1294.733594736 96.6255534163937 2615.66652884566 87 92 86
-1307.92925719058 95.1466231276024 2606.7897696356 93 98 92
-1330.12826893696 92.6691508829505 2596.95087959342 102 104 101
-1348.32245722389 90.6358299493186 2587.67861187569 103 105 102
-1358.51042620336 89.4904186777738 2579.37722958245 121 123 120
-1367.69671969643 88.4559676963103 2571.23577405282 123 125 122
-1372.88035062554 87.8652340474125 2563.55737001682 138 140 137
-1373.06222552624 87.828967630555 2556.41012876282 141 143 140
-1374.24422032556 87.6815848843825 2549.16359096133 140 142 139
-1373.42603860265 87.7557727464496 2542.11246238912 137 139 136
-1369.60789569222 88.1622763422126 2535.33321415511 132 134 131
-1360.79039755937 89.1227011709917 2528.98138584795 138 140 137
-1354.97387645493 89.7501647012628 2522.31728146364 145 147 144
-1350.15820124693 90.2663905094747 2515.53470046871 146 151 147
-1344.34332028746 90.8930422674236 2508.80562191879 146 151 145
-1214.00017450698 98.5308064063597 2917.94369586032 194 198 199
-1213.18779764526 98.6054894968563 2910.66622494154 164 168 167
-1216.38900709367 98.245223883047 2902.4988549766 155 160 156
-1216.57991217454 98.2112198563263 2895.00111217957 164 169 163
-1226.80313464909 97.0901538068186 2885.34804119821 170 175 169
-1236.02191463276 96.0780388312255 2875.96088375942 118 123 117
-1245.23948014122 95.0661121406327 2866.62139438476 120 125 118
-1251.44650454486 94.3804531795601 2857.951466498 126 131 127
-1256.65008295404 93.8035368804672 2849.51760663339 134 139 135
-1262.85581427502 93.118068991893 2840.90774684352 148 153 149
-1271.06622771445 92.2154877725385 2831.93116939756 155 160 156
-1281.28115193201 91.0958056932628 2822.60390904647 165 170 166
-1299.51627087696 89.1074805932585 2811.78024248224 179 184 180
-1312.73577434614 87.6625209442365 2802.0081688888 154 159 155
-1317.93306854787 87.0865155724041 2793.81157091632 135 140 136
-1319.11987489897 86.9448140639321 2786.38308107869 137 142 138
-1320.30680970833 86.8031052304583 2778.95888757021 138 143 139
-1324.50041142079 86.3357162179088 2770.99853108858 143 148 144
-1322.67987841375 86.5195469456939 2764.12300245929 138 143 139
-1321.8620100948 86.5947317135938 2757.06069537527 142 147 143
-1319.03997277544 86.8868063123575 2750.33548675186 145 150 146
-1323.23272422716 86.4192685443536 2742.40820168291 149 154 150
-1323.41706621274 86.3856613717627 2735.16739349704 151 156 152
-1325.6053610659 86.1350118423438 2727.59777029939 136 141 137
-1325.7896219622 86.1012011865916 2720.35991287882 122 127 123
-1321.96686301791 86.5010712064817 2713.75395261596 112 117 113
-1322.15146108524 86.467020738582 2706.50265989156 113 118 114
-1324.33921854057 86.2160072531195 2698.9443244864 119 124 120
-1326.5269668089 85.9648880448833 2691.39555941257 122 127 123
-1327.71280272725 85.8221094693817 2684.00384097714 131 135 134
-1326.89581471624 85.8959645266071 2676.90570066824 138 142 141
-1326.0789929874 85.9696852862138 2669.80091727778 144 149 145
-1321.25698983933 86.4766304261856 2663.24636444692 149 154 150
-1314.43341156896 87.1999667594802 2656.93632172375 152 157 153
-1307.61083211881 87.9230071688864 2650.58692390646 141 146 142
-1304.79353185361 88.2124101813706 2643.67370625292 113 118 114
-1300.97573544231 88.6098786908695 2636.87121445269 89 94 88
-1298.15939232442 88.8988018120662 2629.92007289613 87 92 86
-1297.34533336067 88.9709017640082 2622.70557077686 75 80 74
-1292.52803735426 89.475858495562 2615.96491154363 85 90 84
-1299.72036553356 88.6815690815195 2607.78674645173 101 106 100
-1311.91518598183 87.3460575589948 2599.07219012819 93 95 92
-1335.11483794413 84.8203173186392 2589.19047422484 83 85 82
-1350.30696920686 83.1606561692958 2580.30706667187 126 128 125
-1366.49766349756 81.3930209053711 2571.39790912641 135 137 134
-1372.68229079287 80.7073946755194 2563.61269775384 147 149 146
-1376.8653787185 80.2381232463802 2556.06123528882 138 140 137
-1375.04664136655 80.4176165604885 2549.12019384581 134 136 133
-1371.22751244868 80.813147227804 2542.35837552447 135 137 134
-1366.40916573073 81.3164449390541 2535.66632519825 134 136 133
-1359.591363471 82.0356177005402 2529.12606544735 139 141 138
-1352.7745559826 82.7543755779684 2522.54648111655 146 148 145
-1346.95857040772 83.3646361202894 2515.84297513843 152 157 153
-1341.14344071065 83.974503751196 2509.10559661259 150 155 149
-1333.329787646 84.8000551448139 2502.49269546441 160 165 159
-1213.79123246328 90.9831895591754 2918.00582506879 182 186 185
-1216.99276542894 90.6305502636942 2909.83399948247 144 148 147
-1222.2008912209 90.066032641306 2901.23572488959 146 151 147
-1223.39466791763 89.9255964190278 2893.53616836521 156 161 155
-1228.60174474614 89.3612980415126 2884.97912630613 156 161 155
-1236.81765106475 88.4792364381832 2875.80990049672 151 156 150
-1244.02938506586 87.7033231141839 2866.89301949291 153 158 152
-1251.2401823788 86.9275541298979 2858.01290248888 140 145 141
-1257.44708364781 86.2578898825823 2849.37428581016 137 142 138
-1265.65919844659 85.3764744401515 2840.36326431586 136 141 137
-1273.86999686384 84.495277548367 2831.3946014469 146 151 147
-1283.08270727955 83.5083209365497 2822.27167686353 158 163 159
-1296.3051579608 82.0980779234205 2812.42169206265 166 171 167
-1307.5203808511 80.8998522733275 2803.02312217194 160 165 161
-1312.71862518337 80.3369150433524 2794.81274615873 136 141 137
-1314.90831241005 80.091599769437 2787.18510690524 136 141 137
-1319.10279724269 79.6345990168733 2779.20138914068 136 141 137
-1323.29699791563 79.1776107613802 2771.23811552841 138 143 139
-1323.48113862412 79.1438921220921 2764.00505426395 150 155 151
-1321.66068151763 79.3216407190211 2757.12002865484 141 146 142
-1320.84289630134 79.3934873101582 2750.05088935385 142 147 143
-1324.03374350831 79.042177386737 2742.29812761146 139 144 140
-1326.22197868691 78.7966184893239 2734.72697784269 132 137 133
-1326.40613098635 78.7624916356135 2727.49302525464 141 146 142
-1325.58846529481 78.8339462915663 2720.4187936827 153 158 154
-1320.76337380995 79.3281343247909 2713.97124615331 134 139 135
-1321.94998091112 79.1878631651718 2706.56140427977 121 126 122
-1324.13787931863 78.9418687591267 2699.00294907633 110 115 111
-1323.32081704893 79.0127876479559 2691.90455842303 114 119 115
-1320.50068087661 79.2948730974977 2685.09432080825 117 121 120
-1319.68409261386 79.3654557255152 2677.9770432703 127 131 130
-1320.87039925437 79.2246224875746 2670.56901613546 138 143 139
-1320.05400645482 79.294913001531 2663.44378556926 148 153 149
-1316.23387204724 79.681840409017 2656.72135253927 153 158 154
-1308.40922222474 80.49089142061 2650.51120115479 147 152 148
-1305.59161668596 80.7716729434712 2643.60065755875 123 128 124
-1298.77015286743 81.4744750108869 2637.18592662004 82 87 81
-1294.9527672175 81.8602955018054 2630.35487409712 82 87 81
-1293.1377189055 82.0347435331911 2623.25491016889 73 78 72
-1289.32135954443 82.4200207110903 2616.38316335478 69 74 68
-1291.51048953105 82.171924726405 2608.78364204812 76 81 75
-1295.70070439748 81.7127597126534 2600.96448553813 101 103 100
-1320.90464064044 79.0383706190422 2590.81443752857 90 92 89
-1337.09940577681 77.3137237023268 2581.7830100204 98 100 97
-1356.29382768187 75.2729540763081 2572.51831152725 91 93 90
-1364.48061934139 74.392353493081 2564.49788097288 131 133 130
-1374.6669639895 73.3009716757245 2556.31799584261 141 143 140
-1373.84822159634 73.3692350107135 2549.27309411686 136 138 135
-1369.02891168561 73.8588047128233 2542.60394862233 130 132 129
-1362.20985741398 74.5587895997474 2536.09201937189 130 132 129
-1357.39188382699 75.0476915697192 2529.36060396855 132 134 131
-1351.5746550884 75.6415677723881 2522.68809289265 132 134 131
-1347.75832585663 76.0243761479912 2515.81251771123 137 142 138
-1343.94257512716 76.406850452671 2508.9139739562 146 151 145
-1338.12763286283 76.9996077689058 2502.15089817141 165 170 164
-1202.5421406314 84.5712988768222 2920.55695371672 182 186 185
-1208.75542832139 83.9163645972229 2911.68454948712 150 154 153
-1218.98194373574 82.84854405107 2901.9599499319 155 160 156
-1222.18298404979 82.5037333565262 2893.81578462528 165 170 166
-1227.39025410493 81.9525758579319 2885.25597547581 152 157 153
-1234.60381847509 81.1950480933064 2876.296623095 123 128 122
-1240.81279767807 80.5409638955923 2867.58419742727 119 124 118
-1246.01811395703 79.9901433553897 2859.1104352074 147 152 148
-1254.23186361626 79.1299026595865 2850.04892872757 146 151 147
-1260.43861235798 78.4761840674197 2841.43339456002 143 148 144
-1268.65058793177 77.6162174864555 2832.45084459637 149 154 150
-1277.86407375274 76.6533202756208 2823.31412283284 158 163 159
-1294.09634585283 74.9685906419467 2812.86897814358 163 168 164
-1307.31813815713 73.5936190465285 2803.08259672607 164 169 165
-1315.5248353659 72.7344725308143 2794.3072240757 140 145 141
-1317.7144533858 72.4941572627988 2786.68765828417 140 145 141
-1320.90654466686 72.1507387411969 2778.8947469964 142 147 143
-1321.09078089726 72.1165595331494 2771.65745788128 144 149 145
-1324.28230725826 71.7731113521974 2763.8865937807 145 150 146
-1321.45934789698 72.0479808861987 2757.17894827634 142 147 143
-1321.6436767413 72.0135669550184 2749.93778746085 148 153 149
-1321.82803489926 71.9790551911399 2742.69537592165 146 151 147
-1326.02091325786 71.5324452898545 2734.78560162369 137 142 138
-1326.20505569452 71.4977958952159 2727.55147344302 127 132 128
-1325.38730193787 71.5660629774743 2720.47726118961 143 148 144
-1320.56182212516 72.0460848656697 2714.02968034223 144 149 145
-1319.74468250353 72.1140384000853 2706.93112890117 136 141 137
-1321.9331023133 71.872988661061 2699.36692948185 117 122 118
-1320.1142066937 72.0436294217521 2692.41324370825 116 121 117
-1321.30059010307 71.9053265553493 2685.00493309862 114 118 117
-1321.48535607549 71.8698209386807 2677.74551563511 121 125 124
-1322.67182771739 71.7312963850775 2670.34284335017 128 133 129
-1319.85223528609 72.0041741988547 2663.5014680028 139 144 140
-1317.03308878266 72.2768582701311 2656.64245622366 148 153 149
-1312.2116860989 72.7550444724601 2650.03355603507 149 154 150
-1308.39240515472 73.1300409491034 2643.26495618431 138 143 139
-1298.56668195278 74.121798927278 2637.24353753048 90 95 89
-1291.74567945773 74.8046568862473 2630.78936202423 83 88 82
-1289.93067937871 74.973180200292 2623.6811514788 73 78 72
-1287.11534103179 75.2442321013995 2616.68087604077 67 72 66
-1287.30288823714 75.2067256413431 2609.31061000806 67 72 66
-1287.49046159658 75.1690621706991 2601.93915319679 90 92 89
-1305.69139921305 73.2818044365152 2592.55060492543 88 90 87
-1320.88804550877 71.7030741904868 2583.58695640165 104 106 103
-1339.08423963728 69.8164341030091 2574.38446325376 97 99 96
-1352.27538354515 68.4436350827464 2565.79826008449 105 107 104
-1366.46514029264 66.9683285601467 2557.18090495004 125 127 124
-1366.64743762567 66.9306592702222 2550.01564728002 133 135 132
-1364.82924349059 67.098139197556 2543.04047599031 128 130 127
-1361.01049525212 67.470641240378 2536.23905303587 138 140 137
-1356.19244704865 67.9454254540087 2529.50472013199 142 144 141
-1351.37487777764 68.4199352498435 2522.74204945108 139 141 138
-1346.55826285233 68.8940077792679 2515.95093491966 131 136 132
-1342.74227359432 69.2651719772059 2509.04956976483 140 145 139
-1336.92694294214 69.8411673405054 2502.28367582835 162 167 161
-1209.35846500564 76.2886489015534 2919.03389503756 182 186 185
-1213.56428811488 75.8507916110245 2910.62759292099 150 155 151
-1222.78767454657 74.9103283983975 2901.13733368029 149 154 150
-1225.98865024056 74.5732773649056 2893.00402567635 149 154 150
-1228.18585623858 74.336805687959 2885.10134715401 128 133 129
-1233.39275852926 73.7989352847957 2876.57017817322 122 127 123
-1237.59575367761 73.361635816022 2868.27500151068 136 141 137
-1240.79504916087 73.0249120643421 2860.20771337249 149 154 150
-1249.00997556512 72.1858867841551 2851.13231988825 147 152 148
-1258.22686281014 71.2466436780551 2841.89738143364 147 152 148
-1269.44847566522 70.1067058771942 2832.31165458679 156 161 157
-1276.65675934118 69.3686978670243 2823.57032404926 165 170 166
-1286.87283327406 68.3296453886915 2814.28470269634 156 161 157
-1303.1046033019 66.6883831744785 2803.90585269724 159 164 160
-1313.31755760047 65.6498161220456 2794.74267867336 136 141 137
-1318.515561214 65.1133394904277 2786.56079734702 136 141 137
-1320.70524248164 64.8779408155803 2778.95336346172 144 149 145
-1321.89195155636 64.7429273193139 2771.53585659458 148 153 149
-1322.07613775087 64.7082062560397 2764.29994125307 146 151 147
-1319.25307730109 64.9743399214889 2757.58686673452 149 154 150
-1320.44004872305 64.839088393255 2750.16817563614 150 155 151
-1320.62446484523 64.8040810452597 2742.92296653466 144 149 145
-1324.81770473661 64.3679082367981 2735.01026882957 138 143 139
-1326.00397302271 64.2325019290874 2727.60956773795 135 140 136
-1326.18813394089 64.1973074426979 2720.37413195771 124 129 125
-1322.36436534842 64.5629503111259 2713.77088176444 128 133 129
-1321.54700131726 64.6276925515599 2706.67765298476 142 147 143
-1321.73159937512 64.5920965956656 2699.42470120473 143 148 144
-1319.9125429978 64.7568082592387 2692.47093219188 127 132 128
-1319.09568648241 64.8211302940486 2685.3574167534 117 121 120
-1317.27717373141 64.9854871621544 2678.38201998893 117 121 120
-1320.46701872397 64.6488636333088 2670.68419737732 119 124 120
-1318.64901274471 64.8129173966885 2663.69799355517 121 126 122
-1316.83107362408 64.9767914432929 2656.69965891185 125 130 126
-1313.01082851148 65.3407010087055 2649.95683783176 144 149 145
-1310.19240391267 65.6042800596199 2643.05983524987 139 144 140
-1301.36694261079 66.4681535936826 2636.91556582991 99 104 98
-1294.54519458397 67.1314487624691 2630.46952327061 90 95 89
-1290.72776936185 67.4942324737312 2623.61528224656 89 94 88
-1287.91188790212 67.7566843257788 2616.61767467981 75 80 74
-1285.09645072419 68.0188828545086 2609.60243104239 67 72 66
-1283.28227731773 68.1808240655741 2602.45484391421 74 76 73
-1297.48184693925 66.7423794710021 2593.50287195659 86 88 85
-1315.68222264796 64.9042318720593 2584.18901566795 102 104 101
-1336.88219271438 62.766486553209 2574.65274610427 99 101 98
-1348.07337092943 61.6287663175212 2566.26821625989 102 104 101
-1363.26493249728 60.0914106071024 2557.5383965173 110 112 109
-1366.44888085355 59.7535360353293 2550.06969160549 120 122 119
-1366.6311966681 59.7153216536538 2542.9031263359 130 132 129
-1363.81250506805 59.9766310449742 2536.01412210134 141 143 140
-1359.99405767858 60.3375412052634 2529.19781924352 143 145 142
-1353.17557657626 60.9977909352444 2522.6208239999 146 148 145
-1347.35814647105 61.5577799751021 2515.91979760362 133 138 134
-1339.54159978752 62.3170304449007 2509.34880027917 141 146 140
-1331.72594968634 63.0758652970972 2502.73299036438 145 150 144
-1209.14921731262 68.7286444694408 2919.09466924581 182 186 185
-1213.35532945465 68.301138539962 2910.68818522099 158 163 159
-1217.56115357331 67.873781179028 2902.30244245633 166 171 167
-1219.75891835958 67.6421604578744 2894.37380834776 143 148 144
-1223.96359409126 67.2149769226567 2886.02381037727 129 134 130
-1232.18178502462 66.3968244325005 2876.84323938078 130 135 131
-1239.39534249263 65.6766484940841 2867.91493748599 140 145 141
-1243.59796295331 65.2498470781083 2859.64567691604 147 152 148
-1247.80006126877 64.8231846720502 2851.39697284838 146 151 147
-1256.01457217446 64.0056517956896 2842.3608953751 145 150 146
-1265.23104960958 63.0906454504365 2833.16799727837 154 159 155
-1271.43691190108 62.4689310736269 2824.61214752961 162 167 163
-1283.6601262419 61.2612182496396 2814.92507992298 160 165 161
-1300.89613928761 59.5654803397891 2804.3466039434 160 165 161
-1314.11851766064 58.2607250514124 2794.61270979233 132 137 133
-1320.31975686362 57.6397431798953 2786.24765765447 137 142 138
-1319.50130857413 57.7022682854479 2779.19442485782 150 155 151
-1319.68559098099 57.6670564600787 2771.95422226214 147 152 148
-1317.8646814591 57.8269948119037 2765.06775534423 150 155 151
-1319.05158518134 57.694060171174 2757.64487309244 151 156 152
-1319.23602802911 57.6586405794834 2750.39817682673 144 149 145
-1319.42050280592 57.6231074540358 2743.15011075944 143 148 144
-1319.60500661746 57.5875215844296 2735.90085328168 143 148 144
-1318.78739503594 57.649373791643 2728.814196533 132 137 133
-1318.97203012105 57.6135729161299 2721.55957757271 135 140 136
-1318.15469138831 57.6752024356061 2714.46201784294 113 118 114
-1318.33945472006 57.6391873600407 2707.20215656825 121 126 122
-1320.52798663455 57.408149096814 2699.63500047175 140 145 141
-1319.71087460363 57.4694031618076 2692.52817731568 135 140 136
-1321.8993573706 57.2381647810968 2684.972051992 124 128 127
-1319.07881501721 57.4940700240385 2678.14957905103 123 127 126
-1321.26691109499 57.2626526357898 2670.59904988758 123 128 124
-1319.44867432713 57.420780941503 2663.61550378342 121 126 122
-1315.62760263876 57.7735069455568 2656.89298010115 120 125 121
-1311.80687600756 58.1260241827521 2650.14742144307 129 134 130
-1306.98565980199 58.5756485556163 2643.50989033602 134 139 135
-1302.16492858276 59.0249968989752 2636.84378311568 104 109 103
-1296.34398282816 59.5713641500306 2630.2748592369 90 95 89
-1293.52721367628 59.8254696069527 2623.30298403845 87 92 86
-1288.70857980088 60.2739444776896 2616.55396748797 87 92 86
-1284.8918729323 60.6248182234342 2609.65886271519 79 84 78
-1280.07461357517 61.0727170916174 2602.85550676163 68 70 67
-1289.27083676541 60.1585115454764 2594.45507455571 74 76 73
-1310.4756328753 58.0773547647297 2584.79094690874 100 102 99
-1333.67914911591 55.8021555883407 2575.02721332071 104 106 103
-1346.87259772293 54.4996705030008 2566.42643221306 99 101 98
-1357.06237983202 53.4890594617047 2558.19892463851 107 109 106
-1361.24768368339 53.0617034464079 2550.61518645086 123 125 122
-1363.43116014363 52.8287100412606 2543.24351573845 135 137 134
-1361.6130224477 52.9842161473299 2536.25328204434 141 143 140
-1357.79416714157 53.333804413044 2529.43144061586 141 143 140
-1349.97508992023 54.0716265691449 2522.93633740247 142 144 141
-1342.15714712046 54.8090116670807 2516.39642778497 135 140 136
-1334.34010090303 55.5459811474143 2509.81170557713 141 146 140
-1328.5244100231 56.0883267031688 2503.02376001771 150 155 149
-1210.94783623887 60.9779244148719 2918.70193308831 172 177 173
-1215.15409528064 60.5608677053532 2910.3009272803 159 164 160
-1215.34489684179 60.5242203908344 2902.80439223325 142 147 143
-1219.55038319367 60.107339383829 2894.43377447872 131 136 132
-1224.75912072007 59.5955356826916 2885.86819133367 130 135 131
-1233.98130049659 58.7036640363509 2876.47726623898 137 142 138
-1240.1915951939 58.0971398226544 2867.76449274376 148 153 149
-1246.40133069249 57.4907163340008 2859.08300761032 157 162 158
-1251.6070077423 56.9794423283429 2850.63760723875 156 161 157
-1256.81178543633 56.4683058587329 2842.21817969422 158 163 159
-1266.02886198449 55.5773576988992 2833.02769801077 163 168 164
-1270.22898850949 55.1614384827055 2824.86759355494 168 173 169
-1281.45018652924 54.0809068081686 2815.3711904213 169 174 170
-1292.66965265516 53.0006742959491 2805.93347212726 163 168 164
-1306.89639970359 51.6359481248454 2795.98914055552 126 131 127
-1314.10133830648 50.9358474169297 2787.41924900326 131 136 132
-1320.30263314983 50.3307857899301 2779.06911617918 158 163 159
-1322.49234551192 50.1053419990254 2771.47115580258 158 163 159
-1322.67643782112 50.0695955973324 2764.23780889499 147 152 148
-1319.85282902252 50.3183646912326 2757.52752100857 147 152 148
-1318.03209323223 50.4721198429791 2750.62762501394 145 150 146
-1316.21190582027 50.6257258655266 2743.71546115905 141 146 142
-1317.3988953669 50.4947940188152 2736.29137503904 139 144 140
-1317.58355910258 50.4585953918837 2729.03520924018 146 151 147
-1316.76609948635 50.5170910891422 2721.93900919959 141 146 142
-1316.95089332735 50.4806627625633 2714.67751180051 143 148 144
-1318.13772846166 50.3494119105086 2707.25911812523 138 143 139
-1320.32639974855 50.1233631377547 2699.69187220303 126 131 127
-1318.50732807982 50.2761319462606 2692.73520230173 128 133 129
-1318.69217217142 50.2393151224854 2685.4713237969 131 135 134
-1315.87160330081 50.4864796486415 2678.6405021323 128 132 131
-1320.06361727659 50.0706645714791 2670.7975760198 128 133 129
-1319.24688542624 50.128186269108 2663.67188656145 128 133 129
-1316.42702873431 50.3748610977871 2656.81270468757 124 129 125
-1310.60300520552 50.9052605461801 2650.33760110145 123 128 124
-1305.78147145972 51.3407149330999 2643.69726592713 129 134 130
-1303.9646154123 51.4920567487526 2636.64314488646 112 117 111
-1301.1468185065 51.7378230894522 2629.70248397081 93 98 92
-1297.32828458218 52.0779146729374 2622.86720981024 85 90 84
-1290.5067655578 52.7014612784571 2616.36953809623 94 99 93
-1284.68728734891 53.2301404714247 2609.71494058481 89 94 88
-1280.87085152515 53.5693583808243 2602.79672730208 70 72 69
-1289.06653961805 52.7739152276689 2594.51070401373 66 68 65
-1310.27291878975 50.7498652495004 2584.84602171376 95 97 94
-1334.47917233544 48.4427051254243 2574.97501000734 105 107 104
-1344.67121032856 47.4589222090981 2566.68814064458 98 100 97
-1352.86039631521 46.6642347921128 2558.65705364439 104 106 103
-1358.04683043433 46.1529521735088 2550.96372441768 123 125 122
-1361.23138315549 45.8305516649242 2543.48801368934 134 136 133
-1356.4115042556 46.2635129676153 2536.77099973432 138 140 137
-1352.59292708282 46.601680450734 2529.93534992262 137 139 136
-1341.77251957684 47.6003550359869 2523.68890431324 138 140 137
-1338.95579426277 47.8434653360259 2516.70351002829 131 136 132
-1333.13885822784 48.3693820679794 2509.94658943395 138 143 137
-1329.32315159397 48.7062151509832 2502.99731624147 157 162 156
-1209.7348572664 53.5148129449694 2918.98787716123 171 176 172
-1209.92595922498 53.4775604894265 2911.47895178832 154 159 155
-1210.11709076242 53.4403301686734 2903.96889413764 145 150 146
-1216.33057106345 52.8491179856153 2895.14805709276 137 141 140
-1225.55455975522 51.9810574647315 2885.71199987644 133 137 136
-1232.77001172291 51.2978890623496 2876.74939021284 146 150 149
-1237.97758321236 50.7994499366368 2868.24372968285 155 159 158
-1246.19470269398 50.0243193957552 2859.14190359991 156 161 157
-1254.41098573398 49.2494084041519 2850.08232907582 154 159 155
-1257.60938911948 48.935909450136 2842.07484420755 158 163 159
-1264.82042923316 48.2535254850261 2833.28550735091 162 167 163
-1268.01778998797 47.9401990756342 2825.31895736694 164 169 165
-1285.25852974007 46.3359172083181 2814.65394378191 159 164 160
-1296.47853797154 45.2852948158272 2805.22683119112 160 165 161
-1308.70021270768 44.1427074182467 2795.66986333617 123 128 124
-1311.89389027528 43.8299414447612 2787.84786682057 121 126 122
-1318.09552519762 43.2407424766685 2779.49214984472 142 147 143
-1323.29388774971 42.743779722597 2771.34799170242 154 159 155
-1324.48054151353 42.6154280613678 2763.93979954225 166 171 167
-1321.65655494135 42.8554899338714 2757.23492721221 157 162 158
-1319.83575727274 43.0032865287082 2750.34037658524 155 160 156
-1317.01259430411 43.2430841202223 2743.60303121082 150 155 151
-1317.19721280952 43.2064623967702 2736.34817887932 139 144 140
-1317.3818636555 43.1697420347652 2729.09195665597 141 146 142
-1315.56185078547 43.317077748208 2722.15691373472 137 142 138
-1316.74909995237 43.1880992908222 2714.73410294221 134 139 135
-1316.93391069513 43.1510962835476 2707.47132791614 137 142 138
-1318.12077330545 43.0219988023678 2700.05417250683 137 142 138
-1317.30362658693 43.0768100543984 2692.94178726631 128 133 129
-1318.49041003296 42.9475235823341 2685.52752294796 128 132 131
-1319.67708547889 42.8181908391597 2678.11742996551 127 131 130
-1320.86365231427 42.688706954055 2670.71141957475 129 134 130
-1318.04342039689 42.9269108238691 2663.86713213619 136 141 137
-1313.21995173515 43.348748989667 2657.27847534245 134 139 135
-1307.39567314967 43.8622459552387 2650.79519167073 127 132 128
-1303.57542216101 44.1916461317234 2644.01554672365 129 134 130
-1303.7615734375 44.15325090762 2636.69888414002 123 128 122
-1300.94353929771 44.3903476350962 2629.75818638747 114 119 113
-1297.12469626983 44.7190578723428 2622.92277265167 98 103 97
-1290.30263568616 45.3230023891625 2616.42521973764 81 86 80
-1284.48269617791 45.8348190022171 2609.77054566368 87 92 86
-1281.66699666433 46.0708290381256 2602.73743582543 94 96 93
-1286.86027999721 45.5722925881023 2594.79010145183 88 90 87
-1307.06747289162 43.6970424217887 2585.22868816439 94 96 93
-1327.27191329945 41.8222399552494 2575.77533229329 100 102 99
-1340.46773560085 40.5901104553844 2567.15732139529 100 102 99
-1347.65709931828 39.9086208160664 2559.21613345302 102 104 101
-1352.84401427489 39.4105975680968 2551.50892353431 115 117 114
-1353.02721610603 39.3710669607055 2544.30631640534 123 125 122
-1349.20823879554 39.6981174096631 2537.47436874619 128 130 127
-1346.39026157485 39.9332183550313 2530.52930348101 129 131 128
-1339.57107919318 40.5346710649045 2523.91658495157 132 134 131
-1336.75426062317 40.7691634492429 2516.92558217805 135 140 136
-1331.93745508752 41.1866437468589 2510.08115297909 140 145 139
-1329.12165365926 41.4205652438698 2503.04978380728 153 158 152
-1319.30529679998 42.2953883129739 2496.53674033604 156 161 155
-1203.50143619361 46.4940344366919 2920.40557450648 178 183 179
-1207.70875099789 46.097643301327 2911.98549494405 150 155 151
-1210.91172052554 45.7909862676847 2903.80689574943 153 158 154
-1219.13331571932 45.0364210702003 2894.5522248123 139 143 142
-1226.35015232807 44.3716399898466 2885.55524146963 145 149 148
-1232.56243356756 43.7966039295701 2876.8079613665 158 162 161
-1235.76303040822 43.4904285251064 2868.72261213571 161 165 164
-1240.97044188936 43.0052361889891 2860.23742866728 152 157 153
-1254.20494899701 41.8038607224845 2850.14050284181 151 156 152
-1262.42050784532 41.0504374243139 2841.12297928024 156 161 157
-1272.64177362445 40.1181870649874 2831.74911848011 157 162 158
-1275.83879225107 39.8126191733947 2823.80427054993 154 159 155
-1289.06747641173 38.6123287934551 2813.93609074692 150 155 151
-1300.28802702766 37.5912714321529 2804.51952454614 163 168 164
-1307.4948660378 36.9282817208462 2795.91520542503 133 138 134
-1308.68297384948 36.8020456107207 2788.46178034119 127 132 128
-1315.88835307057 36.1392494748925 2779.91472267972 136 141 137
-1321.08698121668 35.6554533477715 2771.76499672516 151 156 152
-1325.28246889654 35.261052427523 2763.81862388438 174 179 175
-1323.46082161859 35.4030614381395 2756.94173988319 160 165 161
-1322.64230151741 35.4555374665025 2749.88052381136 158 163 159
-1319.81869115583 35.6866463712757 2743.1513348603 160 165 161
-1320.00309094037 35.6495577108625 2735.90452953709 151 156 152
-1320.18752196354 35.6123857100278 2728.65641381583 142 147 143
-1318.36713817684 35.7537732528352 2721.72948091557 138 143 139
-1318.55177057076 35.7164125985141 2714.47329236602 137 142 138
-1316.73210371475 35.8575161101129 2707.52735914784 135 140 136
-1315.91460240237 35.9091988765028 2700.41614874835 136 141 137
-1315.09750754789 35.9607552921919 2693.29824168891 132 137 133
-1316.28449505376 35.8336952174606 2685.87839253894 121 125 124
-1318.47349906612 35.6173228287001 2678.31785709703 120 124 123
-1318.65838294878 35.5793250399522 2671.05115539048 122 127 123
-1315.83781402866 35.8088289740541 2664.20137307716 133 138 134
-1312.01601240411 36.1272983736357 2657.47059572578 134 139 135
-1307.19294799204 36.5347143734244 2650.85065404299 135 140 136
-1304.37392489059 36.7635516856481 2643.93974001406 130 135 131
-1304.55999764059 36.7247422294246 2636.6257017472 124 129 123
-1300.74025731563 37.0423027380994 2629.81338576999 121 126 120
-1297.92243104668 37.2705063194431 2622.85501492934 106 111 105
-1292.10102728999 37.7657723804591 2616.23979804888 81 86 80
-1286.28072384831 38.2606973567365 2609.59053560336 87 92 86
-1282.46328744236 38.5772124937788 2602.67772726209 93 95 92
-1282.65112598224 38.5372277102116 2595.29341383391 95 97 94
-1298.85593123382 37.072443019896 2586.15792867548 98 100 97
-1320.06358804452 35.1628511989901 2576.57553295962 100 102 99
-1334.26171853214 33.8768211297812 2567.83413353069 100 102 99
-1346.45613938414 32.7690413706195 2559.37039085386 99 101 98
-1349.6420850241 32.4622651040291 2551.85701614119 113 115 112
-1350.82636352768 32.3333422884047 2544.55036890602 123 125 122
-1344.00527744139 32.9158856562012 2537.99175035307 128 130 127
-1343.18840948123 32.9644738775553 2530.85246367047 126 128 125
-1339.37042191225 33.2795871240855 2523.96901623623 126 128 125
-1339.55468249384 33.2387843328825 2516.72366349896 134 139 135
-1336.73786196725 33.4645144569308 2509.72332895502 138 143 137
-1333.9214799475 33.6899477808308 2502.70553736343 150 155 149
-1318.10264052357 35.0702381798103 2496.66541745481 153 158 152
-1203.29181816487 38.9185836647395 2920.46423762772 178 183 179
-1208.50339047222 38.445670981533 2911.82029481423 146 151 147
-1211.70650107836 38.1466588270862 2903.64439026653 141 146 142
-1219.92885709335 37.4133747616848 2894.39215862949 141 145 144
-1227.14613614526 36.7672018337301 2885.39786307648 152 156 155
-1231.3511622872 36.3817282771146 2877.07895482188 141 145 144
-1234.55203985657 36.0831755777392 2868.99081841379 135 139 138
-1239.7596437413 35.6110943301344 2860.50286803552 142 147 143
-1255.00239797623 34.2710734976496 2849.99346930402 146 151 147
-1267.23262192569 33.1918108769954 2840.17036184504 150 155 151
-1275.44735017466 32.4599754895265 2831.20848041841 141 146 142
-1275.63429944264 32.4224031459808 2823.86151310906 134 139 135
-1284.85087893157 31.6040753241599 2814.76843234819 147 152 148
-1297.07566343826 30.5257838208501 2805.14963507842 142 147 143
-1304.28322680746 29.8813422126692 2796.53692102067 132 137 133
-1307.47760905381 29.5838735483467 2788.70380829082 135 140 136
-1311.67477537833 29.1997391254052 2780.70285157563 134 139 135
-1316.87404537336 28.7290213249519 2772.54208244165 133 138 134
-1319.06427231654 28.5183402668866 2764.9398615389 139 144 140
-1322.25697808321 28.221002829158 2757.17241234397 154 159 155
-1324.44640460361 28.0103429397866 2749.59217267757 146 151 147
-1324.63041629188 27.9728924540135 2742.36014700086 138 143 139
-1320.80414925685 28.2817922583663 2735.79361826561 145 150 146
-1318.98336296964 28.4173300676274 2728.87613548615 150 155 151
-1319.16788161587 28.3795495533098 2721.62394177714 150 155 151
-1317.34781418434 28.5148178236393 2714.68739900542 151 156 152
-1315.52781519122 28.6499359661381 2707.73869543994 146 151 147
-1314.71053402905 28.6983909821512 2700.62473988621 146 151 147
-1315.89762473678 28.57365917983 2693.20335716965 146 151 147
-1317.08484597407 28.4488294724999 2685.78609257168 153 157 156
-1317.26975857361 28.4104639242057 2678.51787363804 147 151 150
-1316.45256981372 28.4584773420354 2671.39050774039 141 146 142
-1314.63396347422 28.5927714423597 2664.3958144423 134 139 135
-1310.81167957434 28.8998487151878 2657.66232930495 132 137 133
-1307.99190403687 29.1202135946769 2650.77172603609 137 142 138
-1305.17281412519 29.340347791507 2643.86340323587 135 140 136
-1303.35547697286 29.4739170095463 2636.80900259511 123 128 122
-1299.53549296853 29.7800637494409 2629.99395522612 111 116 110
-1296.7175001869 29.999563884774 2623.03274718782 101 106 100
-1290.89570178958 30.477979628948 2616.41486165746 87 92 86
-1286.07627244965 30.8696900572224 2609.64531011803 82 87 81
-1280.2561278048 31.3474554587563 2602.96209192467 80 82 79
-1278.44160010867 31.4796315148245 2595.79639213301 76 78 75
-1287.63999061912 30.6623048975459 2587.415274678 84 86 83
-1308.84975736345 28.8096527367003 2577.80222808003 95 97 94
-1332.0587093089 26.7849513848751 2568.09501358784 101 103 100
-1346.25611217807 25.5371220913269 2559.42306905958 102 104 101
-1351.4440794704 25.0656890756474 2551.71260554663 102 104 101
-1348.62496285198 25.2840779606599 2544.79412776836 111 113 110
-1340.8028361933 25.9332385661306 2538.32300918553 124 126 123
-1339.9860952789 25.9786719737302 2531.17536971875 125 127 124
-1338.16925239697 26.1100508152071 2524.10862420911 125 127 124
-1337.3529054222 26.1550642448579 2516.94513727689 131 136 132
-1332.53526205448 26.5444536107429 2510.10329157872 134 139 133
-1329.71892615012 26.761291933375 2503.07446898759 153 158 152
-1311.89845878393 28.2695826636307 2497.17669148601 155 160 154
-1195.04857836246 32.0162073700127 2922.33409600454 175 179 178
-1203.2736763635 31.3037551533275 2912.99706568863 133 137 136
-1209.48950759383 30.7598691710382 2904.14448620045 138 142 141
-1219.7204052185 29.8795818465492 2894.44997341499 146 150 149
-1227.94203676288 29.1678305631203 2885.23985205373 148 152 151
-1232.14727708742 28.7927583043282 2876.92374091357 133 137 136
-1236.35199816105 28.417764265855 2868.6280078846 134 138 137
-1244.5711951917 27.7065529506465 2859.52294031819 135 140 136
-1255.80000269706 26.7433164196271 2849.84574982907 137 142 138
-1270.0380342786 25.5282294316159 2839.62105064161 136 141 137
-1277.24996180782 24.9017839060288 2830.86641768785 138 143 139
-1282.4537665201 24.4435581827782 2822.54182912462 129 134 130
-1285.65034042924 24.1534585594751 2814.63097092955 160 165 161
-1290.8532026248 23.6954206066694 2806.35274558671 169 174 170
-1297.05831039132 23.1535073699156 2797.91206960617 145 150 146
-1303.26286006107 22.6116795600733 2789.50262249362 137 142 138
-1311.47286547921 21.902075046998 2780.75852024585 135 140 136
-1314.66662052193 21.6123657718585 2772.95825224125 138 143 139
-1317.85975578826 21.3227045960127 2765.172934102 145 150 146
-1320.04994324982 21.1169406063532 2757.57753584722 152 157 153
-1321.2369169093 20.9950908704474 2750.16382232302 153 158 154
-1321.42112195054 20.9570787466924 2742.92363669877 143 148 144
-1318.59734023908 21.1706176787358 2736.18227941153 138 143 139
-1316.77676944906 21.3001380905961 2729.25923802564 141 146 142
-1316.96141375388 21.2618289652294 2722.00156556171 148 153 149
-1317.146091156 21.2234209998459 2714.7424934139 148 153 149
-1316.32848321285 21.2687669998818 2707.63797137064 145 150 146
-1316.51329236636 21.2301889156677 2700.37356726151 151 156 152
-1314.69353858288 21.3590898238371 2693.40860446652 153 158 154
-1315.88065531947 21.2365417871903 2685.98854921148 146 151 147
-1315.0635880557 21.2813987334574 2678.86237043703 146 151 147
-1314.24668975581 21.326135672919 2671.72945911465 142 147 143
-1313.42972175754 21.3707442557299 2664.58980923866 120 125 121
-1311.61133172556 21.4989338496273 2657.58010734449 118 123 119
-1310.79477010616 21.543269190431 2650.42428138797 133 138 134
-1307.97499585166 21.7547959233636 2643.52413825582 131 136 132
-1307.15914910537 21.7987727569378 2636.34931243275 136 141 137
-1299.33212675973 22.42817004732 2630.04831393027 140 145 141
-1296.51389832388 22.6390301583744 2623.0870390825 116 121 117
-1291.6930488585 23.016912289834 2616.34881841696 83 88 84
-1286.87316356265 23.3945195918838 2609.58194436366 90 95 91
-1278.04842247269 24.106218147643 2603.24613279577 78 83 79
-1271.22761068332 24.6503213125766 2596.63551963966 78 83 79
-1278.42465012616 24.0242414115897 2588.45383246764 77 82 78
-1296.63342634933 22.479207962592 2579.13570316089 84 89 85
-1322.84793821262 20.2663396939545 2569.08324166387 104 109 105
-1340.05027899954 18.8057449493537 2560.08259761396 99 104 100
-1342.23598526022 18.5980561276135 2552.65094868856 101 106 102
-1342.41986267009 18.5572353095287 2545.42055227369 111 116 112
-1336.59897765377 19.017087070913 2538.74703607489 119 124 120
-1337.78420747815 18.8924124153107 2531.40776927432 119 124 120
-1337.96850429132 18.8510448020249 2524.16039401897 122 127 123
-1338.15282464318 18.8095358792103 2516.91194706293 127 132 128
-1336.33604698853 18.9346885190158 2509.82664224134 129 134 128
-1334.5195709385 19.0596108154654 2502.72930234144 151 156 149
-1322.69990635457 20.0180290519073 2496.3858989352 161 166 159
-1200.67241393631 23.9690060068219 2928.56227538604 179 183 184
-1197.85116946162 24.1737818873495 2921.71234500649 165 169 170
-1200.05144862288 23.9712880906787 2913.72603944937 153 157 158
-1207.2719782386 23.3617616758998 2904.64404880566 137 141 140
-1219.51195695576 22.3453678364236 2894.50719488749 158 162 161
-1229.74224049914 21.4921325319006 2884.86572890153 163 167 166
-1232.94378931844 21.2088260223449 2876.76772790564 164 168 167
-1240.16029066338 20.600116966924 2867.84405365622 161 165 164
-1249.38327016815 19.828928915342 2858.54212837184 154 159 155
-1260.61278456048 18.8952855087942 2848.87840989757 171 176 172
-1268.82963098299 18.2059048567833 2839.87932753665 163 168 164
-1273.03116867159 17.8419465596042 2831.71986155174 167 172 168
-1276.22875416646 17.5593800997887 2823.77755561238 166 171 167
-1281.432917391 17.1142749906848 2815.46236784147 120 125 121
-1288.64300058592 16.5067944770526 2806.79085624218 113 118 114
-1296.85536966392 15.8182006929833 2797.96760889326 121 126 122
-1304.06351289005 15.2110265875785 2789.37224699235 129 134 130
-1312.27403949781 14.5227701386165 2780.63069675577 139 144 140
-1315.46793946897 14.2407347272262 2772.8330040494 145 150 146
-1315.65238215149 14.2023292318299 2765.58310820864 150 155 151
-1316.83973206054 14.082675056213 2758.15704697121 149 154 150
-1316.02136246695 14.1253129053855 2751.07938506212 163 168 164
-1317.20863836254 14.0055734009223 2743.65612490765 167 172 168
-1316.39046979449 14.0480376932762 2736.57041987202 160 165 161
-1316.57507113923 14.0093048669978 2729.31397149935 142 147 143
-1315.75717472955 14.0515766649502 2722.21742288615 147 152 148
-1317.94682877693 13.8505042635849 2714.63858498344 149 154 150
-1318.13145648837 13.8115393463069 2707.38085690748 145 150 146
-1321.32331802398 13.5292813815908 2699.66259436317 137 142 138
-1316.49629709491 13.8954191490541 2693.16229047251 135 140 136
-1317.6833396928 13.7751265598231 2685.74755454049 130 135 131
-1311.85499901605 14.2219134535936 2679.35140333066 129 134 130
-1309.03389477888 14.4253915988672 2672.49459857462 129 134 130
-1309.21940150897 14.3857125094137 2665.20174858133 133 138 134
-1309.40493830944 14.3459353857982 2657.9076180723 136 141 137
-1310.592340874 14.2250968203266 2650.47822716859 135 140 136
-1305.76879455506 14.5898293952995 2643.84061468982 136 141 137
-1303.95106468816 14.7115293648138 2636.7888184101 136 141 137
-1295.12200667462 15.3994211534826 2630.60549008531 120 125 121
-1293.30537786677 15.5206629373602 2623.51016863941 104 109 105
-1289.486077461 15.8034603308622 2616.64333314048 95 100 96
-1287.67020003561 15.9243070134368 2609.51822083584 82 87 83
-1278.84470121352 16.6109242745638 2603.18509370162 81 86 82
-1274.02607920471 16.9737756770794 2596.3530022664 80 85 81
-1274.2144764687 16.9322166928327 2588.94516170868 83 88 84
-1288.4198418964 15.7592569749975 2580.04240199314 88 93 89
-1311.6336554298 13.8594513811073 2570.27928324866 94 99 95
-1329.83904405451 12.3640852847149 2561.14688200256 100 105 101
-1336.0295610116 11.8382704131695 2553.29375058441 98 103 99
-1337.21495111061 11.7162239355915 2545.95104163144 106 111 107
-1335.39736708463 11.8362495590107 2538.8917475994 112 117 113
-1333.58008479589 11.9561048228181 2531.82047771201 113 118 114
-1335.7662024285 11.752909808912 2524.3869008396 116 121 117
-1334.95006931852 11.7916812043174 2517.21767790286 128 133 129
-1331.13231210653 12.0722821890052 2510.28817071052 131 136 130
-1328.31558007545 12.2719404856669 2503.25638353518 135 140 134
-1323.49829485873 12.6326235551258 2496.36039265674 152 157 151
-1195.44076520318 16.7811804961144 2929.76536380302 185 189 190
-1195.63265563041 16.7409572515158 2922.22243253956 169 173 174
-1195.82457866343 16.7007553358522 2914.67824983019 139 143 144
-1208.06676796797 15.7162764255425 2904.47994150408 140 144 143
-1219.30351092427 14.8107931179793 2894.56394185405 179 183 182
-1232.54674231577 13.7483348264275 2884.27519935667 178 182 181
-1235.74805472407 13.4727168107375 2876.1853686457 165 169 168
-1242.965102755 12.8826150295505 2867.26963186011 168 172 171
-1253.19255913429 12.0568408734701 2857.76814690717 178 183 179
-1259.40333599337 11.5457986400031 2849.13905005627 177 182 178
-1266.61743649972 10.9562865118278 2840.33914586581 176 181 177
-1270.819399154 10.6026884007819 2832.17419472009 177 182 178
-1277.02809138853 10.0920479707897 2823.63632843186 165 170 166
-1283.23574351509 9.58158254908426 2815.12997628868 121 126 122
-1287.4361028265 9.22825811063266 2807.03730797309 117 122 118
-1295.64913315589 8.5610051117736 2798.21113072087 107 112 108
-1301.85463090592 8.05090004445463 2789.79869078437 117 122 118
-1310.06565013369 7.38397239140609 2781.05146368157 140 145 141
-1315.26632141906 6.95264101241497 2772.88754216058 144 149 145
-1318.46005138546 6.67830328990784 2765.10475901492 160 165 161
-1319.64725636819 6.56090840262188 2757.68678784979 157 162 158
-1318.82859082073 6.60033900019155 2750.61724914339 142 147 143
-1318.00985639793 6.63967103151877 2743.54097170284 148 153 149
-1316.18878454802 6.75729102041187 2736.62473571563 158 163 159
-1314.367785398 6.8748047612322 2729.69621949571 151 156 152
-1312.54733276764 6.99218487244885 2722.75552470136 141 146 142
-1317.74518209434 6.56093270014152 2714.69265535918 149 154 150
-1318.93226390338 6.44313546709077 2707.27906624074 152 157 153
-1321.12187471187 6.24693298485621 2699.71647199608 150 155 151
-1316.29446387518 6.59887501834561 2693.21616476001 145 150 146
-1315.47681389068 6.6374231841807 2686.09666205962 144 149 145
-1311.65276341051 6.91066674904175 2679.40521775798 141 146 142
-1305.82482088327 7.34027222457839 2672.97505740246 137 142 138
-1306.01052440478 7.30004558649255 2665.67392820322 137 142 138
-1305.19427661883 7.3379772356934 2658.50828554622 138 143 139
-1308.38608548421 7.06289056491133 2650.79978152006 137 142 138
-1304.56413152484 7.33523086674204 2644.02542806883 139 144 140
-1303.74808379606 7.37278228553745 2636.84223343378 128 133 129
-1294.91833423132 8.03556015556894 2630.65896793408 120 125 121
-1291.09803531257 8.30720789280967 2623.80986135142 109 114 110
-1290.28349503442 8.34414478339568 2616.57641527876 96 101 97
-1289.46912248561 8.38091698156362 2609.33623692898 86 91 87
-1282.64588299714 8.88623395374483 2602.7788610372 80 85 81
-1275.82340552529 9.39123115259732 2596.1820347598 80 85 81
-1272.00626822114 9.66162891419281 2589.21734398626 82 87 83
-1280.20528078424 8.99493870350676 2580.94895866749 85 90 86
-1295.4114833571 7.78201934968614 2571.99527250265 96 101 97
-1314.62041825355 6.25728596149341 2562.71743599863 95 100 96
-1326.81919607422 5.27915463578343 2554.23193918334 96 101 97
-1332.00903809221 4.84731837494862 2546.48139605527 106 111 107
-1333.19449230919 4.72744865791613 2539.12919359904 114 119 115
-1331.3774290887 4.84136059741641 2532.05230506979 115 120 116
-1335.56529299574 4.487374659708 2524.43796538847 118 123 119
-1334.74907766191 4.52303195012169 2517.26861235873 129 134 130
-1333.93278616432 4.55854760038951 2510.09275920192 133 138 132
-1332.11637260632 4.67177641932781 2502.98974612965 133 138 132
-1324.29682789981 5.25214615482764 2496.33452878537 147 152 146
-1196.23505903188 9.1096889726911 2929.59271448451 178 182 183
-1199.44012798526 8.84094522272966 2921.37277082396 158 162 163
-1198.62724399808 8.87621390629903 2914.06347518245 144 148 149
-1205.84910616675 8.30375146991238 2904.9785249866 155 159 158
-1215.07805899679 7.57963359331776 2895.49368178712 167 171 170
-1228.32253318788 6.55206061027952 2885.19382353391 175 179 178
-1236.54502629262 5.90441724045118 2876.02818833738 184 188 187
-1243.7622792064 5.33289996368622 2867.11507384198 178 182 181
-1249.97473944954 4.8374615258629 2858.44626345248 170 174 173
-1257.19018887154 4.26633436135673 2849.60405453559 175 179 178
-1263.4009840386 3.77121917607243 2841.0006681712 186 190 189
-1269.61074253614 3.27629308842436 2832.42867669345 183 187 186
-1275.81994073302 2.78148302395073 2823.88803307126 181 185 184
-1283.03185293714 2.21101247702252 2815.18477590821 151 155 154
-1290.2430686288 1.64069421672547 2806.51822916654 135 139 138
-1295.44612283122 1.22213082542372 2798.26555948611 112 116 115
-1299.64521305109 0.879455662240347 2790.22460124769 109 113 112
-1307.85719755038 0.233814729833748 2781.47182881925 118 122 121
-1315.06470505628 -0.335888289663161 2772.94154663311 136 140 139
-1318.25865018776 -0.602548340270403 2765.1585977833 140 145 141
-1320.44894439851 -0.793445387732516 2757.56566558977 129 134 130
-1320.63307719551 -0.832968763767761 2750.32668085471 143 148 144
-1321.82037049129 -0.948237114389794 2742.91686620922 154 159 155
-1317.99274122655 -0.685201183104139 2736.34500824765 153 158 154
-1315.16892691405 -0.498027576770865 2729.58594085383 152 157 153
-1314.35068437559 -0.462247584860631 2722.48662496265 154 159 155
-1318.5461484626 -0.804670094493032 2714.58765983815 146 151 147
-1318.73068139253 -0.844637604456244 2707.33255964477 148 153 149
-1318.91524611206 -0.884696103906651 2700.07611930644 148 153 149
-1317.09503416463 -0.773697074265362 2693.11916627558 145 150 146
-1315.27489189015 -0.662803486842223 2686.15005218013 138 143 139
-1312.45279289846 -0.476541057692792 2679.31364096677 140 145 141
-1307.6267508798 -0.139398023852683 2672.74394555453 141 146 142
-1308.81442987896 -0.255583683955563 2665.30874656039 138 143 139
-1306.99559120254 -0.145322241914964 2658.28800458817 137 142 138
-1309.1854903018 -0.337160065715131 2650.71882937544 139 144 140
-1305.36315411475 -0.076226656688938 2643.94716686286 138 143 139
-1302.54325209032 0.109015739148843 2637.02379532515 149 154 150
-1296.71821885631 0.520396139469692 2630.46036102917 136 141 137
-1291.89599761961 0.856026815264116 2623.7397123683 127 132 128
-1291.08106140625 0.889801212170277 2616.50902038519 117 122 118
-1288.26315305333 1.07419773590584 2609.50682102577 89 94 90
-1283.44268614817 1.40912128252293 2602.71684775011 86 91 87
-1276.61983912055 1.89451247944972 2596.12273836573 87 92 88
-1267.79502776167 2.53024562647536 2589.70810734513 78 83 79
-1268.98514511409 2.41228545017341 2582.17570372012 75 80 76
-1281.18956877913 1.46581156472286 2573.50353907014 95 100 96
-1306.40831264489 -0.459265666946929 2563.57931123214 94 99 95
-1326.61770398287 -2.00727707463866 2554.28333893022 96 101 97
-1330.8069033623 -2.35056004328363 2546.62829638524 106 111 107
-1330.9915483407 -2.39284560998704 2539.36632799911 113 118 114
-1327.17247476194 -2.1343412954129 2532.4645432779 113 118 114
-1327.35744797687 -2.1769693289837 2525.18937855612 115 120 116
-1329.54391820875 -2.3701118602486 2517.74348967648 121 126 122
-1327.72746281892 -2.26261872844929 2510.63595299803 125 130 126
-1325.91107084927 -2.15531940277497 2503.5164047568 139 144 138
-1311.08715640431 -1.07122647883734 2497.38129787747 143 148 142
-1192.0068475193 1.809691412403 2930.56572037036 174 178 179
-1196.2168163546 1.4752610882236 2922.10844082856 153 157 158
-1199.4219170055 1.2141763330189 2913.89548195784 150 154 155
-1207.64826137301 0.587087630919303 2904.5920713017 167 171 170
-1216.87797768599 -0.113003950717117 2895.11251091736 189 193 192
-1226.10648178711 -0.812825323730254 2885.68061810067 194 198 197
-1233.32539369052 -1.3660133131036 2876.72234512023 176 180 179
-1241.5473700808 -1.99216420679502 2867.59065709236 170 174 173
-1249.76850831025 -2.61810259588297 2858.50128025252 180 184 183
-1256.98447289485 -3.1706934846425 2849.65883982208 186 190 189
-1264.19950112964 -3.72307260234273 2840.85322256925 185 189 188
