ply
format ascii 1.0
comment KinectMotionCapture
element vertex 781
property float x
property float y
property float z
property uchar red
property uchar green
property uchar blue
end_header
-307.32199549675 -121.925219893456 1646.00002765656 62 45 29
-302.478343248367 -121.786028146744 1644.00005340576 65 46 29
-297.46350646019 -121.572650969028 1641.00003242493 73 54 37
-293.17831993103 -121.655538678169 1641.99995994568 78 59 44
-288.886904716492 -121.738374233246 1643.00000667572 58 39 24
-284.069895744324 -121.598839759827 1641.00003242493 66 49 33
-279.092609882355 -121.385104954243 1638.00001144409 76 59 43
-274.633795022964 -121.393583714962 1638.00001144409 69 51 37
-271.163821220398 -121.846683323383 1644.00005340576 92 74 60
-268.309265375137 -122.596234083176 1654.00004386902 77 59 45
-264.761418104172 -123.049311339855 1659.9999666214 39 23 8
-259.769171476364 -122.835166752338 1656.99994564056 53 37 22
-254.792451858521 -122.620902955532 1654.00004386902 59 45 32
-251.193195581436 -123.073779046535 1659.9999666214 62 50 38
-248.452007770538 -123.971499502659 1672.00005054474 86 78 65
-247.978523373604 -126.055613160133 1700.00004768372 63 57 45
-244.918122887611 -126.879274845123 1710.99996566772 24 24 14
-240.954458713531 -127.257958054543 1715.99996089935 22 24 13
-237.513497471809 -127.933233976364 1725.00002384186 20 23 14
-233.887687325478 -128.534317016602 1733.00004005432 20 23 14
-228.630632162094 -128.245264291763 1728.99997234344 20 23 14
-224.430680274963 -128.549486398697 1733.00004005432 21 24 15
-220.461681485176 -129.001975059509 1738.9999628067 22 23 15
-217.327505350113 -129.973694682121 1751.99997425079 22 25 18
-212.301880121231 -129.832565784454 1750 20 23 16
-207.049235701561 -129.542887210846 1746.00005149841 18 21 14
-202.281147241592 -129.549831151962 1746.00005149841 18 21 14
-197.399199008942 -129.482433199883 1745.00000476837 18 21 14
-192.853182554245 -129.637524485588 1746.99997901917 16 19 12
-188.618540763855 -130.01511991024 1751.99997425079 16 19 12
-184.250965714455 -130.318388342857 1756.00004196167 13 16 9
-179.349884390831 -130.250468850136 1754.99999523163 14 17 10
-173.956319689751 -129.811301827431 1748.99995326996 11 14 7
-169.755652546883 -130.262643098831 1754.99999523163 11 14 7
-164.95755314827 -130.268484354019 1754.99999523163 12 15 8
-158.698722720146 -129.086524248123 1738.9999628067 11 13 8
-153.323516249657 -128.572404384613 1731.99999332428 14 16 11
-148.843914270401 -128.800451755524 1735.00001430511 15 18 11
-146.008387207985 -130.513146519661 1758.00001621246 17 20 13
-142.082691192627 -131.33493065834 1769.00005340576 20 23 16
-138.794466853142 -132.824808359146 1789.00003433228 17 20 13
-135.246604681015 -134.166151285172 1807.000041008 17 20 13
-131.167024374008 -135.061919689178 1819.00000572205 17 20 11
-126.743778586388 -135.660573840141 1827.00002193451 18 21 12
-121.876448392868 -135.813564062119 1828.9999961853 19 22 13
-116.742074489594 -135.669350624084 1827.00002193451 20 23 14
-111.37355864048 -135.227933526039 1820.99997997284 20 23 16
-106.56326264143 -135.454669594765 1824.00000095367 20 23 16
-102.237276732922 -136.349633336067 1835.99996566772 21 24 17
-97.4745526909828 -136.724591255188 1840.99996089935 21 24 17
-92.5836265087128 -136.950865387917 1843.99998188019 22 25 18
-87.4860286712646 -136.87989115715 1843.00005435944 23 26 19
-82.8408673405647 -137.551441788673 1851.99999809265 27 30 23
-77.9360979795456 -137.851476669312 1855.99994659424 28 31 24
-72.8913620114326 -137.928530573845 1856.99999332428 26 29 22
-67.5487518310547 -137.411177158356 1850.00002384186 25 28 21
-62.9872158169746 -138.527736067772 1865.00000953674 26 29 22
-58.0329112708569 -138.901352882385 1870.00000476837 26 28 23
-51.3533428311348 -134.818017482758 1815.00005722046 31 33 28
-382.959961891174 -132.355540990829 1725.00002384186 28 31 24
-376.745522022247 -131.828770041466 1718.00005435944 21 24 17
-372.517436742783 -131.992533802986 1720.00002861023 15 18 11
-366.994470357895 -131.695806980133 1715.99996089935 14 15 7
-362.125873565674 -131.62924349308 1715.0000333786 13 14 8
-358.720928430557 -132.099941372871 1720.99995613098 13 14 8
-355.076819658279 -132.493913173676 1725.99995136261 12 15 8
-350.795745849609 -132.65760242939 1728.00004482269 13 15 10
-343.097984790802 -131.516069173813 1713.00005912781 15 16 10
-332.714825868607 -129.299357533455 1684.00001525879 18 18 10
-325.021535158157 -128.080502152443 1667.99998283386 27 23 12
-318.951487541199 -127.475738525391 1659.9999666214 41 33 22
-314.628928899765 -127.562016248703 1661.00001335144 56 46 34
-309.553235769272 -127.341017127037 1657.99999237061 54 40 27
-304.677069187164 -127.196729183197 1656.00001811981 73 56 40
-298.723369836807 -126.591473817825 1648.00000190735 75 58 42
-294.419199228287 -126.677423715591 1649.00004863739 77 60 44
-289.933055639267 -126.686498522758 1649.00004863739 68 51 35
-285.445988178253 -126.695483922958 1649.00004863739 64 47 31
-280.447006225586 -126.473888754845 1646.00002765656 74 58 43
-276.134133338928 -126.559540629387 1646.99995517731 81 65 50
-272.309809923172 -126.875668764114 1651.00002288818 83 67 52
-268.625169992447 -127.268612384796 1656.00001811981 83 67 52
-264.912486076355 -127.661496400833 1661.00001335144 36 20 5
-261.328518390656 -128.131225705147 1667.00005531311 40 24 9
-256.478667259216 -127.985939383507 1664.99996185303 46 34 22
-252.698183059692 -128.378659486771 1669.99995708466 46 36 24
-249.781221151352 -129.232615232468 1680.99999427795 48 40 27
-248.116225004196 -130.778506398201 1700.99997520447 51 45 33
-244.623765349388 -131.401836872101 1708.99999141693 27 25 13
-239.682778716087 -131.256207823753 1707.00001716614 26 28 15
-236.266404390335 -131.956309080124 1715.99996089935 23 26 15
-232.395321130753 -132.425650954247 1722.00000286102 23 26 17
-228.35847735405 -132.818058133125 1726.99999809265 23 26 17
-224.164083600044 -133.133426308632 1730.99994659424 22 25 16
-220.073863863945 -133.525669574738 1735.99994182587 22 25 16
-216.327756643295 -134.148567914963 1743.99995803833 22 25 18
-211.80933713913 -134.309872984886 1746.00005149841 20 23 16
-207.516402006149 -134.624898433685 1750 18 21 14
-202.505826950073 -134.478241205215 1748.00002574921 17 20 13
-197.731703519821 -134.485304355621 1748.00002574921 17 20 13
-192.956849932671 -134.492218494415 1748.00002574921 15 18 11
-188.288971781731 -134.575933218002 1748.99995326996 14 17 10
-184.244498610497 -135.121211409569 1756.00004196167 12 15 8
-179.036989808083 -134.819909930229 1751.99997425079 13 16 9
-174.546912312508 -135.057136416435 1754.99999523163 10 13 6
-169.362723827362 -134.755492210388 1751.00004673004 10 13 6
-164.481729269028 -134.684592485428 1750 12 14 9
-157.689243555069 -132.997214794159 1728.00004482269 13 15 10
-152.875393629074 -132.925897836685 1726.99999809265 17 19 14
-149.610608816147 -134.239926934242 1743.99995803833 17 20 13
-146.750584244728 -136.015772819519 1766.99995994568 17 20 13
-143.201947212219 -137.252748012543 1782.99999237061 17 20 13
-139.254882931709 -138.181701302528 1794.99995708466 16 19 12
-135.466203093529 -139.341533184052 1809.99994277954 17 20 13
-131.306439638138 -140.193328261375 1820.99997997284 18 21 12
-126.669764518738 -140.583053231239 1825.99997520447 19 22 13
-121.472164988518 -140.356704592705 1822.99995422363 20 23 14
-116.482190787792 -140.361145138741 1822.99995422363 21 24 15
-111.124828457832 -139.903455972672 1817.00003147125 19 22 15
-106.793008744717 -140.754505991936 1827.99994945526 19 22 15
-102.511912584305 -141.75945520401 1840.99996089935 20 23 16
-97.947433590889 -142.456248402596 1850.00002384186 20 23 16
-92.4797728657722 -141.843795776367 1842.00000762939 21 24 17
-87.0555639266968 -141.231164336205 1833.99999141693 21 24 17
-82.2562947869301 -141.619399189949 1838.99998664856 28 31 24
-77.6392593979836 -142.392516136169 1848.99997711182 29 32 25
-72.8886276483536 -143.011465668678 1856.99999332428 27 30 23
-68.0573806166649 -143.553256988525 1863.9999628067 25 28 21
-63.1537139415741 -144.017815589905 1870.00000476837 25 28 21
-58.0617636442184 -144.097164273262 1871.00005149841 25 27 22
-52.8792217373848 -143.945246934891 1868.99995803833 22 24 19
-374.761432409287 -135.800063610077 1708.99999141693 24 27 20
-369.908094406128 -135.731160640717 1707.99994468689 19 22 15
-367.19799041748 -136.456936597824 1717.00000762939 15 16 8
-363.171279430389 -136.705905199051 1720.00002861023 13 14 8
-361.003369092941 -137.670263648033 1731.99999332428 12 13 7
-356.712222099304 -137.839779257774 1733.99996757507 10 13 6
-352.206468582153 -137.929782271385 1735.00001430511 10 13 6
-344.289541244507 -136.668175458908 1718.99998188019 10 13 6
-335.075736045837 -134.849742054939 1695.99997997284 17 18 10
-327.349990606308 -133.587598800659 1679.99994754791 15 12 3
-321.823835372925 -133.199945092201 1674.99995231628 23 19 8
-317.271113395691 -133.209809660912 1674.99995231628 38 32 20
-311.970829963684 -132.90148973465 1671.0000038147 45 35 23
-306.323438882828 -132.433965802193 1664.99996185303 74 58 43
-300.164103507996 -131.727650761604 1656.00001811981 70 54 39
-295.481204986572 -131.657585501671 1654.99997138977 78 62 47
-290.978729724884 -131.666973233223 1654.99997138977 80 62 48
-286.475449800491 -131.676286458969 1654.99997138977 65 47 33
-281.460225582123 -131.446823477745 1651.99995040894 72 56 41
-276.963472366333 -131.455957889557 1651.99995040894 78 62 47
-272.630840539932 -131.544589996338 1652.99999713898 70 54 39
-268.940836191177 -131.951466202736 1657.99999237061 82 66 51
-265.541702508926 -132.517486810684 1664.99996185303 40 24 9
-263.04417848587 -133.561044931412 1677.99997329712 33 19 6
-259.088754653931 -133.888259530067 1682.000041008 32 22 10
-255.110710859299 -134.215399622917 1685.99998950958 46 40 28
-251.2586414814 -134.622097015381 1690.99998474121 44 40 28
-247.816115617752 -135.267570614815 1699.00000095367 25 23 11
-243.756607174873 -135.59453189373 1702.99994945526 24 24 12
-239.53415453434 -135.84178686142 1705.9999704361 26 28 17
-236.120581626892 -136.566743254662 1715.0000333786 25 28 17
-232.117384672165 -136.97312772274 1720.00002861023 24 27 18
-227.953851222992 -137.299790978432 1723.99997711182 23 26 17
-223.638296127319 -137.546718120575 1726.99999809265 22 25 16
-219.812601804733 -138.112142682076 1733.99996757507 22 25 16
-215.823978185654 -138.597831130028 1740.00000953674 22 25 16
-210.831359028816 -138.446196913719 1738.00003528595 20 23 14
-206.797555088997 -138.931691646576 1743.99995803833 17 20 11
-202.382728457451 -139.178097248077 1746.99997901917 17 20 13
-197.950810194016 -139.424398541451 1750 17 20 11
-192.949891090393 -139.272212982178 1748.00002574921 14 17 8
-188.820421695709 -139.75727558136 1753.99994850159 13 16 9
-184.342727065086 -140.003189444542 1756.99996948242 11 14 7
-180.256724357605 -140.567734837532 1764.00005817413 12 15 6
-175.236687064171 -140.41493833065 1761.99996471405 10 13 4
-170.613840222359 -140.580773353577 1764.00005817413 9 12 5
-163.441807031631 -138.59461247921 1738.9999628067 9 12 5
-157.865911722183 -137.883335351944 1730.00001907349 12 14 9
-153.843432664871 -138.5268419981 1738.00003528595 17 19 14
-150.977581739426 -140.286132693291 1759.99999046326 18 21 14
-149.236530065537 -143.241062760353 1797.00005054474 16 19 12
-144.642189145088 -143.565505743027 1800.99999904633 14 17 10
-140.025436878204 -143.889784812927 1804.99994754791 17 20 13
-135.386258363724 -144.213929772377 1809.00001525879 18 21 14
-131.662011146545 -145.574301481247 1825.99997520447 19 22 13
-126.803696155548 -145.738705992699 1827.99994945526 21 24 15
-121.201038360596 -145.025953650475 1819.00000572205 21 24 15
-115.902721881866 -144.631877541542 1814.00001049042 19 22 13
-110.692501068115 -144.317328929901 1809.99994277954 20 23 16
-106.61368817091 -145.517572760582 1825.00004768372 21 24 17
-102.563671767712 -146.877139806747 1842.00000762939 22 25 18
-97.7848544716835 -147.279724478722 1847.00000286102 23 26 19
-92.3256129026413 -146.645501255989 1838.99998664856 25 28 21
-87.0047509670258 -146.170556545258 1832.99994468689 26 29 22
-82.2978615760803 -146.732077002525 1840.0000333786 28 31 24
-77.5102972984314 -147.213667631149 1845.99995613098 29 32 25
-73.1213167309761 -148.572370409966 1863.00003528595 25 28 21
-67.8721889853477 -148.25613796711 1858.99996757507 24 27 20
-63.0837306380272 -148.976475000381 1868.00003051758 23 26 19
-57.9664222896099 -148.978859186172 1868.00003051758 29 30 25
-52.8488792479038 -148.981049656868 1868.00003051758 22 23 18
-362.293154001236 -134.122580289841 1631.99996948242 22 27 20
-374.750733375549 -140.461593866348 1708.99999141693 22 27 20
-372.06307053566 -141.212224960327 1718.00005435944 13 18 11
-367.828845977783 -141.387552022934 1720.00002861023 15 16 8
-364.216297864914 -141.809463500977 1725.00002384186 13 14 6
-362.660020589828 -143.053531646729 1740.00000953674 12 13 5
-356.907278299332 -142.653360962868 1735.00001430511 12 13 5
-351.992845535278 -142.581969499588 1733.99996757507 14 15 7
-344.679594039917 -141.523703932762 1720.99995613098 15 16 8
-338.028848171234 -140.711948275566 1710.99996566772 16 18 7
-332.016140222549 -140.146762132645 1703.9999961853 17 19 8
-326.61697268486 -139.828160405159 1700.00004768372 16 18 7
-322.185784578323 -139.920741319656 1700.99997520447 17 19 8
-315.881460905075 -139.190644025803 1692.00003147125 24 24 14
-308.705300092697 -138.049006462097 1677.99997329712 25 15 5
-302.329480648041 -137.236207723618 1667.99998283386 34 24 14
-297.078430652618 -136.916935443878 1664.00003433228 63 51 39
-292.551547288895 -136.926665902138 1664.00003433228 63 49 38
-288.196951150894 -137.018620967865 1664.99996185303 61 47 36
-283.665716648102 -137.028187513351 1664.99996185303 63 46 36
-278.798371553421 -136.873081326485 1662.99998760223 69 53 40
-273.776173591614 -136.635541915894 1659.9999666214 66 52 39
-269.418329000473 -136.727124452591 1661.00001335144 66 50 37
-266.011118888855 -137.312561273575 1667.99998283386 61 48 32
-263.975739479065 -138.6389285326 1684.00001525879 51 44 28
-261.082231998444 -139.55369591713 1695.00005245209 25 25 13
-257.06884264946 -139.892101287842 1699.00000095367 21 24 15
-252.587139606476 -139.983430504799 1700.00004768372 21 24 15
-248.828411102295 -140.486359596252 1705.9999704361 22 25 16
-244.463667273521 -140.659838914871 1707.99994468689 24 27 18
-239.946901798248 -140.750885009766 1708.99999141693 25 28 19
-235.97452044487 -141.171246767044 1713.99998664856 23 26 17
-232.513919472694 -141.921028494835 1723.00004959106 23 26 19
-228.210091590881 -142.176494002342 1725.99995136261 24 27 20
-222.98276424408 -141.855239868164 1722.00000286102 25 28 21
-219.67788040638 -142.769560217857 1733.00004005432 24 27 20
-215.568050742149 -143.189519643784 1738.00003528595 22 25 16
-210.82367002964 -143.197417259216 1738.00003528595 21 24 13
-206.671386957169 -143.617153167725 1743.00003051758 18 21 10
-202.606946229935 -144.119188189507 1748.99995326996 18 21 12
-198.395922780037 -144.538745284081 1753.99994850159 18 21 10
-193.604975938797 -144.546136260033 1753.99994850159 19 22 11
-189.028665423393 -144.718199968338 1756.00004196167 18 21 12
-185.489878058434 -145.714297890663 1768.00000667572 13 16 7
-180.352091789246 -145.474001765251 1764.99998569489 13 16 5
-176.622360944748 -146.38751745224 1776.00002288818 11 14 5
-169.93036866188 -144.828051328659 1756.99996948242 8 11 2
-163.059681653976 -143.021002411842 1735.00001430511 13 16 9
-158.042386174202 -142.779901623726 1731.99999332428 14 17 10
-155.607804656029 -144.929364323616 1758.00001621246 15 18 11
-153.545156121254 -147.573530673981 1789.99996185303 16 19 12
-149.812087416649 -148.73369038105 1804.00002002716 15 18 11
-144.636616110802 -148.492112755775 1800.99999904633 15 18 11
-139.632150530815 -148.415237665176 1799.99995231628 12 15 8
-135.081633925438 -148.832902312279 1804.99994754791 16 19 12
-130.791664123535 -149.580299854279 1814.00001049042 23 26 19
-126.521304249763 -150.409981608391 1824.00000095367 23 26 19
-121.129661798477 -149.920120835304 1817.999958992 23 26 19
-116.345413029194 -150.172248482704 1820.99997997284 25 28 21
-111.421994864941 -150.259271264076 1822.00002670288 25 28 21
-107.193648815155 -151.335746049881 1835.00003814697 23 26 19
-102.670967578888 -152.082189917564 1843.99998188019 22 25 18
-97.8339314460754 -152.416124939919 1848.00004959106 22 25 18
-92.7737653255463 -152.419954538345 1848.00004959106 23 26 19
-87.428480386734 -151.928722858429 1842.00000762939 23 26 19
-82.5629308819771 -152.262061834335 1845.99995613098 26 29 22
-77.5911882519722 -152.430266141891 1848.00004959106 28 31 24
-72.9614049196243 -153.340637683868 1858.99996757507 28 31 24
-67.8694844245911 -153.343498706818 1858.99996757507 26 29 22
-63.1487518548965 -154.253527522087 1870.00000476837 25 28 21
-57.9330734908581 -154.008522629738 1866.99998378754 27 29 24
-53.2145351171494 -155.165642499924 1881.00004196167 28 30 25
-378.905892372131 -146.736145019531 1728.00004482269 26 31 24
-372.485101222992 -146.068066358566 1720.00002861023 10 16 6
-368.459284305573 -146.33409678936 1723.00004959106 14 15 7
-364.627480506897 -146.685063838959 1726.99999809265 13 14 6
-361.815214157104 -147.460743784904 1735.99994182587 12 13 5
-356.484860181808 -147.217124700546 1733.00004005432 13 14 6
-351.169914007187 -146.973386406899 1730.00001907349 15 16 8
-346.07070684433 -146.814554929733 1728.00004482269 16 17 9
-340.191274881363 -146.315738558769 1722.00000286102 17 19 8
-333.95391702652 -145.646840333939 1713.99998664856 17 19 8
-328.527688980103 -145.317688584328 1710.00003814697 16 18 7
-325.584590435028 -146.093279123306 1718.99998188019 16 18 7
-320.911586284637 -146.103948354721 1718.99998188019 21 21 11
-312.00647354126 -144.159555435181 1695.99997997284 24 20 9
-304.67563867569 -142.894864082336 1680.99999427795 28 20 9
-298.853725194931 -142.309993505478 1674.00002479553 41 31 21
-294.475555419922 -142.405092716217 1674.99995231628 52 39 30
-289.744943380356 -142.330095171928 1674.00002479553 49 36 27
-285.18933057785 -142.340019345284 1674.00002479553 55 41 30
-279.962301254272 -142.009690403938 1669.99995708466 58 44 33
-274.921149015427 -141.764283180237 1667.00005531311 57 45 31
-270.382136106491 -141.773879528046 1667.00005531311 55 41 28
-266.958653926849 -142.378747463226 1674.00002479553 58 46 32
-263.966470956802 -143.238753080368 1684.00001525879 60 52 39
-261.227011680603 -144.268900156021 1695.99997997284 25 25 13
-257.211029529572 -144.618526101112 1700.00004768372 20 23 14
-252.57807970047 -144.627764821053 1700.00004768372 20 23 14
-249.548718333244 -145.572781562805 1710.99996566772 22 25 16
-245.313584804535 -145.837098360062 1713.99998664856 23 26 17
-240.780517458916 -145.931154489517 1715.0000333786 23 26 17
-236.791878938675 -146.365463733673 1720.00002861023 25 28 19
-232.775256037712 -146.799698472023 1725.00002384186 26 29 22
-227.937236428261 -146.723225712776 1723.99997711182 26 29 22
-222.068071365356 -145.965725183487 1715.0000333786 25 28 21
-218.782365322113 -146.910294890404 1725.99995136261 25 28 21
-215.311914682388 -147.76973426342 1735.99994182587 24 27 18
-211.422204971313 -148.373752832413 1743.00003051758 23 26 17
-205.952152609825 -147.870972752571 1736.99998855591 21 24 15
-201.556712388992 -148.134231567383 1740.00000953674 21 24 15
-197.709709405899 -148.82305264473 1748.00002574921 21 24 15
-193.266436457634 -149.086058139801 1751.00004673004 22 25 16
-189.129009842873 -149.604380130768 1756.99996948242 21 24 15
-184.853225946426 -150.037452578545 1761.99996471405 17 20 11
-181.469053030014 -151.236802339554 1776.00002288818 18 21 12
-175.621032714844 -150.392279028893 1766.00003242493 14 17 8
-170.310586690903 -149.973317980766 1761.0000371933 13 16 7
-163.4291857481 -148.106276988983 1738.9999628067 15 18 11
-160.13477742672 -149.475440382957 1754.99999523163 15 18 11
-158.434018492699 -152.462869882584 1789.99996185303 14 17 10
-155.597686767578 -154.513403773308 1814.00001049042 14 17 10
-150.138288736343 -154.008463025093 1807.99996852875 15 18 11
-144.22932267189 -152.992203831673 1796.0000038147 16 19 12
-139.781698584557 -153.509080410004 1802.00004577637 21 24 17
-135.00140607357 -153.685033321381 1804.00002002716 22 25 18
-130.425930023193 -154.116407036781 1809.00001525879 23 26 19
-126.030668616295 -154.803201556206 1817.00003147125 23 26 19
-121.191404759884 -154.978647828102 1819.00000572205 23 26 19
-116.724044084549 -155.665129423141 1827.00002193451 24 27 20
-111.784376204014 -155.755028128624 1827.99994945526 24 27 20
-107.364535331726 -156.611621379852 1838.00005912781 22 25 18
-102.388419210911 -156.701147556305 1838.99998664856 21 24 17
-98.0946347117424 -157.898247241974 1853.00004482269 21 24 17
-93.0209830403328 -157.90219604969 1853.00004482269 22 25 18
-87.7096727490425 -157.479882240295 1848.00004959106 23 26 19
-82.5595483183861 -157.312989234924 1845.99995613098 25 28 21
-77.4620473384857 -157.231077551842 1845.00002861023 27 30 23
-72.8799104690552 -158.256873488426 1856.99999332428 26 29 22
-67.7206590771675 -158.089369535446 1855.00001907349 25 28 21
-63.1799101829529 -159.455701708794 1871.00005149841 24 27 20
-58.1478774547577 -159.713894128799 1873.99995326996 27 29 24
-53.127471357584 -160.057157278061 1878.00002098084 31 33 28
-376.482397317886 -150.48460662365 1717.00000762939 27 30 21
-374.206155538559 -151.460334658623 1728.00004482269 11 17 7
-370.372474193573 -151.822581887245 1731.99999332428 14 15 7
-367.149621248245 -152.447804808617 1738.9999628067 13 14 6
-362.01223731041 -152.28408575058 1736.99998855591 13 14 6
-356.062084436417 -151.769548654556 1730.99994659424 13 14 6
-350.549697875977 -151.430249214172 1726.99999809265 16 17 9
-346.259742975235 -151.617005467415 1728.99997234344 17 18 10
-341.563016176224 -151.628330349922 1728.99997234344 18 20 9
-334.722280502319 -150.67483484745 1718.00005435944 17 19 8
-329.477429389954 -150.422841310501 1715.0000333786 16 18 7
-326.710134744644 -151.311039924622 1725.00002384186 16 18 7
-322.207540273666 -151.409775018692 1725.99995136261 18 18 8
-314.571350812912 -150.017067790031 1710.00003814697 23 21 9
-307.565093040466 -148.887261748314 1697.00002670288 22 15 5
-301.342755556107 -148.108199238777 1687.99996376038 29 23 11
-296.926587820053 -148.206427693367 1689.00001049042 45 37 26
-291.811794042587 -147.953525185585 1685.99998950958 50 40 30
-287.393987178802 -148.051574826241 1687.00003623962 56 43 34
-282.634556293488 -147.973969578743 1685.99998950958 46 34 22
-277.714908123016 -147.808536887169 1684.00001525879 42 32 20
-272.480934858322 -147.467374801636 1679.99994754791 49 39 27
-268.224745988846 -147.652789950371 1682.000041008 52 43 28
-264.583885669708 -148.189276456833 1687.99996376038 53 47 33
-261.525541543961 -149.076893925667 1697.99995422363 25 25 13
-257.504165172577 -149.437725543976 1702.00002193451 20 23 14
-253.163039684296 -149.622857570648 1703.9999961853 21 24 15
-250.41452050209 -150.773823261261 1717.00000762939 22 25 16
-246.163129806519 -151.046648621559 1720.00002861023 24 27 18
-242.035016417503 -151.407197117805 1723.99997711182 24 27 18
-237.195953726768 -151.328504085541 1723.00004959106 25 28 19
-232.766434550285 -151.513174176216 1725.00002384186 25 28 21
-228.457391262054 -151.78556740284 1728.00004482269 25 28 21
-221.930086612701 -150.56449174881 1713.99998664856 24 27 20
-218.140199780464 -151.187986135483 1720.99995613098 23 26 19
-214.559450745583 -151.987105607986 1730.00001907349 23 26 17
-210.807532072067 -152.698323130608 1738.00003528595 22 25 16
-205.351322889328 -152.179360389709 1731.99999332428 21 24 15
-200.73801279068 -152.275264263153 1733.00004005432 21 24 15
-196.570917963982 -152.722522616386 1738.00003528595 22 25 16
-192.817315459251 -153.521165251732 1746.99997901917 22 25 16
-188.368037343025 -153.792455792427 1750 22 25 16
-184.216439723969 -154.327273368835 1756.00004196167 19 22 13
-179.418325424194 -154.334619641304 1756.00004196167 20 23 14
-174.22179877758 -153.990224003792 1751.99997425079 16 19 10
-168.659687042236 -153.294026851654 1743.99995803833 15 18 9
-163.798496127129 -153.212934732437 1743.00003051758 17 20 13
-160.128310322762 -154.27440404892 1754.99999523163 16 19 12
-159.13562476635 -158.060997724533 1797.99997806549 15 18 11
-155.934438109398 -159.825727343559 1817.999958992 14 17 10
-150.879517197609 -159.744173288345 1817.00003147125 16 19 12
-145.18703520298 -158.959046006203 1807.99996852875 17 20 13
-139.853537082672 -158.525377511978 1802.99997329712 21 24 17
-134.771347045898 -158.355265855789 1800.99999904633 22 25 18
-130.132153630257 -158.712521195412 1804.99994754791 25 28 21
-125.262498855591 -158.805802464485 1805.99999427795 25 28 21
-120.586767792702 -159.162729978561 1809.99994277954 24 27 20
-116.144210100174 -159.871190786362 1817.999958992 24 27 20
-111.412830650806 -160.22777557373 1822.00002670288 26 29 22
-106.775932013988 -160.760045051575 1827.99994945526 25 28 21
-102.829523384571 -162.435442209244 1847.00000286102 24 27 20
-98.1434434652328 -163.055330514908 1853.99997234344 24 27 20
-93.1676551699638 -163.235306739807 1855.99994659424 25 28 21
-87.7059698104858 -162.535563111305 1848.00004959106 26 29 22
-82.6455131173134 -162.539198994637 1848.00004959106 27 30 23
-77.5007605552673 -162.366718053818 1845.99995613098 29 32 25
-72.7198570966721 -162.985652685165 1853.00004482269 28 31 24
-67.6812827587128 -163.076624274254 1853.99997234344 27 30 23
-62.9408657550812 -163.959041237831 1863.9999628067 27 30 23
-58.3936348557472 -165.544956922531 1881.99996948242 28 30 25
-53.3798076212406 -165.987178683281 1886.99996471405 32 34 29
-46.8054488301277 -161.151319742203 1832.00001716614 74 76 71
-369.141638278961 -150.27517080307 1662.99998760223 17 20 11
-376.470655202866 -155.166730284691 1717.00000762939 17 20 11
-375.710189342499 -156.805425882339 1735.00001430511 18 21 12
-372.071385383606 -157.269328832626 1740.00000953674 15 16 8
-368.404567241669 -157.733246684074 1745.00000476837 14 15 7
-362.000524997711 -157.022014260292 1736.99998855591 13 14 6
-355.844795703888 -156.4010232687 1730.00001907349 15 16 8
-350.741147994995 -156.231969594955 1728.00004482269 16 17 9
-347.850352525711 -157.057419419289 1736.99998855591 17 18 10
-342.736840248108 -156.888246536255 1735.00001430511 17 19 8
-336.074769496918 -155.995532870293 1725.00002384186 16 18 7
-329.850405454636 -155.283480882645 1717.00000762939 18 20 9
-325.183779001236 -155.294820666313 1717.00000762939 18 20 9
-321.449726819992 -155.75835108757 1722.00000286102 16 18 7
-315.480202436447 -155.136376619339 1715.0000333786 19 21 10
-309.910356998444 -154.695153236389 1710.00003814697 20 20 10
-303.117215633392 -153.620466589928 1697.99995422363 17 17 7
-298.146545886993 -153.450340032578 1695.99997997284 17 15 3
-292.839795351028 -153.099119663239 1692.00003147125 21 17 6
-288.576066493988 -153.290688991547 1694.00000572205 34 27 17
-284.635871648788 -153.66318821907 1697.99995422363 26 19 9
-280.178368091583 -153.764113783836 1699.00000095367 23 16 6
-274.579286575317 -153.231382369995 1692.999958992 31 27 16
-269.649982452393 -153.06057035923 1690.99998474121 32 28 16
-265.671163797379 -153.432711958885 1695.00005245209 29 29 17
-262.285768985748 -154.166892170906 1702.99994945526 25 27 16
-258.099615573883 -154.44840490818 1705.9999704361 21 24 15
-253.004848957062 -154.186591506004 1702.99994945526 22 25 16
-249.238252639771 -154.739528894424 1708.99999141693 23 26 17
-246.010556817055 -155.654579401016 1718.99998188019 25 28 19
-242.025688290596 -156.116873025894 1723.99997711182 25 28 19
-237.737402319908 -156.397938728333 1726.99999809265 26 29 20
-232.892289757729 -156.316637992859 1725.99995136261 27 30 23
-228.712871670723 -156.688064336777 1730.00001907349 27 30 23
-222.827672958374 -155.881881713867 1720.99995613098 26 29 22
-218.765318393707 -156.34360909462 1725.99995136261 26 29 22
-214.674949645996 -156.805217266083 1730.99994659424 25 28 19
-211.526826024055 -157.991483807564 1743.99995803833 25 28 19
-205.698773264885 -157.184615731239 1735.00001430511 24 27 18
-200.729921460152 -157.011687755585 1733.00004005432 23 26 17
-195.432022213936 -156.56678378582 1728.00004482269 22 25 16
-191.926568746567 -157.571405172348 1738.9999628067 22 25 16
-188.360378146172 -158.575996756554 1750 19 22 13
-183.894202113152 -158.85554254055 1753.00002098084 18 21 12
-178.184911608696 -158.04748237133 1743.99995803833 19 22 13
-173.319697380066 -157.964184880257 1743.00003051758 16 19 10
-169.232919812202 -158.605754375458 1750 16 19 10
-165.201246738434 -159.337848424912 1758.00001621246 17 20 13
-161.216482520103 -160.160467028618 1766.99995994568 16 19 12
-157.535910606384 -161.345556378365 1779.99997138977 14 17 10
-154.469847679138 -163.255721330643 1800.99999904633 13 16 9
-150.624051690102 -164.440661668777 1814.00001049042 13 16 9
-145.42181789875 -164.175018668175 1810.99998950958 14 17 10
-140.002742409706 -163.637191057205 1804.99994754791 15 18 11
-135.813221335411 -164.549708366394 1815.00005722046 16 19 12
-130.703374743462 -164.374113082886 1812.99996376038 23 26 19
-125.465229153633 -164.016976952553 1809.00001525879 26 29 22
-120.381765067577 -163.840964436531 1807.000041008 26 29 22
-115.947589278221 -164.571464061737 1815.00005722046 25 28 21
-110.980018973351 -164.576381444931 1815.00005722046 23 26 19
-106.304071843624 -165.034517645836 1820.00005245209 22 25 18
-101.823002099991 -165.855154395103 1828.9999961853 22 25 18
-97.5569412112236 -167.129069566727 1843.00005435944 23 26 19
-92.6616787910461 -167.405277490616 1845.99995613098 24 27 20
-87.7496227622032 -167.681291699409 1848.99997711182 24 27 20
-82.5077667832375 -167.322292923927 1845.00002861023 24 27 20
-77.5393769145012 -167.507201433182 1847.00000286102 25 28 21
-72.0888152718544 -166.603580117226 1837.00001239777 25 28 21
-67.2402903437614 -167.060106992722 1842.00000762939 25 28 21
-62.3303465545177 -167.425766587257 1845.99995613098 26 29 22
-58.0187663435936 -169.605165719986 1870.00000476837 25 27 22
-53.3209033310413 -170.968115329742 1884.99999046326 27 29 24
-378.870397806168 -160.872504115105 1728.00004482269 15 18 7
-376.997292041779 -162.095159292221 1741.00005626678 12 15 4
-372.486859560013 -162.200599908829 1741.99998378754 16 17 9
-369.23685669899 -162.864699959755 1748.99995326996 15 16 8
-362.405270338058 -161.94574534893 1738.9999628067 13 14 6
-356.449961662292 -161.399155855179 1733.00004005432 13 14 6
-351.135224103928 -161.131799221039 1730.00001907349 16 17 9
-348.839700222015 -162.261545658112 1741.99998378754 16 17 9
-343.515187501907 -161.994114518166 1738.9999628067 16 18 7
-337.037175893784 -161.167621612549 1730.00001907349 16 18 7
-329.646766185761 -159.875079989433 1715.99996089935 19 21 10
-325.740486383438 -160.259395837784 1720.00002861023 20 22 11
-321.251630783081 -160.364180803299 1720.99995613098 17 19 8
-316.940486431122 -160.562068223953 1723.00004959106 13 16 5
-310.442894697189 -159.641578793526 1713.00005912781 17 19 8
-303.82028222084 -158.627659082413 1702.00002193451 17 19 8
-298.663020133972 -158.359155058861 1699.00000095367 19 19 9
-294.386595487595 -158.556595444679 1700.99997520447 22 19 10
-290.268808603287 -158.84718298912 1703.9999961853 19 15 6
-285.798639059067 -158.951282501221 1705.00004291534 19 16 7
-280.662536621094 -158.682331442833 1702.00002193451 20 17 8
-275.866359472275 -158.599704504013 1700.99997520447 21 18 9
-270.596444606781 -158.237248659134 1697.00002670288 19 19 7
-266.444653272629 -158.527374267578 1700.00004768372 22 24 13
-262.583702802658 -159.003928303719 1705.00004291534 23 26 15
-258.543461561203 -159.387171268463 1708.99999141693 21 24 15
-253.292113542557 -159.02416408062 1705.00004291534 21 24 15
-248.936831951141 -159.220665693283 1707.00001716614 22 25 16
-244.856014847755 -159.603580832481 1710.99996566772 24 27 18
-240.89303612709 -160.079717636108 1715.99996089935 24 27 18
-236.764386296272 -160.462513566017 1720.00002861023 26 29 20
-232.748031616211 -160.93847155571 1725.00002384186 26 29 22
-229.629054665565 -162.067487835884 1736.99998855591 27 30 23
-225.019678473473 -162.170067429543 1738.00003528595 27 30 23
-221.03776037693 -162.739083170891 1743.99995803833 26 29 22
-215.534269809723 -162.188187241554 1738.00003528595 26 29 20
-211.033046245575 -162.383675575256 1740.00000953674 26 29 20
-206.045970320702 -162.205711007118 1738.00003528595 24 27 18
-201.184913516045 -162.120893597603 1736.99998855591 23 26 17
-196.215555071831 -161.942571401596 1735.00001430511 21 24 15
-192.360028624535 -162.697479128838 1743.00003051758 21 24 15
-188.029587268829 -163.078904151917 1746.99997901917 18 21 12
-183.466866612434 -163.273513317108 1748.99995326996 17 20 11
-177.973061800003 -162.627726793289 1741.99998378754 19 22 13
-173.710078001022 -163.102060556412 1746.99997901917 16 19 10
-169.51584815979 -163.669615983963 1753.00002098084 16 19 10
-165.570080280304 -164.517149329185 1761.99996471405 17 20 11
-160.844653844833 -164.617583155632 1763.00001144409 14 17 10
-157.086670398712 -165.744990110397 1774.99997615814 12 15 8
-153.777062892914 -167.432591319084 1792.99998283386 10 13 6
-149.870276451111 -168.559819459915 1804.99994754791 9 12 5
-145.094335079193 -168.753057718277 1807.000041008 10 13 6
-140.384465456009 -169.039502739906 1809.99994277954 9 12 5
-136.256262660027 -170.072928071022 1820.99997997284 9 12 5
-131.202280521393 -169.985443353653 1820.00005245209 13 16 9
-126.153275370598 -169.897750020027 1819.00000572205 17 20 13
-120.842784643173 -169.43621635437 1814.00001049042 21 24 17
-116.070255637169 -169.721692800522 1817.00003147125 21 24 17
-110.852837562561 -169.353127479553 1812.99996376038 19 22 13
-106.240950524807 -169.918447732925 1819.00000572205 18 21 12
-101.373136043549 -170.109927654266 1820.99997997284 18 21 12
-97.2879528999329 -171.702489256859 1838.00005912781 19 22 13
-92.757947742939 -172.640964388847 1848.00004959106 20 23 14
-87.7931788563728 -172.831878066063 1850.00002384186 21 24 15
-82.772396504879 -172.929137945175 1850.99995136261 20 23 14
-77.6198729872704 -172.745913267136 1848.99997711182 21 24 15
-72.3210275173187 -172.188743948936 1843.00005435944 21 24 15
-67.5292909145355 -172.845914959908 1850.00002384186 21 24 15
-62.4288432300091 -172.755435109138 1848.99997711182 23 26 19
-57.6748885214329 -173.692479729652 1858.99996757507 25 27 22
-53.1205013394356 -175.470247864723 1878.00002098084 26 28 23
-47.874242067337 -175.098806619644 1873.99995326996 21 23 18
-381.708204746246 -166.829511523247 1741.00005626678 12 15 4
-378.717035055161 -167.608812451363 1748.99995326996 14 17 6
-373.115867376328 -167.238160967827 1745.00000476837 14 15 7
-368.802219629288 -167.442470788956 1746.99997901917 14 15 7
-362.601339817047 -166.784092783928 1740.00000953674 13 14 6
-357.671707868576 -166.700705885887 1738.9999628067 13 14 6
-351.934880018234 -166.2338078022 1733.99996757507 16 17 9
-348.627299070358 -166.917279362679 1741.00005626678 17 18 10
-343.503057956696 -166.737824678421 1738.9999628067 18 20 9
-337.025195360184 -165.887057781219 1730.00001907349 16 18 7
-330.979645252228 -165.22790491581 1723.00004959106 15 17 6
-326.675593852997 -165.431678295136 1725.00002384186 16 18 7
-322.546541690826 -165.731325745583 1728.00004482269 17 20 9
-317.480653524399 -165.551349520683 1725.99995136261 13 19 9
-312.787234783173 -165.563091635704 1725.99995136261 14 20 10
-305.05844950676 -163.943946361542 1708.99999141693 14 20 10
-298.827618360519 -163.092002272606 1700.00004768372 17 20 11
-294.721573591232 -163.391128182411 1702.99994945526 18 19 11
-290.257781744003 -163.498297333717 1703.9999961853 14 15 7
-285.787671804428 -163.605377078056 1705.00004291534 16 17 9
-280.321955680847 -163.136601448059 1700.00004768372 19 20 12
-275.531321763992 -163.051500916481 1699.00000095367 20 21 13
-270.585894584656 -162.870317697525 1697.00002670288 18 21 12
-266.434222459793 -163.168907165527 1700.00004768372 17 20 11
-263.189345598221 -164.043322205544 1708.99999141693 21 24 13
-258.835732936859 -164.245784282684 1710.99996566772 21 24 15
-253.57910990715 -163.872137665749 1707.00001716614 22 25 16
-248.635157942772 -163.690313696861 1705.00004291534 24 27 18
-244.273722171783 -163.892403244972 1707.00001716614 24 27 18
-240.602523088455 -164.574459195137 1713.99998664856 25 28 19
-236.341744661331 -164.872363209724 1717.00000762939 25 28 19
-232.738465070724 -165.650308132172 1725.00002384186 27 30 23
-229.222998023033 -166.524231433868 1733.99996757507 26 29 22
-226.175531744957 -167.782247066498 1746.99997901917 23 26 19
-221.53551876545 -167.887717485428 1748.00002574921 25 28 21
-215.897276997566 -167.224645614624 1741.00005626678 23 26 17
-210.296496748924 -166.561305522919 1733.99996757507 24 27 18
-205.800130963326 -166.762307286263 1735.99994182587 21 24 15
-202.102914452553 -167.635634541512 1745.00000476837 18 21 12
-196.998775005341 -167.356014251709 1741.99998378754 16 19 10
-192.682862281799 -167.748749256134 1746.00005149841 17 20 11
-188.129156827927 -167.949169874191 1748.00002574921 14 17 8
-183.878526091576 -168.43768954277 1753.00002098084 13 16 7
-178.884819149971 -168.25345158577 1751.00004673004 13 16 7
-174.398526549339 -168.549492955208 1753.99994850159 14 17 8
-169.218361377716 -168.172687292099 1750 14 17 8
-165.656790137291 -169.429391622543 1763.00001144409 15 18 9
-161.932364106178 -170.589938759804 1774.99997615814 12 15 8
-158.938154578209 -172.615364193916 1796.0000038147 8 11 4
-155.313983559608 -174.064069986343 1810.99998950958 6 9 2
-150.195747613907 -173.878714442253 1809.00001525879 7 10 3
-145.087882876396 -173.693090677261 1807.000041008 8 11 4
-140.610873699188 -174.276262521744 1812.99996376038 9 12 5
-136.250153183937 -175.051540136337 1820.99997997284 8 11 4
-131.124317646027 -174.86535012722 1819.00000572205 8 11 4
-126.424998044968 -175.255745649338 1822.99995422363 10 13 6
-120.970577001572 -174.588426947594 1815.99998474121 16 19 12
-116.384401917458 -175.170689821243 1822.00002670288 18 21 14
-111.275807023048 -174.983620643616 1820.00005245209 17 20 11
-106.469757854939 -175.277039408684 1822.99995422363 14 17 8
-101.36853903532 -175.08952319622 1820.99997997284 13 16 7
-97.1247404813766 -176.440209150314 1835.00003814697 15 18 9
-92.7035287022591 -177.59844660759 1847.00000286102 17 20 11
-87.5993520021439 -177.506446838379 1845.99995613098 18 21 12
-82.2767317295074 -176.933437585831 1840.0000333786 19 22 13
-77.1545618772507 -176.744818687439 1838.00005912781 20 23 14
-72.1607580780983 -176.844447851181 1838.99998664856 21 24 15
-67.7086934447289 -178.386315703392 1855.00001907349 22 25 16
-62.6960620284081 -178.581684827805 1856.99999332428 22 25 16
-57.8273497521877 -179.257676005363 1863.9999628067 19 22 15
-52.8634898364544 -179.741099476814 1868.99995803833 25 28 21
-47.6421304047108 -179.358780384064 1865.00000953674 23 26 19
-380.379885435104 -170.984447002411 1735.00001430511 9 12 1
-378.054559230804 -172.081500291824 1746.00005149841 21 24 13
-372.675448656082 -171.798810362816 1743.00003051758 15 16 8
-367.733925580978 -171.713143587112 1741.99998378754 14 15 7
-362.588703632355 -171.528846025467 1740.00000953674 13 14 6
-359.098821878433 -172.133147716522 1746.00005149841 14 15 7
-353.748947381973 -171.850144863129 1743.00003051758 17 18 10
-348.815023899078 -171.764254570007 1741.99998378754 18 19 11
-341.712981462479 -170.593574643135 1730.00001907349 18 20 9
-335.45446395874 -169.817090034485 1722.00000286102 16 18 7
-328.662365674973 -168.744578957558 1710.99996566772 15 17 6
-327.98907160759 -170.827999711037 1731.99999332428 16 18 7
-323.281109333038 -170.840263366699 1731.99999332428 17 20 9
-319.859832525253 -171.542942523956 1738.9999628067 13 19 9
-313.137799501419 -170.469909906387 1728.00004482269 14 20 10
-306.29625916481 -169.297963380814 1715.99996089935 14 20 10
-299.694985151291 -168.224439024925 1705.00004291534 17 20 11
-294.364094734192 -167.841359972954 1700.99997520447 18 19 11
-289.054155349731 -167.45813190937 1697.00002670288 16 17 9
-284.100353717804 -167.272105813026 1695.00005245209 17 18 10
-279.156625270844 -167.085945606232 1692.999958992 19 20 12
-274.223029613495 -166.899651288986 1690.99998474121 17 20 11
-269.93727684021 -167.108058929443 1692.999958992 17 20 11
-265.953302383423 -167.513772845268 1697.00002670288 18 24 14
-262.254685163498 -168.116837739944 1702.99994945526 20 23 12
-258.220106363297 -168.522447347641 1707.00001716614 21 24 15
-253.568708896637 -168.533012270927 1707.00001716614 22 25 16
-249.208196997643 -168.740943074226 1708.99999141693 23 26 17
-244.549810886383 -168.751269578934 1708.99999141693 24 27 18
-241.153970360756 -169.650197029114 1718.00005435944 24 27 18
-236.331850290298 -169.561550021172 1717.00000762939 25 28 19
-232.998505234718 -170.559093356133 1726.99999809265 27 30 23
-228.684529662132 -170.86523771286 1730.00001907349 24 27 20
-225.518599152565 -172.06022143364 1741.99998378754 23 26 19
-221.019133925438 -172.267407178879 1743.99995803833 24 27 20
-215.391993522644 -171.585395932198 1736.99998855591 24 27 18
-209.681063890457 -170.804381370544 1728.99997234344 23 26 17
-205.791220068932 -171.504989266396 1735.99994182587 19 22 13
-202.673181891441 -172.89711534977 1750 16 19 10
-197.894841432571 -172.905951738358 1750 14 17 8
-192.56404042244 -172.42057621479 1745.00000476837 15 18 9
-188.336104154587 -172.923117876053 1750 12 15 6
-183.870419859886 -173.227891325951 1753.00002098084 12 15 6
-180.409222841263 -174.520701169968 1766.00003242493 12 15 6
-174.191907048225 -173.14513027668 1751.99997425079 12 15 6
-169.984340667725 -173.745885491371 1758.00001621246 13 16 7
-165.085598826408 -173.65463078022 1756.99996948242 15 18 11
-161.925077438354 -175.441175699234 1774.99997615814 12 15 8
-160.346835851669 -179.105699062347 1812.00003623962 9 12 5
-156.764820218086 -180.694475769997 1827.99994945526 6 9 2
-151.766359806061 -180.701568722725 1827.99994945526 7 10 3
-146.526470780373 -180.411905050278 1825.00004768372 8 11 4
-141.379982233047 -180.220812559128 1822.99995422363 9 12 5
-136.169105768204 -179.930657148361 1820.00005245209 9 12 5
-130.902037024498 -179.541409015656 1815.99998474121 10 13 6
-126.072436571121 -179.745137691498 1817.999958992 11 14 7
-121.031604707241 -179.652035236359 1817.00003147125 16 19 12
-116.251267492771 -179.954215884209 1820.00005245209 17 20 13
-111.637465655804 -180.552810430527 1825.99997520447 16 19 10
-107.10721462965 -181.349009275436 1833.99999141693 16 19 10
-101.753450930119 -180.760622024536 1827.99994945526 17 20 11
-97.1202105283737 -181.457534432411 1835.00003814697 17 20 11
-92.247486114502 -181.758671998978 1838.00005912781 17 20 11
-87.4054506421089 -182.158499956131 1842.00000762939 17 20 11
-82.1387320756912 -181.668043136597 1837.00001239777 19 22 13
-77.1509334445 -181.770727038383 1838.00005912781 20 23 14
-72.6674422621727 -183.158829808235 1851.99999809265 22 25 16
-68.0340006947517 -184.349000453949 1863.9999628067 22 25 16
-63.300795853138 -185.440018773079 1875 22 25 16
-58.351993560791 -186.036363244057 1881.00004196167 25 28 21
-53.2569549977779 -186.236828565598 1883.00001621246 27 30 23
-47.6398691534996 -184.458941221237 1865.00000953674 24 27 20
-373.753845691681 -170.535936951637 1684.00001525879 40 41 33
-380.147576332092 -175.612613558769 1733.99996757507 27 28 20
-378.041416406631 -176.841244101524 1746.00005149841 10 13 4
-373.089969158173 -176.753222942352 1745.00000476837 15 16 8
-367.298752069473 -176.259964704514 1740.00000953674 15 16 8
-363.20087313652 -176.577031612396 1743.00003051758 14 15 7
-359.49718952179 -177.096709609032 1748.00002574921 15 16 8
-355.562597513199 -177.51507461071 1751.99997425079 16 17 9
-349.803358316422 -177.021488547325 1746.99997901917 17 18 10
-341.897815465927 -175.413072109222 1730.99994659424 19 21 10
-335.831552743912 -174.716427922249 1723.99997711182 18 20 9
-328.457951545715 -173.310160636902 1710.00003814697 16 18 7
-326.272398233414 -174.640297889709 1723.00004959106 15 17 6
-323.082089424133 -175.463676452637 1730.99994659424 14 17 6
-318.560034036636 -175.577506422997 1731.99999332428 12 20 7
-312.944501638412 -175.082981586456 1726.99999809265 13 21 8
-306.105822324753 -173.878565430641 1715.0000333786 13 21 8
-300.562053918839 -173.383668065071 1710.00003814697 15 21 9
-294.352382421494 -172.482967376709 1700.99997520447 17 20 11
-289.553582668304 -172.393321990967 1700.00004768372 18 19 11
-284.256517887115 -171.999290585518 1695.99997997284 19 20 12
-279.310256242752 -171.807959675789 1694.00000572205 19 22 13
-274.698376655579 -171.81932926178 1694.00000572205 18 21 14
-270.404547452927 -172.033458948135 1695.99997997284 19 22 15
-266.255766153336 -172.348916530609 1699.00000095367 19 25 15
-262.397825717926 -172.867193818092 1703.9999961853 20 23 14
-258.51184129715 -173.385426402092 1708.99999141693 21 24 15
-253.855139017105 -173.39625954628 1708.99999141693 21 24 15
-250.072568655014 -174.015790224075 1715.0000333786 22 25 16
-245.397970080376 -174.026414752007 1715.0000333786 24 27 18
-242.266565561295 -175.153121352196 1725.99995136261 24 27 18
-237.14753985405 -174.859061837196 1723.00004959106 25 28 19
-232.853531837463 -175.173744559288 1725.99995136261 26 29 22
-227.484956383705 -174.676328897476 1720.99995613098 23 26 19
-223.955348134041 -175.599783658981 1730.00001907349 23 26 19
-220.249116420746 -176.421642303467 1738.00003528595 24 27 20
-215.506508946419 -176.43129825592 1738.00003528595 26 29 22
-210.520654916763 -176.237747073174 1735.99994182587 25 28 21
-205.78208565712 -176.247090101242 1735.99994182587 19 22 15
-202.664166688919 -177.677676081657 1750 16 19 12
-197.885990142822 -177.686721086502 1750 15 18 11
-192.996755242348 -177.594020962715 1748.99995326996 15 18 11
-188.327610492706 -177.704274654388 1750 14 17 10
-184.5962703228 -178.72828245163 1759.99999046326 13 16 9
-178.766578435898 -177.721098065376 1750 13 16 9
-175.476431846619 -179.252624511719 1764.99998569489 13 16 9
-170.169919729233 -178.752809762955 1759.99999046326 13 16 9
-165.453851222992 -178.862169384956 1761.0000371933 15 18 11
-163.377121090889 -181.916952133179 1791.00000858307 12 15 8
-161.224290728569 -185.073345899582 1822.00002670288 9 12 5
-157.014787197113 -185.995027422905 1830.9999704361 8 11 4
-151.261180639267 -185.08805334568 1822.00002670288 10 13 6
-145.716771483421 -184.383928775787 1815.00005722046 10 13 6
-140.597864985466 -184.187516570091 1812.99996376038 11 14 7
-135.788649320602 -184.397280216217 1815.00005722046 11 14 7
-130.319237709045 -183.692410588264 1807.99996852875 14 17 10
-125.165030360222 -183.393701910973 1804.99994754791 13 16 9
-120.426394045353 -183.704376220703 1807.99996852875 16 19 12
-116.309612989426 -185.030966997147 1820.99997997284 16 19 12
-111.937828361988 -186.052560806274 1830.9999704361 15 18 9
-106.810122728348 -185.854598879814 1828.9999961853 18 21 12
-101.80427134037 -185.859650373459 1828.9999961853 20 23 14
-96.7980101704597 -185.864418745041 1828.9999961853 19 22 13
-92.3434421420097 -186.986863613129 1840.0000333786 18 21 12
-87.4012485146523 -187.194481492043 1842.00000762939 17 20 11
-82.626610994339 -187.808364629745 1848.00004959106 19 22 13
-77.6089280843735 -187.913879752159 1848.99997711182 20 23 14
-72.5070014595985 -187.815919518471 1848.00004959106 22 25 16
-67.8117275238037 -188.835665583611 1858.00004005432 23 26 17
-62.7913549542427 -189.042136073112 1860.00001430511 23 26 17
-58.0699816346169 -190.264716744423 1871.99997901917 27 30 23
-53.2543733716011 -191.385477781296 1883.00001621246 24 27 20
-47.1522435545921 -187.627270817757 1845.99995613098 22 25 18
-381.449520587921 -180.96287548542 1740.00000953674 6 7 1
-377.37849354744 -181.288480758667 1743.00003051758 23 24 18
-372.648954391479 -181.302011013031 1743.00003051758 14 15 7
