ply
format ascii 1.0
comment KinectMotionCapture
element vertex 781
property float x
property float y
property float z
property uchar red
property uchar green
property uchar blue
end_header
-32.0628546178341 -471.958994865417 1858.00004005432 17 20 11
-27.0521081984043 -472.977429628372 1861.99998855591 19 22 13
-22.0076702535152 -473.74153137207 1865.00000953674 19 22 13
-17.0012358576059 -476.029276847839 1873.99995326996 19 22 15
-11.9583364576101 -478.82467508316 1884.99999046326 20 23 16
-6.84092147275805 -480.603635311127 1891.99995994568 17 19 14
-296.503454446793 -440.630465745926 1718.99998188019 14 17 10
-290.645122528076 -438.854575157166 1712.00001239777 15 18 9
-282.318502664566 -433.233082294464 1690.00005722046 15 18 9
-276.575952768326 -431.456416845322 1682.99996852875 16 19 10
-270.22460103035 -428.654044866562 1672.00005054474 20 23 14
-266.316026449203 -429.697006940842 1675.99999904633 21 24 15
-260.823458433151 -428.175985813141 1669.99995708466 24 27 18
-256.897687911987 -429.218769073486 1674.00002479553 22 25 16
-252.346754074097 -429.23578619957 1674.00002479553 21 24 15
-248.387411236763 -430.278331041336 1677.99997329712 21 24 15
-244.841814041138 -432.090073823929 1684.99994277954 21 24 15
-240.544736385345 -432.619541883469 1687.00003623962 18 21 12
-236.236333847046 -433.148920536041 1689.00001049042 20 23 14
-231.09370470047 -432.139307260513 1684.99994277954 18 21 12
-226.375684142113 -431.898891925812 1684.00001525879 18 21 12
-221.399232745171 -431.145250797272 1680.99999427795 18 21 12
-216.180711984634 -429.878383874893 1675.99999904633 19 22 13
-211.241453886032 -429.124146699905 1672.99997806549 19 22 13
-206.812307238579 -429.395735263824 1674.00002479553 19 22 13
-203.223019838333 -431.462705135345 1682.000041008 18 21 12
-198.999226093292 -432.246893644333 1684.99994277954 18 21 12
-194.181814789772 -431.748241186142 1682.99996852875 18 21 12
-188.586309552193 -429.453551769257 1674.00002479553 19 22 13
-184.248641133308 -429.980456829071 1675.99999904633 19 22 13
-180.542945861816 -432.04653263092 1684.00001525879 20 23 14
-176.375314593315 -433.086156845093 1687.99996376038 20 23 14
-170.557290315628 -430.020391941071 1675.99999904633 19 22 13
-165.002316236496 -427.467346191406 1666.00000858307 20 23 14
-160.560935735703 -427.736341953278 1667.00005531311 21 24 15
-156.020164489746 -427.748471498489 1667.00005531311 23 26 17
-151.660725474358 -428.273439407349 1669.0000295639 23 26 17
-147.554501891136 -429.56805229187 1674.00002479553 19 22 13
-145.64161002636 -437.534540891647 1705.00004291534 18 21 12
-148.024991154671 -459.358781576157 1789.99996185303 15 18 11
-147.065863013268 -471.945136785507 1838.99998664856 12 15 8
-142.672255635262 -474.009603261948 1847.00000286102 11 14 7
-137.713074684143 -474.277317523956 1848.00004959106 10 13 6
-132.963478565216 -475.31458735466 1851.99999809265 9 12 5
-128.606155514717 -477.891504764557 1861.99998855591 10 13 6
-123.663268983364 -478.414863348007 1863.9999628067 9 11 6
-118.900030851364 -479.70786690712 1868.99995803833 8 10 5
-113.378532230854 -477.920532226563 1861.99998855591 9 12 5
-107.255108654499 -473.309248685837 1843.99998188019 9 12 5
-101.839378476143 -471.520900726318 1837.00001239777 10 13 6
-97.515806555748 -474.865853786469 1850.00002384186 10 13 6
-92.3213139176369 -474.103450775146 1847.00000286102 11 14 7
-87.521031498909 -475.39421916008 1851.99999809265 12 15 8
-82.8713700175285 -477.71143913269 1860.99994182587 12 15 8
-78.0052021145821 -479.001522064209 1866.00005626678 14 17 10
-72.8770941495895 -478.750973939896 1865.00000953674 15 18 11
-67.7179172635078 -478.243350982666 1863.00003528595 16 19 12
-62.5694543123245 -477.735221385956 1860.99994182587 16 19 12
-57.5244352221489 -477.99688577652 1861.99998855591 20 23 14
-52.2766411304474 -476.461082696915 1855.99994659424 18 21 12
-47.1377596259117 -475.695073604584 1853.00004482269 16 19 10
-42.3557832837105 -478.779375553131 1865.00000953674 15 18 9
-37.4882481992245 -481.60657286644 1876.00004673004 15 18 9
-32.388050109148 -481.866180896759 1876.99997425079 16 19 12
-27.0934514701366 -478.787988424301 1865.00000953674 18 21 14
-21.9704490154982 -478.019803762436 1861.99998855591 18 21 14
-16.9091112911701 -478.53484749794 1863.9999628067 19 21 16
-11.8812238797545 -480.846613645554 1873.00002574921 21 23 18
-6.75719929859042 -479.820489883423 1868.99995803833 17 19 16
-298.38228225708 -448.134392499924 1730.00001907349 17 20 13
-291.305869817734 -444.526225328445 1715.99996089935 15 18 9
-284.639149904251 -441.435754299164 1703.9999961853 14 17 6
-277.54420042038 -437.567681074142 1689.00001049042 14 17 6
-269.399106502533 -431.885629892349 1667.00005531311 16 19 8
-264.868646860123 -431.902915239334 1667.00005531311 18 21 12
-259.556889533997 -430.624574422836 1661.99994087219 22 25 14
-255.806446075439 -431.937128305435 1667.00005531311 21 24 13
-251.726895570755 -432.731360197067 1669.99995708466 21 24 13
-248.22261929512 -434.562087059021 1677.00004577637 22 25 14
-243.953347206116 -435.096949338913 1679.00002002716 22 25 14
-239.387601613998 -435.113459825516 1679.00002002716 20 23 12
-235.240995883942 -435.907244682312 1682.000041008 20 23 12
-230.254799127579 -435.145884752274 1679.00002002716 18 21 10
-224.881231784821 -433.606714010239 1672.99997806549 17 20 9
-220.856800675392 -434.659123420715 1677.00004577637 17 20 9
-215.907379984856 -433.897018432617 1674.00002479553 17 20 9
-211.731344461441 -434.689879417419 1677.00004577637 17 20 9
-207.291513681412 -434.964120388031 1677.99997329712 17 20 9
-204.174771904945 -438.089638948441 1690.00005722046 17 20 9
-199.693262577057 -438.363492488861 1690.99998474121 17 20 9
-195.321246981621 -438.89644742012 1692.999958992 18 21 10
-189.5861774683 -436.318129301071 1682.99996852875 19 22 11
-185.114338994026 -436.591267585754 1684.00001525879 19 22 11
-180.422231554985 -436.345607042313 1682.99996852875 21 24 13
-175.83966255188 -436.358958482742 1682.99996852875 21 24 13
-169.832125306129 -432.742089033127 1669.0000295639 21 24 13
-164.890766143799 -431.717604398727 1664.99996185303 23 26 15
-160.548701882362 -432.248532772064 1667.00005531311 22 25 16
-155.82101047039 -431.741982698441 1664.99996185303 24 27 18
-151.558190584183 -432.531774044037 1667.99998283386 23 26 17
-147.4549472332 -433.839857578278 1672.99997806549 17 20 11
-145.374059677124 -441.371560096741 1702.00002193451 16 19 10
-147.848069667816 -463.685125112534 1787.99998760223 14 17 8
-146.494597196579 -475.107431411743 1832.00001716614 11 14 5
-142.043128609657 -476.93407535553 1838.99998664856 9 12 5
-137.627676129341 -479.019850492477 1847.00000286102 8 11 4
-133.311882615089 -481.624066829681 1856.99999332428 9 12 5
-128.941267728806 -484.228104352951 1866.99998378754 10 13 6
-123.786091804504 -483.978807926178 1866.00005626678 10 13 6
-118.636056780815 -483.729064464569 1865.00000953674 9 12 5
-112.943232059479 -481.144577264786 1855.00001907349 11 14 7
-107.944391667843 -481.412768363953 1855.99994659424 11 14 7
-102.773532271385 -480.902522802353 1853.99997234344 12 15 8
-97.6133346557617 -480.39186000824 1851.99999809265 12 15 8
-92.3638194799423 -479.361981153488 1848.00004959106 11 14 7
-87.3721539974213 -479.628622531891 1848.99997711182 13 16 9
-82.3748335242271 -479.894936084747 1850.00002384186 13 16 9
-77.7062401175499 -482.23614692688 1858.99996757507 15 18 11
-72.5976303219795 -481.982827186584 1858.00004005432 15 18 11
-67.530632019043 -481.988549232483 1858.00004005432 17 20 13
-62.2953772544861 -480.696767568588 1853.00004482269 17 20 13
-57.2725757956505 -480.961084365845 1853.99997234344 17 20 11
-52.1033592522144 -479.927957057953 1850.00002384186 16 19 10
-47.1084415912628 -480.450868606567 1851.99999809265 15 18 9
-42.1024896204472 -480.973362922668 1853.99997234344 14 17 8
-37.4052226543427 -485.646307468414 1871.99997901917 14 17 10
-32.4371308088303 -487.72457242012 1879.99999523163 17 20 13
-27.2655244916677 -486.948788166046 1876.99997425079 19 22 15
-22.0276229083538 -484.35652256012 1866.99998378754 18 20 15
-16.9167835265398 -483.839273452759 1865.00000953674 19 21 16
-11.8294963613153 -483.840495347977 1865.00000953674 21 23 18
-6.74217939376831 -483.841210603714 1865.00000953674 15 17 14
-302.362352609634 -451.752901077271 1725.99995136261 9 11 8
-300.605833530426 -456.220924854279 1743.00003051758 19 21 16
-291.287660598755 -449.172049760818 1715.99996089935 16 19 12
-284.454137086868 -445.787250995636 1702.99994945526 15 18 11
-278.019458055496 -442.925542593002 1692.00003147125 14 17 8
-271.159291267395 -439.278185367584 1677.99997329712 12 15 8
-265.804708003998 -437.986552715302 1672.99997806549 12 15 8
-260.164529085159 -436.171054840088 1666.00000858307 14 17 6
-255.175739526749 -435.402572154999 1662.99998760223 15 18 7
-250.052124261856 -434.372037649155 1659.00003910065 19 22 11
-245.837837457657 -434.912264347076 1661.00001335144 20 23 12
-242.483913898468 -437.023431062698 1669.0000295639 20 23 14
-239.798948168755 -440.443933010101 1682.000041008 20 23 14
-235.924050211906 -441.769570112228 1687.00003623962 18 21 12
-230.787321925163 -440.738171339035 1682.99996852875 16 19 10
-224.999889731407 -438.397079706192 1674.00002479553 16 19 10
-220.446184277534 -438.412696123123 1674.00002479553 15 18 9
-216.02101624012 -438.689976930618 1674.99995231628 15 18 9
-211.968719959259 -439.752846956253 1679.00002002716 15 18 9
-207.770720124245 -440.553605556488 1682.000041008 14 17 8
-204.401612281799 -443.187713623047 1692.00003147125 14 17 8
-199.324458837509 -442.154616117477 1687.99996376038 17 20 11
-194.845512509346 -442.430913448334 1689.00001049042 19 22 13
-189.684852957726 -441.135287284851 1684.00001525879 20 23 14
-185.320451855659 -441.673040390015 1685.99998950958 21 24 15
-180.515974760056 -441.162616014481 1684.00001525879 20 23 14
-174.468353390694 -437.508225440979 1669.99995708466 20 23 14
-169.412314891815 -436.211168766022 1664.99996185303 23 26 17
-164.185091853142 -434.389859437943 1657.99999237061 24 27 18
-160.536468029022 -436.760157346725 1667.00005531311 26 29 18
-156.089842319489 -437.034219503403 1667.99998283386 24 27 16
-152.091681957245 -438.618093729019 1674.00002479553 21 24 15
-147.355437278748 -438.105553388596 1672.00005054474 19 22 15
-144.423305988312 -443.095415830612 1690.99998474121 20 23 16
-147.340476512909 -466.951847076416 1781.99994564056 17 20 13
-145.683586597443 -477.4449467659 1822.00002670288 12 14 9
-141.723051667213 -480.862736701965 1835.00003814697 9 11 6
-136.797249317169 -481.135785579681 1835.99996566772 7 9 4
-133.301362395287 -486.649662256241 1856.99999332428 8 10 5
-128.861978650093 -489.018619060516 1866.00005626678 10 13 6
-123.709909617901 -488.766551017761 1865.00000953674 12 15 8
-118.435777723789 -487.98993229866 1861.99998855591 11 14 7
-112.873308360577 -485.902518033981 1853.99997234344 12 15 8
-108.226493000984 -487.745970487595 1860.99994182587 11 14 7
-102.986983954906 -486.968219280243 1858.00004005432 12 15 8
-97.7108553051949 -485.927879810333 1853.99997234344 15 18 11
-92.5062745809555 -485.149323940277 1850.99995136261 16 19 12
-87.459571659565 -485.156536102295 1850.99995136261 13 16 9
-82.7688425779343 -487.260311841965 1858.99996757507 14 17 10
-77.4491354823112 -485.694199800491 1853.00004482269 16 19 12
-72.2400769591331 -484.651833772659 1848.99997711182 17 20 13
-67.3797428607941 -485.968112945557 1853.99997234344 15 18 11
-62.2902736067772 -485.711306333542 1853.00004482269 15 18 11
-57.2369955480099 -485.716223716736 1853.00004482269 14 15 9
-52.0709119737148 -484.672129154205 1848.99997711182 14 17 8
-46.9773933291435 -484.15195941925 1847.00000286102 13 16 7
-42.0990251004696 -485.990554094315 1853.99997234344 13 16 7
-37.24230453372 -488.615065813065 1863.9999628067 14 17 8
-32.3654524981976 -491.763591766357 1876.00004673004 19 22 15
-27.2632744163275 -492.028176784515 1876.99997425079 20 23 16
-22.1555754542351 -492.292374372482 1878.00002098084 19 22 15
-16.9244538992643 -489.148318767548 1866.00005626678 19 21 16
-11.8094924837351 -488.100975751877 1861.99998855591 20 22 17
-301.818400621414 -455.632299184799 1723.00004959106 9 11 8
-296.448409557343 -454.592734575272 1718.99998188019 15 17 12
-290.930032730103 -453.288555145264 1713.99998664856 16 19 12
-285.104364156723 -451.455354690552 1707.00001716614 15 18 11
-279.8091173172 -450.415164232254 1702.99994945526 14 17 10
-273.404151201248 -447.523415088654 1692.00003147125 13 16 9
-267.376154661179 -445.160239934921 1682.99996852875 12 15 8
-260.928303003311 -442.003279924393 1671.0000038147 17 20 11
-255.6192278862 -440.697550773621 1666.00000858307 17 20 9
-250.186204910278 -439.127117395401 1659.9999666214 19 22 11
-245.821341872215 -439.408153295517 1661.00001335144 19 22 11
-243.048653006554 -442.59911775589 1672.99997806549 17 20 11
-240.21027982235 -445.790201425552 1684.99994277954 17 20 11
-235.907837748528 -446.335583925247 1687.00003623962 16 19 10
-231.045573949814 -445.822477340698 1684.99994277954 15 18 9
-225.790604948998 -444.515347480774 1679.99994754791 14 17 8
-221.747487783432 -445.589393377304 1684.00001525879 14 17 8
-216.650530695915 -444.54637169838 1679.99994754791 14 17 8
-212.206110358238 -444.826185703278 1680.99999427795 13 16 7
-207.50880241394 -444.576501846313 1679.99994754791 12 15 6
-203.420490026474 -445.649743080139 1684.00001525879 12 15 6
-198.483467102051 -444.870322942734 1680.99999427795 16 19 10
-194.023817777634 -445.149302482605 1682.000041008 18 21 12
-189.333021640778 -444.898575544357 1680.99999427795 20 23 14
-184.537380933762 -444.383025169373 1679.00002002716 20 23 14
-179.64506149292 -443.602442741394 1675.99999904633 20 23 14
-173.932984471321 -440.704107284546 1664.99996185303 21 24 15
-169.297844171524 -440.45227766037 1664.00003433228 23 26 17
-163.875639438629 -438.082486391068 1654.99997138977 24 27 18
-160.139098763466 -440.212398767471 1662.99998760223 25 28 17
-156.171515583992 -441.812694072723 1669.0000295639 24 27 16
-152.352571487427 -443.942248821259 1677.00004577637 20 23 14
-147.34411239624 -442.630082368851 1672.00005054474 19 22 15
-145.351558923721 -450.58336853981 1702.00002193451 20 23 16
-148.651853203774 -476.009845733643 1797.99997806549 17 19 14
-146.311819553375 -484.493225812912 1830.00004291534 12 14 9
-141.789183020592 -486.092925071716 1835.99996566772 9 11 6
-137.531533837318 -488.751500844955 1845.99995613098 8 10 5
-133.577957749367 -492.733627557755 1860.99994182587 8 10 5
-128.506526350975 -492.743998765945 1860.99994182587 9 12 5
-123.103141784668 -491.430044174194 1855.99994659424 10 13 6
-117.981128394604 -491.174787282944 1855.00001907349 10 13 6
-112.742535769939 -490.38964509964 1851.99999809265 10 13 6
-108.217835426331 -492.781609296799 1860.99994182587 9 12 5
-102.978713810444 -491.995722055435 1858.00004005432 12 15 8
-97.8083834052086 -491.474121809006 1855.99994659424 13 16 9
-92.3988595604897 -489.628165960312 1848.99997711182 14 17 10
-87.4997451901436 -490.429878234863 1851.99999809265 14 17 10
-82.7621296048164 -492.290407419205 1858.99996757507 15 18 11
-77.5264129042625 -491.237640380859 1855.00001907349 16 19 12
-72.1951276063919 -489.390045404434 1848.00004959106 16 19 12
-67.3015639185905 -490.455001592636 1851.99999809265 14 17 10
-62.4532513320446 -492.049276828766 1858.00004005432 13 16 9
-57.6029382646084 -493.907898664474 1865.00000953674 14 15 9
-52.3482374846935 -492.323368787766 1858.99996757507 14 15 7
-47.3041571676731 -492.592334747314 1860.00001430511 14 15 7
-42.1863906085491 -492.066383361816 1858.00004005432 15 17 6
-37.2792035341263 -494.188368320465 1866.00005626678 16 18 7
-32.2075262665749 -494.456022977829 1866.99998378754 16 18 7
-27.1593611687422 -495.252937078476 1870.00000476837 20 22 11
-22.0239888876677 -494.460463523865 1866.99998378754 20 21 13
-16.9956125319004 -496.315956115723 1873.99995326996 17 18 12
-11.7260739207268 -489.696055650711 1848.99997711182 22 23 18
-300.048559904099 -457.625031471252 1713.00005912781 16 18 15
-296.775162220001 -459.780305624008 1720.99995613098 21 23 18
-291.93040728569 -459.531247615814 1720.00002861023 18 21 14
-285.587549209595 -456.877380609512 1710.00003814697 17 20 13
-280.777215957642 -456.627935171127 1708.99999141693 17 20 13
-274.356186389923 -453.706324100494 1697.99995422363 15 18 11
-268.471002578735 -451.586037874222 1690.00005722046 15 18 11
-262.628942728043 -449.465423822403 1682.000041008 15 18 9
-256.523042917252 -446.810066699982 1672.00005054474 15 18 7
-250.923216342926 -444.956064224243 1664.99996185303 17 20 9
-246.988847851753 -446.04155421257 1669.0000295639 17 20 9
-243.177577853203 -447.394162416458 1674.00002479553 16 19 10
-241.476938128471 -452.755838632584 1694.00000572205 16 19 10
-236.730679869652 -452.504754066467 1692.999958992 15 18 9
-232.263669371605 -452.788084745407 1694.00000572205 14 17 8
-226.581275463104 -450.665563344955 1685.99998950958 13 16 7
-221.731975674629 -450.146526098251 1684.00001525879 13 16 7
-215.861573815346 -447.488695383072 1674.00002479553 13 16 7
-210.802525281906 -446.43446803093 1669.99995708466 14 17 8
-206.135407090187 -446.181923151016 1669.0000295639 14 17 8
-202.560380101204 -448.335289955139 1677.00004577637 14 17 8
-197.40654528141 -447.012931108475 1672.00005054474 18 21 12
-192.048832774162 -445.155531167984 1664.99996185303 20 23 14
-187.066718935966 -444.099873304367 1661.00001335144 21 24 15
-182.325795292854 -443.578630685806 1659.00003910065 18 21 12
-178.988680243492 -446.53308391571 1669.99995708466 21 24 15
-174.33787882328 -446.278870105743 1669.0000295639 23 26 17
-169.48863863945 -445.489436388016 1666.00000858307 24 27 18
-163.863301277161 -442.560493946075 1654.99997138977 23 26 17
-159.452989697456 -442.840099334717 1656.00001811981 23 26 15
-155.785396695137 -445.258796215057 1664.99996185303 23 26 15
-151.795893907547 -446.875035762787 1671.0000038147 20 23 14
-147.773399949074 -448.491126298904 1677.00004577637 19 22 15
-144.827991724014 -453.583687543869 1695.99997997284 20 23 16
-149.632379412651 -484.083890914917 1809.99994277954 20 23 16
-147.419705986977 -493.188858032227 1843.99998188019 11 13 8
-143.785879015923 -498.014390468597 1861.99998855591 9 11 6
-138.638213276863 -497.757941484451 1860.99994182587 8 10 5
-133.495688438416 -497.501194477081 1860.00001430511 8 10 5
-128.220185637474 -496.708989143372 1856.99999332428 9 12 5
-123.027086257935 -496.18399143219 1855.00001907349 9 12 5
-118.734933435917 -499.403387308121 1866.99998378754 9 12 5
-113.890126347542 -500.482618808746 1871.00005149841 9 12 5
-108.965083956718 -501.293957233429 1873.99995326996 8 11 4
-103.025883436203 -497.289896011353 1858.99996757507 12 15 8
-97.8005304932594 -496.495455503464 1855.99994659424 13 16 9
-92.7411988377571 -496.503084897995 1855.99994659424 14 17 10
-87.8233760595322 -497.312873601913 1858.99996757507 15 18 11
-83.1560865044594 -499.727457761765 1868.00003051758 16 19 12
-78.1469866633415 -500.268995761871 1870.00000476837 16 19 12
-72.9314684867859 -499.47252869606 1866.99998378754 15 18 11
-67.8411424160004 -499.478220939636 1866.99998378754 13 16 9
-62.7506524324417 -499.483555555344 1866.99998378754 12 15 8
-57.9688474535942 -502.163827419281 1876.99997425079 13 14 8
-52.6536889374256 -500.295579433441 1870.00000476837 13 14 6
-47.1985638141632 -496.554136276245 1855.99994659424 14 15 7
-42.2056317329407 -497.360408306122 1858.99996757507 15 17 6
-37.4359525740147 -501.376748085022 1873.99995326996 16 18 7
-32.2911255061626 -500.844538211823 1871.99997901917 15 17 6
-27.1571297198534 -500.31191110611 1870.00000476837 19 21 10
-22.0103822648525 -499.24373626709 1866.00005626678 20 21 13
-16.9307347387075 -499.512881040573 1866.99998378754 17 18 12
-11.794863268733 -497.641205787659 1860.00001430511 22 23 18
-296.757102012634 -464.438527822495 1720.99995613098 21 23 18
-290.89418053627 -462.567418813705 1713.99998664856 20 23 16
-285.903781652451 -462.04537153244 1712.00001239777 19 22 15
-279.116779565811 -458.554416894913 1699.00000095367 18 21 14
-273.692518472672 -457.222253084183 1694.00000572205 17 20 13
-268.45383644104 -456.159859895706 1690.00005722046 16 19 12
-262.455821037292 -453.747540712357 1680.99999427795 15 18 9
-257.119953632355 -452.414661645889 1675.99999904633 15 18 9
-252.715051174164 -452.701270580292 1677.00004577637 16 19 10
-248.30424785614 -452.98770070076 1677.99997329712 16 19 10
-244.323402643204 -454.083979129791 1682.000041008 16 19 10
-241.175577044487 -456.799924373627 1692.00003147125 15 18 9
-237.134054303169 -457.895964384079 1695.99997997284 15 18 9
-231.973543763161 -456.832021474838 1692.00003147125 14 17 8
-226.834386587143 -455.767691135406 1687.99996376038 14 17 8
-221.189916133881 -453.62314581871 1679.99994754791 14 17 8
-215.717539191246 -451.748251914978 1672.99997806549 14 17 8
-210.156574845314 -449.602961540222 1664.99996185303 16 19 10
-206.614747643471 -451.777964830399 1672.99997806549 16 19 10
-202.787443995476 -453.41283082962 1679.00002002716 16 19 10
-198.21871817112 -453.427135944366 1679.00002002716 19 22 13
-192.265585064888 -450.200527906418 1667.00005531311 20 23 14
-187.053069472313 -448.593825101852 1661.00001335144 19 22 13
-182.75198340416 -449.147433042526 1662.99998760223 19 22 13
-178.868323564529 -450.781285762787 1669.0000295639 22 25 16
-174.429386854172 -451.06440782547 1669.99995708466 23 26 17
-169.577732682228 -450.26683807373 1667.00005531311 24 27 18
-163.851022720337 -447.03796505928 1654.99997138977 23 26 17
-159.055843949318 -446.239739656448 1651.99995040894 21 24 13
-155.58648109436 -449.222981929779 1662.99998760223 21 24 13
-152.056857943535 -452.206075191498 1674.00002479553 19 22 13
-148.731306195259 -455.999404191971 1687.99996376038 19 22 15
-147.378489375114 -466.276317834854 1725.99995136261 19 22 15
-147.568166255951 -498.717576265335 1845.99995613098 8 10 5
-144.006356596947 -503.862023353577 1865.00000953674 6 8 3
-138.403922319412 -501.981794834137 1858.00004005432 6 8 3
-133.3417147398 -501.992404460907 1858.00004005432 7 9 4
-127.86491215229 -500.381588935852 1851.99999809265 9 12 5
-123.481586575508 -503.093302249908 1861.99998855591 11 14 7
-119.170665740967 -506.345152854919 1873.99995326996 11 14 7
-114.915810525417 -510.137259960175 1888.00001144409 12 15 8
-109.886668622494 -510.68651676178 1889.99998569489 12 15 8
-103.294722735882 -503.669619560242 1863.9999628067 14 17 10
-97.9507714509964 -502.326667308807 1858.99996757507 18 21 14
-92.5838574767113 -500.712931156158 1853.00004482269 18 21 14
-87.4383971095085 -500.179708003998 1850.99995136261 16 19 12
-82.6597288250923 -501.807928085327 1856.99999332428 16 19 12
-78.0153125524521 -504.516661167145 1866.99998378754 14 17 10
-73.2380449771881 -506.68466091156 1875 13 16 9
-68.0899769067764 -506.420075893402 1873.99995326996 11 14 7
-63.014417886734 -506.695628166199 1875 10 13 6
-57.8406006097794 -506.160080432892 1873.00002574921 13 16 9
-52.4804666638374 -503.73238325119 1863.9999628067 14 17 8
-47.118429094553 -500.763773918152 1853.00004482269 15 18 9
-42.2021895647049 -502.388894557953 1858.99996757507 16 19 8
-37.3929403722286 -505.905330181122 1871.99997901917 16 19 8
-32.3229804635048 -506.44862651825 1873.99995326996 14 17 6
-27.1694269031286 -505.64044713974 1871.00005149841 17 20 9
-21.9614002853632 -503.210127353668 1861.99998855591 19 22 13
-16.8930757790804 -503.481984138489 1863.00003528595 18 21 14
-11.7304874584079 -499.969869852066 1850.00002384186 22 24 19
-298.118561506271 -471.277058124542 1728.99997234344 19 21 16
-290.367305278778 -466.388434171677 1710.99996566772 21 24 17
-283.214330673218 -462.317198514938 1695.99997997284 20 23 16
-277.620911598206 -460.698932409287 1690.00005722046 19 22 15
-274.159967899323 -462.624460458755 1697.00002670288 18 21 14
-269.389778375626 -462.368965148926 1695.99997997284 17 20 13
-261.970609426498 -457.478553056717 1677.99997329712 17 20 11
-256.949901580811 -456.677347421646 1674.99995231628 17 20 11
-251.794397830963 -455.603241920471 1671.0000038147 16 19 10
-247.843965888023 -456.71021938324 1674.99995231628 15 18 9
-243.435636162758 -456.999123096466 1675.99999904633 14 17 8
-240.731805562973 -460.560083389282 1689.00001049042 13 16 7
-235.719904303551 -459.75798368454 1685.99998950958 15 18 9
-230.723917484283 -458.955705165863 1682.99996852875 15 18 9
-225.475087761879 -457.607716321945 1677.99997329712 14 17 8
-219.594806432724 -454.895913600922 1667.99998283386 15 18 9
-214.671030640602 -454.092741012573 1664.99996185303 15 18 9
-209.510758519173 -452.743887901306 1659.9999666214 17 20 11
-206.723630428314 -456.5769135952 1674.00002479553 16 19 10
-203.256085515022 -459.046214818954 1682.99996852875 16 19 10
-198.912799358368 -459.606021642685 1684.99994277954 19 22 13
-193.289667367935 -457.16518163681 1675.99999904633 20 23 14
-187.827751040459 -454.996734857559 1667.99998283386 18 21 12
-183.947399258614 -456.646949052811 1674.00002479553 20 23 14
-179.605334997177 -457.205802202225 1675.99999904633 22 25 16
-174.938708543777 -456.946015357971 1674.99995231628 23 26 17
-169.25998032093 -453.957855701447 1664.00003433228 23 26 17
-164.333775639534 -452.879011631012 1659.9999666214 22 25 16
-159.332737326622 -451.526999473572 1654.99997138977 20 23 12
-155.481174588203 -453.448623418808 1661.99994087219 20 23 12
-151.772826910019 -455.915719270706 1671.0000038147 18 21 12
-149.336710572243 -462.475419044495 1695.00005245209 19 22 15
-149.672493338585 -478.312075138092 1753.00002098084 18 21 14
-150.766551494598 -497.696399688721 1824.00000095367 18 21 14
-148.116320371628 -505.620896816254 1853.00004482269 6 8 3
-143.223121762276 -506.17790222168 1855.00001907349 6 8 3
-137.722805142403 -504.551529884338 1848.99997711182 5 7 2
-132.470145821571 -503.743350505829 1845.99995613098 7 9 4
-127.854898571968 -505.390822887421 1851.99999809265 9 12 5
-123.405575752258 -507.856726646423 1860.99994182587 12 15 8
-119.161270558834 -511.413931846619 1873.99995326996 12 15 8
-114.663258194923 -514.1521692276 1883.99994373322 12 15 8
-109.470993280411 -513.888120651245 1883.00001621246 13 16 9
-103.896036744118 -511.713266372681 1875 14 17 10
-98.2063859701157 -508.719205856323 1863.9999628067 18 21 14
-92.876210808754 -507.362246513367 1858.99996757507 17 20 13
-87.4313935637474 -505.186080932617 1850.99995136261 15 18 11
-82.6976001262665 -507.103383541107 1858.00004005432 15 18 11
-77.8418853878975 -508.474469184875 1863.00003528595 13 16 9
-73.1540247797966 -511.209964752197 1873.00002574921 13 16 9
-68.0844709277153 -511.488556861877 1873.99995326996 12 15 8
-62.8412812948227 -510.402083396912 1870.00000476837 11 14 7
-57.6197616755962 -509.315192699432 1866.00005626678 14 17 10
-52.2509850561619 -506.590187549591 1855.99994659424 15 18 9
-47.1908748149872 -506.594181060791 1855.99994659424 16 19 10
-41.9490523636341 -504.414200782776 1848.00004959106 17 20 9
-37.1102690696716 -507.146954536438 1858.00004005432 17 20 9
-32.0099033415318 -506.603837013245 1855.99994659424 15 18 7
-27.1091256290674 -509.608805179596 1866.99998378754 17 20 9
-21.994985640049 -509.064853191376 1865.00000953674 19 22 13
-16.8826263397932 -508.24761390686 1861.99998855591 18 21 14
-11.7739094421268 -506.883978843689 1856.99999332428 21 23 18
-297.238618135452 -474.579840898514 1723.99997711182 24 26 21
-289.84060883522 -470.19299864769 1707.99994468689 23 26 19
-283.864885568619 -468.008041381836 1700.00004768372 22 25 18
-277.275174856186 -464.721590280533 1687.99996376038 21 24 17
-273.658156394959 -466.390550136566 1694.00000572205 19 22 15
-268.419802188873 -465.306252241135 1690.00005722046 19 22 15
-261.797815561295 -461.743742227554 1677.00004577637 15 18 9
-256.473183631897 -460.383534431458 1672.00005054474 15 18 9
-250.873982906342 -458.472371101379 1664.99996185303 15 18 9
-247.531771659851 -460.691511631012 1672.99997806549 15 18 9
-243.129059672356 -460.982948541641 1674.00002479553 17 20 11
-240.145653486252 -464.028179645538 1684.99994277954 17 20 11
-234.445855021477 -461.840897798538 1677.00004577637 15 18 9
-229.474544525146 -461.030304431915 1674.00002479553 14 17 6
-225.459709763527 -462.147414684296 1677.99997329712 14 17 6
-220.632821321487 -461.611777544022 1675.99999904633 15 18 7
-215.945363044739 -461.351424455643 1674.99995231628 15 18 7
-210.379540920258 -459.16274189949 1667.00005531311 18 21 12
-207.079529762268 -461.931735277176 1677.00004577637 18 21 12
-202.758640050888 -462.497115135193 1679.00002002716 19 22 13
-198.308408260345 -462.786763906479 1679.99994754791 23 26 17
-193.045154213905 -461.147904396057 1674.00002479553 24 27 18
-188.377171754837 -460.886120796204 1672.99997806549 22 25 16
-184.153780341148 -461.726069450378 1675.99999904633 23 26 17
-179.056420922279 -460.361748933792 1671.0000038147 23 26 17
-174.508109688759 -460.374683141708 1671.0000038147 23 26 17
-169.044032692909 -457.907676696777 1661.99994087219 21 24 15
-164.123594760895 -456.817984580994 1657.99999237061 20 23 14
-159.41709280014 -456.278949975967 1656.00001811981 18 21 10
-155.095338821411 -456.841737031937 1657.99999237061 19 22 11
-151.943013072014 -460.986375808716 1672.99997806549 18 21 12
-149.677783250809 -468.162059783936 1699.00000095367 18 21 14
-151.197820901871 -488.013386726379 1771.00002765656 18 21 14
-150.58970451355 -502.078473567963 1822.00002670288 18 21 14
-147.625371813774 -508.979141712189 1847.00000286102 5 7 2
-142.748832702637 -509.541392326355 1848.99997711182 9 11 6
-137.414216995239 -508.449912071228 1845.00002861023 7 9 4
-132.746875286102 -509.838283061981 1850.00002384186 8 10 5
-127.844929695129 -510.399580001831 1851.99999809265 10 13 6
-123.064376413822 -511.511743068695 1855.99994659424 12 15 8
-118.134617805481 -512.072443962097 1858.00004005432 11 14 7
-113.071948289871 -512.081444263458 1858.00004005432 15 18 11
-108.009047806263 -512.09020614624 1858.00004005432 15 18 11
-102.945886552334 -512.098491191864 1858.00004005432 18 21 14
-98.0932116508484 -513.208985328674 1861.99998855591 19 22 15
-92.6689952611923 -511.287152767181 1855.00001907349 18 21 14
-87.2354805469513 -509.089291095734 1847.00000286102 12 15 8
-82.3349431157112 -509.922981262207 1850.00002384186 12 15 8
-77.5431767106056 -511.583149433136 1855.99994659424 12 15 8
-73.0309709906578 -515.448093414307 1870.00000476837 12 15 8
-68.0789798498154 -516.556322574615 1873.99995326996 13 16 9
-62.8362149000168 -515.459060668945 1870.00000476837 14 17 10
-57.491596788168 -513.258755207062 1861.99998855591 13 16 9
-52.2749051451683 -511.884927749634 1856.99999332428 14 17 8
-47.1616238355637 -511.337637901306 1855.00001907349 15 18 9
-42.0137383043766 -510.238647460938 1850.99995136261 16 19 8
-36.8276499211788 -508.312284946442 1843.99998188019 16 19 8
-31.9210737943649 -510.244607925415 1850.99995136261 16 19 8
-26.9036535173655 -510.798335075378 1853.00004482269 18 21 10
-21.8870602548122 -511.62725687027 1855.99994659424 19 22 13
-16.7996566742659 -510.801911354065 1853.00004482269 19 22 15
-11.8173267692328 -513.835310935974 1863.9999628067 20 22 17
-296.014159917831 -477.299273014069 1717.00000762939 25 27 22
-291.689723730087 -477.87281870842 1718.99998188019 24 27 20
-285.851269960403 -475.944221019745 1712.00001239777 22 25 18
-279.229193925858 -472.625285387039 1700.00004768372 21 24 17
-273.641169071198 -470.974206924438 1694.00000572205 19 22 15
-268.561780452728 -470.156908035278 1690.99998474121 17 20 13
-261.781245470047 -466.281086206436 1677.00004577637 16 19 12
-254.769563674927 -461.848646402359 1661.00001335144 14 17 10
-249.953806400299 -461.308658123016 1659.00003910065 15 18 11
-247.071832418442 -464.3834233284 1669.99995708466 16 19 10
-243.113115429878 -465.511798858643 1674.00002479553 17 20 11
-238.989666104317 -466.361880302429 1677.00004577637 19 22 13
-233.731225132942 -464.987069368362 1672.00005054474 16 19 8
-229.73321378231 -466.114938259125 1675.99999904633 15 18 7
-225.310027599335 -466.408431529999 1677.00004577637 15 18 7
-221.275895833969 -467.536121606827 1680.99999427795 15 18 7
-216.188311576843 -466.438561677933 1677.00004577637 15 19 5
-211.37447655201 -465.897023677826 1674.99995231628 18 21 12
-207.312002778053 -467.024207115173 1679.00002002716 18 21 12
-202.261328697205 -465.925842523575 1674.99995231628 21 24 15
-196.99601829052 -464.270949363709 1669.0000295639 22 25 16
-192.224204540253 -463.728427886963 1667.00005531311 26 29 20
-188.025861978531 -464.57651257515 1669.99995708466 27 30 21
-183.700978755951 -465.146243572235 1672.00005054474 29 32 23
-178.293362259865 -462.933748960495 1664.00003433228 26 29 20
-173.451095819473 -462.11189031601 1661.00001335144 23 26 17
-168.523102998734 -461.011558771133 1656.99994564056 21 24 15
-163.715526461601 -460.1891040802 1654.00004386902 20 23 14
-159.405246376991 -460.757553577423 1656.00001811981 21 24 13
-155.083760619164 -461.3256752491 1657.99999237061 19 22 11
-151.749983429909 -464.954257011414 1671.0000038147 18 21 12
-150.723576545715 -476.095736026764 1710.99996566772 17 20 13
-150.844901800156 -491.689652204514 1766.99995994568 17 20 13
-150.578260421753 -507.005751132965 1822.00002670288 15 18 11
-146.814867854118 -511.191070079803 1837.00001239777 8 10 5
-142.27469265461 -512.871861457825 1843.00005435944 9 11 6
-136.882305145264 -511.491119861603 1838.00005912781 10 12 7
-132.951855659485 -515.675842761993 1853.00004482269 10 12 7
-127.696931362152 -514.851093292236 1850.00002384186 12 15 8
-122.855886816978 -515.695631504059 1853.00004482269 16 19 12
-117.680326104164 -515.148460865021 1850.99995136261 14 17 10
-113.06307464838 -517.105638980865 1858.00004005432 17 20 13
-107.709906995296 -515.722751617432 1853.00004482269 18 21 14
-102.549940347672 -515.174329280853 1850.99995136261 19 22 15
-97.8220552206039 -516.852140426636 1856.99999332428 17 20 13
-93.1112021207809 -518.808007240295 1863.9999628067 16 19 12
-87.7480432391167 -517.145216464996 1858.00004005432 14 17 10
-82.5063809752464 -516.038596630096 1853.99997234344 14 17 10
-77.6205360889435 -517.158389091492 1858.00004005432 12 15 8
-73.1032267212868 -521.061182022095 1871.99997901917 12 15 8
-67.9282248020172 -520.510137081146 1870.00000476837 13 16 9
-62.6295655965805 -518.84526014328 1863.9999628067 14 17 10
-57.3634691536427 -517.1799659729 1858.00004005432 17 20 13
-52.1299466490746 -515.514254570007 1851.99999809265 17 20 11
-47.0561273396015 -515.239894390106 1850.99995136261 16 19 8
-41.828777641058 -513.016641139984 1843.00005435944 16 19 8
-36.8446409702301 -513.576507568359 1845.00002861023 16 19 8
-31.8495109677315 -514.136016368866 1847.00000286102 16 19 8
-26.9159879535437 -516.086935997009 1853.99997234344 18 21 10
-21.8852814286947 -516.645550727844 1855.99994659424 19 22 13
-16.8526843190193 -517.482280731201 1858.99996757507 17 20 13
-11.8290474638343 -519.432008266449 1866.00005626678 16 19 12
-293.238401412964 -477.454274892807 1700.99997520447 16 18 13
-290.314882993698 -480.278462171555 1710.99996566772 21 24 17
-286.501854658127 -481.699228286743 1715.99996089935 18 21 14
-279.540657997131 -477.786362171173 1702.00002193451 18 21 14
-273.139715194702 -474.715203046799 1690.99998474121 18 21 14
-268.703877925873 -475.012689828873 1692.00003147125 17 20 13
-261.452585458755 -470.256507396698 1674.99995231628 13 16 9
-255.827009677887 -468.307495117188 1667.99998283386 12 15 8
-250.389754772186 -466.638922691345 1661.99994087219 15 18 11
-248.387306928635 -471.428155899048 1679.00002002716 16 19 12
-243.097230792046 -470.040112733841 1674.00002479553 14 17 8
-239.116445183754 -471.179008483887 1677.99997329712 16 19 10
-233.575940132141 -469.229012727737 1671.0000038147 14 17 6
-230.129048228264 -471.490889787674 1679.00002002716 15 18 7
-225.966557860374 -472.348600625992 1682.000041008 15 18 7
-222.577080130577 -474.89121556282 1690.99998474121 17 21 7
-217.59144961834 -474.063724279404 1687.99996376038 17 21 7
-213.000297546387 -474.078446626663 1687.99996376038 19 22 13
-208.285316824913 -473.812162876129 1687.00003623962 19 22 13
-203.092396259308 -472.422122955322 1682.000041008 20 23 14
-196.982100605965 -468.784749507904 1669.0000295639 21 24 15
-191.63404405117 -466.832309961319 1661.99994087219 22 25 16
-187.224373221397 -467.12663769722 1662.99998760223 22 25 16
-182.918757200241 -467.70167350769 1664.99996185303 26 29 20
-178.066194057465 -466.87188744545 1661.99994087219 23 26 17
-172.916397452354 -465.199142694473 1656.00001811981 21 24 15
-168.103978037834 -464.368730783463 1652.99999713898 18 21 12
-163.604512810707 -464.380919933319 1652.99999713898 18 21 12
-159.682214260101 -466.078370809555 1659.00003910065 19 22 11
-155.820444226265 -468.05664896965 1666.00000858307 17 20 9
-152.646720409393 -472.282379865646 1680.99999427795 16 19 10
-150.271862745285 -479.31757569313 1705.9999704361 16 19 12
-153.309002518654 -504.615664482117 1796.0000038147 16 19 12
-151.475846767426 -515.022993087769 1832.99994468689 15 18 11
-147.682756185532 -519.249022006989 1848.00004959106 7 9 4
-142.10943877697 -517.293155193329 1840.99996089935 8 10 5
-137.616500258446 -519.270777702332 1848.00004959106 10 12 7
-133.587315678597 -523.215055465698 1861.99998855591 9 11 6
-127.963155508041 -520.977139472961 1853.99997234344 12 15 8
-122.713759541512 -520.143806934357 1850.99995136261 15 18 11
-117.162600159645 -517.904996871948 1843.00005435944 13 16 9
-112.324081361294 -518.756926059723 1845.99995613098 15 18 11
-107.236489653587 -518.484592437744 1845.00002861023 15 18 11
-102.154091000557 -518.211662769318 1843.99998188019 14 17 10
-97.867026925087 -522.153913974762 1858.00004005432 13 16 9
-93.0039584636688 -523.285627365112 1861.99998855591 12 15 8
-87.8827571868896 -523.011684417725 1860.99994182587 12 15 8
-82.3663324117661 -520.20800113678 1850.99995136261 12 15 8
-77.656127512455 -522.462666034698 1858.99996757507 12 15 8
-72.8631168603897 -524.436056613922 1866.00005626678 13 16 9
-67.9228007793427 -525.56586265564 1870.00000476837 14 17 10
-62.691755592823 -524.446845054626 1866.00005626678 15 18 11
-57.4514828622341 -523.046314716339 1860.99994182587 13 18 11
-52.0976185798645 -520.240128040314 1850.99995136261 13 19 9
-46.9252429902554 -518.838822841644 1845.99995613098 15 21 9
-41.870791465044 -518.561363220215 1845.00002861023 15 21 9
-36.8017330765724 -518.002390861511 1843.00005435944 16 22 10
-31.8296998739243 -518.848299980164 1845.99995613098 15 21 9
-26.8122013658285 -519.131720066071 1847.00000286102 17 23 11
-21.8599364161491 -521.101176738739 1853.99997234344 17 23 13
-16.7788043618202 -520.259499549866 1850.99995136261 17 20 13
-11.7837199941278 -522.509217262268 1858.99996757507 18 20 15
-292.014569044113 -480.072975158691 1694.00000572205 20 22 17
-288.770765066147 -482.357203960419 1702.00002193451 20 23 16
-283.813536167145 -481.807380914688 1700.00004768372 17 20 13
-278.538346290588 -480.690479278564 1695.99997997284 16 19 12
-274.253636598587 -481.27406835556 1697.99995422363 16 19 12
-269.163697957993 -480.440348386765 1695.00005245209 15 18 11
-262.372761964798 -476.488471031189 1680.99999427795 12 15 8
-255.657553672791 -472.536206245422 1667.00005531311 11 14 7
-250.825792551041 -471.985191106796 1664.99996185303 15 18 11
-247.187942266464 -473.701924085617 1671.0000038147 16 19 12
-242.791101336479 -474.001169204712 1672.00005054474 14 17 8
-237.818405032158 -473.166197538376 1669.0000295639 15 18 9
-233.141228556633 -472.898095846176 1667.99998283386 15 18 7
-229.154393076897 -474.047422409058 1672.00005054474 15 18 7
-225.41406750679 -475.76367855072 1677.99997329712 16 19 8
-221.509113907814 -477.196335792542 1682.99996852875 17 21 7
-216.674372553825 -476.644039154053 1680.99999427795 17 21 7
-212.354809045792 -477.225780487061 1682.99996852875 19 22 13
-207.900553941727 -477.523744106293 1684.00001525879 20 23 14
-203.561216592789 -478.105068206787 1685.99998950958 20 23 14
-197.558403015137 -474.716067314148 1674.00002479553 22 25 16
-191.966399550438 -472.177416086197 1664.99996185303 22 25 16
-187.548816204071 -472.474485635757 1666.00000858307 22 25 16
-182.686001062393 -471.636801958084 1662.99998760223 25 28 19
-178.374797105789 -472.216874361038 1664.99996185303 22 25 16
-172.903880476952 -469.676941633224 1656.00001811981 20 23 14
-168.295130133629 -469.405651092529 1654.99997138977 17 20 11
-163.592532277107 -468.850463628769 1652.99999713898 17 20 11
-160.247936844826 -472.265988588333 1664.99996185303 18 21 10
-156.837686896324 -475.681394338608 1677.00004577637 16 19 8
-152.998581528664 -477.962046861649 1684.99994277954 15 18 9
-150.701001286507 -485.348463058472 1710.99996566772 16 19 12
-155.260667204857 -515.995979309082 1819.00000572205 16 19 12
-154.191300272942 -529.340207576752 1866.00005626678 14 17 10
-149.030029773712 -529.067933559418 1865.00000953674 8 10 5
-142.947673797607 -525.391042232513 1851.99999809265 6 8 3
-137.68045604229 -524.55061674118 1848.99997711182 9 11 6
-133.290112018585 -527.11421251297 1858.00004005432 9 11 6
-127.608224749565 -524.570941925049 1848.99997711182 12 15 8
-122.50541895628 -524.296820163727 1848.00004959106 16 19 12
-117.153525352478 -522.887468338013 1843.00005435944 14 17 10
-112.315349280834 -523.747444152832 1845.99995613098 15 18 11
-107.170008122921 -523.188591003418 1843.99998188019 14 17 10
-102.423071861267 -524.615406990051 1848.99997711182 13 16 9
-98.0173647403717 -528.028011322021 1860.99994182587 12 15 8
-92.6969721913338 -526.616752147675 1855.99994659424 10 13 6
-87.5452980399132 -526.056408882141 1853.99997234344 11 14 7
-82.4933126568794 -526.063024997711 1853.99997234344 11 14 7
-77.6499882340431 -527.488052845001 1858.99996757507 12 15 8
-72.5840106606483 -527.494013309479 1858.99996757507 13 16 9
-67.5178840756416 -527.499616146088 1858.99996757507 15 18 11
-62.5187754631042 -528.0721783638 1860.99994182587 15 18 11
-57.1690835058689 -525.52318572998 1851.99999809265 13 18 11
-51.9245974719524 -523.541271686554 1845.00002861023 14 20 10
-46.9723232090473 -524.396419525146 1848.00004959106 15 21 9
-42.0262850821018 -525.535047054291 1851.99999809265 15 21 9
-37.0184145867825 -526.105761528015 1853.99997234344 15 21 9
-31.9305881857872 -525.541007518768 1851.99999809265 14 20 8
-26.9842315465212 -527.529716491699 1858.99996757507 17 23 11
-21.834596991539 -525.545299053192 1851.99999809265 16 22 12
-16.7955830693245 -525.830626487732 1853.00004482269 15 20 13
-11.6813592612743 -522.994041442871 1843.00005435944 17 22 16
-291.652947664261 -484.084129333496 1692.00003147125 19 21 16
-287.566274404526 -484.959274530411 1695.00005245209 18 21 14
-280.958741903305 -481.542468070984 1682.99996852875 14 17 10
-276.715189218521 -482.131272554398 1684.99994277954 13 16 9
-271.814435720444 -481.575399637222 1682.99996852875 13 16 9
-268.035680055618 -483.022511005402 1687.99996376038 13 16 9
-263.136923313141 -482.466489076614 1685.99998950958 14 16 11
-258.248567581177 -481.910288333893 1684.00001525879 13 15 10
-251.713782548904 -478.205919265747 1671.0000038147 16 19 12
-247.468039393425 -478.794038295746 1672.99997806549 17 20 13
-242.48506128788 -477.95107960701 1669.99995708466 15 18 9
-238.800376653671 -479.683756828308 1675.99999904633 17 20 11
-233.964577317238 -479.126662015915 1674.00002479553 18 21 10
-229.961529374123 -480.286717414856 1677.99997329712 18 22 8
-224.996089935303 -479.44301366806 1674.99995231628 17 21 7
-220.704644918442 -480.030357837677 1677.00004577637 17 21 7
-215.241983532906 -478.04120182991 1669.99995708466 17 21 7
-210.952505469322 -478.628158569336 1672.00005054474 19 22 11
-207.392483949661 -480.932414531708 1679.99994754791 20 23 14
-202.581316232681 -480.373948812485 1677.99997329712 23 26 17
-197.190642356873 -478.383839130402 1671.0000038147 23 26 17
-191.72240793705 -476.107031106949 1662.99998760223 23 26 17
-187.197878956795 -476.120263338089 1662.99998760223 23 26 17
-182.23363161087 -474.98807311058 1659.00003910065 21 24 15
-178.040683269501 -475.859761238098 1661.99994087219 20 23 14
-173.100277781487 -474.727064371109 1657.99999237061 18 21 12
-168.791368603706 -475.31196475029 1659.9999666214 16 19 10
-163.778573274612 -473.892331123352 1654.99997138977 16 19 10
-160.42871773243 -477.340221405029 1667.00005531311 16 19 8
-156.452104449272 -479.069888591766 1672.99997806549 15 18 7
-153.078079223633 -482.803851366043 1685.99998950958 14 17 8
-149.985253810883 -487.683236598969 1702.99994945526 16 19 12
-157.126769423485 -527.213752269745 1840.99996089935 16 19 12
-154.262378811836 -534.671187400818 1866.99998378754 15 18 11
-149.418324232101 -535.541594028473 1870.00000476837 12 14 9
-143.940210342407 -534.120738506317 1865.00000953674 6 8 3
-138.340100646019 -532.126665115356 1858.00004005432 9 11 6
-133.710354566574 -533.855319023132 1863.9999628067 11 13 8
-127.667471766472 -529.855608940125 1850.00002384186 14 17 10
-122.429728507996 -529.005944728851 1847.00000286102 17 20 13
-116.826698184013 -526.437401771545 1838.00005912781 15 18 11
-112.063318490982 -527.591824531555 1842.00000762939 14 17 10
-107.277914881706 -528.745949268341 1845.99995613098 14 17 10
-102.747447788715 -531.332015991211 1855.00001907349 12 15 8
-98.3257070183754 -534.776985645294 1866.99998378754 11 14 7
-92.6897153258324 -531.633675098419 1855.99994659424 10 13 6
-87.4439999461174 -530.494928359985 1851.99999809265 11 14 7
-82.6203003525734 -531.933844089508 1856.99999332428 11 14 7
-77.6021033525467 -532.2265625 1858.00004005432 13 16 9
-72.5002065300941 -531.946003437042 1856.99999332428 14 17 10
-67.512534558773 -532.524406909943 1858.99996757507 16 19 12
-62.480241060257 -532.815992832184 1860.00001430511 16 19 12
-57.1028105914593 -529.956161975861 1850.00002384186 15 20 13
-52.0330332219601 -529.673993587494 1848.99997711182 14 20 10
-47.0194183290005 -529.96438741684 1850.00002384186 14 20 8
-42.0910120010376 -531.400322914124 1855.00001907349 14 20 8
-36.9755327701569 -530.54404258728 1851.99999809265 14 20 8
-31.9797582924366 -531.406164169312 1855.00001907349 13 19 7
-26.9240159541368 -531.408488750458 1855.00001907349 15 21 9
-21.832849830389 -530.551016330719 1851.99999809265 15 21 11
-16.6854802519083 -527.401328086853 1840.99996089935 13 18 11
-11.6930995136499 -528.548359870911 1845.00002861023 16 21 15
-293.704569339752 -492.127448320389 1703.9999961853 17 19 14
-287.210255861282 -488.967150449753 1692.999958992 16 19 12
-281.109213829041 -486.384272575378 1684.00001525879 12 15 8
-276.698797941208 -486.689448356628 1684.99994277954 12 15 8
-272.605627775192 -487.572252750397 1687.99996376038 14 17 10
-267.384320497513 -486.433058977127 1684.00001525879 15 18 11
-263.432890176773 -487.60461807251 1687.99996376038 16 18 13
-258.385926485062 -486.753940582275 1684.99994277954 14 16 11
-252.451181411743 -484.169870615005 1675.99999904633 16 18 13
-248.339861631393 -485.052168369293 1679.00002002716 17 20 13
-243.485987186432 -484.489947557449 1677.00004577637 17 20 11
-238.642543554306 -483.927488327026 1674.99995231628 19 22 13
-233.949393033981 -483.653753995895 1674.00002479553 17 20 9
-229.809448122978 -484.535574913025 1677.00004577637 17 21 7
-225.249901413918 -484.550476074219 1677.00004577637 18 22 8
-219.637185335159 -482.253581285477 1669.0000295639 18 22 8
-214.454263448715 -480.823218822479 1664.00003433228 18 22 7
-209.928974509239 -480.837464332581 1664.00003433228 20 23 12
-205.897122621536 -482.007414102554 1667.99998283386 21 24 15
-201.360240578651 -482.021242380142 1667.99998283386 23 26 17
-196.469008922577 -481.167882680893 1664.99996185303 23 26 17
-191.132679581642 -479.158341884613 1657.99999237061 21 24 15
-186.621978878975 -479.171454906464 1657.99999237061 20 23 14
-181.122422218323 -476.583242416382 1649.00004863739 19 22 13
-177.385374903679 -478.619009256363 1656.00001811981 18 21 12
-173.192337155342 -479.498535394669 1659.00003910065 16 19 10
-169.592663645744 -482.111990451813 1667.99998283386 15 18 9
