ply
format ascii 1.0
comment KinectMotionCapture
element vertex 779
property float x
property float y
property float z
property uchar red
property uchar green
property uchar blue
end_header
-1099.19049607181 -172.701570417145 2721.77304411551 22 24 13
-1092.86847916514 -172.579463837735 2729.55014724362 22 22 12
-1079.19303335388 -172.167147431845 2737.48566313093 23 20 11
-1087.53614776604 -172.621804230368 2744.79518488568 22 19 10
-1076.98355857907 -172.331407384548 2752.5574625303 26 22 13
-1053.80209881812 -171.541227375304 2760.50724557414 29 22 14
-1040.05152235509 -171.122063121829 2768.16721042665 40 33 23
-1044.16951426727 -171.409298150899 2775.48252136311 52 46 34
-1054.60900603613 -171.947353778715 2782.72925791862 41 33 22
-1068.22099700978 -172.612275923599 2789.98580419849 39 33 21
-1075.52177423382 -173.027841667258 2797.34633269614 31 27 15
-1098.65770651386 -174.073509533382 2804.65335296291 25 21 10
-1083.80857274049 -173.609683486455 2812.16003635854 20 17 8
-1098.52278974627 -174.322522284154 2819.5814303924 19 19 9
-1098.37604318035 -174.571560390199 2834.4664991138 20 21 15
-1095.12226262401 -174.569222580843 2841.86985654597 13 16 9
-1338.32392445416 -187.179259509933 2513.33578572431 20 21 13
-1316.0252186065 -186.538389206171 2532.26143547002 22 23 15
-1308.97889196536 -186.384223342027 2541.26587945318 22 25 16
-1293.65091816241 -185.889238140879 2550.91164533463 20 23 14
-1205.14880940282 -182.774070448899 2590.5675440021 12 15 8
-1241.53337170605 -184.401883844273 2596.0407135872 14 17 10
-1219.84855239111 -183.636263409179 2605.63447423732 13 16 9
-1243.82468806879 -184.754602213223 2612.11880403405 12 15 8
-1230.51043375979 -184.460966141761 2629.11306539595 10 13 6
-1182.72939922362 -182.609538633675 2639.91672815603 12 15 8
-1216.10536905872 -184.119109097157 2645.98412614745 12 15 8
-1210.96732048895 -184.032717815303 2654.23820250556 13 16 9
-1170.36415797774 -182.472352878364 2664.2329638872 14 15 7
-1177.70346563138 -182.902195145854 2671.72753486843 14 17 8
-1163.12114146078 -182.420183292772 2680.23631159189 15 18 9
-1103.58396974581 -180.06371699607 2690.57383651625 17 20 11
-1106.70072804634 -180.315401709919 2698.09052828132 16 22 12
-1107.7261746371 -180.47993384515 2705.69025389813 19 22 13
-1100.37332378352 -180.294367709393 2713.57738706781 19 22 13
-1098.24651613007 -180.32681449767 2721.24669244952 20 21 13
-1080.3863453239 -179.700329266827 2729.36657015828 21 21 13
-1110.7623505104 -181.093752210351 2736.05890702552 20 20 12
-1120.17838609336 -181.61050452928 2743.4164505555 21 18 11
-1112.79438326667 -181.422599235856 2751.18847035383 23 20 13
-1081.21632705944 -180.217347609642 2759.39781208958 22 17 11
-1056.95684991853 -179.317460832281 2767.31071138174 33 29 20
-1056.87562263006 -179.433785827483 2774.72832963593 46 42 31
-1065.21918554439 -179.905246752121 2782.02890734582 37 30 20
-1089.38393144812 -181.044879373406 2789.2000661438 26 22 11
-1100.91987363832 -181.653297370925 2796.57696471434 22 20 8
-1124.08029929629 -182.754076606183 2803.94012965944 20 17 8
-1097.62169136911 -181.757744587157 2811.54161860522 19 20 12
-1127.09379514738 -183.251272017818 2826.50463614613 17 20 11
-1241.38324810945 -188.481065804112 2850.0836779645 11 14 7
-1303.67942475236 -194.206620372499 2524.44491417237 22 23 15
-1296.62808759621 -194.028313465096 2533.44692550877 21 22 14
-1169.7908453684 -188.756061139533 2560.72172030923 13 16 7
-1232.16489454407 -191.846960969252 2579.93674246503 12 15 8
-1225.01459840617 -191.657844391631 2588.57816315749 14 17 10
-1196.14027297097 -190.638719426143 2606.70748768068 13 16 9
-1170.24025572351 -189.624392401496 2616.39520446644 13 16 9
-1197.32214501624 -190.933263252051 2622.59947756722 13 16 9
-1185.94572527274 -190.554592988494 2631.25601444336 12 15 8
-1190.16600530416 -190.860647883325 2638.93921924066 11 14 7
-1214.18255272543 -192.037953781779 2645.53543216188 11 14 7
-1200.69968129395 -191.565303619781 2654.22403055289 11 14 7
-1146.55246498675 -189.653435427607 2688.18902791966 15 21 11
-1129.82364606754 -189.031444620097 2696.60930649541 15 21 11
-1144.47120476427 -189.797293669758 2703.75067241697 17 23 13
-1147.61367352394 -190.054320348838 2711.35944944051 17 23 13
-1111.97524066377 -188.591565638742 2720.24126397983 19 22 15
-1121.36261468572 -189.241705193974 2735.20174882418 20 20 12
-1123.43574972083 -189.450799660775 2742.76688158596 22 19 12
-1122.35558427066 -189.519716015085 2750.40281897312 25 22 15
-1117.06415806939 -189.400970946011 2758.10786073416 22 19 12
-1087.55621967276 -188.202255648389 2766.20544768188 28 25 18
-1074.85611529796 -187.751377428813 2773.88931166473 36 33 24
-1081.10568297091 -188.145896031975 2781.25744260011 30 26 17
-1105.28888927074 -189.342599532086 2788.46110966545 21 19 7
-1109.45137446265 -189.645602310865 2795.9307314749 18 18 6
-1104.11244676855 -189.52367411267 2803.46141916422 18 18 8
-1116.72782124043 -190.206031820964 2810.9030361868 19 22 13
-1128.29986228879 -190.84277832199 2818.39700663092 20 23 14
-1263.78164566404 -197.415218451856 2849.67200002486 9 12 5
-1243.13009868792 -199.840354727473 2537.6698041501 20 21 13
-1220.52041744674 -198.917926822157 2547.8250541481 20 23 14
-1210.28754293278 -198.56440454956 2556.81515282352 17 20 11
-1307.8429481079 -203.30866694873 2565.32912577184 8 11 4
-1265.50960697922 -201.471735165792 2576.86732364925 13 16 9
-1279.12093002538 -202.220918998467 2584.06819162672 15 18 11
-1210.7559022482 -199.173249753647 2597.13567708719 13 16 9
-1211.87883734736 -199.342009421643 2605.0946893856 13 16 9
-1191.17464321624 -198.497777859501 2614.48262971198 15 18 11
-1200.59923832658 -199.050930930765 2621.84897156006 14 17 10
-1171.52675326621 -197.815466262768 2631.58651302739 11 14 7
-1198.64909998751 -199.191346157416 2637.89869062851 11 14 7
-1231.01590019885 -200.813204070847 2644.04559658797 11 14 7
-1093.37349831341 -194.850211741485 2682.29492949642 15 18 9
-1156.08948243467 -197.891824647317 2687.22439571186 15 21 11
-1158.19494361566 -198.10332916728 2694.90802753617 16 22 12
-1164.48903988251 -198.510962350231 2702.43227553167 18 24 14
-1160.30978565051 -198.428409462221 2710.34742360214 18 24 14
-1146.68457890515 -197.902673615636 2718.54107439184 19 22 15
-1129.89024139703 -197.227296504671 2726.75180060547 21 22 16
-1098.36988774645 -195.859347396744 2735.27809929728 21 22 16
-1101.47730998318 -196.116191118858 2742.75687095958 23 22 17
-1116.15181437257 -196.917152018338 2749.97518415038 18 19 14
-1122.4261279355 -197.324006296095 2757.42740362602 19 18 13
-1104.49045763132 -196.591163963339 2765.3341148025 17 16 11
-1091.79554099279 -196.104030771261 2773.06012932502 16 16 8
-1121.25159372588 -197.604339979603 2780.16570103074 19 19 9
-1100.10510583692 -196.71825532462 2787.93791517326 20 20 10
-1100.04143325547 -196.826732555807 2795.42566528138 18 20 9
-1138.00559137345 -198.733347548696 2802.69122341677 17 19 8
-1112.5905591876 -197.643964784467 2810.3297315398 13 19 9
-1255.43585396693 -204.994323347434 2848.97033165015 8 13 7
-1336.95253996595 -212.29841636185 2511.8677142156 28 29 21
-1245.38613698279 -208.081925553068 2536.94641541559 21 22 14
-1244.48135998626 -208.152171943476 2545.23176701821 20 23 14
-1260.12691837441 -209.027882101219 2552.11190023227 19 22 13
-1288.21561311315 -210.510958732582 2558.04886885359 14 17 8
-1314.43128800931 -212.019780612639 2572.60070923608 13 16 9
-1322.89192616484 -212.548171573569 2580.30095074831 14 17 10
-1211.00462363541 -207.305926531738 2604.61447465839 12 15 8
-1229.79882602766 -208.336642117781 2611.39715345415 13 16 9
-1204.9183369674 -207.229306544478 2621.03164989868 12 15 8
-1204.98763694193 -207.34293806405 2629.00984689738 11 14 7
-1165.46362623322 -205.514272274104 2639.28435814232 10 13 6
-1185.3081977134 -206.596958351086 2646.03679064077 11 14 7
-1226.04184321182 -208.706980347846 2651.76660190593 12 15 8
-1137.38210647146 -204.566311036864 2672.00217586794 15 18 9
-1161.43073183439 -205.857321262964 2678.64662996199 16 19 10
-1167.72509920572 -206.275217589507 2686.16633392623 16 22 12
-1169.8377241255 -206.487435098854 2693.87611316442 16 22 12
-1162.52246987446 -206.234637497314 2701.94435255596 18 23 16
-1130.03578188435 -204.738646702995 2710.86000044347 18 23 16
-1112.18745008166 -203.963569150193 2719.11764746495 19 22 15
-1099.56041003298 -203.44535167445 2727.11529945158 20 21 15
-1083.76180047465 -202.769426691835 2735.12792292111 23 22 17
-1079.50150733298 -202.663630177214 2742.7559351897 24 23 18
-1091.00943843161 -203.338770793675 2749.98763792113 20 21 16
-1108.84566349479 -204.328483152128 2757.13574232811 19 20 15
-1090.89250386639 -203.543996758214 2765.01012442816 18 19 13
-1108.74708874087 -204.536063586136 2772.22490872732 18 19 11
-1108.63678319879 -204.743500390194 2787.2706116897 16 18 7
-1120.1942102219 -205.425289719889 2794.68188543833 17 19 8
-1107.45789651681 -204.898420081199 2802.27928827848 17 18 10
-1159.21061695158 -207.583817806162 2809.59151207873 14 19 12
-1193.04026971639 -209.379524035171 2817.16269472573 14 19 12
-1216.32319539754 -210.65159560488 2824.87253323483 13 20 12
-1290.54467423843 -214.583300492536 2840.78340968399 15 20 14
-1226.96976590316 -215.269691182737 2538.06679258671 20 23 16
-1223.98102757951 -215.224419581159 2546.48223505327 20 23 16
-1275.84516474337 -217.9901573894 2550.2601554021 19 22 15
-1180.69239933251 -213.218869939691 2566.2699857554 16 19 12
-1228.44566230386 -215.775167555098 2570.50347606981 14 17 10
-1275.22407623175 -218.28418530229 2575.04464239153 14 17 10
-1313.75992177928 -220.372730593946 2580.42158225444 14 17 10
-1304.5670262018 -220.009091358866 2589.38205680441 14 17 10
-1273.53102508874 -218.520741470527 2599.78267628721 15 17 12
-1245.56935954873 -217.188392090844 2609.80932046962 16 18 13
-1239.42318439356 -216.977906132665 2618.29508767004 15 17 12
-1167.64921084289 -213.383277560321 2630.74103726976 10 12 7
-1158.30804411596 -213.004742915567 2639.16041428406 9 11 6
-1244.90233806588 -217.577987413107 2642.15557184868 10 12 7
-1258.55540259002 -218.38889875546 2649.47244623467 16 18 13
-1237.75948785804 -217.419855084416 2658.59864577835 11 14 7
-1129.14456948387 -211.907172208939 2671.85285062712 15 18 11
-1166.79056228399 -213.957047647237 2677.84667615057 16 19 12
-1163.67093393472 -213.898190515979 2685.78379777549 16 19 12
-1168.92173863895 -214.272868173626 2693.35256447878 18 21 14
-1138.54641376548 -212.800379780012 2702.29981084851 19 22 15
-1121.75951633837 -212.031010730717 2710.59750221402 19 22 15
-1065.07063007802 -209.188726877616 2720.12698237956 20 23 16
-1074.45690635605 -209.775631771717 2727.3297447796 20 23 16
-1069.14198802676 -209.59894504691 2734.98414620179 21 24 17
-1075.38347194183 -210.02314491253 2742.30352453323 23 24 18
-1087.94389128329 -210.776727054185 2749.4961365489 20 21 13
-1097.35965652028 -211.367389092065 2756.80601360996 19 20 12
-1081.49788129203 -210.64134664832 2764.614827846 18 19 11
-1081.42728723296 -210.737932228173 2772.08438763042 18 20 9
-1118.28121012229 -212.761717747312 2779.05020500999 18 20 9
-1148.84729770096 -214.459660107757 2786.25602292613 18 20 9
-1085.42349748626 -211.248491176827 2794.39276266378 16 18 7
-1116.00306277737 -212.948396666807 2801.64738126747 17 19 8
-1136.04190330418 -214.099193518694 2809.07902410524 17 19 8
-1182.57096165065 -216.638419133653 2816.57163074342 16 19 8
-1308.78110346208 -223.684775054733 2848.19330110835 16 21 15
-1178.4674754012 -220.638001433673 2533.8417680767 22 25 18
-1227.15086136237 -223.35536140754 2537.53154505001 21 24 17
-1311.08089391958 -227.970966283881 2538.40164791001 21 24 17
-1252.2254865909 -224.908650732097 2551.71606664645 20 23 16
-1265.82023835681 -225.743080366682 2558.80065994911 18 21 14
-1272.17171898565 -226.187858131453 2566.51544271174 16 19 12
-1254.66304296643 -225.346639795497 2576.07592291452 16 19 12
-1272.4310435444 -226.406792883282 2582.92625059065 16 19 12
-1222.68090720561 -223.823874981366 2594.67441882276 16 19 12
-1264.35944429952 -226.174818195207 2599.86400195993 16 18 13
-1297.76821853547 -228.081514036201 2605.80247208862 15 17 12
-1263.54129075617 -226.333325517777 2616.20881592539 14 16 11
-1236.55733381055 -224.974652878907 2625.98579923668 12 14 9
-1254.36668040231 -226.038721343794 2632.98716459431 8 10 5
-1283.67395495393 -227.726432183943 2639.42203649224 9 11 6
-1266.03529308865 -226.871971093827 2648.50826550682 15 17 12
-1201.35433566639 -223.465522284646 2659.89428621201 12 15 8
-1210.81188268966 -224.077126282013 2667.34514017713 15 18 11
-1203.5829573319 -223.882062025724 2683.49195083108 16 19 12
-1184.76592968552 -222.957873764517 2692.14348112371 18 21 14
-1141.80834944493 -220.719765989584 2701.61728304564 19 22 15
-1041.09122327003 -215.336288267352 2712.94044791623 19 22 15
-1043.11145825012 -215.539611176913 2720.31281700095 20 23 16
-1060.88889095849 -216.601432801647 2727.19711090175 20 23 16
-1067.12430413062 -217.035386273047 2734.4877918384 21 24 17
-1090.19582877744 -218.387912030757 2741.36194517805 21 24 17
-1097.50663591344 -218.882044753359 2748.71010969552 21 22 14
-1110.09097814062 -219.664561873259 2755.97327466661 20 22 11
-1075.25740802052 -217.8575992547 2764.16531030317 19 21 10
-1078.34516688773 -218.121469199527 2771.56663973914 19 21 10
-1119.43151720365 -220.463887265988 2778.45832312856 19 21 10
-1145.78379451494 -222.002698769946 2785.70576685807 19 21 10
-1102.41338810345 -219.725633215302 2793.67235104433 17 19 8
-1094.94082070383 -219.412760925817 2801.19444556077 17 19 8
-1108.62157221879 -220.259281354648 2808.59163460412 17 19 8
-1150.91217364813 -222.676384417623 2816.01099376964 17 19 8
-1292.92042608606 -230.672985470476 2831.65328510164 15 18 11
-1269.61926982117 -229.496534875942 2839.40160048975 10 15 9
-1228.23169092757 -227.32456868081 2846.87011060172 10 15 9
-1229.16504406732 -231.343791187986 2520.48287433441 23 26 19
-1197.23807201767 -229.644613797321 2531.60491918749 22 25 18
-1284.22671767103 -234.637898982226 2531.90271525133 21 24 17
-1277.13114560149 -234.336517107194 2540.81819411558 21 24 17
-1307.31451853757 -236.135421324918 2546.53932554259 20 23 16
-1289.85261776969 -235.249233346789 2556.30093554127 18 21 14
-1215.48803012383 -231.341264232688 2586.60237030134 20 23 16
-1186.46724708918 -229.796028046251 2596.7274447768 19 22 15
-1169.8853182478 -228.952111136646 2605.83413896727 17 20 13
-1254.34536095386 -233.918501401395 2616.24323886886 14 16 11
-1241.93552259062 -233.310860760993 2625.10470427041 12 14 9
-1293.13079004159 -236.306394199358 2630.15048192349 7 9 4
-1282.81168609503 -235.817545984632 2638.90586533165 8 10 5
-1202.49656380523 -231.357764104038 2651.35883730924 13 15 10
-1186.8692107089 -230.564096862773 2660.08070973255 13 16 9
-1116.83132451783 -226.680080804728 2671.36154575243 15 18 11
-1198.48981990747 -231.502559747233 2683.1507268293 18 21 14
-1199.57317088505 -231.657152092238 2690.9717155486 19 22 15
-1106.26823437008 -226.441232816855 2702.43299951043 20 23 16
-1087.34457373494 -225.454166322068 2710.72832044023 20 23 16
-1078.89390103146 -225.062559240985 2718.56586009921 20 23 16
-1079.88678953209 -225.20859543969 2726.05638127466 20 23 16
-1101.90997729454 -226.553916494569 2732.93913428754 19 22 15
-1101.86156632807 -226.641463751522 2740.49769089342 19 22 15
-1112.3406291443 -227.329956116429 2747.79636911174 21 22 14
-1117.56198188914 -227.718968928227 2755.2476650189 20 21 13
-1097.48124842766 -226.662789374287 2763.18695607633 19 20 12
-1100.58372560836 -226.930787754187 2770.64032524778 19 20 12
-1136.41968311446 -229.071381886632 2777.64921021603 19 20 12
-1151.16962620466 -230.0076915869 2785.06216037014 19 20 12
-1102.49871285655 -227.313711362397 2793.09475021248 19 20 12
-1148.98023137245 -230.068164154407 2800.27496760501 19 20 12
-1086.4732287544 -226.578640021233 2808.09501564994 17 18 10
-1246.39256039418 -236.034933119389 2830.86660956425 15 18 11
-1206.0647641377 -233.815916976359 2838.40234036334 11 16 10
-1202.86002606712 -233.728095803889 2846.04175265345 15 20 14
-1227.28145820692 -239.311479897856 2520.14899784517 24 27 20
-1265.66104340033 -241.660610852223 2524.78032447136 22 25 18
-1335.13591226188 -245.841644504682 2526.80873367727 21 24 17
-1309.4308081669 -244.422150632889 2537.47499691027 19 22 15
-1288.86842025023 -243.303920862245 2547.56149501998 19 22 15
-1212.3656949173 -238.976925951275 2570.18899456345 14 17 10
-1187.52998532409 -237.601245465909 2580.15916732208 17 20 13
-1201.10522166581 -238.491133810031 2587.13721897623 19 22 15
-1190.77940037885 -237.970192178095 2595.88699529706 19 22 15
-1179.39544760077 -237.385984343386 2604.64532915465 18 21 14
-1231.59530282637 -240.648375102197 2617.14971398584 14 16 11
-1235.92789572936 -241.082856460179 2632.96147348534 8 10 5
-1194.28574308822 -238.7932748826 2651.24894753827 14 16 11
-1179.69074988559 -238.015766841282 2659.8972474527 14 17 10
-1171.39004903633 -237.784407508557 2683.77664173291 19 22 15
-1131.56521098181 -235.506121912612 2693.21717738852 19 22 15
-1136.79604445304 -235.902693916975 2700.69797187359 20 23 16
-1093.73788748657 -233.42899362723 2709.94709290531 20 23 16
-1095.79247015808 -233.636000186903 2717.44466257247 19 22 15
-1139.89792599489 -236.345124380694 2723.6252128281 19 22 15
-1105.1610966837 -234.363515826679 2732.28669042826 19 22 15
-1107.2189067388 -234.571357780548 2739.79571531399 19 22 15
-1114.54381258173 -235.093347032439 2747.17863841275 22 23 15
-1122.92979519371 -235.679008026661 2754.56461220046 21 22 14
-1113.39180218846 -235.196381492289 2762.31985901262 20 21 13
-1127.06056228048 -236.098061216965 2769.63677253854 20 21 13
-1142.85733152823 -237.127761657736 2776.98110063458 20 21 13
-1171.35623091109 -238.917247254796 2784.24762812134 20 21 13
-1193.54473661859 -240.331425022063 2791.70070173925 20 21 13
-1159.66488152567 -238.395190102135 2799.61806070546 19 20 12
-1150.0960315033 -237.911363221796 2807.25949929647 17 18 10
-1105.53726547652 -235.333381736604 2814.89931107047 17 18 10
-1142.57767749237 -237.638511133847 2822.37990022983 16 19 10
-1180.72633698131 -240.012421202603 2830.03545014663 15 17 12
-1180.69281652385 -240.100701455528 2837.64790049621 11 16 10
-1224.22641080451 -242.801463229418 2845.60684085409 17 22 16
-1242.97032843575 -248.340370559631 2518.14612770473 23 26 19
-1267.02879547337 -249.989997138843 2532.39335118488 20 23 16
-1280.63181976641 -250.912040262321 2539.45427321163 19 22 15
-1281.81026776836 -251.07104568418 2547.62555235824 19 22 15
-1249.79008996421 -249.188598126454 2558.51724970185 16 19 12
-1253.01833383628 -249.47241291314 2566.4275802975 14 17 8
-1234.43241975214 -248.413728080967 2576.0221040436 15 18 9
-1181.62478483726 -245.412637687126 2603.95849227062 17 20 13
-1201.46810915404 -246.718280478621 2610.5664601207 16 19 12
-1244.26835634011 -249.440632697668 2615.78899537172 14 17 10
-1149.4699162322 -243.838319866289 2645.32892222546 10 12 7
-1228.92324347518 -248.82762094411 2648.82449438952 12 14 9
-1177.73580977127 -245.747372412717 2659.44749713818 15 18 11
-1104.46944200014 -241.379053377271 2678.52990830664 16 19 12
-1131.69131797955 -243.143434959706 2684.96726793105 20 23 16
-1157.89850752266 -244.846332921791 2691.5724336141 20 23 16
-1120.1168737808 -242.587645564608 2700.79304333244 18 21 14
-1072.82835107596 -239.737958076099 2710.16016372289 18 21 14
-1108.49886643879 -242.028153638531 2716.4603439278 19 22 15
-1095.83786733333 -241.323177987536 2724.44982192733 19 22 15
-1127.35687663079 -243.358458140143 2731.08435361141 19 22 15
-1092.57068565477 -241.280324752756 2739.62257272878 20 23 16
-1106.2096284118 -242.207215222759 2746.81379261167 23 24 16
-1123.02780135965 -243.33244961261 2753.99375693804 22 23 15
-1120.87169732295 -243.279595379474 2761.60814519 22 23 15
-1128.21347323725 -243.817341907834 2769.04375523785 21 22 14
-1149.29872677489 -245.210403484479 2776.31125084469 21 22 14
-1165.12284148938 -246.277464271013 2783.73351993266 21 22 14
-1159.76840458375 -246.110386590304 2799.02869976992 18 19 11
-1166.08771164263 -246.587597947311 2806.60262247844 16 17 9
-1172.41247921714 -247.065852342051 2814.19708951434 17 18 10
-1126.68829248838 -244.382350555596 2829.26643280753 14 19 13
-1185.04718320824 -248.10858594846 2837.0691613366 13 18 12
-1278.46874266202 -258.789584422447 2522.5524734799 21 24 17
-1261.13703395878 -257.843160362738 2540.62998981963 20 23 16
-1263.33774250255 -258.064409855295 2548.66110396838 20 23 16
-1252.04679986662 -257.421639433936 2557.80173960573 18 21 14
-1245.92972821488 -257.109615667685 2566.45966806667 16 19 10
-1225.25159314979 -255.863975434139 2576.19778901886 15 18 9
-1261.7386232602 -258.281464254181 2581.55284176578 15 18 9
-1179.68938810759 -253.176542074107 2603.56091093167 16 19 12
-1220.37898237161 -255.864852150349 2608.76206777773 15 18 11
-1179.78317895674 -253.336530979269 2619.39433991232 14 17 10
-1089.01705879996 -247.658422983372 2640.5735531798 6 8 3
-1106.75519844984 -248.872940297256 2647.21555559126 9 11 6
-1252.08379979095 -258.292170750659 2647.0113771674 11 13 8
-1124.46531707981 -250.387128338785 2684.73767517968 20 23 16
-1138.08525586216 -251.339664306657 2691.84214580446 20 23 16
-1107.62383039614 -249.452152849455 2700.73081236239 17 20 13
-1138.05532561517 -251.488983531926 2707.2229588811 18 21 14
-1082.31377409816 -247.969591074199 2716.80087781775 19 22 15
-1061.21224726458 -246.682485961995 2724.99227784726 19 22 15
-1085.34877506826 -248.314375156789 2731.7478833398 20 23 16
-1120.05010996276 -250.629750079226 2738.33103889701 20 23 16
-1111.57301919652 -250.157853946883 2746.12118377055 20 21 13
-1112.57599377803 -250.298355749384 2753.6526467155 19 20 12
-1119.91134607275 -250.848356792965 2761.05667026347 18 19 11
-1124.08443904291 -251.194474187839 2768.53938538545 18 19 11
-1142.00246011679 -252.430200051727 2775.8358623002 18 19 11
-1141.9594108556 -252.504619014629 2783.42261438451 18 19 11
-1140.85508777623 -252.510548834684 2791.00862562953 17 18 10
-1155.63463301853 -253.545538957342 2798.46918111984 16 17 9
-1157.71225120436 -253.758560140235 2806.04847981861 15 16 8
-1190.49640390645 -256.122450052576 2828.86266417854 11 16 10
-1139.45369248592 -252.89041783393 2836.22157126803 9 14 8
-1325.92990258709 -269.966834961313 2500.77609312719 18 21 14
-1298.17758274866 -268.200090046526 2511.85425146889 23 26 19
-1309.7264923122 -269.044308284341 2519.13042342768 22 25 18
-1295.3865533247 -268.167132877471 2528.78861441058 21 24 17
-1277.91316567466 -267.080676056144 2538.63494415302 19 22 15
-1242.77522015355 -264.817634777337 2549.88115815589 19 22 15
-1239.76950912384 -264.691664600909 2558.28453314695 18 21 14
-1217.01735667672 -263.250480382976 2568.23833105944 17 20 11
-1208.78531055714 -262.775211137131 2576.94040828585 17 20 11
-1174.57984802061 -260.640475307854 2595.46406388899 14 17 8
-1173.58448215956 -260.645835836378 2603.45497135147 13 16 9
-1200.73150791429 -262.528184554639 2609.53994848803 13 16 9
-1251.90634852389 -266.01508490625 2614.19966193703 13 16 9
-1150.75492613111 -259.406908939012 2636.37347060369 8 11 4
-1266.89266014385 -267.308658318228 2645.6453538835 11 13 8
-1157.07050787622 -260.041040934994 2659.42163005773 13 16 9
-1118.28168222369 -257.657727400629 2684.46487602623 19 22 15
-1127.68048959529 -258.426917193209 2699.39264856946 18 21 14
-1130.80872647036 -258.706668165447 2706.93330944331 19 22 15
-1105.5406199137 -257.083995403809 2715.45401501715 19 22 15
-1092.86485859517 -256.304360609096 2723.43674871027 19 22 15
-1111.76469386855 -257.641324116899 2730.41827278463 18 21 14
-1122.25620091797 -258.4153635909 2737.7091440356 20 23 16
-1107.44821922506 -257.492490600852 2745.65843524888 19 22 13
-1101.05986536817 -257.134252865955 2753.33925215496 19 22 13
-1116.83692973644 -258.264151924007 2760.54715973402 19 22 13
-1149.54051508166 -260.531962863846 2767.53573294017 18 21 12
-1145.27417285643 -260.317450720592 2775.21085252618 17 20 11
-1140.9994723083 -260.102426889644 2782.85433332773 17 20 11
-1147.30487782932 -260.59889127007 2790.36541602225 17 20 11
-1151.49664700484 -260.953696264041 2797.91198733904 18 21 12
-1126.99736745433 -259.451550234795 2813.10742301576 15 18 9
-1235.22634115222 -266.965224449501 2836.12295095858 12 19 12
-1322.01058487437 -277.998453371269 2500.63715118806 16 19 12
-1303.72041385938 -276.878973780345 2519.16166340484 22 25 18
-1262.421630702 -274.098313024889 2531.23954392345 21 24 17
-1242.84261242981 -272.815551446856 2541.185586196 19 22 15
-1234.65023069377 -272.31847034251 2550.04870037006 18 21 14
-1240.98351220929 -272.82457079081 2557.65719745979 18 21 14
-1269.14787508535 -274.839870756174 2563.53816007109 16 19 10
-1248.46650646632 -273.478554821212 2573.33730705345 16 19 10
-1190.28722651845 -269.522500212219 2585.8290648836 16 19 10
-1215.34055936214 -271.322800365847 2591.98594155352 14 17 8
-1225.83508005849 -272.116366826365 2599.27567356786 13 16 7
-1198.79694357892 -270.31165248735 2609.13310626735 12 15 8
-1235.37786947984 -272.911740317427 2614.72149222558 12 15 8
-1139.3789590689 -266.32854035732 2628.73276971528 11 14 7
-1205.2739608098 -271.026804905039 2640.52213275524 8 11 4
-1216.83199548825 -271.894787838334 2647.81810971508 10 13 6
-1177.11416938275 -269.272653010837 2665.66568893616 15 18 11
-1080.56069496709 -262.76533652497 2693.1572096968 18 21 14
-1106.77323719634 -264.650297799161 2699.66730361022 19 22 15
-1103.57804265493 -264.492996985676 2707.38694398419 20 23 16
-1132.99249292889 -266.602320376842 2713.95355424028 21 24 17
-1144.54523947392 -267.471128733913 2721.22844724531 20 23 16
-1091.84222717024 -263.871318082065 2730.4487484061 20 23 16
-1088.61691541212 -263.711855552054 2738.05700522934 21 24 17
-1100.15417862515 -264.579804583817 2745.27588321286 18 21 14
-1111.70448697541 -265.449312980201 2752.5412817104 18 21 14
-1124.32390471037 -266.393935614962 2759.83233023153 18 21 14
-1122.15757765754 -266.309398382298 2767.42876541556 17 20 13
-1152.77908367293 -268.509790197072 2774.52312084364 16 19 12
-1116.74905081971 -266.065820994214 2782.5714178463 16 19 12
-1115.62407343783 -266.054342778267 2790.09173423686 17 20 13
-1154.77487831779 -268.852322718122 2797.3030686523 18 21 14
-1147.30415427468 -268.399471718014 2804.9213114426 16 19 12
-1253.42984343923 -276.09007202108 2835.60226483521 3 13 5
-1298.42800260452 -284.59646722741 2502.43219712198 19 22 15
-1287.19852945093 -283.858444006503 2511.86119453062 24 27 20
-1246.9383803171 -281.0422233357 2523.92237891916 23 26 19
-1275.05151024088 -283.118433673418 2529.57466799962 22 25 18
-1275.18573971871 -283.192213307408 2537.82002493503 19 22 15
-1238.97737314591 -280.662872620569 2549.15642325932 18 21 14
-1259.86041652084 -282.221956454498 2555.56740537973 17 20 13
-1270.37164146363 -283.038431183061 2562.90562292845 16 19 10
-1236.15608820022 -280.649145240633 2573.75988248753 16 19 10
-1219.58976907245 -279.523797899821 2583.10128390387 15 18 9
-1247.79692661134 -281.608861177088 2589.09708980775 14 17 8
-1257.27332857922 -282.351125442893 2596.53638545591 13 16 7
-1256.32677969497 -282.345726242409 2604.71533391498 13 16 7
-1242.84777426219 -281.440621837095 2613.69131497139 13 16 9
-1274.26961751427 -283.758803598315 2619.78554988494 13 16 9
-1261.82343751651 -282.927620863899 2628.65321869589 10 13 6
-1244.12679426118 -281.718693100432 2637.74703685175 9 12 5
-1250.48002606756 -282.237210018681 2645.42176635215 9 12 5
-1240.0778559918 -281.551764970025 2653.99286245211 13 16 9
-1128.99077924533 -273.746491085127 2682.89563008954 18 21 14
-1072.24727483641 -269.723441790185 2692.96779726046 18 21 14
-1107.92282073522 -272.350130747124 2699.07421054583 19 22 15
-1137.33282683063 -274.527162259532 2705.58157307483 20 23 16
-1149.93895790603 -275.495434374038 2712.80835978968 20 23 16
-1115.162238381 -273.051009271071 2721.61393098437 20 23 16
-1070.84990131444 -269.918376766898 2730.51886280593 20 23 16
-1074.99027882353 -270.276307381974 2737.87265358422 21 24 17
-1100.2417513796 -272.156531678068 2744.71379522993 19 22 15
-1125.52458352855 -274.040267334938 2751.66915200835 19 22 15
-1119.133595751 -273.64047976781 2759.36642207215 19 22 15
-1110.6162386318 -273.08727062422 2767.05840264763 18 21 14
-1127.48292475815 -274.365990640067 2774.32065508575 17 20 13
-1107.30527799224 -272.971305320409 2782.11476988029 16 19 12
-1105.11249414462 -272.874812202412 2789.62052449075 17 20 13
-1113.44306323445 -273.601395451709 2804.50535758798 15 18 11
-1163.27118267912 -277.265879671539 2811.84641193502 15 18 11
-1260.99348147952 -284.462129383436 2827.22554156863 11 18 11
-1252.30369757553 -289.514997109401 2522.90634493864 23 26 19
-1284.57828729152 -291.965651672987 2528.18763258477 22 25 18
-1186.11148895553 -284.724067161577 2545.14168561573 19 22 15
-1265.11881623872 -290.639836089788 2546.39735306572 18 21 14
-1270.43522197513 -291.092171471837 2554.1606545223 17 20 11
-1182.14656593338 -284.599686787625 2569.46522170495 16 19 10
-1234.2433661708 -288.52207776986 2573.37765320518 15 18 7
-1240.58152684257 -289.04958904855 2580.98981894584 15 18 7
-1283.4035685146 -292.28604110436 2585.96869712815 14 17 8
-1250.14488993014 -289.873798995867 2596.49381776504 14 17 8
-1261.7155872416 -290.790203368136 2603.80530881529 14 17 8
-1220.09867790927 -287.811377221374 2622.62073024231 14 17 10
-1215.97579278459 -287.561178020776 2630.85100886557 10 13 6
-1254.82974973447 -290.563254725581 2644.62491887545 8 11 4
-1290.53495010586 -293.276390817318 2650.7877842326 10 13 6
-1222.51456600769 -288.328961778489 2670.2296643669 16 19 12
-1126.99937153808 -281.274758233136 2682.4388599856 18 21 14
-1128.0261326873 -281.406053427214 2690.064450365 18 21 14
-1173.21507484201 -284.826691773612 2695.92223978951 18 21 14
-1160.58962521303 -283.941957161335 2704.15719642534 19 22 15
-1134.25570858755 -282.035379626787 2712.79632110204 19 22 15
-1067.76521341308 -277.189427311088 2730.06167110082 19 22 15
-1075.06890335335 -277.788572067455 2737.31804078732 20 23 16
-1095.04941794401 -279.333810847904 2744.28410087134 21 24 17
-1104.48897499216 -280.093533979274 2751.57557594019 21 24 17
-1092.79394165846 -279.276711315238 2759.32578949064 21 24 17
-1100.12342021466 -279.879755779121 2766.67451615996 20 23 16
-1119.10512558964 -281.353274042504 2773.87379435156 19 22 15
-1121.15972472779 -281.563690723941 2781.36927218375 17 20 13
-1103.07272371883 -280.269879993518 2789.06828819262 17 20 13
-1063.74280437125 -277.388496724634 2796.83080391953 16 19 12
-1119.89315054852 -281.641999458009 2803.89339119742 15 18 11
-1151.68492423436 -284.07702917745 2811.28826264587 15 18 11
-1266.73752773443 -298.596029495207 2504.52094726966 28 31 24
-1281.37922317953 -299.771457368999 2511.38195745922 25 28 21
-1307.44418517404 -301.822700790101 2517.23913304345 24 27 20
-1212.13781213534 -294.570539390367 2534.244013295 20 23 16
-1305.67763507559 -301.794644072122 2534.07684363321 19 22 15
-1253.87292424985 -297.875067731286 2546.8342454353 18 21 14
-1194.7151899426 -293.389486779199 2559.92475861965 17 20 11
-1215.59135143918 -295.042460948256 2566.2518412547 17 20 11
-1182.35007661897 -292.542975454446 2576.89573054097 16 19 8
-1181.35965993647 -292.517714526801 2584.92434611774 15 18 7
-1189.74860137104 -293.212376312944 2592.25248804009 15 18 9
-1247.1835919969 -297.673472188795 2596.16100416112 15 18 9
-1219.0802575601 -295.566438624178 2606.15075453523 14 17 8
-1201.38316654185 -294.257992479275 2615.30666995382 14 17 8
-1218.16043673991 -295.597828127182 2622.19835336461 14 17 8
-1241.2345999735 -297.422148367981 2628.78443692193 10 13 6
-1257.0086833391 -298.686009526945 2635.89669996482 8 11 4
-1243.46713178743 -297.69643768021 2644.69378786111 9 12 5
-1199.50196452075 -294.366826045437 2655.0120554173 9 12 5
-1213.17231494527 -295.468972929112 2662.209238089 13 16 9
-1097.7354072354 -286.638873283667 2675.60895723804 16 19 12
-1073.53137176689 -284.825526536034 2684.30441139852 19 22 15
-1196.46061343428 -294.335934309584 2686.60285866331 19 22 15
-1200.68690408353 -294.712285731508 2694.26306913691 18 21 14
-1178.60006033295 -293.062903030679 2702.92215308122 19 22 15
-1173.33383584678 -292.708266388226 2710.86969346135 20 23 16
-1112.19237825336 -288.049416695495 2720.60074407975 19 22 15
-1081.55347135133 -285.738927285591 2729.09843200989 20 23 16
-1089.92353027279 -286.433946936157 2736.35624092506 21 24 17
-1098.30204401433 -287.130117728084 2743.64471415968 21 24 17
-1123.59976350648 -289.131223503684 2750.58124337698 21 24 17
-1110.85401036959 -288.199655481586 2758.40003385251 21 24 17
-1118.19700155535 -288.81737572028 2765.78966475106 20 23 16
-1148.84615690779 -291.233834485189 2772.85026338744 19 22 15
-1129.72481947484 -289.810875955851 2780.68684852194 17 20 13
-1130.72417572674 -289.940619095724 2788.21166977459 18 21 14
-1053.19375054791 -284.00811075582 2796.34726816806 16 19 12
-1116.78978314455 -288.970973812445 2803.33120512128 15 18 11
-1183.65668394764 -294.188985162256 2810.60732817934 15 18 11
-1227.21732095663 -297.609351162011 2818.21235245083 16 19 12
-1313.39542484185 -304.324758636765 2826.10339810712 10 17 10
-1262.78508946627 -306.405518140147 2504.39927630459 14 16 11
-1254.62270773154 -305.807291744163 2513.4376324458 23 29 25
-1281.71474096564 -308.00001344741 2519.12247987703 21 28 21
-1349.3246758508 -313.402136474193 2521.24753458563 19 26 18
-1267.44346143151 -306.965066722542 2536.92783927258 16 22 10
-1215.59093576311 -302.904382626851 2549.5968019847 19 19 7
-1236.47685260662 -304.605730824699 2555.92863445903 20 20 8
-1241.77468539029 -305.072034976238 2563.6141590325 15 17 6
-1274.15826827526 -307.685430005302 2569.19737114264 14 17 8
-1214.92786524149 -303.082227959717 2589.88498015746 15 18 9
-1166.98112815963 -299.325281627399 2601.27739569517 16 19 12
-1179.54490363753 -300.366986337322 2608.30056288147 14 17 10
-1261.19324027266 -306.936409882587 2618.94816810289 14 17 10
-1250.81234721556 -306.158746505745 2627.65648342768 13 15 10
-1222.60970226632 -303.966055132891 2637.33159318933 11 13 8
-1242.57548213101 -305.597098720296 2644.18784443805 8 11 4
-1270.95501129723 -307.896950825257 2650.68895501132 9 12 5
-1121.89442490014 -296.282557223381 2696.87236634133 20 23 16
-1150.28989892865 -298.584997257393 2703.43011415771 19 22 15
-1134.46335419709 -297.372079941115 2711.67804865179 18 21 14
-1102.79598354074 -294.899090392067 2720.35523767813 18 21 14
-1115.39988722458 -295.946822522941 2727.52358763013 19 22 15
-1114.29148373482 -295.904161015979 2735.12512713121 19 22 15
-1118.46160297845 -296.281763768263 2742.57692318305 21 24 15
-1128.97874820378 -297.164943059692 2749.89407878902 19 22 13
-1127.86885541517 -297.123206869386 2757.48950461887 20 23 16
-1103.46231820359 -295.22670933102 2765.48560655288 19 22 15
-1120.33902275654 -296.617441740272 2772.71433668414 19 22 15
-1162.67931785882 -300.037231709594 2779.68608371875 18 21 14
-1157.33449467414 -299.659698566595 2787.35625818808 18 21 14
-1148.79494376096 -299.027786491039 2795.01552646748 17 20 13
-1172.0677420495 -300.98105023495 2810.05126466579 15 18 11
-1240.10133561912 -306.455410563278 2817.60092359115 16 19 12
-1273.47287860557 -315.426361732913 2511.10955349686 22 29 22
-1334.8316462868 -320.482562798348 2513.62342694046 19 29 21
-1325.65761231904 -319.775784629405 2522.87149993235 17 27 18
-1292.56737307169 -317.113709300322 2534.17880540876 16 22 10
-1208.47487520936 -310.281118557254 2549.69140008821 19 19 7
-1210.63161960132 -310.49826540476 2557.56187415334 19 19 7
-1288.80264654614 -316.931725230791 2559.2819998102 18 20 9
-1260.7928437202 -314.682543649784 2569.70875953976 15 18 9
-1257.76689463102 -314.476125537362 2578.08685617536 15 18 9
-1243.25565087965 -313.329991416486 2587.27883259665 14 17 8
-1191.13190297872 -309.105596303454 2599.04415888346 14 17 10
-1166.10019608343 -307.096945786114 2608.68625621565 17 20 13
-1216.31292487811 -311.246948595095 2613.25243829366 16 19 12
-1244.61912494026 -313.604744040257 2619.44378086151 16 19 12
-1245.73836187816 -313.737152436695 2627.41294192431 12 14 9
-1208.09070889906 -310.694878079658 2637.62571176571 10 12 7
-1273.21754368585 -316.110851658812 2650.00714695854 9 12 5
-1287.99533587205 -317.362956210391 2657.32411901077 11 14 5
-1255.57565447543 -314.789195763399 2674.96256637471 17 20 13
-1076.72847759703 -300.209496587581 2698.15096655326 19 22 15
-1114.58324846836 -303.352889760032 2704.22955428476 19 22 15
-1132.45769605589 -304.858897908985 2711.19453832206 18 21 14
-1086.00739301431 -301.089333656378 2720.35731666151 18 21 14
-1123.93711252319 -304.241041277719 2726.70799566443 19 22 15
-1124.94503091477 -304.364503243084 2734.26950109084 20 23 16
-1129.12277601216 -304.748468633931 2741.74466438366 21 24 15
-1121.66836001481 -304.177985069178 2749.49772279471 20 23 14
-1112.08438170286 -303.432741443248 2757.24710883689 20 23 14
-1088.71597155259 -301.555893522875 2765.18791793525 21 24 15
-1125.72463180398 -304.636734873536 2772.06087509801 20 23 14
-1140.50841677451 -305.893525538883 2779.39806763951 18 21 12
-1207.31211840554 -311.424368950761 2786.24203877141 18 21 12
-1137.14177726442 -305.74745613453 2802.05935706024 17 20 11
-1184.92816396664 -309.719296807499 2809.41937892011 17 20 11
-1245.54536348402 -314.747705439919 2816.99200061552 18 21 12
-1291.33367251739 -318.559126411863 2824.82747307322 13 18 11
-1288.04241150232 -324.736093178181 2500.87624565132 36 27 18
-1287.14955188461 -324.698084392013 2509.27511981954 24 26 15
-1315.3196273959 -327.108358465582 2514.92792635103 21 27 17
-1269.8902042719 -323.354355521615 2535.66477693276 17 24 16
-1202.39251529475 -317.702012153982 2549.69972684194 17 20 13
-1178.51976960558 -315.725318238678 2559.72832387239 16 19 10
-1206.69585603286 -318.135652074362 2565.40341002619 16 19 10
-1253.67065782006 -322.13158787677 2569.73496375959 16 19 10
-1254.80924508386 -322.2633459153 2577.77637939186 16 19 10
-1270.56006411908 -323.627456154431 2584.73897451462 17 20 11
-1226.79001965021 -319.971329119921 2595.98783950614 18 21 14
-1197.59059840815 -317.543442383782 2606.00692467939 19 22 15
-1201.81923732378 -317.935207327035 2613.66705153783 17 20 13
-1212.33100860911 -318.857219543357 2620.939737682 12 15 8
-1240.65987517192 -321.283143574663 2627.17222370156 10 12 7
-1303.61187891926 -326.631919647259 2631.52136248806 9 11 6
-1254.42166865369 -322.515816139098 2642.42007923176 9 11 6
-1277.57999733956 -324.506706297757 2649.2134890913 9 12 5
-1248.25385299322 -322.066647356587 2658.76976110846 12 15 8
-1298.75868072299 -326.367583115916 2664.32515811922 15 18 11
-1096.82031756175 -309.417720117816 2696.79602813906 18 21 14
-1132.59404283551 -312.475090272411 2702.99505263924 18 21 14
-1128.34073090229 -312.151058136006 2710.78769633582 18 21 14
-1132.52095784101 -312.53987410942 2718.2690118152 19 22 15
-1120.86434789485 -311.59035787996 2726.24565964336 20 23 16
-1131.37937952959 -312.515180497635 2733.52960550813 21 24 17
-1122.87275181858 -311.832198079461 2741.34335432517 22 25 16
-1117.52623355715 -311.416574137139 2749.03128384335 20 23 14
-1098.40503387831 -309.836102580134 2756.96782591163 20 23 14
-1105.74349470529 -310.49362694109 2764.31643525947 21 24 15
-1133.23408800036 -312.856519186052 2771.37269228739 20 23 14
-1122.56407434026 -311.991463754158 2779.06273424785 18 21 12
-1110.81542803636 -311.035404474239 2786.70180005791 17 20 11
-1168.05824011371 -315.958161895421 2801.29521613807 16 19 10
-1190.35044997963 -317.885457044705 2808.80936751774 16 19 10
-1250.99289545918 -323.061136583222 2816.3818143597 17 20 11
-1256.0891760293 -330.119032360861 2503.53318152575 38 28 16
-1292.53314153688 -333.312599973512 2508.23836832138 25 25 13
-1237.63471448048 -328.580339026258 2521.71145577964 22 25 14
-1248.12876214764 -329.521970952851 2528.90687976783 18 25 17
-1214.95647779405 -326.673699294582 2540.02712245993 17 24 16
-1173.40995033584 -323.097659447206 2551.68826668865 15 20 14
-1232.81671195578 -328.284893315487 2554.66556674846 17 20 13
-1261.0389278592 -330.765614353529 2560.46841283376 17 20 11
-1242.37066477922 -329.175139469935 2570.0929352972 17 20 11
-1237.2394081195 -328.759918655585 2578.5798344385 17 20 11
-1247.76128432105 -329.703960361658 2585.87705891201 18 21 12
-1249.93489225965 -329.922999796176 2593.80894914029 18 21 14
-1224.92117755405 -327.780274772043 2603.60249557117 15 18 11
-1216.61220597121 -327.088496287883 2612.15565622814 14 17 10
-1245.98391657249 -329.670546944039 2618.2651272088 13 16 9
-1301.58774215643 -334.532780549364 2622.91426983372 10 12 7
-1290.15910232952 -333.570406820646 2631.74544358569 9 11 6
-1320.68088919772 -336.254150325316 2638.16439841144 10 12 7
-1252.54657557387 -330.362504115857 2649.98676906916 9 12 5
-1282.02748979848 -332.956144921437 2656.4943742863 11 14 7
-1261.07957370653 -331.165875444275 2665.57470155417 13 16 9
-1185.39981834691 -324.646369542239 2684.84839418018 17 20 13
-1166.44165208723 -323.027969248103 2693.41419359913 17 20 13
-1127.42454740201 -319.664599992867 2702.64242957688 17 20 13
-1109.45048304406 -318.131296270613 2710.91196057339 18 21 14
-1093.56062102706 -316.779168176764 2719.01177177113 19 22 15
-1060.74458015793 -313.954122677608 2727.54369253398 21 24 17
-1118.79010323302 -319.036112361328 2733.32699613179 22 25 18
-1099.69249567452 -317.405224267336 2741.38296148108 22 25 16
-1095.38534973625 -317.061679688447 2748.98804920281 20 23 14
-1108.01713622488 -318.193047427048 2756.20711939975 20 23 14
-1093.10500155965 -316.926838349203 2763.98647547223 21 24 15
-1113.17127296294 -318.706475545024 2771.12294690506 21 24 15
-1093.99167985745 -317.06905149914 2778.87864244501 18 21 12
-1140.56996909107 -321.193150517763 2793.34606838876 16 19 10
-1197.93367030128 -326.225299794863 2800.52661706604 15 18 9
-1230.89503902178 -329.132880036306 2808.06837257573 16 19 10
-1342.20203686834 -345.848035358789 2486.00782022705 27 17 5
-1339.27124691181 -345.613233330955 2494.75807321225 35 27 14
-1252.23910301194 -337.868460557397 2511.62213246527 25 25 13
-1270.01416779189 -339.481619626824 2518.14954911225 22 25 14
-1245.18552614887 -337.289939757552 2528.66114307753 17 25 14
-1196.3916301864 -332.957239244993 2541.16804516272 16 23 15
-1213.11409410219 -334.475942472545 2547.74424498571 17 22 16
-1276.73614946274 -340.184616299701 2550.45668407744 19 22 15
-1269.55317157601 -339.5683500044 2559.24644381209 20 23 16
-1225.84524489876 -335.688226089328 2570.86735989314 18 21 12
-1230.09433528185 -336.092747161025 2578.59443646769 17 20 11
-1244.79217507053 -337.431157573111 2585.56100095852 15 18 9
-1236.50957640654 -336.715914473374 2594.22689342413 15 18 11
-1222.98237007051 -335.531704374653 2603.19919767486 13 16 9
-1263.8654859615 -339.211138640681 2608.49311846519 12 15 8
-1299.56393990784 -342.42761466822 2614.31222416062 11 14 7
-1288.13894109432 -341.43169540053 2623.17809517883 10 12 7
-1253.68670056912 -338.401871907314 2641.35155299232 10 12 7
-1284.21153964954 -341.157071710966 2647.73579729495 8 11 4
-1291.65127742597 -341.848144954402 2655.43924709823 9 12 5
-1218.17238985756 -335.352808022378 2682.86907145218 17 20 13
-1169.71827097335 -331.043566603423 2692.72636800658 17 20 13
-1147.56118618019 -329.086599182606 2701.3188536166 17 20 13
-1130.6056702591 -327.620790975279 2717.22376257863 19 22 15
-1130.56065854214 -327.642755012078 2724.83541672108 20 23 16
-1103.01818518894 -325.203780634532 2733.22078404054 22 25 18
-1100.83235182995 -325.034381455032 2740.79837352355 22 25 16
-1121.93655268065 -326.9504562019 2747.80601365465 21 24 15
-1089.02612113702 -324.030905975927 2756.04714568027 21 24 15
-1115.44711116549 -326.424115437236 2763.01028411933 22 25 16
-1072.93327962072 -322.644461867743 2771.20763988346 21 24 15
-1107.86751700093 -325.801221531509 2778.12431044386 19 22 13
-1110.97192475192 -326.107742311502 2785.56052641768 18 21 12
-1151.28940356326 -329.748629028015 2792.67500488215 16 19 10
-1269.03613653217 -347.455916282209 2509.48375728539 26 26 14
-1301.37790192494 -350.446368547856 2514.67365504302 23 26 15
-1196.47776801989 -340.833415014211 2532.61893261399 17 23 13
-1236.09306034059 -344.491582059244 2537.11542036878 16 22 12
-1232.01845666302 -344.137326231157 2545.59065444943 19 22 15
-1286.29655044006 -349.142821970989 2549.12441590661 21 22 16
-1241.57211748387 -345.054508383531 2560.99900384829 17 20 11
-1247.91930367595 -345.657415996367 2568.59800730108 15 18 9
-1231.29727753452 -344.150028759783 2577.97377948412 14 17 8
-1248.09007380255 -345.712565907414 2584.78343510385 12 15 6
-1237.7133672559 -344.778839790516 2593.60582396545 12 15 8
-1221.04086538867 -343.266539046428 2602.79729180299 12 15 8
-1262.98369889407 -347.140675345188 2608.00649134169 13 16 9
-1312.31597717306 -351.694315442157 2612.94521814986 13 16 9
-1275.72746479902 -348.351733910052 2623.38364731672 13 15 10
-1271.61448047907 -347.993790132089 2631.71870997307 12 14 9
-1279.04302681194 -348.696970832853 2639.37296412517 10 12 7
-1331.66049465642 -353.554386776048 2644.62727756862 8 11 4
-1320.2077135128 -352.522327497858 2653.41281515106 9 12 5
-1312.94489308618 -351.87551121417 2661.92542284721 11 14 7
-1277.24141577188 -348.613616179014 2671.70255211427 13 16 9
-1172.99674286983 -339.069422484347 2692.0380165598 18 21 14
-1158.2171540607 -337.730853608998 2700.35517360576 18 21 14
-1125.46726481494 -334.739582026079 2709.23764882808 18 21 14
-1128.58931769633 -335.047623655988 2716.73841752769 19 22 13
-1128.54151162357 -335.064412134388 2724.34296435139 20 23 14
-1120.02773476805 -334.302733781255 2732.17985428959 21 24 15
-1096.67919020923 -332.176271303505 2740.35294302202 23 26 17
-1088.12685783811 -331.411289140303 2748.04876974024 21 24 15
-1078.50028804153 -330.547608629918 2755.71479679627 21 24 15
-1118.71221691597 -334.270620492287 2762.38553951447 22 25 16
-1116.51791156494 -334.091807590895 2769.93761748273 21 24 15
-1070.76943660051 -329.904532842069 2778.07354607371 20 23 14
-1203.51872201626 -342.147536805002 2783.93425180004 19 22 13
-1176.86318833764 -339.74407733995 2799.48562140096 15 18 9
-1192.79215300284 -341.236467571661 2807.02864706051 17 20 11
-1200.21390945907 -341.946372620645 2814.65344632995 20 23 14
-1239.6362325416 -345.603778505244 2822.33027806546 11 16 9
-1358.38795278672 -363.950974021896 2491.8113946132 26 25 20
-1355.45748620223 -363.690265145166 2500.57827542105 25 25 17
-1247.71321879935 -353.56967659692 2535.56136668005 21 24 13
-1259.27124120708 -354.675013091725 2542.70651644549 21 22 14
-1249.99061883618 -353.813852738751 2551.65538739377 21 21 13
-1252.17009881503 -354.034091201613 2559.60832235291 15 16 8
-1240.77745416614 -352.973518442803 2568.6351368728 14 17 8
-1207.42699348864 -349.840192382625 2579.27474324491 13 16 7
-1267.07074023832 -355.484212380231 2582.84353179462 13 16 7
-1246.24009671657 -353.532589417053 2592.4611392749 13 16 9
-1244.22134535621 -353.356519227487 2600.6632831982 14 17 10
-1205.53186955587 -349.718814523502 2611.2811420527 14 17 10
-1224.44194388605 -351.51840019396 2618.00860632325 13 16 9
-1272.74644200567 -356.093561689285 2623.0150487616 12 14 9
-1263.37991475042 -355.224141232779 2631.65018670813 11 13 8
-1294.96400182408 -358.221357199165 2637.91809448303 9 11 6
-1318.17873704118 -360.428751901354 2644.78424110301 9 11 6
-1309.86646998283 -359.659358608652 2653.37416823225 17 19 14
-1304.69725496241 -359.186840839362 2661.75723874024 10 12 7
-1267.91996994542 -355.72936514552 2671.56733024118 19 21 16
-1192.09224268112 -348.583629884875 2682.89343082931 21 24 17
-1156.23736958131 -345.212723200922 2692.17728146579 18 21 14
-1144.60568575738 -344.129761109418 2700.33072583173 17 20 13
-1109.72048113927 -340.850484528334 2709.26059465658 17 20 11
-1142.38327912115 -343.968547652363 2723.35449744988 19 22 13
-1123.29151153184 -342.181556983499 2731.53070045389 21 24 15
-1096.75829017893 -339.691594828532 2739.79816424906 22 25 16
