ply
format ascii 1.0
comment KinectMotionCapture
element vertex 751
property float x
property float y
property float z
property uchar red
property uchar green
property uchar blue
end_header
-642.194015127643 524.895339235166 2193.61345064626 185 189 190
-649.192924198257 527.50982060185 2178.62456257809 184 188 189
-657.525678558152 528.07719449382 2172.54451417806 185 186 190
-665.337345225262 529.548787308325 2162.49588428285 185 186 190
-673.735315303865 530.110630470406 2156.40747164292 193 194 196
-681.633828263702 531.57537929328 2146.34826213596 190 191 193
-689.96799472501 532.35778985933 2139.25954385566 190 191 193
-698.966058349624 532.007511803468 2137.12963378918 191 193 192
-707.475389686964 532.559336730693 2131.02759057392 200 202 199
-715.407434017729 534.237016323642 2119.95570843756 189 191 188
-722.566354841665 537.489077817872 2101.92187124068 205 207 204
-453.691749294584 517.168443883499 2265.53035225652 198 205 197
-461.736692834994 517.539441894936 2260.49442519232 194 200 198
-470.202638296772 517.452823894101 2257.42253888914 194 200 198
-479.66318672775 516.226665799118 2259.26844898216 191 197 197
-490.853602608597 512.953254665618 2269.97377790227 189 195 195
-501.215044691629 510.592568238857 2276.74892529322 179 184 187
-510.214265867337 509.824084275395 2276.6355865667 173 178 181
-518.465449795269 509.963293348069 2272.58245969628 175 180 183
-526.367112128523 510.55454444091 2266.55590588408 180 185 189
-534.657247561689 510.690194575796 2262.49768719968 170 175 179
-543.319685699687 510.371094733126 2260.40981937175 181 184 189
-552.163060239275 509.824741844358 2259.30765731159 174 177 182
-561.179357867334 509.051407514762 2259.19220031803 175 179 182
-569.851479779453 508.729839372142 2257.10313051253 181 185 186
-578.195607314243 508.858884624085 2253.03819132676 179 183 184
-585.735176285255 510.114646384509 2244.03177309699 184 188 189
-593.803055741548 510.690413776755 2237.98475741503 183 187 188
-602.692582261141 510.13717907729 2236.87685398361 186 190 191
-612.207099007463 508.682659314414 2239.72431763045 187 191 192
-620.472840951943 509.028662039087 2234.66090205497 190 194 195
-627.856053234683 510.721656782196 2223.65747058165 190 194 195
-633.961207697194 514.432405031005 2203.73831479649 190 194 195
-641.913423517365 515.442213299151 2195.68897575619 189 193 194
-649.190491366853 517.570553600454 2182.68202954846 190 194 195
-657.232386874424 518.573334869578 2174.62151751871 190 191 195
-665.037820240725 520.020898404491 2164.57372878284 189 190 194
-673.564812822366 520.345659355361 2159.4777666118 189 190 194
-681.586245654377 521.562902518949 2150.41155632702 190 191 195
-689.651005672986 522.776666321886 2141.33970795954 191 192 194
-698.391355852854 522.870496311165 2137.22541526825 192 193 195
-706.52933007299 524.078224842727 2128.14468636367 194 195 197
-714.710601951595 525.282418676444 2119.05856347578 195 196 198
-722.343424750298 527.597013374613 2104.99904356107 196 197 199
-731.318539557171 527.457772263207 2101.86375451489 197 198 200
-740.417432841552 527.094683008636 2099.72153550954 194 196 195
-443.224054933959 509.962760705061 2261.81671851009 193 198 194
-452.705046014687 508.745094735489 2263.66005511756 200 204 203
-463.181597107614 506.401324918084 2270.42103330405 181 185 186
-472.219240925979 505.635529320296 2270.30289257916 170 174 175
-482.039465227772 503.969520086923 2274.12069004733 175 179 180
-491.2510217943 502.979068888993 2274.98912476035 182 187 190
-500.643980592963 501.763845804849 2276.84344084293 178 186 188
-509.266540665996 501.446987812831 2274.76054365792 168 176 178
-518.639237213579 500.231861106528 2276.61738809584 171 179 181
-526.896460894943 500.36196346829 2272.56329121336 179 184 188
-535.53175579364 500.042383084635 2270.47881196671 169 174 178
-543.995074211264 499.945719946716 2267.40727995662 181 184 189
-553.345844091862 498.729422040679 2269.26686379727 175 178 183
-561.645892576873 498.854407328971 2265.20743610809 175 179 182
-570.302296846637 498.530973825151 2263.12033268379 179 183 184
-578.296115692269 499.099213750058 2257.08233888277 176 180 181
-586.646257095706 499.218977277408 2253.01667364484 185 189 190
-594.527881070233 500.00561185397 2245.98441886771 183 187 188
-603.078461456088 499.898912967316 2242.9022637774 187 191 192
-611.483901489214 500.013302266616 2238.82971175025 187 191 192
-619.445088736929 500.792837651496 2231.78754664247 190 194 195
-626.684449111369 502.680324349785 2219.79386775102 191 195 196
-633.538888515218 505.22929429702 2204.82294089643 190 194 195
-641.778938498923 505.776594836192 2198.75451431694 190 194 195
-649.189394428596 507.65127065548 2186.7395174487 190 194 195
-656.79963652701 509.300060644585 2175.70787040821 189 193 196
-664.18928223901 511.387306884726 2162.68698336854 187 191 194
-673.260553818268 510.816462040441 2161.55644560383 185 189 192
-681.671942337551 511.349619829252 2155.46643396374 186 190 193
-689.851887762627 512.321688481758 2147.38877500101 187 191 194
-698.196401051126 513.070174634452 2140.29885483658 189 193 196
-706.573472372796 513.815812768958 2133.20511939099 190 194 197
-714.983013187765 514.558663240192 2126.10709901707 191 195 198
-723.187996971267 515.738948163497 2117.01783971816 194 198 201
-732.131121350976 515.596253088107 2113.88679225279 196 200 203
-740.858808860459 515.891683069071 2108.76562151458 194 198 199
-750.270563702925 514.86745838417 2109.60940187634 198 200 197
-433.148283800625 502.283641232929 2260.07127657341 222 230 219
-443.268983573521 500.404918058087 2264.85958348322 199 203 202
-453.563198852218 498.304672647607 2270.63474742158 194 198 201
-463.820513248447 496.206183317092 2276.41475201608 179 180 182
-472.243661983221 496.111362552213 2273.3482280931 167 168 170
-481.860204372448 494.681577876866 2276.1828944039 153 157 158
-490.873085980319 493.918795610507 2276.06807618973 170 176 176
-500.647589473643 492.267999322757 2279.891299013 181 190 189
-508.884688845147 492.392336499872 2275.83972870782 168 177 176
-518.628179348122 490.74220453326 2279.66706028822 170 178 180
-527.794797286813 489.757423126879 2280.54108814512 179 184 187
-537.132056767521 488.551362295038 2282.40233104483 166 171 174
-545.741392264458 488.230091231501 2280.3210958304 179 183 186
-554.181258919955 488.128710997434 2277.25250288389 174 175 179
-562.114468327074 488.688213212759 2271.22233606166 181 185 186
-569.565174568435 489.907233282585 2262.22710413313 178 182 183
-577.561507969548 490.46163913774 2256.18907323072 172 176 177
-585.749895764859 490.793398941969 2251.13534850397 183 187 188
-594.284093684009 490.682963433202 2248.05500742018 177 181 182
-602.670364736383 490.790989188178 2243.98486432667 184 188 189
-610.916781264353 491.117200841129 2238.923912568 186 190 191
-618.570000737282 492.319736324271 2229.903451597 190 194 195
-625.813566494807 494.177034297206 2217.90932739954 190 194 195
-633.116888050501 496.029868538723 2205.90775778682 190 194 195
-640.771280712245 497.440172312483 2195.87891616019 190 194 195
-647.902639974765 499.722332592751 2181.88206134506 191 195 196
-655.665649669257 501.124462672094 2171.83968648002 186 190 191
-663.477550076464 502.522763970016 2161.79146069477 183 187 188
-672.417319945122 502.170048175176 2159.6688317641 178 182 183
-680.966174219997 502.470960866431 2154.57020418653 179 183 184
-689.148340733783 503.424015810088 2146.49231811698 183 187 190
-697.622025123621 503.938095279768 2140.39458256261 185 189 192
-706.122870105256 504.449790023639 2134.29370407578 185 189 192
-715.257703696914 503.87119313844 2133.15525456242 184 188 191
-723.561847525228 504.813610761861 2125.06217445815 187 191 194
-732.019818726185 505.535698170644 2117.95816493716 195 199 202
-739.943842391185 507.340151240908 2105.87926278084 193 197 198
-747.04264260316 510.874962498003 2085.83656920433 201 203 202
-754.891298915177 513.102349066165 2071.75034420266 193 195 192
-419.641660583865 498.116071305187 2242.62030196951 68 76 65
-432.779449268517 493.164556509226 2261.14900682573 188 195 187
-444.354645974744 489.760615937049 2272.81434821646 189 193 194
-455.039565458131 487.240520471974 2280.55747470519 189 192 197
-464.866478333134 485.602390953335 2284.37412378998 185 184 189
-473.468166565192 485.28345845242 2282.29383675048 176 176 178
-483.258875578376 483.646381161529 2286.11500109219 157 158 160
-491.662154691399 483.546080101759 2283.05121148144 168 172 173
-500.652196416791 482.786721195457 2282.93899426554 183 192 191
-508.503166869028 483.341546116407 2276.91886242743 174 183 182
-518.059067261485 481.923868850718 2279.76130488523 168 176 178
-527.042980345728 481.163168430457 2279.64985602033 178 183 186
-536.564982720078 479.746453715343 2282.4962859468 164 169 172
-544.996528041294 479.640649159961 2279.42898337364 178 182 185
-553.263831310651 479.75183440329 2275.37367843572 173 174 178
-561.029322018588 480.515588183996 2268.35597665945 179 183 184
-568.997854998165 481.058743143763 2262.32120444538 174 178 179
-577.328857520827 481.164078713296 2258.25796562215 179 183 184
-586.170836436652 480.615067512929 2257.15598472815 183 187 188
-594.365052576542 480.934810190669 2252.10156430513 176 180 181
-602.740654676714 481.035453123181 2248.03277207618 186 190 191
-610.349594033778 482.219550907292 2239.01812582561 185 189 190
-618.156100699229 483.183398657045 2230.98709146179 189 193 194
-625.093196570354 485.444490202637 2217.01453505319 190 194 195
-633.28934441969 485.968128124686 2210.95140924645 189 193 194
-640.92941307008 487.354860825247 2200.92465751408 190 194 195
-647.186766056872 490.899918788392 2180.98694459236 191 195 196
-654.811176388967 492.493458984751 2169.95367493843 188 192 193
-663.040892108682 493.21939730532 2162.87814021083 186 190 191
-672.248613813009 492.432793163951 2162.73882956982 179 183 184
-680.392319352871 493.369844134986 2154.66578534833 180 184 185
-688.703656990988 494.088552116357 2147.58008372869 184 188 191
-697.301482340113 494.373982575324 2142.47538562248 186 190 193
-706.045272362166 494.442450383979 2138.36073044963 186 190 193
-714.683827344322 494.723852798945 2133.25096013371 183 187 190
-722.868637766958 495.862004847357 2124.1643293064 185 189 192
-730.748291549393 497.640080381787 2112.09103371342 192 195 200
-738.46048215684 499.842357837746 2098.02190494885 192 196 199
-745.910657805656 502.681987069691 2080.96049409557 194 196 195
-753.771358499372 504.873250803802 2066.87286115447 197 199 196
-762.334287983138 505.776487862652 2058.74758931094 195 197 194
-419.271810665453 488.947004070318 2243.6982905632 149 154 147
-433.04335144769 483.39662651121 2265.17278555144 197 202 198
-444.818664906971 479.8109137488 2277.82131934325 183 187 188
-455.697650126652 477.098502416808 2286.54842113057 172 173 177
-464.698979425291 476.343383873151 2286.43502439415 179 179 181
-473.695674734108 475.588080259816 2286.3219661709 175 175 177
-482.490421961309 475.049304374356 2285.22585255808 148 149 151
-491.675137433992 474.076511437372 2286.09783064727 149 153 154
-500.657794181703 473.320370217377 2285.98652655925 180 186 186
-509.257340671962 472.996557493558 2283.90651964836 181 190 189
-517.676429431673 472.887960657215 2280.84053866506 165 171 171
-526.474591827293 472.345981096313 2279.74400729617 175 181 181
-535.454513840016 471.58756548475 2279.63305047645 161 167 167
-543.71594446795 471.691540130628 2275.57849739831 177 181 182
-551.99413550759 471.793909542356 2271.52185694721 173 174 176
-560.289149618032 471.8944930655 2267.46336204814 179 183 184
-568.430468422181 472.208704496592 2262.41531719749 170 174 175
-577.09688579251 471.875734494152 2260.32698931147 176 180 181
-585.274370609005 472.186390280538 2255.27468078869 181 185 186
-593.311670403086 472.709696351752 2249.23137915407 173 177 178
-601.695526047124 472.80157182362 2245.16158002043 185 189 190
-610.252847615682 472.677303215763 2242.07862993961 183 187 188
-617.74242357487 474.051105394122 2232.07045258873 187 191 192
-624.675270485548 476.277112085072 2218.09851882 188 192 193
-632.422362417522 477.428818491316 2209.06671724638 188 192 193
-641.235174061772 477.081443443187 2206.95991788687 189 193 194
-648.477109859138 479.08153137168 2193.95793396835 190 194 195
-655.924726823072 480.863537361243 2181.93830339668 190 194 195
-663.432070034055 482.640964561467 2169.9114716693 189 193 194
-672.080868850079 482.710108857832 2165.80866905587 181 185 186
-680.083463675589 483.841536876452 2156.74503563407 180 184 185
-688.64871204961 484.118947121327 2151.64418379396 183 187 188
-697.36290336919 484.18171832268 2147.53347763475 188 192 195
-705.844534925782 484.66746097064 2141.43482494496 187 191 194
-714.353286436084 485.150699533398 2135.3327944397 182 186 189
-722.413074234095 486.479399286596 2125.25381706676 184 187 192
-729.707287170906 489.286919815082 2108.21195399503 191 194 199
-738.224118921371 489.971932485766 2101.10069666044 190 194 197
-746.218790639198 491.711266844461 2089.01314953261 192 193 195
-753.731782201546 494.502640197737 2071.94402670482 199 201 200
-761.014613904836 497.921094311798 2051.87867350858 196 198 197
-406.303887567445 483.985064337192 2229.20548287716 16 21 14
-421.039092930173 477.630434488361 2254.59282485417 199 205 201
-433.519706433266 473.433778455655 2270.17849209961 187 193 191
-445.284479324363 469.88666078001 2282.82823965323 182 186 187
-454.713131205903 468.704459657248 2284.67801448792 171 173 172
-463.720563701773 467.951697021854 2284.56360963563 186 188 187
-473.323955259309 466.555716780083 2287.39982806971 170 172 171
-482.906557198746 465.160404012188 2290.23863916745 152 156 157
-491.689048247284 464.621811693729 2289.14405456984 150 154 155
-500.856525305047 463.654834995901 2290.01816859444 181 185 186
-509.256269007913 463.542513608751 2286.95461156835 187 193 193
-517.480848150718 463.642388412861 2282.90490840322 165 169 170
-525.170160971979 464.380596566309 2275.89678045034 174 178 181
-533.436432767982 464.47667808358 2271.84164400932 157 161 164
-541.898134177238 464.358140191629 2268.77037139871 176 180 183
-551.250772274877 463.174152419833 2270.62963700932 163 167 170
-559.894964579482 462.841164949024 2268.54408272611 174 178 179
-568.54511856277 462.507081018759 2266.45778734812 174 178 177
-576.529910765846 463.021369631085 2260.42106209759 177 181 182
-585.03756154095 462.89673922462 2257.34407132218 185 189 190
-593.06926308049 463.406787780835 2251.30174349856 168 172 173
-601.447828767057 463.490818313017 2247.23262517971 185 189 190
-609.686064476253 463.784703925341 2242.17277946835 184 188 189
-616.866128427187 465.556999035292 2230.1865635042 186 190 193
-624.257622548889 467.113478745985 2219.18245801382 188 192 195
-632.299119340079 467.821429655939 2212.1306995337 189 193 196
-641.68914232251 466.627891085459 2213.98508461466 189 193 196
-649.054302540307 468.385709506112 2201.97604812327 189 193 196
-656.19753360255 470.560509371444 2187.97799450755 189 193 194
-662.582663109866 473.992853678254 2168.02463265888 190 194 195
-671.372474678959 473.843143572798 2164.91273619973 181 185 186
-679.907887198835 474.112184819643 2159.81587000604 174 178 179
-688.465051759175 474.379240610857 2154.71605424617 183 187 188
-696.53486096125 475.483333921715 2145.64410485252 182 186 187
-705.146368762685 475.745437185657 2140.53776068848 189 193 194
-713.657682849221 476.215015282154 2134.43544636321 180 184 185
-721.838545517533 477.309824128723 2125.34966260382 183 187 188
-729.596702753724 479.237546915815 2112.28320760388 188 192 195
-738.557570627412 479.071323152042 2109.14976754859 191 195 196
-746.862753263782 480.156062104207 2100.04849591086 185 189 190
-753.91053096351 483.740239121049 2079.00435254108 190 194 195
-760.326553749524 488.775662939043 2050.98093641801 193 197 196
-768.947926618057 489.636357393897 2042.84848322001 191 195 194
-410.048461640537 470.738480687152 2248.92825015338 203 208 204
-420.243958492959 468.921107479759 2253.70730153565 180 186 186
-434.208856843408 463.284346614956 2276.16558122804 186 192 192
-445.126638010965 460.624288730901 2284.88770363949 173 177 176
-454.345193349175 459.662419160365 2285.75542994723 172 174 173
-463.75678129487 458.488830104475 2287.60731158066 169 173 172
-473.353348067283 457.104094357482 2290.4443520956 182 186 185
-482.336044145474 456.354281184288 2290.33302643469 148 152 153
-490.924192622051 456.026834859324 2288.25445149747 144 148 149
-500.095279912246 455.065003166271 2289.12810143722 152 156 157
-509.256239779732 454.103276644552 2290.00277467375 185 189 190
-517.472736111032 454.195422203728 2285.95386028166 173 177 178
-524.78516709743 455.338985691537 2276.97632326844 169 173 176
-533.048816297358 455.4269926207 2272.92153537605 156 160 163
-541.865672036824 454.882568020471 2271.82267762729 176 180 183
-551.38743920523 453.496983551484 2274.66905492567 165 169 172
-559.674485435703 453.581708289751 2270.61135586572 177 181 182
-567.295575372314 454.503857065054 2262.60357022625 174 178 177
-575.122975786106 455.213380756305 2255.5782852977 175 179 180
-583.809719010348 454.873024216704 2253.48744031745 183 187 188
-592.502335369395 454.531576858401 2251.39586527733 165 169 170
-600.881030744812 454.607476910514 2247.32675218542 181 185 186
-609.433544613762 454.472642637839 2244.24418963265 184 188 189
-616.607029981564 456.215259360289 2232.2591130625 184 188 191
-624.295614793511 457.327812471841 2223.23471594038 186 190 193
-631.87870691143 458.645311326103 2213.21501659855 189 193 196
-640.828106230047 458.08485822075 2212.0996604052 188 192 195
-648.628451097087 459.188318239128 2203.06109996651 186 190 193
-656.049396990527 460.912124474023 2191.04519132249 190 194 195
-662.009061395229 464.916804140286 2168.12011621518 190 194 195
-670.392503105702 465.384258727866 2162.03400546739 181 185 186
-679.201758746752 465.227156033741 2158.9194617024 174 178 179
-688.542674875524 464.239694165284 2159.77198550327 179 183 184
-696.470827849535 465.529955109664 2149.70929633664 180 184 185
-704.697277018824 466.402609866285 2141.62609578452 188 192 193
-713.083698609403 467.065352650197 2134.53117151386 179 183 184
-721.86069369876 467.105845396246 2130.41244621625 182 186 187
-729.954027876289 468.382719188586 2120.32941893529 187 191 192
-738.779709488591 468.418497824503 2116.20463026189 191 195 196
-746.620319123178 470.306985993205 2103.12798901306 184 188 189
-753.657338916711 473.837501155472 2082.08532948295 190 194 195
-760.378974177758 478.183166643708 2057.04889274708 192 196 197
-768.055370340174 480.875741341598 2039.95963817399 191 195 194
-776.822543165245 481.508494756145 2032.81727737619 195 197 196
-410.76581244198 460.537147904269 2254.91219698772 201 206 202
-423.301130133119 456.429812683678 2270.49056198198 184 190 190
-434.900173786852 453.165834797506 2282.15255882789 180 184 185
-445.386847191523 450.952450620533 2288.91193044377 171 175 176
-454.389474722835 450.205787141607 2288.79810916073 179 181 180
-464.200525801504 448.622597250028 2292.61659302239 156 160 159
-472.98265933008 448.084923540527 2291.52205062203 185 189 188
-482.161297515221 447.129180253276 2292.39474222113 155 159 160
-490.158928457593 447.424836832526 2287.36491789845 146 150 151
-500.103477806741 445.634618471322 2292.17521453421 140 144 145
-509.447051226566 444.470378995239 2294.0355593566 185 189 190
-517.839817638342 444.346915996281 2290.97290239622 173 177 178
-525.137962508845 445.469531269305 2281.99720337219 163 167 170
-533.569828008481 445.342502434585 2278.9296764673 153 157 160
-542.729018111492 444.383757826136 2279.80480297594 173 177 180
-551.34919832642 444.047280895217 2277.72201418019 165 169 172
-559.281171422478 444.538778571493 2271.69218072981 174 178 179
-566.557226382297 445.856188853677 2261.71079804337 169 173 172
-574.555060898501 446.342293831754 2255.67251940986 173 177 178
-583.076822868694 446.205897526072 2252.59403889455 180 184 185
-591.935344364907 445.654876913314 2251.48999887604 167 171 172
-599.994063199887 446.135371267273 2245.44413701487 181 185 186
-608.552326602912 445.994619056288 2242.36111280766 184 188 189
-616.039232676341 447.295013580848 2232.35346195918 180 184 187
-623.879053923049 448.179936261343 2224.31847797893 183 187 190
-631.309320156198 449.678941826952 2213.30968531436 189 193 196
-639.819757032009 449.734982528465 2209.22418396094 186 190 193
-647.339839434714 451.226892678164 2198.20420145493 182 186 189
-654.349669576391 453.535736796338 2183.21475538648 190 194 195
-661.435377825596 455.838968151183 2168.21561469106 191 195 196
-670.090118078341 455.883188122917 2164.11213625878 182 186 187
-679.027388406367 455.516181296526 2161.99009715966 174 178 179
-687.839899365611 455.352722338035 2158.87540415794 167 171 172
-695.514647164427 457.027092169926 2146.82771245686 176 180 181
-703.623793394493 458.084425341878 2137.75097717583 186 190 191
-712.14293310688 458.526211859238 2131.64775944685 179 183 184
-721.286816368034 457.946381514038 2130.50818383652 179 183 184
-729.846634072345 458.38414578112 2124.40014059582 183 187 188
-737.976979171762 459.633635662878 2114.31232641644 188 192 193
-745.487407974855 462.099139030696 2098.25206867106 173 177 178
-753.187601154534 464.355641954187 2083.17660721552 187 191 192
-760.009229833871 468.433583174049 2059.13608403273 190 194 195
-767.264998635997 471.894382241431 2038.06630951444 193 197 196
-775.53424574288 473.523714896166 2025.9447866869 181 183 182
-789.639489007872 463.202622917521 2072.58406042073 204 206 203
-400.628753282997 452.773362316138 2253.17438613078 98 99 94
-412.569843175054 449.330813566347 2265.8018549865 182 186 185
-423.365254031864 446.927423548965 2273.5308854654 175 181 181
-434.959076071224 443.698954680831 2285.19344042618 179 183 184
-445.021879693416 441.920970889362 2289.98894740848 176 180 181
-454.847029432548 440.350977269564 2293.80563708874 173 175 174
-464.442660207609 438.988281421608 2296.64297663806 146 150 149
-473.214518933773 438.451202553799 2295.54971490581 164 168 167
-481.78912558851 438.119480308187 2293.47260089965 162 166 167
-490.174629940093 437.992660227726 2290.41109931095 149 153 154
-500.69059800028 435.601876489589 2298.17496940063 136 140 141
-510.208950944867 434.241115069461 2301.02170740334 193 197 198
-518.395882031616 434.31866077934 2296.97652102717 176 180 181
-525.676959069152 435.420621989417 2288.00276609079 161 165 168
-534.456571154011 434.878868634702 2286.90854909531 155 159 162
-543.236828664398 434.336536662947 2285.8142530783 174 178 181
-550.959145060562 435.021701773157 2278.8023864301 169 173 176
-558.193191509614 436.317899361681 2268.82630202034 172 176 177
-565.647429758371 437.40596254354 2259.83097418848 165 169 168
-573.98711223213 437.469716004298 2255.76676166366 171 175 176
-583.006044121003 436.715566351344 2255.65116567651 179 183 184
-592.182928877018 435.757364209437 2256.52384229976 169 173 174
-600.548395353764 435.817623693261 2252.45642128507 183 187 188
-608.930537328178 435.876106689758 2248.38716421391 184 188 189
-616.555147380025 436.949732878399 2239.37061300755 180 184 187
-623.462774913055 439.03586431502 2225.40219482456 182 186 189
-630.889286016388 440.507935506478 2214.39394170871 188 192 195
-639.250477139885 440.758692337609 2209.31886546665 185 189 192
-647.633615824746 441.007394039 2204.2410557108 181 185 188
-654.766815351303 443.076766357303 2190.24453161112 189 193 194
-661.554698988684 445.747947219466 2173.26621448823 191 195 196
-669.788382256756 446.391335603519 2166.19040202636 183 187 188
-678.054704713729 447.031868295412 2159.11052390705 176 180 181
-687.1366784137 446.458729165424 2157.97865662287 164 168 169
-694.812986356674 448.103081292752 2145.93108954431 174 178 179
-703.174352531534 448.73558832198 2138.8393716662 186 190 191
-711.568261972759 449.365245769864 2131.7436000851 180 184 185
-720.832568565476 448.584117123453 2131.59745383377 179 183 184
-728.921545298578 449.81247297506 2121.51485783765 181 185 186
-736.487730976253 452.040903241701 2106.45619365446 186 190 191
-744.687508156053 453.260707414123 2096.35979293818 172 176 177
-752.718098213889 454.877590013726 2084.26784561747 183 187 188
-760.170979164076 457.691615049017 2066.19847748812 191 195 196
-767.094739151441 461.699804116801 2042.1453926117 194 198 197
-775.352054542252 463.300035794209 2030.02543542817 184 186 185
-400.26552178107 443.632002602701 2254.25147581845 198 199 194
-412.641046905418 439.818417854968 2268.84132130076 193 197 196
-422.787317273039 438.052675077288 2273.6263798904 174 180 180
-434.17230440631 435.063329600596 2284.3066793917 174 180 180
-444.239390190992 433.301257724898 2289.10161008198 175 179 180
-454.068625523554 431.744501044798 2292.91775504532 173 175 174
-463.057316565815 431.003383731206 2292.8056583481 145 149 148
-472.24237850484 430.058458986106 2293.67751981045 144 148 147
-481.219163647698 429.316965424986 2293.56690988992 170 174 175
-490.191392226635 428.575107702913 2293.45710982938 160 164 165
-500.508541448369 426.412056776732 2300.23726424151 139 143 144
-509.2623621056 425.873678427559 2299.14625697576 170 174 175
-517.267336797341 426.14527690189 2294.11557955273 166 170 171
-525.294572666348 426.414859989542 2289.08212937383 147 151 154
-533.890029013637 426.075598390856 2287.00243330392 150 154 157
-542.132963954146 426.13960272772 2282.95029363861 163 167 170
-549.686285164604 427.009989621311 2274.95110144859 166 170 173
-557.278052612753 427.87727032479 2266.94711957544 174 178 179
-565.421781609714 428.136565466366 2261.89915883581 162 166 165
-573.924628072676 427.990980021719 2258.82282279451 168 172 173
-583.267829273662 426.837394808332 2260.68318600998 175 179 180
-592.269163848107 426.086396759841 2260.569777764 167 171 172
-599.982309085438 426.943075832401 2252.55043631061 178 182 183
-608.049174251417 427.395044014045 2246.50387322689 181 185 186
-615.368485538544 428.847786128852 2235.50904891678 180 184 187
-623.199109308874 429.695012816152 2227.47531199827 182 186 189
-630.469552114712 431.340553112839 2215.47815109164 183 187 190
-638.974931986603 431.380494875547 2211.39356348712 182 186 189
-646.775867794769 432.418521447076 2202.35510161913 180 184 187
-653.488468959164 435.051677423003 2185.38627944099 186 190 191
-660.842958159906 436.88006041408 2172.37070170197 188 192 193
-669.215076365706 437.307443612707 2166.28586931846 185 189 190
-677.881210067181 437.333857209383 2162.18101594358 182 186 187
-686.302399509867 437.756743182049 2156.09031187184 164 168 169
-694.494818699705 438.575068649808 2148.01150113421 165 169 170
-702.850460115717 439.191576498356 2140.92053980542 181 185 186
-711.483765914719 439.40815390079 2135.81135500216 182 186 187
-719.899074295609 440.019429792499 2128.71320163582 179 183 184
-727.292349741521 442.412428486139 2112.66775487529 178 182 183
-734.99564674213 444.403199011236 2098.60029297625 183 187 188
-743.663291001591 444.805487177813 2092.47888704399 178 182 183
-752.357894073723 445.205398465295 2086.35388280197 170 174 175
-760.122282642768 447.380949312624 2071.27062332577 192 196 197
-767.651292381451 450.143302308436 2053.19189085016 191 195 194
-775.171077408468 453.096166839243 2034.10588049176 190 192 191
-784.06523545613 453.480381723739 2027.95625457321 189 191 188
-384.991989481635 440.492482786574 2229.96424373274 124 125 120
-401.222505031942 433.28287301628 2261.21383452435 207 208 203
-412.930701750697 430.118903899708 2272.86194634351 178 182 181
-423.496842951572 427.966686575333 2279.61099949876 175 179 182
-434.232608476415 425.615112950489 2287.34733690585 175 181 181
-444.293203584842 423.869639282219 2292.14303388336 173 179 179
-453.289853726926 423.131180204477 2292.02993693716 171 175 174
-462.485731354068 422.191476431114 2292.90019464759 157 161 160
-471.269502852456 421.653459484765 2291.80544874219 135 139 138
-481.244298021364 419.91106287739 2296.61184494158 167 171 172
-490.404853338719 418.971820176008 2297.48674972196 160 164 165
-499.36227743828 418.23299335708 2297.37854892241 146 150 151
-506.983147889438 418.894638111828 2290.37916379968 169 173 174
-515.012309299476 419.153766592206 2285.34550085648 162 166 167
-523.803185110682 418.611833173207 2284.24987868874 143 147 150
-532.776948348746 417.869636291882 2284.13964773623 148 152 155
-540.848591707811 418.124326484713 2279.10069498502 160 164 167
-548.942466729516 418.377003171115 2274.05897315624 164 168 171
-556.710366718333 419.025996579884 2267.04127293331 172 176 177
-564.853980850823 419.274429599997 2261.9933551331 160 164 163
-573.52584094422 418.924450373224 2259.9043928206 166 170 171
-583.199428836004 417.381849604068 2263.73992438529 173 177 178
-592.193433749701 416.634005995685 2263.62742253052 167 171 172
-599.897890616885 417.472067743579 2255.60921436243 179 183 184
-607.324979348022 418.703294961121 2245.60945078301 179 183 184
-614.645918212385 420.128700070254 2234.61449535192 180 184 187
-622.478656048419 420.956857640605 2226.5803045596 181 185 188
-630.34964086192 421.781804774366 2218.54158949392 181 185 188
-638.552927469551 422.208897413106 2212.47806732966 181 185 188
-646.206104460766 423.422732897377 2202.44989480377 180 184 187
-652.916633861814 426.012363933989 2185.48144579082 185 189 190
-659.85288008889 428.39894581143 2169.49329074208 187 191 192
-668.369175942616 428.615452422718 2164.39870827465 186 190 191
-676.907345580631 428.829911108178 2159.30164175014 183 187 188
-685.859860476806 428.453034508657 2157.17772621074 165 169 170
-694.305353399228 428.860096102342 2151.0837906126 160 164 165
-702.527132055134 429.656842880168 2143.00137281389 178 182 183
-710.664129420497 430.64634903033 2133.92134049588 182 186 187
-718.724386445916 431.828278960816 2123.8424508105 179 183 184
-726.598683877385 433.397309719535 2111.77037417043 177 181 182
-734.532442942574 434.962072149488 2099.69064804175 183 187 188
-743.421111604628 434.960455947252 2095.55833770363 180 184 185
-751.889008346642 435.737340533085 2087.44501786045 165 169 170
-759.542532483836 438.070045750592 2071.36749265129 191 195 196
-767.069386414626 440.786191662558 2053.28915089247 180 184 183
-774.991336546475 442.912285783263 2038.18611863852 200 202 201
-783.57931494765 443.866671578528 2029.04989904162 186 188 185
-792.593193832771 444.040910970764 2023.89357273151 191 193 190
-385.963934783084 430.089662832019 2236.92463638611 183 183 181
-403.062452673519 422.173449126465 2272.09875509507 199 199 197
-414.308852210846 419.444429923162 2281.78773658212 175 176 178
-424.852688640699 417.315136033812 2288.53975314162 170 174 177
-434.506044698131 415.982861621947 2291.36956853446 160 166 166
-444.138673879038 414.651310409152 2294.20196861444 161 167 167
-453.337365037122 413.717282676448 2295.07210053392 166 170 169
-461.710223992223 413.576335128371 2292.01197395139 158 162 161
-470.497234674907 413.037992383007 2290.91682467292 146 150 149
-480.079219549017 411.707338337725 2293.75554250032 170 174 175
-489.444561836801 410.575216209663 2295.61308611678 144 148 149
-498.21502521511 410.036195678984 2294.520003629 140 144 145
-505.081715204087 411.470532114178 2283.58171225173 152 156 157
-513.129617883794 411.717537506934 2278.5457424346 160 164 165
-522.310141041719 410.780128293502 2279.41815051811 142 146 149
-531.115818162307 410.236535279837 2278.32068560494 150 154 157
-539.562826973312 410.085787574025 2275.25133136712 159 163 166
-547.844331001071 410.130373736071 2271.19442964482 158 162 165
-556.316943300382 409.976803001149 2268.12212794611 164 168 169
-564.800866840961 409.821911949429 2265.04817787963 160 164 163
-573.296164373873 409.665758809387 2261.97281172982 161 165 166
-582.301293877092 408.920491221377 2261.85891480819 169 173 174
-590.974572811915 408.566417715493 2259.76954594607 156 160 161
-598.528573903646 409.580283525176 2250.76220396607 176 180 181
-606.126234267511 410.590768262837 2241.74918220222 177 181 182
-613.146239990287 412.378826468788 2228.77545221769 176 180 183
-621.299918809494 412.796714410685 2222.71790478364 180 184 187
-628.881321982345 413.99171370365 2212.69897907915 179 183 186
-637.100592887228 414.404168887195 2206.63326044756 179 183 186
-644.480061325318 415.981610604399 2194.62291339051 172 176 179
-652.344746470079 416.971381555045 2185.57662306165 186 190 191
-659.696480414137 418.73460399347 2172.56156076037 183 187 188
-668.341110352381 418.746680566722 2168.45942868406 186 190 191
-676.734715536942 419.144804657702 2162.37199190545 180 184 185
-685.417599591894 419.153070613744 2158.26509597666 170 174 175
-694.245202257894 418.966015516054 2155.14858175875 161 165 166
-702.455669500181 419.744491238713 2147.06762367376 171 175 176
-710.458254971376 420.906206301304 2136.99598429253 185 189 190
-718.269151179536 422.450248592511 2124.9316452878 175 179 180
-726.492091727794 423.411047735881 2115.84096336754 179 183 184
-734.528694406764 424.753892915564 2104.75691474198 178 182 183
-742.6193424494 426.092518706897 2093.66613268616 190 194 195
-750.65462827749 427.619401930121 2081.57407663998 162 166 167
-758.215834855598 430.102523307797 2064.49974863388 180 184 185
-766.071401445049 432.195520070999 2049.40508781427 189 193 192
-774.205117986474 433.89919101255 2036.29259553462 186 188 187
-782.304953902266 435.789808103791 2022.17591167379 181 183 180
-790.378992405343 437.866560290595 2007.05426989921 188 190 187
-389.837600579525 417.166194020871 2256.63044286701 209 209 207
-404.025076067308 411.908046573363 2279.05994918357 181 181 179
-415.472716464614 409.01337078575 2289.73218061867 170 171 173
-425.567011774828 407.299373815442 2294.52358911747 166 170 173
-434.780920196667 406.370824148573 2295.39156731737 155 161 161
-444.823044232017 404.658896621867 2300.18948103303 151 157 157
-453.592696969758 404.122555510104 2299.09649265224 159 163 162
-461.954965391242 403.976668753731 2296.03770071291 160 164 163
-469.523217878025 404.610911149685 2289.04519443294 162 166 165
-479.111862439093 403.290582838725 2291.88305397833 147 151 152
-488.091583426049 402.556248077132 2291.77205882937 128 132 133
-496.873428313303 402.016323312434 2290.67755837782 136 140 141
-504.130956334458 403.033428943913 2281.70720595235 150 154 155
-512.184112089941 403.269168020524 2276.67036998312 157 161 162
-521.000492158969 402.725430667346 2275.57156978537 140 144 147
-530.000123287841 401.986784187525 2275.4583415919 145 149 152
-538.994965429115 401.247843067889 2275.34547154296 152 156 159
-547.807887930709 400.702594038026 2274.24710681014 156 160 163
-555.923786976095 400.931412123431 2269.20269934418 160 164 165
-563.718414340945 401.545258417292 2262.18175626141 157 161 160
-572.391124530893 401.18967087061 2260.0927026312 158 162 163
-581.236091572747 400.639872087542 2258.99035091081 164 168 169
-590.081567511987 400.089443662868 2257.88793734117 155 159 160
-597.640190309056 401.081213939338 2248.87983651873 177 181 182
-605.717192687832 401.491447454081 2242.83211827755 179 183 184
-613.199576402538 402.669520418169 2232.82535392218 177 181 184
-620.883834906538 403.651497817158 2223.8018405642 181 185 188
-628.011275558632 405.39878709242 2210.81457043043 181 185 188
-636.235735795541 405.7972950259 2204.74824093047 181 185 188
-644.053506689989 406.768915531381 2195.70809328999 175 179 182
-652.766783612242 406.586991136918 2192.60559246875 185 189 190
-659.680327486037 408.893379047761 2176.62048172743 181 185 186
-667.767930082434 409.663258350662 2168.55487906225 185 189 190
-675.491931015526 411.003562511411 2157.50984797818 181 185 186
-684.319672027118 410.811718321046 2154.39308883872 176 180 181
-693.543852930707 410.046103123157 2154.25166891331 156 160 161
-701.504975944213 411.186632931453 2144.18549986104 167 171 172
-709.268659573347 412.70429961633 2132.12712216627 188 192 193
-717.332682959358 413.836900469892 2122.04813263647 176 180 181
-725.68071530787 414.58558779019 2113.94984541746 177 181 182
-734.066640435335 415.331027516185 2105.84707822482 180 184 185
-742.153589103261 416.642595937063 2094.75682908371 186 190 191
-750.185015903856 418.139804184171 2082.66533276934 162 166 167
-757.420942910844 421.148088270639 2062.60691317006 173 177 178
-764.759491998964 424.149118075246 2042.53570604565 186 190 189
-772.809359228793 426.00827958707 2028.42534081856 183 185 184
-781.225592721696 427.29540678756 2017.2940632431 174 176 173
-371.319796746962 416.535947286184 2218.63264788895 19 27 29
-387.915478569474 409.392886705196 2250.84417993191 189 189 189
-402.123860763377 404.198624014448 2273.27090897691 174 172 173
-414.025876156899 400.948065554357 2285.90298876819 163 164 166
-424.99293159899 398.475501853856 2294.61846828223 173 174 178
-433.570485301852 398.132125203453 2292.54101719334 170 175 178
-442.783476906828 397.208354500156 2293.40933749008 164 170 170
-451.986551403802 396.284735292131 2294.27865471557 150 156 154
-460.566779258404 395.939578287611 2292.20111486559 144 148 147
-468.346888547442 396.364126987347 2286.19040942826 158 162 161
-477.348141650183 395.631526060394 2286.07672263256 116 120 121
-486.541069630007 394.706286304328 2286.9475506198 113 117 118
-495.723899701747 393.781149839345 2287.81939822552 134 138 139
-502.79786072301 394.967922237342 2277.86357969807 141 145 146
-511.237974291352 394.808299639959 2274.79534958622 146 150 151
-519.504095496479 394.839054672418 2270.74040397303 138 142 145
-528.51792787529 394.102188486232 2270.62515859045 144 148 151
-537.167088921511 393.747683099817 2268.53904090432 145 149 152
-546.708696891501 392.436442953278 2271.38274640483 154 158 161
-554.832619684743 392.653760996521 2266.33736790753 150 154 155
-562.80678162329 393.059912983439 2260.30225402512 150 154 153
-571.146946314593 393.082487133715 2256.23808976665 156 160 161
-580.169864116053 392.341401604123 2256.12196195727 161 165 166
-589.024054202843 391.790298593852 2255.01846269003 152 156 157
-596.912224623738 392.379373167606 2247.98591122233 176 180 181
-604.833277867161 392.965934861494 2240.94926279036 179 183 184
-612.787199083828 393.54974573273 2233.90851987383 177 181 184
-620.773955046791 394.130748175869 2226.86368677098 180 184 187
-627.741639170766 396.035382644919 2212.88849211503 180 184 187
-635.517756778128 396.988512543909 2203.85335098414 181 185 188
-643.482369015561 397.749086769389 2195.80312129324 175 179 182
-652.195972195725 397.561706870929 2192.70059412381 185 189 190
-659.386520336736 399.449752231418 2178.69739077418 182 186 187
-666.78439710599 401.143982362425 2165.6767518099 184 188 189
-674.38139008561 402.645034878712 2153.63921987555 180 184 185
-683.220307702238 402.447106181045 2150.52132225393 177 181 182
-692.584798173572 401.495287191354 2151.37056998323 157 161 162
-701.182920772796 401.671168213206 2146.2661232765 164 168 169
-708.940044311425 403.15927477688 2134.20888235652 187 191 192
-716.756717045836 404.642930770894 2122.14422176937 179 183 184
-724.868586888069 405.747397705955 2112.05909510562 176 180 181
-733.374556979791 406.28624545591 2104.94957816195 179 183 184
-741.238338384729 407.944820064513 2091.87065068234 181 185 186
-749.605912482932 408.850896910155 2082.76206345933 162 166 167
-757.05339456363 411.434081278239 2064.69397698766 166 170 171
-763.862401500645 415.316825637158 2039.64761560075 183 187 186
-771.512416133264 417.885793631046 2021.55429170227 179 181 180
-780.144445809369 418.772096751148 2012.41275405999 171 173 170
-789.396811834493 418.538629295434 2009.24311384259 172 174 171
-375.476576499884 403.469135531317 2239.31118800857 44 54 55
-386.214674430086 401.394352420883 2246.03857806036 196 196 196
-399.999976839566 396.646252008913 2266.50155581237 159 157 158
-412.795701880139 392.668460253434 2283.05500972777 155 156 158
-424.203581382979 389.840814926738 2293.73178629636 151 152 157
-432.571631001999 389.685006828029 2290.672539294 159 164 167
-441.790830117066 388.766213164126 2291.53983155458 172 178 178
-451.000193262352 387.847451389916 2292.4085914708 169 175 175
-460.404091585335 386.738673008174 2294.26126204709 141 145 144
-468.178447603075 387.149849616207 2288.25106953019 145 149 148
-476.179602007309 387.369016491218 2283.2210069332 109 113 114
-484.399611641642 387.396617431779 2279.17182407762 93 97 98
-492.830300963971 387.23317577073 2276.10478011333 134 138 139
-501.654513821946 386.689835256825 2275.00500138477 139 143 144
-510.479427422381 386.14585287968 2273.90513689802 140 144 145
-518.933864320932 385.979283358652 2270.83489734497 136 140 143
-527.39981536031 385.811323376655 2267.76322455696 143 147 150
-535.877302731958 385.642093468238 2264.69035571592 143 147 150
-544.898606575464 384.906244361676 2264.57417526027 153 157 160
-552.866510067138 385.299715887477 2258.53987578857 147 151 152
-560.862061164941 385.690831384054 2252.50237253234 147 151 150
-570.070790331103 384.764047501999 2253.37123269134 154 158 159
-579.435851601558 383.649499096986 2255.22852482859 160 164 165
-588.621330114703 382.722882526743 2256.10028609102 151 155 156
-595.861335241613 384.045585300265 2245.11570117484 175 179 180
-603.790081744375 384.615113842127 2238.07813752578 173 177 178
-612.063446055829 384.807861610514 2233.01417431544 173 177 180
-620.358842760208 384.998489122713 2227.94746717634 177 181 184
-627.322185658043 386.867982388895 2213.97266655411 177 181 184
-635.094867487144 387.79953256651 2204.93801101746 177 181 184
-643.056222045743 388.541143501117 2196.88823780477 171 175 176
-651.340445753507 388.907180010109 2190.81477595805 186 190 191
-658.534835608122 390.759565371391 2176.81118709461 183 187 188
-666.210577811039 392.049014750629 2165.77231233901 181 185 186
-673.940611939849 393.334408200664 2154.72667295319 175 179 180
-682.645611446955 393.316719454462 2150.61708549749 172 176 177
-691.882301242927 392.555682365638 2150.47409247998 164 168 169
-700.735383236243 392.349983263774 2147.35444769098 168 172 173
-708.241767002893 394.178551157523 2133.31198655426 183 187 188
-715.818517099004 396.002039090304 2119.26075749352 182 186 187
-723.583617098892 397.635605842042 2106.19421072717 174 178 179
-732.220779708089 397.972586172331 2100.07654044177 174 178 179
-740.547180394956 398.860204066722 2090.97314002807 176 180 181
-749.246480794895 399.191852252688 2084.84772935576 165 169 170
-756.150406391337 402.649345087705 2061.80649729992 155 159 160
-762.650716440423 407.018035766367 2033.77431844271 180 184 183
-769.500442122258 411.009279185583 2007.71490277057 176 178 177
-778.764195333545 410.770487691953 2004.54385552032 157 159 156
-788.424111320719 409.796864795622 2005.35653358032 161 163 160
-374.889909951013 394.477768256185 2239.40807897123 165 175 176
-386.971138431934 391.293190351118 2252.01738000251 178 178 180
-399.640406856614 387.547420125349 2267.5780765686 164 164 166
-412.21892487044 383.806597614798 2283.15032548855 153 154 158
-424.060272395115 380.635151504489 2295.7895276629 154 157 162
-431.78481426146 381.037736287995 2289.78557428386 125 130 133
-439.957365881105 381.062686968207 2285.74232088731 121 127 127
-449.183794216278 380.148153318567 2286.60894003411 143 149 147
-458.809551538869 378.858905139352 2289.44208627784 171 175 174
-467.606799900758 378.319372695335 2288.34566253056 154 158 157
-475.010070439033 379.088713177902 2280.36546187946 138 142 143
-483.631287638712 378.733718531587 2278.28283270863 72 76 77
-491.871028110438 378.751283342303 2274.23121399098 132 136 137
-501.274629598167 377.647719701396 2276.08390787772 133 137 136
-509.720461051671 377.476681732459 2273.01475400084 133 137 138
-517.992117236066 377.490481385526 2268.95916230635 129 133 134
-526.280644558002 377.502788194957 2264.90146912498 136 140 143
-534.586101954764 377.513359517339 2260.8416677407 142 146 149
-543.086095550381 377.336544447483 2257.76601023122 154 158 161
-551.59746312884 377.158464786022 2254.68869637744 146 150 151
-560.292523901193 376.793510327394 2252.59687819411 145 149 148
-569.163076596016 376.242499646733 2251.49133672698 150 154 155
-578.367882156221 375.320743496276 2252.36067328845 157 161 162
-587.398272608491 374.583778020854 2252.24336181767 151 155 156
-595.455115702172 374.954921091914 2246.19802201064 175 179 180
-602.587099535819 376.431133224219 2234.21882615361 173 177 178
-610.715160963883 376.796544834786 2228.16461381308 175 179 182
-618.564050794273 377.52812042669 2220.1289019613 180 184 187
-625.999269015258 378.808764798366 2209.12006636436 179 183 186
-634.672319049389 378.61423615461 2206.02285908252 178 182 185
-642.630427020131 379.336942813979 2197.97354080853 169 173 174
-650.484150805414 380.240217665457 2188.92884617693 184 188 189
-657.682374994978 382.056943497595 2174.92487271926 182 186 187
-665.910893375845 382.586113749881 2167.85000559417 179 183 184
-674.172117363015 383.112426582724 2160.77130479642 173 177 178
-682.861054073904 383.087579188494 2156.66374073478 168 172 173
-691.179395750067 383.608996626804 2149.57768461022 165 169 170
-700.288079589399 383.032603130641 2148.44249262881 168 172 173
-707.913801295643 384.643694928698 2135.3933986365 183 187 188
-715.967148989897 385.703515084748 2125.31569276655 181 185 186
-723.596504243999 387.487579562929 2111.25800271336 173 177 178
-731.64260743253 388.720886226972 2100.17305694616 175 179 180
-739.40446092631 390.495136196408 2086.09885774213 173 177 178
-747.786935024545 391.356726348385 2076.98852824133 165 169 170
-755.246297144159 393.846763658402 2058.9192045105 150 154 155
-761.960163222794 397.779355203432 2032.87689777126 178 182 181
-768.80910823511 401.702567560506 2006.81799894818 174 176 175
-777.381138283738 402.723730787602 1996.67566638847 149 151 148
-786.967161017071 401.934765577454 1996.48915223332 159 161 158
-378.605180400464 381.950683077636 2258.12492129463 210 220 222
-387.953455840721 381.037104004257 2258.97609186048 170 171 175
-398.839219931125 378.823727313503 2266.69334639666 156 155 160
-410.987256953156 375.4997347033 2280.30260462758 149 150 155
-422.83969813102 372.365505455688 2292.94032437031 143 146 151
-431.849448068276 371.642754893061 2292.82555127931 156 161 164
-440.644597731167 371.104729758637 2291.72938546781 114 120 120
-449.025581111221 370.935854655709 2288.66855882003 122 127 123
-458.237464277654 370.027082610482 2289.53673767618 152 156 155
-467.035232765862 369.487337864856 2288.4402495793 167 171 170
-474.836709307248 369.868719813411 2282.4269913133 165 169 168
-482.862702669692 370.063789037748 2277.39389242148 70 74 73
-490.717046954772 370.440964393023 2271.37380738279 120 124 123
-500.703799108428 368.793301842494 2276.1784619424 139 144 140
-508.584016216284 369.167694228812 2270.15515545724 133 137 136
-516.677862877788 369.356290809643 2265.11360592032 131 135 134
-524.610833310165 369.726309733037 2259.08396791824 129 133 134
-533.474115189554 369.177971966162 2257.97932676686 140 144 145
-541.982370755853 368.99513361578 2254.90241380564 150 154 157
-550.85237046529 368.445233162922 2253.79693842407 143 147 148
-559.722938101365 367.894699307955 2252.69139383666 140 144 143
-568.5941142237 367.343469744807 2251.58577514588 145 149 148
-577.799884744927 366.426967395904 2252.45497745022 147 151 150
-586.831028831845 365.692581686089 2252.33756513657 162 166 167
-594.887641611232 366.050063047467 2246.29229004903 175 179 180
-602.495073567812 366.950755615054 2237.27857825068 174 178 181
-610.146164796525 367.848067110619 2228.25918666848 173 177 180
-617.68749542673 368.923487371401 2218.24557668753 179 183 186
-625.277820143829 369.995306146227 2208.22562174983 181 185 188
-634.10195258445 369.613887419011 2206.11773954342 178 181 186
-642.059492419709 370.317519170353 2198.06854240247 165 169 170
-649.341760032235 371.922361812842 2185.0623259075 177 181 182
-656.409262179921 373.883651510287 2170.06659798585 185 189 190
-665.337292556 373.493222496696 2167.94553339087 173 177 178
