ply
format ascii 1.0
comment KinectMotionCapture
element vertex 755
property float x
property float y
property float z
property uchar red
property uchar green
property uchar blue
end_header
-1388.54002730698 136.129315486466 2590.01426242799 212 217 213
-1388.72079855218 136.096613932294 2582.91398352929 203 208 204
-1386.90165891341 136.32384259744 2576.03059460384 196 201 197
-1385.08281778602 136.550811733212 2569.13526015671 190 195 191
-1385.26393415583 136.517358087505 2562.02068505455 164 169 165
-1382.44591399428 136.873798972958 2555.20758354934 168 173 169
-1376.62962232529 137.62005100793 2548.67138276876 159 164 160
-1360.81822868575 139.666176083172 2543.05517780745 163 168 164
-1352.00557258168 140.801557764142 2536.70196143489 154 159 155
-1342.19482855762 142.066420804395 2530.38834380055 157 162 158
-1185.56656689678 155.15349457283 2916.69588364113 163 167 166
-1188.76829238381 154.738954392454 2908.45006924973 172 176 175
-1200.99462193879 153.174109124086 2898.25778696864 178 183 179
-1213.21931958129 151.609518260113 2888.12955864028 178 183 179
-1225.44214801623 150.045278120045 2878.06543721112 147 152 148
-1230.64567617776 149.375765805353 2869.53411872855 144 149 145
-1237.8533822235 148.450802190828 2860.61462545175 139 144 140
-1243.05520380858 147.781567293485 2852.14097896995 142 147 143
-1250.26116897241 146.85688709412 2843.28982969852 148 153 149
-1257.46643061427 145.932271018944 2834.47557014231 153 158 154
-1278.70148723025 143.219520127939 2822.95059997727 173 178 174
-1292.91866309606 141.401302337254 2812.89341900403 145 150 146
-1292.1028899792 141.498961612873 2805.77335555966 147 152 148
-1293.2911570213 141.341206255043 2798.27053947093 145 150 146
-1295.48141878558 141.055687176992 2790.58660233726 145 150 146
-1299.67502948077 140.514787442444 2782.54696462729 164 169 165
-1301.86465739605 140.229227046363 2774.88775614426 172 177 173
-1302.05048130642 140.198931519509 2767.59258499391 172 177 173
-1301.23450395282 140.296228170695 2760.47078968229 158 163 159
-1299.41741138526 140.521018111899 2753.51410039686 132 137 133
-1302.60812079421 140.107550134474 2745.69998374739 129 134 130
-1305.79844318148 139.694035145614 2737.90094276899 129 134 130
-1310.99100252851 139.025285490996 2729.78981765231 135 140 136
-1312.17768561327 138.8668714848 2722.34820089762 125 130 126
-1315.366845422 138.45321586456 2714.59444651652 121 126 122
-1315.55206416131 138.422151156202 2707.32210165987 122 127 123
-1315.73730912102 138.390959429129 2700.04859563615 137 142 138
-1311.91848226586 138.86980301237 2693.37375143833 145 150 146
-1308.10023707255 139.348371702578 2686.67587872172 155 160 154
-1303.2815090417 139.954271596765 2680.09957295804 129 134 128
-1299.46449830491 140.432271563321 2673.35284275284 99 104 98
-1294.64738304308 141.037588909596 2666.72220368202 91 96 90
-1291.8322251753 141.387595970839 2659.79032567541 83 88 82
-1294.02049513402 141.100059493799 2652.17274428714 76 81 75
-1311.21690506788 138.900486802725 2642.60111612711 62 67 61
-1337.41538785234 135.554086674841 2631.96735213805 123 128 122
-1357.60775929026 132.97275704971 2622.22707897217 111 116 110
-1364.79313369079 132.048153847792 2614.19009552287 175 180 174
-1375.97836672849 130.613979929097 2605.71028988363 216 221 215
-1381.16082455937 129.944198404497 2597.99285906958 209 214 210
-1385.34278453715 129.401685791834 2590.41616476039 211 216 212
-1387.52374636667 129.113874241938 2583.08391502592 186 191 187
-1387.70460633687 129.080548876151 2575.97949864567 163 168 164
-1386.88563469714 129.174348194217 2568.9803000302 160 165 161
-1385.0667990279 129.395223943381 2562.07820965077 175 180 176
-1381.24883429806 129.870506947097 2555.36584753298 159 164 160
-1375.43191516744 130.599973784084 2548.82682268529 155 160 156
-1365.61731058924 131.838255851071 2542.63554827873 158 163 159
-1360.80212569338 132.43960818366 2535.9252064924 154 159 155
-1346.99200942768 134.185976716224 2529.99594196075 156 161 157
-1188.3643380987 147.152116427306 2916.09183979641 179 183 182
-1191.5660702311 146.745376954143 2907.85414147962 159 164 160
-1195.77018572075 146.213594325639 2899.41372925804 171 176 172
-1214.01282386464 143.930749559741 2887.97995381721 164 169 165
-1224.23120691742 142.64892046912 2878.34340923099 151 156 152
-1234.44823502172 141.367272047199 2868.76001471367 146 151 147
-1236.64346019151 141.086253417127 2860.88692273284 138 143 139
-1239.84062545969 140.680282765594 2852.81921400351 139 144 140
-1245.04259711045 140.024238981569 2844.36319082468 144 149 145
-1258.2626953854 138.368154020299 2834.34118006093 150 155 151
-1279.49925741236 135.712320538061 2822.81848674979 169 174 170
-1291.7131095984 134.181796939308 2813.1507152364 145 150 146
-1292.90148252407 134.026384144702 2805.64627611471 141 146 142
-1297.09601815864 133.495951565255 2797.58172739449 152 157 153
-1298.28420131721 133.340436109147 2790.09391958659 153 158 154
-1304.48188285228 132.560165533402 2781.69688149219 151 156 152
-1304.6674576262 132.529516200418 2774.41106756764 152 157 153
-1302.84935349493 132.74872672665 2767.47859816207 157 162 158
-1300.0298904892 133.0926476427 2760.7084450266 163 168 164
-1298.21246784211 133.311526690826 2753.7489849425 164 169 165
-1303.40675534565 132.656028169234 2745.59387031724 152 157 153
-1306.59722513048 132.250276415348 2737.79740409544 148 153 149
-1313.7931013932 131.344997473775 2729.36139560546 134 139 135
-1313.97832282791 131.313782000202 2722.08878352325 118 123 119
-1314.16357571383 131.282408105796 2714.81477211827 112 117 113
-1315.35003484059 131.126124380791 2707.38419574981 122 127 123
-1316.53662285081 130.969683169959 2699.95773786103 133 138 134
-1314.71949630072 131.187553093375 2692.98562176017 139 144 140
-1308.89854994125 131.904437759591 2686.59048520132 153 158 152
-1301.07665869646 132.870541304424 2680.45047474636 154 159 153
-1294.25673881507 133.711561330781 2674.12380919476 126 131 125
-1289.4393456156 134.302701283055 2667.47948550784 88 93 87
-1289.62662290858 134.269828129094 2660.12474347283 87 92 86
-1293.81666577772 133.737830775395 2652.23410745547 76 81 75
-1306.01134005731 132.207941461933 2643.3165560089 80 85 79
-1321.20606875815 130.303998354092 2634.07866521178 94 99 93
-1337.39891720272 128.275610149999 2624.79601465792 75 80 74
-1347.58724702317 126.995450075383 2616.33584656244 79 84 78
-1362.77607467574 125.092027661162 2607.3291482551 91 96 90
-1374.96198215059 123.562731768176 2598.7548710764 86 91 87
-1382.14507203865 122.656805637589 2590.81790350126 97 102 98
-1383.32632222714 122.498667651527 2583.58891952242 116 121 117
-1381.50721809055 122.714213159907 2576.6915985746 116 121 117
-1381.68851356803 122.68026168777 2569.56948879647 128 133 129
-1379.87010905098 122.895227678422 2562.65352684059 161 166 162
-1379.05179564407 122.985370651323 2555.62467630441 163 168 164
-1371.23487834105 123.947272212226 2549.27643041917 166 171 167
-1364.41898501279 124.784129274518 2542.78792335244 165 170 166
-1359.60325002092 125.371496707509 2536.07474052757 177 182 178
-1348.79091699991 126.705613782204 2529.87288838427 177 182 178
-1187.96043689011 139.565654455501 2923.73193964216 196 200 199
-1188.15335947903 139.533709134599 2916.15755612073 170 175 171
-1188.34631164683 139.501785948487 2908.58204032153 149 154 150
-1186.53359415965 139.714637699451 2901.44153942916 168 173 169
-1206.78376000036 137.235618915125 2889.55231429263 162 167 163
-1222.01715912737 135.368828833054 2878.83361654846 151 156 152
-1229.22690756711 134.480983428512 2869.87415411397 140 145 139
-1228.41466075708 134.571852043604 2862.60897909493 136 141 137
-1229.60758800871 134.418107672182 2854.9283325617 137 142 138
-1239.82302640499 133.163680981254 2845.43629793906 144 149 145
-1252.04207542796 131.664814323216 2835.59940682019 154 159 155
-1271.27603675228 129.310316946666 2824.45251415403 172 177 173
-1284.49356571624 127.689757067176 2814.56906506155 147 152 148
-1292.69806165585 126.680761980354 2805.70950499245 145 150 146
-1295.89080188149 126.283078523124 2797.83296519379 147 152 148
-1298.08113724984 126.007563030795 2790.15689243798 149 154 150
-1300.27098615928 125.732120163902 2782.49058537283 152 157 153
-1300.45682871115 125.701009416986 2775.1938103275 155 160 156
-1298.63907821385 125.914180774638 2768.25036007535 156 161 157
-1295.81965362358 126.249448720313 2761.46941463768 158 163 159
-1295.00425819922 126.340195281352 2754.32716732141 156 161 157
-1299.19728161975 125.819978410867 2746.33269000632 155 160 156
-1302.38824703156 125.421957202421 2738.52515342924 158 163 159
-1309.58491863987 124.535312498674 2730.0780680878 146 151 147
-1310.77180455728 124.381480964204 2722.63344423535 127 132 128
-1309.9559307203 124.47176970657 2715.50940337148 111 116 112
-1311.14273280041 124.317690406254 2708.06779013921 117 122 118
-1312.3294264689 124.163549939623 2700.63034833311 126 131 127
-1312.51489254281 124.131339040869 2693.34710609234 132 137 133
-1308.6959565624 124.587194370982 2686.65184387184 146 151 145
-1304.87760388991 125.042834388877 2679.93355277147 156 161 155
-1298.0568692689 125.864325054911 2673.61776094352 138 143 137
-1291.23713264507 126.685490006648 2667.26261420198 85 90 84
-1291.42426371717 126.652235647499 2659.91317767639 81 86 80
-1292.61212311426 126.496749502143 2652.42873027219 77 82 76
-1300.80476576896 125.487218925556 2644.03186267197 74 79 73
-1308.99656161408 124.4776705823 2635.67739703512 92 97 91
-1329.19389563155 122.004584551628 2625.85939270426 75 80 74
-1340.38395437488 120.629415027711 2617.25433614653 101 106 100
-1357.5751056979 118.522651340461 2607.98788387551 101 106 100
-1366.76117303307 117.391554875603 2599.75149690332 101 106 102
-1374.94579731758 116.38237031535 2591.67771130093 101 106 102
-1376.12760522508 116.226484610586 2584.42934805733 103 108 104
-1377.30929544125 116.070450181455 2577.18542490981 96 101 97
-1380.49112003001 115.670466124876 2569.73303580787 94 99 95
-1379.67256636114 115.757762138461 2562.71051869561 95 100 96
-1377.85406917956 115.966664000831 2555.78234240847 142 147 143
-1372.0364445387 116.662647978109 2549.23494002932 144 149 145
-1368.21936854816 117.114557030656 2542.46274575231 142 147 143
-1366.40242390329 117.32251726161 2535.48220468901 158 163 159
-1356.58835637118 118.504553545381 2529.20954827064 161 166 162
-1190.75910041934 131.588076376268 2923.11857523327 189 193 192
-1190.95180084895 131.555650029056 2915.55235797854 156 161 157
-1191.14453181308 131.523335590785 2907.98506748846 164 169 165
-1190.33436613027 131.610619188598 2900.6347054923 168 173 169
-1205.57100067803 129.783900737021 2889.83258212773 158 163 159
-1218.80001876513 128.196773707925 2879.53599592234 146 151 145
-1229.01887890454 126.968744718996 2869.93857154377 134 139 133
-1231.21472527361 126.697628903505 2862.05183382266 136 141 137
-1234.41290473672 126.306990061938 2853.97027374696 136 141 137
-1242.62348089863 125.318583295121 2844.89518367949 145 150 146
-1248.82809990101 124.569401221416 2836.26038576911 159 164 160
-1263.05136224106 122.863989355428 2826.08644661199 174 179 175
-1278.27525733795 121.03929393956 2815.79372208759 149 154 150
-1289.48769815616 119.693021733203 2806.34492422191 141 146 142
-1294.68542652006 119.064005852636 2798.08376387437 143 148 144
-1297.87806566987 118.674031742969 2790.21945217296 148 153 149
-1299.06602960442 118.523019195457 2782.73572248751 151 156 152
-1301.25607879645 118.252486448684 2775.07618458222 154 159 155
-1300.43974588183 118.340334731504 2767.95814089657 171 176 172
-1300.62563512692 118.30859635827 2760.65886702175 162 167 163
-1299.80980533301 118.396202527426 2753.53022446157 141 146 142
-1301.99941854203 118.125395727914 2745.88743202554 135 140 136
-1304.18854543844 117.854556481555 2738.25428674394 136 141 137
-1309.38251830248 117.225415064753 2730.13976954988 150 155 151
-1311.57094049596 116.954508349406 2722.53409405671 146 151 147
-1311.75631370441 116.922247150269 2715.25442731118 126 131 127
-1309.93905006797 117.128566758192 2708.28459196893 121 126 122
-1309.12311623224 117.215408509118 2701.14987016161 121 126 122
-1309.30878150038 117.182709441085 2693.85831856176 127 132 128
-1308.49335203359 117.269188707932 2686.7128198499 143 148 142
-1301.67128650161 118.071422476007 2680.42836805931 151 156 150
-1295.85120742769 118.754030440456 2673.96253129425 144 149 143
-1290.03198780264 119.436319566584 2667.46276194606 82 87 81
-1291.22026617055 119.283284558347 2659.97389634135 74 79 73
-1289.40562466691 119.487963915154 2652.89049300217 78 83 77
-1293.59600907597 118.976882301037 2645.00896613186 72 77 71
-1303.79016447051 117.750253775238 2636.37859247403 77 82 76
-1324.99016004189 115.212141463114 2626.42076763445 92 97 91
-1343.18528902863 113.032081729306 2616.94485249856 91 96 90
-1357.37598901126 111.329096908397 2608.04616904574 89 94 88
-1367.56332961031 110.103004135018 2599.69204124167 113 118 114
-1370.74631938663 109.711250717383 2592.19362521121 103 108 104
-1371.92871371537 109.557696545859 2584.93417080322 89 94 90
-1373.11075396071 109.403984695733 2577.67906110955 86 91 87
-1377.29316054625 108.892641248062 2570.10905408245 97 102 98
-1375.47472342549 109.095942213675 2563.18184138711 125 130 126
-1372.65640672271 109.418086136399 2556.34350430301 138 143 139
-1368.83865486504 109.858996576092 2549.58591579156 140 145 141
-1366.02128479531 110.180528363863 2542.7099237452 140 145 141
-1359.20494129541 110.978045885071 2536.18744638777 155 160 156
-1352.38983109649 111.775096888322 2529.62559123315 160 165 161
-1198.57472629711 123.041551264758 2921.37350986841 185 189 188
-1194.75383061907 123.476519661619 2914.7230878517 161 166 162
-1194.94627021603 123.443757626897 2907.16670440502 164 169 165
-1199.15121572319 122.943320908725 2898.73683383657 166 171 167
-1208.370286577 121.858538590464 2889.25095880065 158 163 159
-1216.58552027844 120.89085569082 2880.02541243477 148 153 147
-1222.79385251212 120.157100259234 2871.26205252187 137 142 136
-1230.0041078836 119.306586786519 2862.32286159256 141 146 142
-1235.20787743221 118.689980153935 2853.82959012495 140 145 141
-1243.41921413644 117.722899607742 2844.75699867082 148 152 151
-1247.61893608211 117.223301509361 2836.52285863766 161 166 162
-1260.84086844252 115.672451817557 2826.542158988 176 181 177
-1277.06839983166 113.771430247375 2816.05006008252 152 157 153
-1289.28403826369 112.337920175089 2806.40731675265 146 151 147
-1294.48213302599 111.722055953957 2798.14595752544 140 145 141
-1296.67257794995 111.456597630357 2790.4670767818 141 146 142
-1296.85857563402 111.424590311382 2783.16327596245 144 149 145
-1298.04687353384 111.275766441402 2775.67816857898 152 157 153
-1298.23285994692 111.243627080225 2768.37466649241 155 160 156
-1302.42668689817 110.744548063757 2760.37148061277 157 162 158
-1300.60857119485 110.945680932218 2753.42005308616 159 164 160
-1300.79450864662 110.913314529739 2746.11822079777 147 152 148
-1296.97349906204 111.347559878366 2739.48079907787 132 137 133
-1299.16324326679 111.081549737527 2731.83803715782 133 138 134
-1303.35583087803 110.582200478148 2723.88299881331 135 140 136
-1305.54493993291 110.316074341795 2716.26493620324 130 135 131
-1308.73496855335 109.933280421932 2708.50103777953 129 134 130
-1305.91658269542 110.250112929826 2701.6690253184 135 140 136
-1308.10498504338 109.983757940902 2694.06901275051 132 137 133
-1306.28833942033 110.18364102543 2687.06811226088 138 143 139
-1303.4706333215 110.499935583092 2680.19963006174 137 142 136
-1298.65101224758 111.049175172093 2673.59739004285 152 157 151
-1293.8323532856 111.598065455663 2666.96649708757 98 103 97
-1293.01810020156 111.680543499696 2659.76140026932 78 83 77
-1288.20060620934 112.228943578015 2653.08444991539 72 77 71
-1288.38798551908 112.194437754722 2645.72396767742 75 80 74
-1291.57776882891 111.810220536777 2637.97745340266 62 67 61
-1315.78211252966 108.979515674755 2627.60961824697 75 80 74
-1343.98592010307 105.683347890787 2616.88039879566 98 103 97
-1361.17935648918 103.668840328626 2607.62369586486 99 104 98
-1368.3653878807 102.819194197156 2599.63219327269 94 99 95
-1370.54816304166 102.551711492146 2592.25089981178 91 96 92
-1374.73175562454 102.051212706108 2584.65550885075 117 122 118
-1378.91457599634 101.550652554197 2577.08090789614 130 135 131
-1382.0967063723 101.166372098309 2569.63342888786 138 143 139
-1378.27735204838 101.596710669351 2562.92711905043 137 142 138
-1372.45830196603 102.259448467389 2556.39973067577 134 139 135
-1369.64019244368 102.572729437315 2549.54377990709 143 148 144
-1366.82252149447 102.885743598965 2542.67040170225 150 155 151
-1356.00633695891 104.129041906364 2536.52156589219 160 165 161
-1345.19146609775 105.371873573434 2530.31156130497 166 171 167
-1203.38123137551 114.880814768165 2920.30640447696 187 191 190
-1195.5468215296 115.761212861344 2914.56364040729 172 177 173
-1193.73265183847 115.956343617505 2907.45154444873 175 180 176
-1198.9410280203 115.352161766484 2898.8008953587 161 166 162
-1211.17002271904 113.948976629196 2888.66870343676 161 166 162
-1218.38246334057 113.116802385997 2879.6637966174 136 141 135
-1224.59109845346 112.398976400727 2870.90570294843 126 131 125
-1229.79613183128 111.795369399254 2862.38631944845 142 146 145
-1236.00323533186 111.077786120382 2853.68834709367 146 150 149
-1240.203976198 110.588525123326 2845.42548330204 147 151 152
-1245.40678554083 109.985228268055 2836.98403101671 163 167 166
-1259.632587446 108.355271326221 2826.8011793315 175 179 178
-1279.87143648951 106.041151775879 2815.53130993022 158 162 161
-1290.08299403273 104.868093775863 2806.2783199227 151 155 154
-1298.28832928218 103.92330569022 2797.45489725059 147 151 150
-1299.47639272228 103.776888118287 2789.97221227405 151 155 154
-1301.66676206678 103.516398352371 2782.3109450803 156 161 157
-1300.85032561464 103.597939054854 2775.19950019424 159 164 160
-1300.03381684871 103.679367101746 2768.08143583243 161 166 162
-1303.22582857704 103.304759853747 2760.2581456885 156 161 157
-1302.40961861411 103.38600018216 2753.13752630087 158 163 159
-1303.59723823867 103.239190604637 2745.67176626798 148 153 149
-1298.77394704623 103.776004895614 2739.20895065546 132 137 133
-1298.96007222231 103.742928306039 2731.89901890633 128 133 129
-1300.14784720326 103.595837292028 2724.4268848229 127 132 128
-1303.33885921046 103.220775969654 2716.64217969392 126 131 127
-1307.53096510325 102.731803210087 2708.71711006115 125 130 126
-1306.71523943736 102.812224385782 2701.57668312462 128 133 129
-1308.90371456528 102.550876616132 2693.97920242988 133 138 134
-1306.08556623705 102.858703048527 2687.12823645517 137 142 138
-1305.27003485338 102.938700516985 2679.97043656361 139 144 140
-1296.44534373897 103.929126101909 2673.9412721834 145 150 146
-1292.62726378777 104.350125676564 2667.16580316203 114 119 115
-1289.81100317584 104.657017542333 2660.23073044104 80 85 81
-1285.99425779511 105.077463619157 2653.41183226717 77 82 78
-1284.18005160094 105.270065153358 2646.30777207857 74 79 75
-1284.3677289716 105.234924801561 2638.93495927934 68 73 67
-1301.56885540628 103.265694949941 2629.42631832896 61 66 60
-1336.78053744964 99.2493006334996 2617.79822195965 97 102 96
-1357.97854009175 96.8259051370089 2608.04146178112 107 112 106
-1369.16758527195 95.5400887262519 2599.57195927289 99 105 101
-1373.3515591552 95.0502949913478 2591.96383524414 111 117 113
-1379.53598248952 94.3330330037219 2584.15262733291 133 139 135
-1384.71929503861 93.7294018619731 2576.48214314506 138 144 140
-1382.89958913252 93.9214000540757 2569.58305813938 140 146 142
-1374.07856289105 94.9086923950365 2563.39796880447 130 136 132
-1367.25923862508 95.6682430446811 2556.9605489966 130 136 132
-1365.44150846794 95.8592769628039 2549.99253430315 135 141 137
-1361.62369134909 96.2772356210706 2543.20352778125 141 147 143
-1350.80701809286 97.4900693294781 2537.04108232799 156 162 158
-1344.99121246982 98.1344628120321 2530.36719253106 162 168 164
-1337.17677194699 99.0055682411132 2523.83398039092 166 172 168
-1196.14747820043 108.084600072604 2921.95350319431 189 193 192
-1193.32961600107 108.385256212058 2915.07433061533 174 179 175
-1194.52531515333 108.240016815388 2907.29448059011 160 165 161
-1196.72429560413 107.983341466181 2899.30075715865 166 171 167
-1207.9512395963 106.723806856991 2889.37825716435 166 171 167
-1215.16440319603 105.910241103588 2880.36507421538 122 127 123
-1221.37368433303 105.208238204934 2871.59872129797 129 134 128
-1226.57929186539 104.617742557061 2863.0709758112 140 144 143
-1230.78119199268 104.138766293888 2854.77384703337 144 148 149
-1237.99101691727 103.325759286048 2845.89175101253 147 151 152
-1246.20280754199 102.40148651826 2836.84738246868 166 170 169
-1259.42674902552 100.920654333069 2826.86333873364 176 180 179
-1280.66962654015 98.5493703340363 2815.39934160589 160 164 163
-1291.88431735496 97.2918224645626 2805.95787143833 147 151 150
-1301.09273496241 96.2570931953503 2796.95143007267 141 145 144
-1301.27833482005 96.2242614938306 2789.66229253017 144 148 147
-1302.46621426267 96.0800685977986 2782.18918749837 147 152 148
-1301.64962040496 96.1583951727034 2775.08044348458 145 150 146
-1298.82873161041 96.4591518541014 2768.3196686848 148 153 149
-1301.01898402137 96.2034797383948 2760.66814448039 153 158 154
-1299.20061380657 96.3927515790234 2753.71392868614 157 162 158
-1301.3906474693 96.1369426384114 2746.07080700839 156 161 157
-1297.56870382866 96.5484374940082 2739.43613891963 152 157 153
-1298.75689325371 96.4036337698709 2731.9595876287 129 134 130
-1298.94303719023 96.3699670000044 2724.64828896675 119 124 120
-1301.13246809726 96.1138565177624 2717.01907650952 118 123 119
-1304.32344823648 95.7464711130915 2709.2438587011 120 125 121
-1303.50784563376 95.8236485067333 2702.0951391061 125 130 126
-1306.69832917141 95.456140230572 2694.33919827722 127 132 128
-1303.87984321632 95.7553269124623 2687.48282644277 137 141 140
-1306.06868786962 95.4987241675871 2679.88532304671 135 139 138
-1301.24808444146 96.0197462483857 2673.2911790476 136 141 137
-1298.43072645624 96.3183175325879 2666.39006147637 130 135 131
-1293.61166775751 96.8388051890743 2659.74429506451 110 115 111
-1290.79533805243 97.1368776444061 2652.80245313924 68 73 69
-1286.97851940337 97.5457595508458 2645.97400183012 70 75 71
-1284.16314829277 97.8433217200909 2638.99414680628 73 78 72
-1290.355853819 97.14144349399 2630.86643525441 64 69 63
-1314.56248382914 94.4413434624298 2620.55880140373 95 100 94
-1343.76932431637 91.1867075161845 2609.78033652521 102 107 101
-1362.9653404317 89.0425539223595 2600.33300024141 139 145 141
-1375.15488141293 87.6755124909413 2591.79092939108 147 153 149
-1382.3400627964 86.863334475848 2583.87287843585 139 145 141
-1384.52216559616 86.6059007708409 2576.53797781034 134 140 136
-1379.70113768648 87.12483016064 2569.95817704897 137 143 139
-1370.87963472577 88.0870864314431 2563.76483774969 131 137 133
-1364.0599844229 88.8270826475316 2557.31916454881 133 139 135
-1364.24250593179 88.7904640280223 2550.14627343828 147 153 149
-1360.42468970339 89.1971207279288 2543.35442173023 150 156 152
-1356.60745122056 89.6034435583757 2536.5396312406 150 156 152
-1349.79087866861 90.3419901895655 2529.97211241911 153 159 155
-1342.97530164472 91.0801217352336 2523.36523922569 158 164 160
-1187.90922907478 101.358428330027 2923.82682830051 187 191 190
-1189.10537547683 101.215305572318 2916.03177088806 168 173 169
-1190.30141332096 101.072226720579 2908.24100343799 164 169 165
-1190.49411445889 101.03789457998 2900.67271220574 170 175 171
-1202.72568747605 99.6990955397977 2890.51820828871 161 166 162
-1212.9492153915 98.5779931875158 2880.85316063956 132 137 133
-1223.17138959302 97.4571161895455 2871.24126278848 152 157 151
-1230.38312198065 96.662492356508 2862.30435494195 171 175 174
-1236.59103432278 95.9766688894702 2853.60887149716 171 175 176
-1241.7950976383 95.3996116250279 2845.14658366697 170 174 175
-1251.0099462266 94.388123165418 2835.91375148313 177 181 180
-1261.22625291392 93.268208076212 2826.53220923673 181 185 184
-1279.46275501905 91.2796197729417 2815.65420137368 163 167 166
-1288.6730271182 90.2688276735769 2806.59165714899 144 148 147
-1298.88478616491 89.149583124276 2797.38857242591 145 149 148
-1297.06572018174 89.3333502580486 2790.46496392751 149 153 152
-1300.25883267762 88.9742499691127 2782.61530215305 149 154 150
-1301.4468063213 88.8322526988986 2775.14087291134 148 153 149
-1300.6302944643 88.9072563951721 2768.02535617436 144 149 145
-1298.81159108945 89.0907050561386 2761.07790894719 145 150 146
-1298.9975364969 89.05697110226 2753.77429735176 147 152 148
-1301.18771063398 88.8061363539894 2746.13102635452 150 155 151
-1299.36951566424 88.9892245916121 2739.16332189949 151 156 152
-1300.55739248725 88.8467579406614 2731.69217276036 147 152 148
-1297.73782969589 89.1380086972662 2724.86936643214 124 129 125
-1297.92406545065 89.1037473018028 2717.553840732 116 121 117
-1298.11032749212 89.0693888794956 2710.23718347627 117 122 118
-1302.30335817916 88.6012034548563 2702.30761430828 126 131 127
-1303.49089768694 88.4582264163255 2694.84910060179 126 131 127
-1302.67547664206 88.5319043787742 2687.68952767792 125 130 126
-1302.86158015602 88.4970779990818 2680.37856376966 138 142 141
-1299.04208460088 88.8956171995607 2673.63430523431 135 140 136
-1296.22486872982 89.1854597562743 2666.72758590237 127 132 128
-1291.40532358057 89.6918105260593 2660.07632777357 116 121 117
-1289.58997540055 89.8729254814966 2652.99524215577 74 79 75
-1286.77416364032 90.1620491144184 2646.03287338379 67 72 68
-1283.95855804374 90.4509859531254 2639.05292166818 74 79 73
-1282.14426609033 90.6313995776374 2631.92980202046 66 71 65
-1290.33900829299 89.7288491730823 2623.56574388202 88 93 87
-1315.54654014941 86.9858613563692 2613.20151081695 90 95 89
-1351.75862621066 83.0527336541884 2601.68105175765 122 128 124
-1374.95707056096 80.5273749335601 2591.84694316083 138 144 140
-1383.14329970204 79.6258005387016 2583.81665292375 142 148 144
-1381.32342458164 79.8062719734532 2576.92112964379 136 142 138
-1374.50145437142 80.5274696524717 2570.54594203717 135 141 137
-1364.67929553617 81.5728060010187 2564.44274391298 126 132 128
-1360.86026254964 81.9687462667903 2557.67761605812 128 134 130
-1361.04298874881 81.9317280433724 2550.49629587875 145 151 147
-1358.22517891655 82.2189109694258 2543.60061011315 151 157 153
-1356.40808411237 82.397651890565 2536.59456435141 153 159 155
-1352.59111715219 82.7923637717429 2529.75669487303 154 160 156
-1341.77473042465 83.9434097459728 2523.50738318725 157 163 159
-1182.68029783977 94.2699792486084 2925.02108544472 175 179 178
-1187.89108993084 93.7049018291459 2916.31800157949 155 159 158
-1189.08725760875 93.5640391263055 2908.52453930547 151 156 152
-1191.28661633508 93.3172143620755 2900.51728356701 166 171 167
-1200.50907406996 92.3286230412948 2891.01164475923 160 165 161
-1212.7400481005 91.0223337359292 2880.91545776387 153 158 154
-1225.9724875648 89.6104217388047 2870.67328469177 141 146 142
-1235.19081838849 88.6225540001684 2861.32971679653 152 156 157
-1240.39562962805 88.058606841227 2852.85227412536 152 156 157
-1240.58510564171 88.0243080585593 2845.41006773884 154 158 159
-1248.79763352359 87.1428007816977 2836.37347813351 171 175 174
-1259.01506105038 86.0496377442856 2826.98617867887 179 183 182
-1281.26376826943 83.6862205492271 2815.32748093815 173 177 176
-1290.47480852453 82.6995135197826 2806.27009999939 148 152 151
-1296.67676920999 82.0305343963896 2797.82531407429 145 149 148
-1295.85990942343 82.1025128661335 2790.71082258627 144 148 147
-1297.0485014174 81.9627335954031 2783.22393237861 142 147 143
-1299.23908035352 81.7171359087697 2775.56113879782 147 152 148
-1300.42738672792 81.5772826304749 2768.08533212891 155 160 156
-1298.60852246273 81.7547422105794 2761.13774243951 149 154 150
-1298.79445470157 81.7205316101671 2753.83413373283 150 155 151
-1296.9760658105 81.8977595988163 2746.86771611093 145 150 146
-1296.16021136329 81.9690771595177 2739.72254763379 135 140 136
-1296.34644314915 81.9345617397287 2732.40690430018 145 150 146
-1296.53270452756 81.8999033987015 2725.0899509296 162 167 163
-1295.71721918043 81.9708676134984 2717.92997734706 135 140 136
-1294.90190121741 82.0416822325452 2710.76330118916 122 127 123
-1300.09683321695 81.4782645417148 2702.67254194349 115 120 116
-1302.28638833657 81.2318709507654 2695.05823286571 117 122 118
-1301.47071217496 81.3023789391676 2687.89590232488 119 124 120
-1299.6540102674 81.4783444123553 2680.87152073994 133 137 136
-1299.84034139989 81.4428722484051 2673.55096731795 137 142 138
-1298.02387338986 81.618523505735 2666.50778203824 122 127 123
-1296.20795355924 81.79393565825 2659.45224006381 116 121 117
-1291.38839597913 82.2859301799565 2652.78605314251 99 104 100
-1285.56847545779 82.8832238690135 2646.22241569543 80 85 81
-1280.7506714652 83.3746283624407 2639.49638376047 69 74 68
-1277.93548307538 83.6546613381242 2632.49056587706 67 72 66
-1280.12536292987 83.4067439716121 2624.85260413485 60 65 59
-1297.32853598351 81.5758051821213 2615.42178530568 97 102 96
-1334.54533007203 77.6349978772944 2603.73377212761 95 100 96
-1366.75342454573 74.2225074983456 2592.82022295756 111 116 112
-1376.94224604257 73.1313515543502 2584.54377652446 136 141 137
-1373.12109566667 73.5168720434193 2577.85021562736 133 138 134
-1369.30076238902 73.9020368195385 2571.13366255082 129 134 130
-1365.48100960497 74.2869120088832 2564.39411083781 136 141 137
-1364.66303866617 74.3552369112087 2557.32844889768 141 146 142
-1361.84448821304 74.6341543256769 2550.45283429206 134 139 135
-1359.02637702347 74.9127747385331 2543.55973284676 134 139 135
-1358.20893128516 74.9803477575684 2536.46341214956 146 151 147
-1352.39143150286 75.5745180559418 2529.81113496653 154 159 155
-1343.57439289685 76.4843895394894 2523.3870664701 159 164 160
-1186.48358898678 86.2240337057393 2924.17814764818 174 178 177
-1183.66562522422 86.4984435454112 2917.27476325576 162 166 165
-1185.86581630344 86.2564506547703 2909.24948916464 176 180 179
-1191.07589010404 85.7047417812575 2900.57950790617 162 167 163
-1204.31248714041 84.3272091829838 2890.21175646523 138 143 139
-1213.53411996462 83.3629501299255 2880.76448413929 127 132 128
-1225.76428807543 82.0892406556204 2870.73477699219 142 147 143
-1232.97684439927 81.3318343492684 2861.80562817783 160 164 165
-1240.18846072909 80.5746182770241 2852.91342184461 159 163 164
-1236.36583231527 80.9525315882597 2846.27878457616 159 163 164
-1242.57344152782 80.2986139237964 2837.62940647938 168 172 171
-1253.79461257752 79.1290543052095 2828.02914129073 170 174 173
-1281.05957056659 76.3094452471437 2815.38762136404 157 161 160
-1290.2712792752 75.3468229570026 2806.32997528484 145 149 148
-1297.47629751271 74.5906132465834 2797.69672581003 145 149 148
-1295.6567314789 74.7624828239787 2790.77056155513 150 154 153
-1294.8401919438 74.8311318697322 2783.64930343987 151 156 152
-1295.02622877166 74.7966233390246 2776.34128713734 149 154 150
-1297.21721574651 74.5558954666754 2768.67709960929 155 160 156
-1297.40317732635 74.521256921509 2761.37188466054 152 157 153
-1298.59137006665 74.3834926835613 2753.89343746827 150 155 151
-1297.77518924998 74.4517161234897 2746.75770241133 145 150 146
-1297.96124041681 74.416843661045 2739.44873493033 136 141 137
-1295.14110298992 74.6908268729445 2732.62984678983 132 137 133
-1295.32742315558 74.6557027382089 2725.31009567642 148 153 149
-1296.51563079266 74.5174843914445 2717.83057867919 148 153 149
-1296.70194147969 74.4821827230407 2710.51100740126 139 144 140
-1301.89734308483 73.9319611034844 2702.42538805537 117 122 118
-1303.08501457135 73.7935403857234 2694.96660838892 116 121 117
-1305.27439317452 73.5520703362282 2687.36448470548 120 124 123
-1302.45550633548 73.8250754012729 2680.49566900061 126 130 129
-1301.63994176713 73.8921175898056 2673.32525569964 127 132 128
-1296.81906734779 74.3704751178421 2666.70521785226 114 119 115
-1294.00151740302 74.6428391731036 2659.78346342119 111 116 112
-1290.18318028914 75.017839456221 2652.97797949979 105 110 106
-1284.36286691955 75.5982373369688 2646.4115545055 97 102 98
-1278.54341574684 76.1783606620811 2639.81113707317 73 78 72
-1276.72915202089 76.3468829998954 2632.67414625099 73 78 72
-1278.91948262263 76.1039741250632 2625.03327026514 63 68 62
-1293.12087960597 74.6275342642863 2615.95975749834 80 85 79
-1323.33457225678 71.5069230414797 2605.08208941833 97 102 96
-1357.54757610359 67.9759420164979 2593.90815892404 105 110 106
-1370.74003612665 66.6033777946498 2585.27076952262 127 132 128
-1368.92044133174 66.7719989956461 2578.3422414945 129 134 130
-1368.10192536683 66.8376481041208 2571.29500800175 127 132 128
-1369.28450297732 66.697702606757 2564.03367746585 141 146 142
-1369.46656914813 66.6602749159411 2556.87771382663 147 152 148
-1362.64589019346 67.3413512011139 2550.4089802175 141 146 142
-1353.8254556332 68.2274139408041 2544.09207338161 138 143 139
-1352.0083258225 68.3944304575521 2537.07480703355 143 148 144
-1349.19114072263 68.6638314711173 2530.1356117138 151 156 152
-1344.37405809674 69.1382417176979 2523.35381436762 157 162 158
-1191.09895194205 78.1347230661223 2930.66755495363 190 194 195
-1183.26138544582 78.9033689483845 2924.91884800843 177 181 182
-1186.46541157996 78.5657008628247 2916.66565569296 164 168 167
-1186.65824658371 78.5297575832931 2909.09040260387 164 168 167
-1192.87230756143 77.8906725281602 2900.20479328737 148 152 151
-1203.09934453693 76.8496766854485 2890.4886116159 131 135 134
-1213.32502641765 75.8089665837197 2880.82569854954 154 159 155
-1224.55260200257 74.6679815059308 2871.00580307897 165 170 166
-1228.75621115236 74.2305904610326 2862.69585557408 156 160 161
-1235.96861994714 73.4919043601856 2853.79257302132 159 163 164
-1234.15202888022 73.6574451594423 2846.7433413999 159 163 164
-1240.36021601098 73.0193687133228 2838.08838533758 174 178 177
-1249.57654411089 72.0801394247033 2828.87531504714 165 169 168
-1272.83224460864 69.7353946506213 2816.99736720725 166 170 169
-1289.06498379784 68.0939494418862 2806.5804425395 154 158 157
-1295.26765747238 67.4567587842649 2798.13259774934 145 149 148
-1296.45641432978 67.3215120746996 2790.64413082257 147 151 150
-1296.64226917144 67.28654183198 2783.34273142051 153 158 154
-1296.82815730931 67.2515627248598 2776.04002116903 153 158 154
-1297.0140740704 67.2165159783769 2768.73611959735 153 158 154
-1296.19743663364 67.2816981140011 2761.60564052877 154 159 155
-1297.38600199886 67.1461422708112 2754.12432585632 154 159 155
-1296.56956407418 67.2111512525442 2746.98586324527 150 155 151
-1296.75567430717 67.1757679078514 2739.6740387082 145 150 146
-1294.93767574683 67.3407800008899 2732.68857390935 136 141 137
-1295.12398384582 67.3051639214891 2725.36876619091 121 126 122
-1297.31418756593 67.0689690806662 2717.73073340343 131 136 132
-1298.50251866411 66.9329354345839 2710.25806167019 143 148 144
-1300.69229615875 66.6965989861513 2702.63653520325 137 142 138
-1301.88034109322 66.5604164535564 2695.17488787606 126 131 127
-1304.06969236239 66.3239383975141 2687.56986772967 129 133 132
-1302.25245966978 66.4880863852287 2680.5535423574 125 129 128
-1300.43529576079 66.6520691484447 2673.52502648962 118 123 119
-1296.61554848431 67.0161462709602 2666.76292815916 103 108 104
-1294.79913705972 67.1797186347418 2659.70456193884 99 104 100
-1291.98172536643 67.4432080785264 2652.76787528665 96 101 97
-1286.16104785081 68.0067894029089 2646.20695084552 96 101 97
-1283.3447356368 68.2697910721121 2639.22676899973 79 84 78
-1279.5275314867 68.6326240963261 2632.35461587532 79 84 78
-1276.71217676521 68.8951307775741 2625.33648042475 93 98 92
-1284.9087723642 68.0568293602438 2616.97829553979 66 71 65
-1312.12237790273 65.3179180591122 2606.43045431143 94 99 93
-1347.3395347469 61.7794202010067 2595.1108369598 101 106 102
-1362.53516848757 60.2419256623218 2586.22171353327 111 116 112
-1364.71917338272 60.0045570945137 2578.83401682963 124 129 125
-1365.90207562502 59.8670909852786 2571.56266073411 135 140 136
-1368.08564309001 59.6294787595317 2564.19179869528 143 148 144
-1368.26777237586 59.5916591466374 2557.03294748577 143 148 144
-1363.44743376385 60.0533419147329 2550.36473957047 139 144 140
-1354.62648020005 60.9143617015082 2544.05055278541 140 145 141
-1355.80991738781 60.7758678935902 2536.75718570416 144 149 145
-1351.99202626282 61.1366599699696 2529.91901531409 145 150 146
-1349.17483996311 61.397298521781 2522.97045843189 145 150 146
-1334.35647655178 62.8559779602715 2517.02060007802 163 168 164
-1187.06559544583 70.8810032079581 2924.07464121732 178 182 183
-1188.26198505574 70.7466835159196 2916.2795304532 168 172 171
-1189.45826390384 70.6124383261137 2908.48882863905 169 173 172
-1191.65820333858 70.3804305782801 2900.48411096347 140 144 143
-1200.8823503198 69.4639857073688 2890.98059107002 138 142 141
-1212.1125404336 68.352220928349 2881.09921004858 155 160 156
-1223.34100470742 67.2407536999375 2871.27627553047 158 163 159
-1228.54822272183 66.7160002976812 2862.75617578609 159 163 164
-1236.76432981458 65.898210658567 2853.64811331272 164 168 169
-1237.95708383142 65.7645737743808 2845.99582726664 162 166 167
-1245.16871820405 65.0447416310143 2837.15238052989 172 176 175
-1247.3638212453 64.8135144421252 2829.3281991823 168 172 171
-1267.61242729362 62.8240811748589 2818.02561535716 162 166 165
-1282.8438712139 61.3234445370542 2807.78580602186 150 154 153
-1293.05895202265 60.3114099478195 2798.56800912891 150 154 153
-1297.25600642746 59.8854451695361 2790.51718762154 158 162 161
-1297.44178040612 59.8500313072152 2783.21847230087 161 166 162
-1297.62758603492 59.8145489996771 2775.91844649187 150 155 151
-1296.81093078925 59.8765817411782 2768.79460666895 149 154 150
-1295.99420405282 59.9385316174955 2761.66414718972 149 154 150
-1295.17788838099 60.0003839262022 2754.52684190984 149 154 150
-1297.36883065814 59.7694060443886 2746.87487011157 147 152 148
-1296.55240580525 59.8310804888103 2739.73231624079 145 150 146
-1295.73638968044 59.8926279781402 2732.58297633397 143 148 144
-1295.9226187088 59.8565227876711 2725.2657337996 140 145 141
-1297.11088595723 59.7228350136468 2717.78875156427 123 128 124
-1298.29928181023 59.5890348423368 2710.31594712187 129 134 130
-1299.48733175759 59.4551798486078 2702.84727821765 141 146 142
-1301.67731029154 59.2237533188313 2695.23249111854 135 140 136
-1303.86680251288 58.9922943422065 2687.62735117387 126 130 129
-1304.05272711072 58.9556550045525 2680.32143331299 127 131 130
-1300.23208357279 59.3085371084928 2673.58234363584 124 129 125
-1295.41050266125 59.7586186907634 2666.95955741821 104 109 105
-1292.5925486246 60.0136247834589 2660.03495865435 96 101 97
-1292.77942419696 59.9762821264548 2652.69111824457 95 100 96
-1288.96060074727 60.3282926825738 2645.87063262525 94 99 95
-1288.1465699194 60.3879461959905 2638.64166683098 81 86 80
-1283.32777003977 60.8367922312686 2631.9088616171 79 84 78
-1280.5119033905 61.0907024305977 2624.90150383737 94 99 93
-1286.70650939152 60.4685455727953 2616.79443860079 74 79 73
-1311.91984509612 57.9977626253214 2606.48631887877 83 88 82
-1346.1385107926 54.6519816474886 2595.28063244453 105 110 106
-1362.33640777347 53.0578344938277 2586.27624698725 114 119 115
-1365.52131426429 52.7283175729327 2578.77906865961 123 128 124
-1366.70445463209 52.5931856946009 2571.51023690011 131 136 132
-1364.88514895202 52.7495910722969 2564.55729285273 138 143 139
-1364.06693320033 52.8085581600521 2557.4911513478 137 142 138
-1358.24600867835 53.3532873745681 2550.91031403887 138 143 139
-1352.42594360525 53.8976977507631 2544.29554414679 138 143 139
-1353.60959007 53.7615639940884 2536.99653183739 143 148 144
-1349.79153038104 54.1110123324023 2530.15276947881 149 154 150
-1342.97320982062 54.7515780877011 2523.54836456541 153 158 154
-1324.15336142471 56.5572376157578 2517.92098961098 158 163 159
-1180.83134178758 63.8310820377929 2925.49358774105 172 176 177
-1184.0359302022 63.5086891528182 2917.23482089043 163 167 168
-1187.24013158145 63.1864143124357 2908.99130747008 145 149 148
-1193.45475999045 62.579036436607 2900.10824091277 143 147 146
-1201.67613854514 61.7817321972338 2890.82547187808 138 142 141
-1213.91030407345 60.6044475726143 2880.73374059612 163 167 166
-1221.1258564666 59.9025983792921 2871.75647275156 170 174 173
-1227.33666615333 59.2959520655187 2863.0234405841 167 171 172
-1233.54691595093 58.6894366701239 2854.32175618194 173 177 178
-1239.75636568366 58.0830442461898 2845.65147312346 172 176 177
-1246.96813724475 57.3818296341779 2836.81332986953 175 179 178
-1253.17592148988 56.7757455675786 2828.20847092644 168 172 171
-1267.40724150998 55.4101620555738 2818.08449123338 165 169 168
-1279.63082836204 54.2348053593622 2808.41760611517 140 144 143
-1289.84685958651 53.2495563240917 2799.19142394839 129 133 132
-1294.04441050134 52.8339476895627 2791.1323167389 138 142 141
-1300.24709042986 52.228637351574 2782.72778294165 163 168 164
-1301.43531176286 52.0978127063821 2775.25566944764 165 170 166
-1298.61291854141 52.3463782171506 2768.49765400329 161 166 162
-1295.79097179196 52.5948248643663 2761.72206125988 158 163 159
-1294.97456599742 52.6534151233578 2754.58477574991 154 159 155
-1296.16304931974 52.5222506434318 2747.10205791732 146 151 147
-1294.34455519556 52.6754508788735 2740.12327880739 144 149 145
-1295.53303178728 52.5441531479645 2732.6406809554 142 147 143
-1296.72139996737 52.4127942507412 2725.16225452957 138 143 139
-1296.90758075222 52.3761017135782 2717.8462668715 145 150 146
-1297.09378974875 52.3393266418483 2710.52908798351 136 141 137
-1296.27808652165 52.3971896859503 2703.36356287676 128 133 129
-1298.46841369762 52.1707119378837 2695.74046326076 128 133 129
-1298.65464507827 52.1336158068565 2688.42206479519 126 131 127
-1297.83893449742 52.1911238297208 2681.24712111576 132 136 135
-1295.02029709902 52.4378460315402 2674.34966068058 134 139 135
-1290.19843591333 52.8737208323292 2667.71324961147 108 113 109
-1287.38059204909 53.1199948318586 2660.77496907937 95 100 96
-1287.56780564288 53.0821120410598 2653.41733766684 93 98 94
-1288.75643754047 52.9494825537519 2645.92723998623 91 96 92
-1289.94519680805 52.8166959835458 2638.44132036938 89 94 88
-1285.12563351391 53.251478867818 2631.71392732237 81 86 80
-1282.30939156018 53.4967712169756 2624.71198455738 88 93 87
-1285.5007357361 53.1743481965787 2616.97081607871 85 90 84
-1308.71394287685 50.960699380887 2606.89441657901 81 86 80
-1339.93246972442 47.9911372202081 2596.02401864345 108 110 107
-1357.13289129693 46.3457627506616 2586.89065711542 112 114 111
-1360.31836578213 46.0240021232363 2579.37960771064 119 121 118
-1362.50244645885 45.796654701481 2571.99038434737 127 129 126
-1358.68187392742 46.1361036439686 2565.23409599604 134 136 133
-1355.86250658021 46.3808176141562 2558.3536834165 135 137 134
-1354.04437402246 46.5307705902402 2551.35728638089 138 140 137
-1353.22678882333 46.5861218469123 2544.25329350878 138 140 137
-1356.4115042556 46.2635129676153 2536.77099973432 143 145 142
-1352.59292708282 46.601680450734 2529.93534992262 152 154 151
-1343.77307222031 47.4115747325443 2523.51400266679 160 162 159
-1324.95170950736 49.164850661099 2517.88956699353 160 165 161
-1179.61585666827 56.2860546990445 2925.78020097471 171 175 176
-1182.82072360773 55.971315115421 2917.51876593437 161 165 166
-1187.02919330329 55.5643351176709 2909.05150450314 155 159 160
-1197.25945880379 54.6034454471311 2899.2951527286 152 156 155
-1201.46622797675 54.1967412550211 2890.88532496189 148 152 151
-1211.69420292885 53.23632635079 2881.21900552141 168 172 171
-1213.8923286122 53.0145126916842 2873.28679637249 169 173 172
-1224.11815253352 52.0544903959106 2863.7049682189 162 166 167
-1229.32571425177 51.5560838810973 2855.19972459681 167 171 172
-1236.53914411207 50.8732287498127 2846.31648226136 167 171 172
-1247.76466090145 49.8216199748389 2836.67301704327 169 173 172
-1253.97281751254 49.2313868361561 2828.07062425418 157 161 160
-1270.21146736154 47.7191195403116 2817.56139181955 164 168 167
-1279.42653589506 46.8526685765229 2808.47569350701 148 152 151
-1291.6493875487 45.7098578785848 2798.87248787629 132 136 135
-1297.85279059531 45.1203682426409 2790.44735438191 133 137 136
-1303.05285234275 44.6231031620382 2782.23646118452 154 159 155
-1300.22984317599 44.8631148880754 2775.49333462118 163 168 164
-1296.40463610602 45.1950949144741 2768.91016054413 164 169 165
-1294.58516096633 45.3426625878583 2761.95435031953 163 168 164
-1295.77374591074 45.2137967913977 2754.47012889293 160 165 161
-1295.95978788205 45.1769911627223 2747.15944511935 153 158 154
-1293.13876600045 45.4162906244689 2740.3472085814 149 154 150
-1292.32254339712 45.4713241336496 2733.18961957237 143 148 144
-1294.51364996727 45.2501006221486 2725.54170012593 138 143 139
-1295.70211517644 45.1208465692728 2718.06174148761 137 142 138
-1295.8883824824 45.0835608167583 2710.74173533557 134 139 135
-1294.07064307492 45.2301680963954 2703.72638027448 138 143 139
-1292.25297217214 45.3766552400737 2696.69889403111 131 136 132
-1293.44149031362 45.2470269808147 2689.21646482067 121 126 122
-1295.63194889683 45.0253607866254 2681.59339563039 125 129 128
-1295.81843975874 44.9874753457111 2674.26400823802 128 133 129
-1289.9944478148 45.5011660848718 2667.76972968146 117 122 118
-1285.17316089102 45.922570322277 2661.10466187918 105 110 106
-1285.36050405969 45.8842178968547 2653.74146197454 91 96 92
-1286.54934008342 45.7538447987518 2646.2458090738 91 96 92
-1286.73667164956 45.7152103717683 2638.88275984451 94 99 93
-1283.91981779941 45.9520678963645 2631.89567544631 89 94 88
-1285.10867222468 45.8212847706664 2624.3988630937 78 83 77
-1285.29622692157 45.7822008161068 2617.02661047355 90 95 89
-1302.50399156146 44.1820163762209 2607.65477800781 91 96 90
-1330.7218944694 41.5722400553449 2597.11165834311 112 114 111
-1349.92641703343 39.7893240391493 2587.72905445402 114 116 113
-1354.11350486042 39.383463186069 2580.08934738033 114 116 113
-1358.30006374529 38.9775781000514 2572.47028717803 126 128 125
-1357.48200624534 39.0303811136688 2565.39134213878 132 134 131
-1354.66247485456 39.266481009071 2558.50809181995 132 134 131
-1351.84338430713 39.502313491806 2551.60732468886 133 135 132
-1353.02721610603 39.3710669607055 2544.30631640534 136 138 135
-1356.21215329453 39.0562915485613 2536.82376660276 145 147 144
-1352.39326838536 39.3831823547979 2529.98803616798 149 151 148
-1346.57402005673 39.8930593989788 2523.30426584046 151 153 150
-1333.75317462203 41.0441003340294 2517.17981514024 165 170 166
-1174.19089486819 49.1319890085045 2934.57488241659 188 192 193
-1175.38833330579 49.0040672079117 2926.7456493958 174 178 179
-1179.59758148087 48.6072963970803 2918.24959933856 160 164 165
-1187.8220838399 47.852149156104 2908.89000614715 157 161 162
-1201.06452434068 46.6492617850742 2898.48139246883 153 157 156
-1205.2713044805 46.2529979878411 2890.08234617148 163 167 166
-1210.48141899541 45.7672510795986 2881.49092332287 171 175 174
-1210.67265115297 45.7294688042246 2873.97634044285 163 167 166
-1223.90986161321 44.5275718255204 2863.76387348552 159 163 164
-1234.13531452329 43.5945487070322 2854.23486016193 165 169 170
-1236.33173262201 43.377976174726 2846.37501685423 163 167 168
-1242.54147112235 42.8033919925371 2837.72760099747 160 164 163
-1249.75361244772 42.1394558016558 2828.91503277212 152 156 155
-1271.0096390622 40.2229765979236 2817.42545763249 164 168 167
-1279.22224236718 39.4700519237315 2808.53330711508 144 148 147
-1291.44598839837 38.3595034321914 2798.92978678374 137 141 140
-1297.64983273988 37.7858763828439 2790.5044379799 138 142 141
-1303.85311636921 37.2123504614668 2782.11043712191 147 152 148
-1300.02700946675 37.5330613961966 2775.5503317336 153 158 154
