ply
format ascii 1.0
comment KinectMotionCapture
element vertex 751
property float x
property float y
property float z
property uchar red
property uchar green
property uchar blue
end_header
-1303.33017919899 515.22520717733 2729.14229666237 189 186 177
-1301.52195864355 515.737650317562 2722.13839347155 191 187 176
-1300.71159360373 515.983407270311 2714.96597952127 192 188 176
-1298.90388874182 516.495533061102 2707.94158049551 196 190 178
-1297.09671699099 517.007453768223 2700.90545022717 196 190 176
-1292.29801263061 518.318588315266 2694.30377671067 193 187 175
-1289.49434997861 519.096591834471 2687.38217548364 192 184 171
-1282.70297285327 520.940163574871 2681.01642296473 122 109 93
-1270.92756884856 524.115638923311 2675.31434318252 140 124 108
-1257.1601664599 527.82343194474 2669.82169892008 137 116 97
-1241.40094946683 532.063676904241 2664.52212681136 126 105 84
-1233.61827833094 534.172244856515 2658.07594892598 133 111 90
-1221.84973739585 537.346013098614 2652.10380364879 116 94 73
-1216.06271281094 538.92093201772 2645.30417772607 108 87 68
-1202.30413204746 542.626556528629 2639.46442541204 113 97 82
-1190.54035144946 545.798937395426 2633.30474001372 116 102 91
-1284.85248913415 512.543128602051 2783.53992499385 183 187 188
-1288.03445943031 511.731450100153 2775.6397953545 196 200 199
-1291.21603128748 510.919697616901 2767.75515865522 199 199 197
-1297.39088873746 509.316550363772 2759.36662327283 197 197 195
-1298.57572305042 509.032558540344 2751.86242713579 190 191 186
-1301.75602747481 508.22084338852 2744.02736618372 187 188 183
-1306.93138594054 506.881575697052 2735.87788525738 185 186 181
-1307.11789874457 506.861149957846 2728.56638717412 184 185 179
-1305.30925459169 507.368304157341 2721.57336078154 187 188 182
-1304.49853976267 507.611333338618 2714.41168893431 181 182 176
-1305.68264325966 507.326935888707 2706.93562008669 179 180 172
-1303.87483816395 507.833563476778 2699.91855978656 182 183 175
-1298.07808568017 509.394927115158 2693.48457923447 184 185 177
-1292.28218313927 510.956124493603 2687.01720145308 186 186 178
-1285.49007659772 512.780744348655 2680.65960797193 175 169 157
-1274.71078942422 515.659986872269 2674.82524633641 127 118 103
-1261.93897671693 519.066228812965 2669.20588794121 126 110 94
-1240.19667520129 524.845361424056 2664.73070386303 140 123 103
-1227.42912694521 528.25058808458 2658.94358581177 101 83 63
-1214.66340040878 531.655449789589 2653.0848767847 113 92 73
-1210.86992925257 532.686770455352 2646.0122513763 116 98 78
-1200.10034804627 535.563372090517 2639.78638654841 100 84 69
-1191.32577847808 537.91218926351 2633.25683477928 104 91 82
-1284.27280525432 505.227185985702 2798.34068342558 216 220 221
-1291.44853358312 503.379056913057 2789.68909092306 178 182 183
-1291.63590104198 503.358883792808 2782.34446121113 200 204 205
-1291.82328679502 503.338765821175 2774.9991757134 203 207 206
-1295.00480884682 502.535309226326 2767.12539306694 220 222 219
-1299.183825174 501.470847523284 2759.09399329808 222 222 220
-1305.35818141469 499.884158887718 2750.74271890658 224 224 222
-1305.54473561271 499.863962204452 2743.42984894546 223 223 221
-1309.72227689727 498.799473066389 2735.45606949472 221 221 219
-1310.90619935529 498.518124766664 2727.99035021963 218 219 214
-1309.09712982628 499.019870460861 2721.00814176341 214 215 210
-1308.28606876542 499.260410999788 2713.85732974298 217 218 213
-1311.46502097043 498.45661824745 2706.08362467162 218 219 213
-1310.65399191861 498.696910188464 2698.93129470193 212 213 207
-1305.85357438381 499.981132144844 2692.36768130946 205 206 201
-1296.0676425404 502.570161845431 2686.50610587727 180 180 172
-1288.27760832215 504.636816134785 2680.30269909463 191 184 174
-1277.49705162551 507.486270214159 2674.47664549617 182 174 163
-1262.73008145084 511.379216121653 2669.1412140601 129 116 100
-1236.99814574047 518.142622074311 2665.20961987156 110 94 78
-1217.25141021695 523.339448515094 2660.34121677701 109 90 73
-1210.46656410306 525.143109399083 2653.67735650256 103 84 67
-1208.66649783074 525.641617903445 2646.3397937404 106 87 72
-1197.89647485915 528.488384508264 2640.10848486143 115 101 88
-1265.90888983722 502.541587915423 2809.18898835772 225 229 230
-1282.07215749088 498.386734414931 2798.78854771313 235 239 240
-1290.24655881754 496.299316550973 2789.94726205097 226 230 231
-1294.42717129092 495.245590316266 2781.87433106667 238 242 243
-1299.60511564109 493.933666220038 2773.64381947664 233 237 236
-1303.78434680025 492.880070789567 2765.61569069626 238 240 239
-1308.96124532028 491.568181911608 2757.43541637411 239 241 240
-1313.13933341598 490.514710740015 2749.45209589358 240 242 241
-1318.31471111784 489.202869768116 2741.32198706334 239 241 240
-1322.49189262212 488.14939674548 2733.38342211675 238 240 239
-1325.67060863933 487.354189578043 2725.62816662207 236 238 235
-1316.87653856188 489.658985856457 2719.80417127372 226 228 225
-1312.07417527594 490.930281560137 2713.30272536166 220 222 219
-1313.25811880993 490.651385295126 2705.84813995883 218 220 215
-1312.44664108951 490.888978924458 2698.70112348527 217 219 214
-1309.64063521669 491.643118503642 2691.84548018402 216 218 215
-1300.85118852051 493.94668077111 2685.84878688148 216 217 212
-1294.05741593451 495.73351204025 2679.51573371567 183 180 175
-1282.27848423347 498.811375283016 2673.8467201653 179 174 168
-1269.50417216162 502.147100033303 2668.24932966714 201 191 182
-1239.78158043014 509.873024375726 2664.87790309165 125 113 101
-1210.06317270999 517.598194929563 2661.34214149944 100 86 75
-1201.28434339076 519.899353817765 2654.91857897343 101 85 72
-1204.46916608112 519.101080422971 2646.92136125869 111 97 86
-1199.67913873946 520.368611794835 2639.9337420603 102 91 85
-1279.68285149909 491.554798929416 2806.60964824134 222 226 227
-1281.86796514519 491.023341934599 2798.86284820646 227 231 232
-1290.04297058206 488.957790230377 2790.02143002273 214 218 219
-1301.21211118848 486.12528226872 2780.67847373395 223 227 228
-1309.38472593674 484.059946900492 2771.93072422742 233 237 236
-1314.56191665437 482.76172459349 2763.75370392233 232 234 233
-1319.73819385089 481.463568569934 2755.60313356815 232 234 233
-1325.91200638536 479.909735066266 2747.30838640982 232 234 233
-1330.08895877233 478.867249643417 2739.38124901151 232 234 233
-1336.26127672174 477.313453926528 2731.14495598711 230 232 231
-1337.44348550023 477.037843533394 2723.75237416707 230 232 231
-1332.63916406397 478.29585303581 2717.32251864122 240 242 241
-1327.83531721872 479.553679304828 2710.864592925 235 237 236
-1328.02043621569 479.53332454148 2703.60764585835 232 234 231
-1324.21538604835 480.53507750674 2696.95582079717 225 227 224
-1318.41583766629 482.047969872443 2690.57906891603 221 223 222
-1306.63281163354 485.093969549521 2685.04518817767 211 211 209
-1299.83786252249 486.861911082639 2678.7285105546 211 210 206
-1289.05506328515 489.651639910413 2672.93529962803 185 182 177
-1277.27642984388 492.696593328015 2667.21929301701 184 175 168
-1252.5368582074 499.063333353455 2663.19425040178 184 174 165
-1215.83581530561 508.495974627681 2660.62162889233 87 74 65
-1194.09484205877 514.094696468145 2655.9008202772 89 76 67
-1201.26806713741 512.282408130052 2647.37622169437 96 83 75
-1283.28505156792 483.193317415725 2813.28724817397 232 236 237
-1284.47162646926 482.920322701258 2805.7361564502 228 232 233
-1284.65938052461 482.900346753268 2798.37662891665 208 212 213
-1291.83638753618 481.109558700466 2789.72730464443 208 212 213
-1301.00933104413 478.812950145388 2780.7524051855 224 228 229
-1309.18255128346 476.769420550224 2772.00440435039 215 219 218
-1316.35649398214 474.97896815232 2763.47520444114 225 226 228
-1324.52783710153 472.93551503128 2754.80997485645 228 229 231
-1333.69590022026 470.639308624238 2746.01692492204 235 236 238
-1339.86879356404 469.101924978579 2737.77576551049 238 239 241
-1346.04087667391 467.564516964048 2729.56624668161 238 239 241
-1347.22246774001 467.291711861697 2722.20081930687 238 239 241
-1344.41262081445 468.030488837991 2715.47880247309 241 242 244
-1339.60780500049 469.2748255765 2709.05358817985 236 237 239
-1337.79659449184 469.760275907573 2702.13755991872 235 236 238
-1336.98347796842 469.99272092604 2695.05839014947 238 239 241
-1334.17529278785 470.730695384234 2688.2705648829 239 240 242
-1328.37503404786 472.227091571748 2681.90386392473 231 232 234
-1318.5859721641 474.734668461666 2676.07716355792 234 235 237
-1304.80893954199 478.253204443973 2670.75769254696 229 229 231
-1291.03386965695 481.771457966016 2665.36120768813 215 211 208
-1271.27741022418 486.806180917092 2660.69879441024 182 177 173
-1229.58641340339 497.402629893818 2658.84100644108 154 149 145
-1203.85455732835 503.953067058638 2654.67763034601 52 44 41
-1233.76007970023 488.138437359803 2837.77392379397 221 225 228
-1271.90625100665 478.607047355311 2822.86805412224 237 241 244
-1285.07856235892 475.333417208218 2812.9769263983 227 231 232
-1289.26089871983 474.312365676043 2804.86237870808 209 213 214
-1295.44001480205 472.790850922699 2796.39505191594 213 217 218
-1304.61396642892 470.518701825958 2787.40701436013 218 222 223
-1309.79261154478 469.24770421468 2779.19305812682 229 233 234
-1313.97248658848 468.226884686565 2771.18428113596 232 236 235
-1319.14984926954 466.955988419731 2763.02055571347 239 240 242
-1330.31616650814 464.183714131994 2753.84329591135 240 241 243
-1343.47746026887 460.91115659078 2744.38392551339 241 242 244
-1349.65011561357 459.390101469589 2736.16960024251 239 240 242
-1354.82397491822 458.119354518332 2728.152284018 240 241 243
-1354.00895279041 458.349729179082 2721.13604409098 242 243 245
-1356.18809798647 457.829404184342 2713.63446444403 239 240 244
-1357.36897078846 457.559131047256 2706.29982794802 236 237 241
-1357.55201491939 457.539028577049 2699.12424472705 233 234 238
-1361.72609925353 456.517950129135 2691.34151071806 234 235 239
-1356.92058597969 457.748431229073 2684.91935366704 235 236 240
-1351.11828111681 459.228626837995 2678.61522734587 236 240 243
-1340.3294437836 461.959283919956 2672.9945794322 240 241 245
-1332.53423081295 463.939332149691 2666.89126052853 234 234 236
-1318.75616486819 467.419611002293 2661.57109778703 238 238 238
-1308.96918077314 469.899146001181 2655.63308101649 246 245 243
-1300.18075052489 472.128077194575 2649.50720352007 234 230 227
-1226.36769925999 482.398658785484 2846.74572050442 224 228 231
-1264.52006815824 472.970168854143 2831.71743843564 246 250 253
-1280.69143066198 468.988896050328 2821.18700059152 244 248 251
-1289.86884742357 466.74085237964 2812.08941611684 235 239 240
-1296.04850812665 465.23576102559 2803.60911304772 233 237 238
-1303.22644476232 463.48301449852 2794.9736266937 233 237 238
-1312.40028212891 461.235446747528 2786.00712359284 231 235 236
-1317.57898660784 459.978054521005 2777.8147804477 227 231 232
-1322.75677769829 458.720788561672 2769.64894647646 228 232 231
-1327.93413301737 457.46345542465 2761.50939661802 233 237 238
-1333.11057508057 456.206308538563 2753.39641515645 235 239 240
-1344.27624437658 453.464033083768 2744.28601442023 238 242 243
-1353.44367384429 451.21685087873 2735.5703681754 237 241 242
-1360.61399003085 449.464692674892 2727.2333470672 233 237 238
-1361.79469692852 449.197464658719 2719.90846430308 232 236 237
-1367.96536213491 447.692724378929 2711.78943815185 233 237 240
-1370.14333167532 447.177877150693 2704.33036401589 234 238 241
-1373.31905864143 446.415335868858 2696.72700510508 234 238 241
-1374.49896333779 446.147718095732 2689.44238144458 232 236 239
-1375.67850666233 445.8798995701 2682.16234110547 230 234 237
-1371.86982042612 446.84906991185 2675.61764149985 224 227 232
-1365.06871984935 448.560430662453 2669.48063238053 228 233 237
-1360.26395054436 449.776486046766 2663.02323401557 235 239 242
-1357.45462474518 450.497538702963 2656.26181874755 235 236 238
-1354.64572823946 451.218236992832 2649.4832447133 234 234 234
-1351.83726342998 451.938640295725 2642.6874817597 238 238 238
-1342.04865764723 454.390518118994 2636.78315001758 235 233 234
-1330.26728126942 457.336747084515 2631.07766894341 238 238 238
-1223.96953551952 475.395803354347 2854.73881664989 229 233 236
-1253.13547916156 468.2740444846 2841.40652339537 239 243 246
-1277.30211129528 462.377223185021 2829.22042723217 231 235 238
-1291.47574436519 458.929196767556 2819.11508658353 210 214 215
-1298.6551807967 457.195440240333 2810.43204822362 192 196 197
-1298.84187694042 457.175745938524 2803.11416995123 181 185 186
-1306.01989485793 455.442187002946 2794.48678419094 202 206 207
-1317.19191977838 452.729309367559 2785.15954874907 212 216 217
-1328.36219877229 450.01671962563 2775.89153449364 225 229 230
-1332.54112559052 449.017942592271 2767.93416018443 230 234 233
-1336.71975146831 448.01912250444 2759.99782622925 233 237 238
-1338.90068128935 447.509969222573 2752.42916779236 234 238 239
-1346.07319373062 445.776735639513 2744.01730445451 235 239 240
-1356.23960587773 443.309322003264 2735.13897352447 234 238 239
-1364.4083770634 441.331374177331 2726.64459855972 230 234 235
-1367.5852548382 440.577349317712 2719.00540633728 229 233 234
-1375.75195012316 438.599417119461 2710.58285675521 231 235 238
-1381.92170130337 437.11106530369 2702.51715058356 232 236 239
-1384.09896826485 436.601503605862 2695.10053564969 232 236 239
-1384.28016112463 436.581413844324 2687.99732016392 230 234 237
-1385.45908887437 436.316340021339 2680.74428567106 229 233 236
-1379.65387622318 437.764239270137 2674.51912844618 225 230 234
-1378.83788564029 437.988206511444 2667.54318409328 222 227 231
-1378.02181331761 438.212078611391 2660.56100747078 229 233 236
-1381.19613198826 437.456754429498 2653.02043879136 235 236 238
-1377.38797875883 438.414259212225 2646.44238185558 236 236 236
-1372.58309073526 439.616001650038 2639.9742552844 236 236 236
-1364.78674273672 441.551517826729 2633.86748211405 232 232 232
-1355.99435804896 443.731265860254 2627.84334872342 231 233 232
-1350.19499407689 445.176644584162 2621.39622330043 232 234 233
-1347.38754747952 445.887713933583 2614.55064300998 236 240 241
-1219.5720581099 468.865816781223 2863.15409865568 226 230 233
-1244.74525035839 462.791283991305 2850.54549523297 234 238 241
-1263.9200948166 458.170090793427 2839.27529108809 227 231 234
-1279.09591221888 454.517725888352 2828.89919868392 219 223 226
-1291.27227807201 451.592139411141 2819.1892870573 202 206 207
-1301.44919138677 449.151039304097 2809.92878755845 205 209 210
-1302.63474889484 448.889118877533 2802.42934980581 208 212 213
-1307.81524994758 447.658920268908 2794.18666395682 215 219 220
-1318.98772686868 444.976054996072 2784.86466293851 219 223 224
-1334.1536810002 441.324935536228 2774.87539858686 227 231 232
-1342.32695633278 439.368658971245 2766.21893010061 232 236 235
-1348.50216875255 437.89661885666 2757.95729401679 232 236 235
-1348.68557908714 437.877079102158 2750.76800248893 230 234 233
-1355.85792800061 436.16303513155 2742.38313471142 228 232 231
-1360.03448507993 435.175089093214 2734.53933228443 228 232 231
-1368.2033480554 433.219026918472 2726.05554419489 227 231 232
-1368.38551312873 433.199278516512 2718.91469776139 226 230 231
-1378.54912696124 430.759018252904 2710.17488986026 224 228 229
-1382.72288101386 429.770981328632 2702.4312170521 222 226 229
-1386.89609725617 428.782847508576 2694.70845969499 221 225 228
-1385.08135793476 429.246667012238 2687.91644893261 222 226 229
-1389.25391426764 428.258348764555 2680.2192850978 223 227 230
-1387.43911021344 428.721888541961 2673.42017918017 214 219 223
-1386.62249363409 428.943201546028 2666.46585102211 221 226 230
-1388.79902743048 428.438336466305 2659.08293358674 224 228 231
-1390.97505834613 427.933308307778 2651.71017058282 218 222 223
-1389.16104323323 428.39591468269 2644.88855267893 226 228 227
-1384.35471200966 429.584180076321 2638.45303596274 234 236 235
-1380.54663926116 430.530139775286 2631.85943733211 223 225 224
-1370.75523099685 432.92748615456 2626.00608461263 225 229 228
-1365.95130841296 434.11475018547 2619.47535472778 228 232 231
-1365.13696690636 434.333897005147 2612.42978296324 230 234 233
-1371.30246207416 432.859282261334 2604.54516631022 227 233 231
-1365.50266350193 434.287434318227 2598.08720511055 223 225 224
-1236.35295121903 457.26435735347 2859.7272855649 232 236 239
-1251.53357294571 453.652309736911 2849.19738833095 226 230 233
-1265.7131860011 450.279992677253 2838.94894479941 231 235 238
-1281.88887661018 446.429132499807 2828.38005185099 229 233 236
-1293.06712479961 443.775517388077 2818.87322103222 219 223 224
-1304.24363008944 441.122189363951 2809.42549223177 223 227 228
-1304.42990976523 441.102485899661 2802.1238811312 229 233 234
-1312.60764569961 439.167585822767 2793.32535408871 226 230 231
-1322.78183351762 436.754039835524 2784.20096193651 224 228 229
-1336.94969912001 433.383052845963 2774.40375290194 226 230 231
-1344.12473996049 431.687918436878 2765.93397892272 228 232 231
-1353.29619232527 429.514145726965 2757.14925017465 224 229 225
-1356.47497649271 428.776478684202 2749.45311328712 223 228 224
-1363.64729782497 427.081468095103 2741.08976005822 222 227 223
-1367.82336533849 426.104518976305 2733.26757441565 223 227 226
-1375.99227631967 424.170170916897 2724.8052250414 220 224 223
-1379.16877672404 423.432451667314 2717.19828947061 218 222 221
-1384.34140977742 422.215988304293 2709.28718492994 218 222 223
-1386.51865750164 421.71747836831 2701.87386359736 217 221 222
-1386.69963090908 421.697447031229 2694.77928780096 216 220 223
-1390.87285247493 420.720052068425 2687.07717772747 216 220 223
-1392.05145074095 420.460407658764 2679.84285028555 217 221 224
-1393.22992842132 420.200675314334 2672.61314133082 210 215 218
-1390.41712426409 420.897806122056 2665.96198690716 222 227 230
-1393.59119260165 420.15905382449 2658.44899572485 222 226 229
-1394.76967916503 419.898655770331 2651.22754959215 213 217 218
-1394.95028402072 419.877342114081 2644.14600121903 216 220 219
-1389.14571422347 421.291339511203 2637.85931783815 219 223 222
-1388.32914300481 421.508742336044 2630.88969358957 212 216 215
-1382.52616054027 422.921953890449 2624.54945275823 220 225 221
-1380.71300097565 423.377913591073 2617.67793558825 226 231 227
-1378.90013551465 423.833674954849 2610.79471087176 227 232 228
-1384.06801096211 422.614697001814 2603.06685007866 221 227 223
-1378.26686107977 424.026523520229 2596.64417365332 212 214 213
-1369.47542517937 426.15560295821 2590.52855433029 211 213 212
-1241.95187652861 448.379139731787 2866.02924705121 237 241 242
-1247.13950436326 447.175072666993 2857.53607991588 227 231 232
-1253.32602997803 445.734291535057 2848.86584846853 221 225 226
-1264.50829543772 443.110219762046 2839.22440538496 213 217 218
-1277.68767943483 440.01290323277 2829.24616618313 203 207 208
-1288.86703572445 437.389242714043 2819.72818990501 209 213 214
-1301.04369911767 434.529057805895 2810.07687254859 211 215 216
-1308.22355731964 432.852507183383 2801.43877323285 208 212 213
-1318.3994512752 430.466115736416 2792.27685576882 209 213 214
-1327.57513031252 428.316365747613 2783.35272776332 211 215 216
-1337.74835786373 425.93014400192 2774.29520483031 217 221 222
-1344.92385556421 424.253974021352 2765.82793772199 217 221 222
-1355.09455608241 421.867944891366 2756.86938680903 210 214 215
-1364.26531739813 419.718603854265 2748.13789950078 215 219 218
-1373.4348521446 417.569289269555 2739.45437917001 209 213 214
-1375.61343024195 417.076607112456 2731.99531966718 219 223 224
-1378.79034685537 416.346999665925 2724.38082703435 213 217 216
-1383.96368617148 415.144152656989 2716.45673949204 210 214 213
-1389.13611272322 413.941371730036 2708.55907210861 214 218 219
-1392.31155945852 413.211675454494 2701.00193202671 213 217 218
-1390.4959514885 413.664802750178 2694.23239059176 213 217 220
-1392.67269412819 413.171408863156 2686.84430293174 213 217 220
-1392.85328659517 413.150998790875 2679.76420895179 213 217 220
-1396.02776147582 412.420781003058 2672.24449235669 209 214 217
-1395.21037405261 412.63659741802 2665.3143896328 217 222 225
-1400.37980036427 411.432994726027 2657.53309967708 214 218 221
-1399.56230834046 411.6484188553 2650.60666390083 209 213 214
-1401.73800124952 411.153980882083 2643.26780707928 206 210 211
-1397.92778822442 412.078483392519 2636.73481879579 200 204 203
-1398.10821935166 412.056675816285 2629.6595299993 217 221 220
-1392.30385493612 413.453633144019 2623.34652327542 222 226 225
-1391.48717502165 413.667763859068 2616.3776338958 225 229 228
-1385.68439945229 415.063934941159 2610.01101013739 218 222 221
-1386.86297314399 414.80447713103 2602.77784350145 207 213 211
-1380.06405919903 416.436447591104 2596.47945484434 212 214 213
-1375.26021259772 417.595062306807 2589.91499386865 204 206 205
-1360.48688236587 421.117883432574 2584.43072401521 200 202 201
-1251.55124079659 438.589718558993 2871.45130382766 231 235 236
-1253.74000311178 438.101227263945 2863.5987096364 232 236 237
-1254.92926927706 437.846842192281 2855.96241559607 221 225 226
-1260.11604446714 436.65644639276 2847.51725191576 216 220 221
-1268.30063793205 434.764254780615 2838.49656588484 208 212 213
-1281.48048599756 431.702409134597 2828.52895039688 197 201 202
-1290.66175435585 429.576559167314 2819.41203436771 199 203 204
-1303.83855210127 426.514982296586 2809.57324933429 200 204 205
-1314.01614876961 424.155566244516 2800.37374805766 204 208 209
-1323.19338709212 422.030249016002 2791.41491180171 209 213 214
-1333.3683191348 419.671122229766 2782.31986391797 210 214 215
-1339.54623490524 418.247818102861 2774.00490047505 215 219 220
-1345.72333919353 416.8246099775 2765.72175564482 215 219 220
-1355.8947251112 414.465707042067 2756.76554296472 207 211 212
-1367.06338676763 411.872985789358 2747.68944541273 211 215 216
-1376.23339057446 409.748154137614 2739.01388046613 209 213 214
-1377.41340552002 409.49467464391 2731.73080369213 214 218 219
-1380.59040827463 408.773206854836 2724.12168410038 200 204 205
-1386.76235718846 407.350110836833 2716.04014953568 205 209 210
-1389.93835799068 406.628549681702 2708.47008946483 201 205 208
-1394.11219086246 405.673082117258 2700.75830660132 203 207 210
-1395.29077310345 405.419203802641 2693.53079666178 200 204 207
-1399.46373694248 404.463487447049 2685.85271147555 204 208 211
-1398.64582621211 404.676862362154 2678.94043991403 208 212 215
-1400.82216202255 404.18861524951 2671.58310354851 206 210 213
-1401.00223658052 404.167862906949 2664.52288374286 217 221 224
-1402.18014067263 403.913084791977 2657.3209120747 200 204 207
-1402.36017936002 403.891861846792 2650.26158891877 194 198 201
-1401.54256265537 404.104318217194 2643.33683955103 187 191 194
-1401.72270497613 404.082707567561 2636.27304975682 198 202 205
-1401.90286190109 404.060852953679 2629.20842723009 219 223 226
-1400.08786556215 404.506258150842 2622.3973649509 222 226 229
-1399.27079852609 404.717667898084 2615.45000884707 225 229 232
-1393.46678024445 406.097547684192 2609.10513746219 190 194 197
-1390.65561759089 406.77581562881 2602.36957389881 177 181 184
-1382.85871701142 408.622467532989 2596.19830668165 212 214 211
-1379.05140823601 409.533716022549 2589.52825432404 204 206 201
-1368.26510041819 412.080701594443 2583.61153186433 205 207 204
-1355.48614429164 415.094700220377 2577.8502023781 204 206 203
-1231.15857596279 435.793518307442 2883.24575934014 218 222 223
-1242.34691708974 433.228388239573 2873.43014519612 231 235 236
-1250.534650727 431.35739075053 2864.30016218025 227 231 232
-1257.72174775989 429.717925327221 2855.41896350599 216 220 221
-1268.90629723441 427.153381436506 2845.76149445411 213 217 218
-1278.09028116471 425.051656393056 2836.56434794913 208 212 213
-1283.27518376782 423.875263415552 2828.20740660637 197 201 202
-1288.45965705126 422.698981599883 2819.87668870907 197 201 202
-1300.63812895252 419.904036074331 2810.22473761827 195 199 200
-1314.81346629745 416.646716602133 2800.25755442771 198 202 203
-1327.9878171625 413.620902304386 2790.55280105174 210 214 215
-1334.16692884773 412.213845048519 2782.20854175518 211 215 216
-1343.34224994977 410.113165896441 2773.35109158544 211 215 216
-1350.51838743322 408.474997702749 2764.8996229346 211 215 216
-1359.69138884688 406.374455965337 2756.13298176806 204 208 209
-1369.86188247104 404.042799155981 2747.24089780128 206 210 211
-1377.03482067805 402.404882510228 2738.91473804923 209 213 214
-1378.21483981248 402.153982720443 2731.63426744703 209 213 214
-1381.39200464673 401.44075440995 2724.02766013905 194 198 199
-1384.56876837397 400.727272771262 2716.43645747834 202 206 207
-1391.73886684602 399.089211858031 2708.22112950285 196 200 201
-1394.91456064758 398.37571496876 2700.67172686892 199 203 206
-1399.08808768064 397.430892179949 2692.98332678225 196 200 203
-1401.26474950901 396.94832010078 2685.61934192052 199 203 206
-1401.44472243859 396.927834890788 2678.56338093111 202 206 209
-1402.6227384797 396.676087943314 2671.36028854195 202 206 207
-1406.79497998585 395.730763996382 2663.73091798362 216 220 221
-1406.97465722047 395.709757318309 2656.68595386507 189 193 194
-1407.15435132949 395.688506071595 2649.64006763789 194 198 199
-1401.34710075091 397.053701453383 2643.40575863216 191 195 196
-1405.51819670018 396.107605278685 2635.81100645802 208 212 213
-1406.69568919207 395.854677295834 2628.62710808173 220 224 225
-1407.87329338886 395.601356324381 2621.44774671796 222 226 227
-1401.07006548708 397.196426340599 2615.26901679501 220 224 225
-1397.26050102458 398.09782890841 2608.68587749897 173 177 178
-1395.44640717674 398.536808739408 2601.84196846587 170 174 175
-1389.64308490452 399.899637875172 2595.451586947 215 217 214
-1384.83780067298 401.030966547261 2588.9140158887 200 202 199
-1375.04737525201 403.317016024607 2582.90274820552 198 200 197
-1363.26424731655 406.064508080245 2577.05233568449 208 210 207
-1233.95015715055 427.609442745432 2882.67815148944 224 228 229
-1243.13958444617 425.531356485802 2873.29364091613 227 231 232
-1256.32680893435 422.539146616596 2863.12182359894 222 226 227
-1261.51475749628 421.375803983265 2854.66917287679 211 215 216
-1275.69853299901 418.15555051057 2844.41199586341 212 216 217
-1284.88270751221 416.07838253871 2835.23376821049 211 215 216
-1289.06808293302 415.144209753221 2827.09372723861 202 206 207
-1292.25357540843 414.438607511739 2819.16983515128 202 206 207
-1302.43410970922 412.133206770254 2809.91351850242 198 202 203
-1313.6124924614 409.599597067818 2800.52095628293 201 205 206
-1325.78874936764 406.837528350176 2791.00020024294 217 221 222
-1331.96844967057 405.446699587962 2782.65036063373 213 217 218
-1345.14083743343 402.456278991484 2773.06033512265 206 210 211
-1356.31333798933 399.923154954207 2763.89819098065 205 209 210
-1365.48660401304 397.847090561203 2755.14748982403 203 207 208
-1370.66298068385 396.685031258403 2747.13916184736 196 200 201
-1374.83996036394 395.75147314369 2739.32791549347 205 209 210
-1379.01664035184 394.817751604089 2731.53753146361 200 204 205
-1386.18854826853 393.198775175251 2723.27197557309 186 190 191
-1389.36519292991 392.493427806926 2715.69416037123 190 194 195
-1393.53989009517 391.559697114978 2707.97193730407 186 190 191
-1392.72191739168 391.767986909906 2701.05662785623 190 194 195
-1396.89588627638 390.833969954573 2693.36256114835 189 193 194
-1401.06932139965 389.899975063623 2685.68937937729 193 197 198
-1403.24587569313 389.422533232488 2678.33510581712 196 200 201
-1404.42383262283 389.173502879369 2671.13724057641 193 197 198
-1406.59993484301 388.695701250616 2663.80024928372 210 214 215
-1407.77757893815 388.446274030568 2656.61418457655 177 181 182
-1406.95931273201 388.653321545169 2649.70901236376 197 201 202
-1405.14314384228 389.088595594156 2642.93289938478 196 200 201
-1408.31651411603 388.381719199032 2635.48141684364 209 213 214
-1411.48948252604 387.674589677179 2628.04536874178 203 207 208
-1411.66896614668 387.652314125577 2621.00660931002 219 223 224
-1406.86026462403 388.771588463178 2614.58965481074 212 216 217
-1402.05250987975 389.890427549004 2608.14455438126 162 166 167
-1398.24287129852 390.780566268078 2601.55221764888 194 198 199
-1393.43623054501 391.898691779796 2595.05348763188 207 209 208
-1389.62780256375 392.78808806936 2588.413039295 185 187 184
-1380.83347806263 394.818544989542 2582.30442323087 199 201 198
-1369.04879576118 397.53344351985 2576.4704395122 198 200 199
-1347.29473321187 402.530534915565 2571.62454653404 194 196 195
-1220.55119963149 423.076052425337 2893.05414404239 221 225 226
-1232.74253387757 420.344543798393 2882.96760161396 224 228 229
-1242.93254465271 418.065009160038 2873.36868454833 222 226 227
-1261.12008186831 413.978796809251 2862.1521270428 218 222 223
-1269.30716715772 412.151545758593 2853.09445526324 210 214 215
-1282.4918071729 409.195195112495 2843.06215097634 212 216 217
-1290.67660697219 407.368249293819 2834.10345659059 209 213 214
-1291.86314293496 407.122396691439 2826.57370504254 199 203 204
-1293.0495608475 406.876575517388 2819.04860105152 201 205 206
-1298.23376262306 405.727494595091 2810.757700847 196 200 201
-1313.41063358965 402.320390266872 2800.59444862987 205 209 210
-1326.58701046379 399.365039123083 2790.88616970813 218 222 223
-1330.76855982132 398.442148201938 2782.90777814046 211 215 216
-1342.94291754239 395.712875349917 2773.49646251067 205 209 210
-1356.11464168381 392.757922629296 2763.97045629785 203 207 208
-1367.28646490446 390.254748366353 2754.86694252489 200 204 205
-1371.46444856833 389.331903313316 2747.03728465591 193 197 198
-1375.64165946329 388.409087071486 2739.22853541985 203 207 208
-1379.81833268054 387.486233917615 2731.4407608578 194 198 199
-1385.99203787521 386.111945967086 2723.34299109751 185 189 190
-1391.16609616589 384.963287940536 2715.4396627057 185 189 190
-1393.34390742946 384.491693430259 2708.04254080241 182 186 187
-1393.52431640835 384.471512264877 2700.96986395522 186 190 191
-1394.70312728247 384.225495596112 2693.74185947077 185 189 190
-1399.87555560047 383.076368093656 2685.91105675903 190 194 195
-1403.05057696078 382.378595161132 2678.40481863261 194 198 199
-1405.22678737991 381.906469671694 2671.06036836289 191 195 196
-1407.40297431412 381.434107223137 2663.72590632541 204 208 209
-1409.57866366471 380.96158028553 2656.40139017514 176 180 181
-1408.76018690809 381.165862959347 2649.50147833146 198 202 203
-1409.93766462319 380.918580701124 2642.32421942756 199 203 204
-1413.11091658783 380.2198383749 2634.88609455323 202 206 207
-1416.28376744545 379.520842720481 2627.46337432617 200 204 205
-1417.46083592953 379.272826009231 2620.3106457772 222 226 227
-1411.65372217732 380.604014182085 2614.03447480117 203 207 208
-1404.84990815539 382.160464799088 2607.84651073583 164 168 169
-1400.04204304282 383.265231926808 2601.38128970854 202 206 207
-1396.23254071441 384.14405079025 2594.77147335484 193 195 194
-1392.42360767489 385.022478016588 2588.13898670895 182 184 181
-1383.62840218587 387.02844163254 2582.03850368027 199 201 198
-1369.8482037616 390.161657878765 2576.42903652832 191 193 192
-1352.08095320842 394.196537180249 2571.16421783833 198 200 199
-1209.14849925259 418.025478927775 2903.06117959717 214 218 219
-1215.34174017231 416.665136087997 2894.21485921244 214 218 219
-1235.53492246083 412.180896702377 2882.39969725172 224 228 229
-1247.72554675859 409.482164292329 2872.38541942874 212 216 217
-1261.9142246085 406.337430058314 2862.01772844751 205 209 210
-1270.10183945052 404.531884959597 2852.96266609664 205 209 210
-1283.28738899685 401.610883466614 2842.93276937974 207 211 212
-1290.47308075718 400.028747109283 2834.1773739489 203 207 208
-1290.6601182808 400.008661827184 2826.84573356305 195 199 200
-1291.84667988617 399.76550325523 2819.31787245583 205 209 210
-1299.03018352314 398.18365247864 2810.63897831236 200 204 205
-1320.2047669064 393.47876389608 2799.33850754873 214 218 219
-1334.38116735096 390.335614588097 2789.46168665932 214 218 219
-1337.56299956736 389.646654918852 2781.68939489783 204 208 209
-1347.7394683314 387.39605045272 2772.66013431723 203 207 208
-1358.91341670033 384.922560015636 2763.50543459351 202 206 207
-1370.08585864172 382.449230556237 2754.40978412219 190 194 195
-1375.26288311438 381.314184284168 2746.41446710518 191 195 196
-1378.44124044498 380.625246307393 2738.7873339985 200 204 205
-1383.61681674577 379.490228600872 2730.8393224383 183 187 188
-1385.79550417159 379.024162659998 2723.41389323132 185 189 190
-1391.96884508656 377.665936758184 2715.34760697421 182 186 187
-1392.14930400977 377.645742296201 2708.27296385289 180 184 185
-1396.32413870142 376.733461810436 2700.5683973573 182 186 185
-1396.50435783419 376.713031092245 2693.50287240333 179 183 182
-1402.67541507975 375.354452863427 2685.52546155608 184 188 187
-1403.85357766803 375.110769472575 2678.32529962244 189 193 192
-1404.03336578339 375.089913332041 2671.27616353608 192 196 197
-1404.21317139727 375.068752437659 2664.2260163261 195 199 200
-1406.38945889793 374.601464834633 2656.89307278129 175 179 180
-1409.56329308742 373.911153362901 2649.43192015656 197 201 202
-1414.73315082298 372.774714032491 2641.71520829374 207 211 212
-1416.90838020152 372.306927884045 2634.42308452741 194 198 199
-1418.08527457712 372.061901594118 2627.27104683656 224 228 229
-1412.27720897575 373.37695797587 2621.01475634869 202 206 207
-1409.46332103895 374.022940991369 2614.35104122479 151 155 156
-1405.65223926409 374.891496957638 2607.79193560077 192 196 197
-1401.84172766749 375.759721069083 2601.21018911548 201 205 206
-1394.04136091427 377.519010881223 2595.0712645013 173 175 174
-1390.2322702892 378.386436556264 2588.43312422653 193 195 192
-1384.42881307014 379.699185712613 2581.99424487239 194 196 195
-1375.63436640568 381.679976248115 2575.84640022442 197 199 198
-1362.85187232419 384.551651307838 2570.07053018929 192 194 193
-1343.09050361241 388.982572329695 2564.94234774494 184 186 185
-1201.93707467027 412.011249803616 2904.6752354395 214 218 219
-1223.13415690833 407.360510472959 2892.55357278562 216 220 221
-1243.32852723821 402.930508977387 2880.75953931058 219 223 224
-1254.51926784012 400.484898237546 2870.97847602226 209 213 214
-1262.70850219437 398.700888950604 2861.88324101952 204 208 209
-1268.89693832979 397.357790348231 2853.2432237835 203 207 208
-1281.08374904251 394.692423490579 2843.4138194354 209 213 214
-1289.26958020047 392.908900097993 2834.45211484908 188 192 193
-1290.45656888811 392.668265527469 2826.91959675371 194 198 199
-1292.64277686063 392.207342805183 2819.19643613276 201 205 206
-1300.82648460177 390.424141515102 2810.3273926683 196 200 201
-1325.00105810563 385.115073212575 2798.46200415107 210 214 215
-1340.17729807561 381.789702761504 2788.41117300937 203 207 208
-1345.35801228614 380.668018728976 2780.28599559815 199 203 204
-1351.53728299052 379.326039806092 2772.00539738385 201 205 206
-1359.71406498896 377.543485100107 2763.39840540033 198 202 203
-1370.88750603488 375.099896039983 2754.30496420155 192 196 199
-1377.06361755692 373.758041088031 2746.13864609923 193 197 200
-1379.24310760934 373.297463274789 2738.68774019272 194 198 199
-1381.42234300191 372.836773202101 2731.24666674015 183 187 188
-1381.60345640481 372.816704594245 2724.14657941778 180 184 185
-1385.77980287378 371.915245192542 2716.39454627419 176 180 181
-1388.95693781139 371.234045004146 2708.82349676123 174 178 177
-1396.12833782195 369.671651710164 2700.63854621339 175 179 178
-1399.30440161302 368.990226529543 2693.10911923885 180 185 181
-1402.48007012464 368.308786545459 2685.59512525923 181 186 182
-1402.65990956518 368.287856721653 2678.54390409171 181 186 182
-1401.84120315972 368.487132060148 2671.63826644122 186 190 189
-1404.01790337099 368.025346362917 2664.29510025906 192 196 195
-1407.19253379442 367.343222442663 2656.82094400413 174 178 177
-1413.36136005034 366.000242929086 2648.94747666012 195 199 198
-1416.53498180447 365.317727335764 2641.5123221475 196 200 199
-1416.71402678564 365.295688600566 2634.49096054042 199 203 202
-1415.89494054376 365.493714633719 2627.59882680517 203 207 206
-1410.08656433798 366.792258440092 2621.33694588167 178 182 181
-1407.27283120613 367.42994448756 2614.66759658709 160 164 163
-1407.45263533811 367.406743340027 2607.61531662799 201 205 204
-1404.63931973817 368.043781192454 2600.91962796966 187 191 190
-1399.8310729957 369.120801082075 2594.43952951376 180 182 181
-1391.03332306977 371.077986402979 2588.3861175174 188 190 189
-1386.22701182314 372.154157768477 2581.83878688766 192 194 193
-1379.42646260067 373.670126630467 2575.47975695875 193 195 194
-1373.62418378833 374.965516651432 2568.97618248511 195 197 196
-1360.84176918574 377.801219141124 2563.15858156391 189 191 190
-1188.52866174176 407.286398350783 2915.20587714219 207 211 212
-1203.7277673165 403.998631157576 2904.31107922628 205 209 210
-1227.92714410263 398.751741345871 2891.543054989 210 214 215
-1247.12229671998 394.593890312545 2879.97663876454 212 216 217
-1257.31351891517 392.395839123792 2870.4178658596 202 206 207
-1264.5031440485 390.851190955518 2861.53966772839 197 201 202
-1269.69172545014 389.742120255173 2853.11123167139 199 203 204
-1280.87950678407 387.32700365077 2843.48789386968 201 205 206
-1287.06635767185 386.000472210672 2834.92762214588 184 188 189
-1292.25243968068 384.891766824575 2826.59726326469 191 195 196
-1297.43808934291 383.783173406167 2818.29324699708 197 201 202
-1308.62079847548 381.368690072799 2808.859503565 195 199 200
-1329.79784645264 376.77784174827 2797.58515557946 204 208 209
-1343.97566294015 373.710779718069 2787.73468748514 197 201 202
-1352.15459896898 371.94973855801 2779.06660812088 195 199 200
-1360.33244490559 370.188807554373 2770.44125161422 195 199 200
-1366.51073176552 368.863145654549 2762.21662541201 193 197 198
-1372.68820770111 367.537489579188 2754.023699196 188 192 195
-1377.86577339628 366.429427828532 2746.03620322908 187 191 194
-1379.04608008266 366.191805722686 2738.75875065478 189 193 196
-1380.22626927663 365.95412486809 2731.48582701103 179 183 184
-1380.4074503876 365.933858177274 2724.38288073684 174 178 177
-1384.58416668603 365.043163764349 2716.62795199213 171 175 174
-1390.75808724427 363.717313869683 2708.57377413132 174 178 177
-1397.92987498699 362.173783369922 2700.39392308338 175 180 176
-1399.1088057638 361.935534120769 2693.17889723184 175 180 176
-1398.290055952 362.132300215199 2686.2722618182 176 181 177
-1398.47017449412 362.111236067562 2679.2099881678 178 183 177
-1400.64735716796 361.654993725214 2671.85391770428 181 185 184
-1404.82094685204 360.76351119168 2664.22034165668 190 194 193
-1407.9957351073 360.089417814221 2656.74863936529 174 178 177
-1415.16313933084 358.545103712915 2648.73927006172 189 193 192
-1417.33872656374 358.088145760411 2641.44478658976 201 205 204
-1418.51575924875 357.848484363016 2634.29310369686 202 206 205
-1414.70250338221 358.696042286164 2627.79642302572 206 210 209
-1409.89166405412 359.760728262175 2621.40440859067 170 174 173
-1406.07962105776 360.607543151422 2614.85952693893 144 148 147
-1408.25529095024 360.14927278303 2607.56040367346 198 202 201
-1405.44168455988 360.778075413825 2600.86723776536 181 185 184
-1401.63087041874 361.623842918251 2594.27320359346 186 188 187
-1393.82987704064 363.339095526014 2588.11148589215 189 191 190
-1395.0084555086 363.096978814252 2580.90607690722 191 193 192
-1391.19904692641 363.941715044625 2574.24667653146 191 193 192
-1387.39044492822 364.785963318384 2567.56455291702 192 194 193
-1372.61150163614 368.021047002306 2561.99071059741 191 193 192
-1356.83719553264 371.472847595977 2556.43430236003 187 189 188
-1199.32290478631 397.308082263691 2912.83327308492 203 207 208
-1214.52237309373 394.061091473245 2901.96808088023 202 206 207
-1232.72062857732 390.169491421727 2890.5322512414 209 213 214
-1249.91644047375 386.49327609427 2879.40781610808 210 214 215
-1261.10834751693 384.107433882845 2869.64533909703 198 202 203
-1271.29867768382 381.936748787656 2860.15081335135 193 197 198
-1275.48713977439 381.056191520487 2851.94770284703 199 203 204
-1282.67511765435 379.530887898442 2843.15465576759 198 202 203
-1287.86241241875 378.435540850243 2834.80056614032 183 187 188
-1296.0484259882 376.695482705213 2825.87840191587 189 193 194
-1305.23331681239 374.740592900925 2816.80347122706 193 197 198
-1315.41664067678 372.570872797109 2807.58381218778 195 199 200
-1333.59602148576 368.681893823856 2796.89780931865 202 206 207
-1344.77557866351 366.297628955154 2787.61970145989 195 199 200
-1355.95363230803 363.913464274538 2778.40046446242 194 198 199
-1366.13080168517 361.744362346537 2769.42200785522 194 198 199
-1370.31050047478 360.864724536527 2761.57170954014 192 196 197
-1373.48994813017 360.199987191628 2753.91862275002 189 193 196
-1376.66923875686 359.535228497908 2746.28097505078 186 190 193
-1377.84992712158 359.300142481312 2739.00065301027 187 191 194
-1378.03122559234 359.279874555502 2731.89311858256 177 181 182
-1380.21047253581 358.829777905105 2724.45364329364 171 175 174
-1384.38749124825 357.949836419352 2716.69844082721 168 172 171
-1392.55975189401 356.210435606246 2708.32381908409 171 175 174
-1396.73542338526 355.330402646244 2700.62117247084 172 177 173
-1397.91426022826 355.094762359339 2693.40329439214 172 177 173
-1396.09712731434 355.503371380141 2686.64555275268 172 177 173
-1397.27593309238 355.267379249318 2679.42851101745 174 179 173
-1402.44900945218 354.171976325897 2671.63006590257 178 182 181
-1408.61957920436 352.861636284925 2663.71417764831 187 191 190
-1411.79431794684 352.195628651301 2656.25309233732 170 174 173
-1415.96716410952 351.314544167407 2648.66906509452 182 186 185
-1418.1425976731 350.862971956714 2641.37704555885 199 203 202
-1418.32150729289 350.840669163325 2634.36069081866 198 202 201
-1415.50601121484 351.462382473032 2627.73376848474 172 176 175
-1412.69095150605 352.083859570726 2621.08953770224 130 134 133
-1409.87632329459 352.704951705828 2614.42802916594 134 138 137
-1410.05592705251 352.681533817851 2607.38334779999 174 178 177
-1406.24417326255 353.516688035626 2600.81464262953 168 172 171
-1404.42865895251 353.92210526175 2593.99021324009 193 195 194
-1396.62685516889 355.615336564786 2587.83652421272 189 191 190
-1396.80749181576 355.590593359017 2580.75005094461 190 192 191
-1391.00263603969 356.853658963987 2574.31248567212 189 190 192
-1387.19373784133 357.686882570553 2567.63010114774 185 186 188
-1376.40336954957 360.022331674287 2561.64494450857 192 193 195
-1361.6248821248 363.215883984674 2555.99936733688 191 193 192
-1180.90828578715 393.567643853679 2924.53064333491 202 206 207
-1199.11262774483 389.724119182308 2912.9085528445 199 203 204
-1210.31128184304 387.367087292649 2902.92263664242 200 204 205
-1226.51045250748 383.948892227973 2891.90994905505 208 212 213
-1238.70580242128 381.380226539438 2881.84130862691 204 208 209
-1256.90153746794 377.538149870746 2870.56648557733 192 196 197
-1268.09304440508 375.182303665447 2860.85185349744 187 191 192
-1278.28296780795 373.038945501241 2851.40256705278 201 205 206
-1283.47123707717 371.9569633363 2843.02474058348 193 197 198
-1288.65859763091 370.875166213511 2834.67330375885 182 186 187
-1294.84539793664 369.581238583525 2826.15001641723 188 192 193
-1305.03083630875 367.438444262125 2816.87662592274 188 192 193
-1318.21434981845 364.659239652382 2807.07855514295 197 201 202
-1333.395645784 361.455709114661 2796.97026528299 194 198 199
-1343.57643471554 359.313432378063 2787.87914677523 186 190 191
-1354.75538720433 356.959097943185 2778.65680925042 188 192 193
-1364.93337723708 354.816996172128 2769.67526926785 191 195 196
-1368.11381919133 354.160303619616 2762.00128450062 189 193 194
-1370.29455154548 353.71572025169 2754.51899874259 189 193 196
-1373.47403430947 353.058986102954 2746.87313300228 184 188 191
-1377.65277903345 352.189955578357 2739.07151216329 185 189 192
-1378.83318559587 351.957438511377 2731.79563748518 175 179 180
-1384.00987118621 350.876202643762 2723.86201784309 168 172 171
-1387.18794238053 350.219150940693 2716.28030495794 166 170 169
-1393.36255842837 348.925676221108 2708.23370692397 166 171 167
-1396.53963056462 348.268470362384 2700.69087516864 167 172 168
-1396.71977950864 348.247458139946 2693.62746905991 168 173 167
-1396.89994937593 348.226320309037 2686.56311032833 168 173 167
-1398.0787631265 347.992906874815 2679.34852580473 169 174 168
-1404.25070058439 346.698884872067 2671.40602871459 178 182 181
-1408.42461806617 345.8289519367 2663.78277949587 183 187 186
-1411.5995833705 345.170896528935 2656.32137785052 164 168 167
-1416.77107883255 344.088548495347 2648.59873703157 174 178 177
-1418.94683344959 343.642229371184 2641.30913476221 197 201 200
-1422.12029332405 342.98364759171 2633.89668056584 191 195 194
-1416.30988522806 344.233153475141 2627.67088459396 147 151 150
-1415.49066489405 344.422242359575 2620.77439562152 122 126 125
-1412.67560645453 345.03504636674 2614.12080273492 158 162 161
-1412.8550025363 345.011533720442 2607.0841363284 163 167 166
-1408.04488433717 346.047695584885 2600.64263546899 170 174 173
-1405.23105557591 346.659481997637 2593.93988988169 189 191 190
-1396.43086249094 348.542804107393 2587.9026563768 186 188 187
-1398.60704156108 348.093941210246 2580.59373370279 190 192 191
-1392.80159739359 349.340538185124 2574.16148205903 189 190 192
-1392.98254649297 349.314991567013 2567.06193442187 185 186 188
-1382.19093507114 351.620371978914 2561.09307816638 190 191 193
-1367.41090335055 354.77298229988 2555.46389707007 188 190 189
-1180.69663934232 385.934169516531 2924.60628274782 198 202 203
-1194.89981427467 382.977876780329 2913.87432953119 199 203 204
-1218.10629863532 378.135712937289 2901.23838257115 199 203 204
-1232.30501328279 375.180217532033 2890.68160885155 206 210 211
-1243.50072330126 372.853588840976 2880.84340209783 200 204 205
-1255.69498798115 370.317712387744 2870.85238292555 187 191 192
-1264.88693870227 368.41075884884 2861.55299727757 183 187 188
-1277.07836781404 365.875364083534 2851.68264391806 199 203 204
-1281.2667557449 365.016403407985 2843.50562058882 188 192 193
-1289.45515402821 363.319431126342 2834.5458405558 181 185 186
-1293.64220089698 362.460767460635 2826.42154948481 188 192 193
-1303.82845772082 360.345003892442 2817.14519460253 187 191 192
-1314.0133529845 358.229512781737 2807.9223467519 199 203 204
-1330.1957967119 354.857154038151 2797.61262132047 190 194 195
-1343.37679154535 352.113431020252 2787.9510865343 182 186 187
-1356.55600890851 349.36988112028 2778.35920732512 185 189 190
-1366.73461334051 347.254984465103 2769.38286524942 182 186 187
-1367.91597850267 347.025213144055 2762.0724733432 181 185 186
-1370.09685735766 346.585932468817 2754.59015544778 181 185 188
-1372.27724425771 346.146635853644 2747.11772295278 174 178 181
-1378.45486531338 344.869496554009 2738.97121851822 177 181 184
-1381.63388289345 344.220625572541 2731.36130142883 170 174 175
-1385.81162020894 343.362279689073 2723.60120116004 164 168 167
-1387.99073250785 342.922629054648 2716.18752916236 164 168 167
-1392.16754127398 342.064170263149 2708.46359858735 159 164 160
-1392.3479483963 342.043149325351 2701.39009261858 158 163 157
-1395.52512644245 341.393777765846 2693.85153340459 161 166 160
-1396.70413327236 341.1631038142 2686.63234411714 159 164 158
-1397.88302234463 340.932251146315 2679.41756531429 153 158 151
-1400.06065794326 340.491823280069 2672.0607733476 175 180 176
-1404.23515486934 339.63259952805 2664.42637613482 168 172 171
-1409.40784406227 338.563798089701 2656.6716254684 145 149 148
-1416.57669963726 337.07626574172 2648.6665001956 158 162 161
-1420.74930708511 336.216554708265 2641.10542713236 190 194 193
-1422.92481314984 335.775283336887 2633.83095903662 175 179 178
-1419.11031035063 336.58968259953 2627.34740959805 124 128 127
