ply
format ascii 1.0
comment KinectMotionCapture
element vertex 785
property float x
property float y
property float z
property uchar red
property uchar green
property uchar blue
end_header
-1323.08651502711 -548.387066673576 2610.30993725379 14 17 10
-1334.96943325634 -555.446922388171 2549.38774755795 9 10 5
-1345.21934915183 -559.61583613395 2514.86352040929 8 9 4
-1351.53055273022 -557.854401707379 2534.22646441557 8 11 4
-1358.85751227757 -557.657830766232 2539.35818864466 10 13 6
-1364.6569837345 -555.435594784991 2562.81476895139 12 15 8
-1376.58161172435 -561.424124377299 2511.96214461294 12 15 8
-1384.70280494159 -562.242075752911 2507.92752019395 12 15 8
-1392.01932559188 -562.044690488629 2513.06054499119 14 19 15
-1398.6461967687 -561.05362206659 2525.33183405402 17 22 18
-1131.78873793933 -549.790299469543 2584.80619241462 8 9 11
-1139.3182684696 -544.420873438875 2637.26367183026 18 20 17
-1146.96471323625 -545.001869342018 2635.30328366254 17 19 14
-1154.42194857666 -543.479752924542 2652.50822545053 18 21 14
-1162.30877208118 -546.49646442374 2628.35345576635 16 19 12
-1169.35300086995 -542.637155727809 2666.76689436085 17 20 13
-1177.20871639919 -544.991113208274 2648.66086455559 16 19 12
-1184.25343109819 -542.562243747944 2673.97711617072 15 18 11
-1191.74823325378 -542.912477330574 2674.05041859639 15 18 11
-1198.97293325554 -542.145242817777 2684.23207714971 13 16 9
-1206.39845058484 -542.380762966825 2685.32165118527 12 15 8
-1213.30417394797 -540.823061650737 2702.5955649647 11 14 7
-1222.17765475882 -545.990017066425 2659.17583239447 11 14 7
-1230.0881288128 -547.575557517728 2648.11523567497 11 14 7
-1234.86568670739 -540.163306867094 2718.0426473131 12 15 8
-1242.32582055278 -540.840344400053 2715.09783520217 12 15 8
-1249.97629920058 -541.969143566826 2708.09971049063 14 17 10
-1257.17887567756 -541.969687760246 2711.23186162212 15 18 11
-1263.34705252944 -539.705275878425 2734.64231860659 14 17 10
-1270.71668981276 -540.266099363009 2732.71642125297 12 15 8
-1281.39201218615 -547.523437963649 2670.93776534666 13 16 9
-1287.40367363108 -545.138996952265 2695.37512553437 12 15 8
-1295.61048071273 -547.071562067069 2681.25516051871 12 15 8
-1304.59015127361 -550.262099621009 2655.95678064927 12 15 8
-1312.76356277578 -551.862151114647 2644.86340910502 13 16 9
-1325.56992507797 -561.01039985382 2566.69959674395 14 17 10
-1333.08848893806 -561.139161624608 2568.78496507636 9 10 5
-1343.28153065039 -565.394184752345 2534.26806225552 8 9 4
-1351.24929137638 -566.100634643636 2531.25997876735 7 10 3
-1359.70739170894 -567.497449380098 2522.14615898849 8 11 4
-1365.3909729437 -564.981987350433 2547.63204397458 10 13 6
-1372.64397340876 -564.764014942422 2552.77270123115 10 13 6
-1384.71435994401 -570.894532901801 2501.90226100926 11 14 7
-1393.04767627585 -571.953191216729 2495.8264245764 10 15 11
-1404.68143272257 -577.06625785614 2454.07769847634 11 16 12
-1408.25129655707 -572.219887957391 2499.97640811119 6 10 9
-1131.25772518215 -556.173409384402 2597.99016271163 2 3 5
-1138.94563339246 -555.180358757113 2610.12903540541 19 21 18
-1146.38686248228 -551.464842852355 2646.47769491746 16 19 12
-1154.12756302441 -553.407310118893 2632.4159233193 20 23 16
-1161.45442644425 -551.037792830194 2656.68943364576 16 19 12
-1169.15347396254 -552.413248480685 2647.67004265352 17 20 13
-1176.76777303657 -552.993689573518 2645.71366461712 17 20 13
-1184.01201515531 -551.520822211151 2661.93762929742 18 21 14
-1191.16346143154 -550.042073082123 2678.17315886083 18 21 14
-1198.53618070041 -549.930256761875 2682.29170864728 14 17 10
-1205.41879978122 -547.983396499745 2702.5905421629 13 16 9
-1212.6289669634 -547.635673559452 2708.74413043347 13 16 9
-1221.10190697336 -551.651536276325 2676.45687078064 13 16 9
-1229.40805120755 -554.641788100911 2653.25738976597 13 16 9
-1235.01682742084 -549.457740616091 2701.92406749128 13 16 9
-1241.20725891945 -546.565199126905 2730.36900909889 13 16 9
-1248.95125265951 -548.054113809257 2720.33662077602 14 17 10
-1257.21951840187 -550.702966429748 2700.16426927386 15 18 11
-1263.01824041505 -547.447589531967 2731.68043995867 14 17 10
-1271.19204237377 -549.752005501337 2714.5422714799 13 16 9
-1280.23156083279 -553.688439736786 2683.19178411232 11 14 7
-1286.85848494087 -552.513828329374 2696.47027031392 13 16 9
-1293.89814491434 -552.266734633737 2701.63771478145 17 20 13
-1304.47983078057 -558.553207362164 2649.94577920509 17 20 13
-1313.5324770404 -561.700297461575 2625.64586508072 16 19 12
-1325.19959882031 -569.06809929234 2564.75141647111 14 17 10
-1329.34427701614 -563.680184661239 2614.60795519466 12 13 8
-1349.49821387884 -572.129353412974 2547.61857421786 9 12 5
-1360.31092262088 -577.075587037509 2507.98724486494 11 14 7
-1364.96217527403 -572.959198746755 2546.69863572408 11 14 7
-1373.24283430229 -574.140747907051 2539.62176687313 11 14 7
-1384.28320616487 -578.987840943744 2500.96969279242 10 13 6
-1395.15804645701 -583.373492954786 2466.36804954608 9 14 10
-1401.35269870705 -581.607341098949 2484.73783894773 12 17 13
-1130.66678020761 -558.206276029375 2648.45722157349 20 22 19
-1138.26619516508 -558.327198902287 2650.53247952348 17 19 16
-1145.9409546584 -559.954399343664 2639.50140829773 19 22 15
-1153.34415455238 -557.752202253448 2661.75021845018 19 22 15
-1161.16067862665 -560.542952561939 2640.62692822184 18 21 14
-1175.7341907183 -557.162867273342 2676.08640432548 18 21 14
-1183.10649095869 -556.806332176785 2682.21973614241 17 20 13
-1190.41662327732 -556.330251620295 2689.36843869666 17 20 13
-1197.55239139918 -555.265625824263 2701.5760267186 13 16 9
-1204.98994045687 -555.721225117439 2700.64906437105 13 16 9
-1212.70873566238 -557.233587968163 2690.61988242624 13 16 9
-1220.67929828623 -559.454444733573 2674.51454406293 13 16 9
-1227.95713641415 -559.206459083654 2679.65226295595 12 15 8
-1235.35925528307 -559.4280365394 2680.74472026345 12 15 8
-1242.41218264223 -558.703838184725 2689.94024126306 13 16 9
-1249.85845001965 -559.158858163251 2689.01218939516 13 16 9
-1257.92143814536 -561.153390316096 2674.91033532294 13 16 9
-1264.59652830636 -559.712397928333 2690.19772364618 13 16 9
-1271.44892687663 -558.859782514081 2700.42561836957 13 16 9
-1277.40675937588 -556.219324574393 2725.87694924692 12 15 8
-1288.1786986499 -563.693498059733 2665.09449424775 13 16 9
-1294.509910997 -561.884356308459 2683.44712854426 14 17 10
-1302.52052937337 -563.412741915781 2673.38157098833 16 19 12
-1313.76339361834 -570.684165877352 2614.55542786833 15 18 11
-1320.54731016735 -569.711097624045 2625.79923863303 13 16 9
-1330.9237367786 -574.849691130222 2585.21541445421 10 11 6
-1337.26668230284 -573.156314495357 2602.55896201596 9 10 5
-1346.8270509055 -576.627355789699 2576.18092579365 8 11 4
-1357.55780570006 -581.671745088304 2536.56032256708 9 12 5
-1365.9345758349 -582.990646794699 2528.46413423308 10 13 6
-1373.66647656183 -583.345891866631 2528.50786135633 9 12 5
-1384.99330207987 -588.657480829278 2486.79796122309 12 15 8
-1389.20088731409 -584.175984953143 2527.57913185173 9 14 10
-1394.86499500277 -581.863027569254 2550.0446787467 12 17 13
-1130.14142976424 -563.635141218111 2667.68457540433 20 22 19
-1137.69416676362 -563.86291225215 2668.75801250142 13 15 12
-1145.30451148422 -565.276580471646 2659.75003199411 14 17 10
-1152.98578148018 -567.049101768423 2647.71084389523 15 18 11
-1160.36707943047 -565.37346930577 2664.92485794153 19 22 15
-1167.81565839231 -565.002592916754 2671.04863285769 17 20 13
-1174.85273766893 -562.122709914945 2698.38026406542 15 18 11
-1182.75946163166 -565.209051037036 2675.23088138702 15 18 11
-1190.27467666533 -565.669389070962 2674.29423926414 15 18 11
-1196.96238251067 -562.294435217277 2705.69915512066 11 14 7
-1203.98973333105 -561.068859022465 2718.92753622191 12 15 8
-1212.15764165487 -564.525096314216 2692.72347209318 15 18 11
-1219.50972065311 -564.619873309411 2694.82928698566 15 18 11
-1226.14911920808 -562.423862723273 2716.16574422341 13 16 9
-1233.33664151845 -562.271641363769 2720.30729909019 12 15 8
-1241.92340867176 -566.225825852956 2690.02104625177 10 13 6
-1250.44162690874 -569.584348090788 2664.78069528596 12 15 8
-1256.38814295985 -566.044354108415 2697.28535971782 13 16 9
-1263.85770675989 -566.618354319433 2695.34678655737 13 16 9
-1270.32928298942 -564.88416763613 2712.67441456449 14 17 10
-1278.80914216223 -567.766656033798 2691.46858562645 13 16 9
-1286.98850621051 -569.802792955894 2677.35231809178 14 17 10
-1294.02034494756 -569.403367129293 2683.52802454032 12 15 8
-1301.96577105501 -570.833606684796 2674.47803122819 13 16 9
-1322.5272980917 -581.784482808751 2589.30456418474 13 16 9
-1329.48728584037 -581.02536603925 2598.51183181062 11 12 7
-1336.91196802768 -581.122439108787 2600.60859230096 10 11 6
-1345.7039549628 -583.431665156414 2584.40121802591 9 12 5
-1355.68997583604 -587.469376252321 2553.9405665599 10 13 6
-1366.15964368226 -592.009577473704 2519.3898934393 11 14 7
-1373.32090096999 -591.498902045346 2526.55684334417 11 14 7
-1380.5256922685 -591.109118175239 2532.71123199602 12 15 8
-1386.87854416671 -589.602927664781 2548.03842178373 12 17 13
-1391.19054700737 -585.488587462183 2584.77678021103 16 21 17
-1129.66399944861 -572.591860251169 2656.68246419963 14 16 13
-1137.25877322481 -573.179391220173 2654.72830120716 19 21 18
-1144.92557689014 -574.980971469168 2642.69099494653 19 22 15
-1152.45156152509 -574.232831132933 2651.82741814445 17 20 13
-1159.72764427309 -571.533288788491 2677.1140835875 19 22 15
-1167.17462719902 -571.384818514086 2681.22302891297 19 22 15
-1174.52327397083 -570.746099349318 2689.37418388636 18 21 14
-1182.69318540991 -575.360098255141 2654.10301401474 15 18 11
-1189.7139828356 -572.885971385462 2677.40651671529 14 17 10
-1196.73242619114 -571.016424829327 2695.67322957091 11 14 7
-1204.24246117695 -571.717663563002 2692.72225382567 12 15 8
-1211.29652179152 -570.575837427055 2704.93983515712 14 17 10
-1218.68414107008 -570.906193546252 2705.02646102558 15 18 11
-1225.84663896187 -570.496604935321 2711.18607548948 14 17 10
-1232.53995357193 -568.727246093686 2728.48569896424 13 16 9
-1240.89087237042 -572.140804808563 2703.2663709159 13 16 9
-1249.32525803772 -575.438245564566 2679.04400800145 14 17 10
-1255.94760853217 -573.664067290516 2696.35247468651 14 17 10
-1262.12279267131 -571.015408608345 2720.76897266962 14 17 10
-1269.52896185531 -571.587696880086 2718.83854654288 15 18 11
-1277.54691264072 -573.528157916483 2705.7498575683 14 17 10
-1286.09189909031 -576.46863485178 2684.53605384189 16 19 12
-1293.46984740394 -576.796792236911 2684.62388079932 14 17 10
-1301.09448928436 -577.62390069978 2680.65124716644 14 17 10
-1312.2322332406 -585.078016767711 2622.84639064837 17 20 13
-1323.1202927133 -591.54879787871 2573.13232129187 17 20 13
-1331.48116708483 -593.14640858518 2563.02323616027 9 10 5
-1337.88937448115 -591.357871500426 2580.35838882455 9 10 5
-1346.34862011068 -593.082258604104 2569.22967430445 11 14 7
-1355.6548010235 -596.06818216368 2547.92099769123 13 16 9
-1364.8207447791 -598.682475974379 2529.65214473577 15 18 11
-1373.22861826401 -600.040476485168 2521.55217785287 18 21 14
-1380.44805449324 -599.632069067127 2527.70444959076 17 20 13
-1385.19403018265 -595.80588909577 2561.36586779981 12 17 13
-1396.90619681818 -601.721006255519 2516.58616717992 16 21 17
-1129.17879991562 -581.236095148507 2648.70356092604 7 9 6
-1136.82989249173 -582.942920469589 2637.67565288093 23 25 22
-1144.53378135047 -584.652721022642 2626.64116400704 11 13 8
-1151.99286785944 -582.388200852042 2647.87514861653 25 28 21
-1159.22411958456 -578.995938247772 2678.20426021174 21 24 17
-1166.49278133447 -577.337845399819 2694.42468968171 20 23 16
-1174.17283488743 -579.292611254652 2681.37844622409 18 21 14
-1181.35409616277 -577.752416326844 2696.60240613836 15 18 11
-1189.17677603716 -580.210405382577 2679.50846004916 13 16 9
-1196.52416788964 -579.917194205143 2684.63713968 10 13 6
-1203.83792421413 -579.621658581064 2689.77025097327 11 14 7
-1211.08742019586 -579.198324483569 2695.91873212288 13 16 9
-1217.72758544946 -576.634132800198 2719.26973855449 14 17 10
-1224.96221424197 -576.58069949375 2722.39774759866 14 17 10
-1232.79696210438 -578.543292213294 2709.33197954879 14 17 10
-1240.98649933889 -581.393407324109 2689.17022318532 12 15 8
-1247.94756524551 -580.456638299691 2699.38433525202 13 16 9
-1254.89527545132 -579.642603716862 2708.59275014982 13 16 9
-1262.03637671227 -579.458850504982 2712.73977478237 14 17 10
-1268.6779386117 -578.130876821338 2726.01627066879 15 18 11
-1276.78501781254 -580.356558334193 2710.90159564774 14 17 10
-1285.54389672825 -583.859113362788 2685.63159095723 16 19 12
-1292.85883470736 -584.056533432606 2686.73486430675 14 17 10
-1301.42460717587 -586.804704949185 2667.53333437498 14 17 10
-1310.67830939884 -590.708167785046 2639.17933287421 17 20 13
-1322.67950712157 -599.480692820179 2572.2002897239 17 20 13
-1331.82467201735 -602.51118370782 2550.91182432417 8 9 4
-1340.78039314355 -605.035113025146 2533.67665503654 9 10 5
-1347.14081736104 -603.070314955627 2552.02523394895 10 13 6
-1355.53784395547 -604.570201390756 2542.9193072472 11 14 7
-1365.45170117778 -608.389506836103 2515.49038777801 13 16 9
-1373.04960799607 -608.479516980695 2517.56575252728 15 18 11
-1379.14584146173 -606.37463163967 2536.95461906699 15 18 11
-1390.44337593763 -611.886464293845 2496.25658871546 13 18 14
-1395.5540985829 -608.484220008977 2525.84261641882 17 22 18
-1136.26421527847 -588.364040841536 2655.90033176034 22 24 21
-1151.21310631722 -586.118863281882 2679.22274527644 20 23 16
-1158.54335764513 -584.544473091905 2694.42802206096 20 23 16
-1165.84424730347 -583.473843498818 2705.60730098236 18 21 14
-1173.23418458051 -583.546483958753 2707.70857335843 15 18 11
-1180.70626509425 -584.256204074808 2704.76235644234 14 17 10
-1188.59476236865 -587.267315769809 2683.630664698 14 17 10
-1196.1598718258 -588.108697638791 2679.6654979481 11 14 7
-1202.67640429966 -584.080553778832 2714.1133566401 11 14 7
-1209.73958198508 -583.120518347947 2724.31466448923 13 16 9
-1216.94253806078 -582.927536899384 2728.45394570435 13 16 9
-1224.80262175175 -585.177166273521 2713.37039759729 13 16 9
-1232.93061577999 -588.075202095633 2693.21620739086 13 16 9
-1240.20641651624 -588.012534319255 2696.33929436996 12 15 8
-1247.59184333456 -588.335763269658 2696.42617507536 12 15 8
-1254.78334067833 -588.141215723414 2700.56688214821 12 15 8
-1262.09533107427 -588.333162601253 2701.67050892524 11 14 7
-1269.23873257914 -588.13533954247 2705.81744971724 12 15 8
-1276.13435878391 -587.416491369376 2714.02468769354 11 14 7
-1284.0745626135 -589.163802086654 2702.96080689005 12 15 8
-1293.09208237298 -593.12639370682 2674.63643527797 10 13 6
-1300.11269123717 -592.667605280081 2680.81338681897 11 14 7
-1310.18005827438 -598.337857899811 2639.26160418627 13 16 9
-1320.87120904848 -604.804654671001 2591.58747157501 13 16 9
-1331.24011375431 -610.240046000997 2552.01305479022 11 12 7
-1339.74800096792 -612.021164885276 2540.87817922037 11 12 7
-1347.23887756481 -611.969779926834 2543.97445571648 9 12 5
-1356.52586140234 -614.936275054366 2523.67581071888 9 12 5
-1365.5865916806 -617.383024038823 2507.43502075641 10 13 6
-1371.77089771155 -615.228655703341 2526.81276604895 11 14 7
-1382.55174269482 -620.182598473895 2491.21666233676 8 11 4
-1391.89730466624 -622.7729593974 2473.93301816163 6 11 7
-1397.44237614519 -619.820823716088 2499.43503838187 11 16 12
-1402.56129349876 -616.463315964063 2528.01247414794 8 12 11
-1135.8822727639 -600.156232459352 2623.7306604155 14 16 13
-1143.17612292126 -592.722976382884 2684.2740936484 15 18 11
-1150.64980063441 -592.663717288017 2687.37249572726 11 14 7
-1158.01928695151 -591.693662850922 2697.53555168534 15 18 11
-1165.22794516957 -589.809172623577 2714.7705601301 16 19 12
-1172.98572495542 -592.866990864475 2693.65530415556 17 20 13
-1180.9092756628 -596.322223128346 2669.49710596241 16 19 12
-1188.46235792298 -596.912590046295 2667.54839356178 15 18 11
-1195.89402758385 -596.849373274153 2670.65178730607 13 16 9
-1202.8301424753 -594.559529783285 2690.9432818954 12 15 8
-1208.76732308908 -588.462149229693 2740.5742585611 12 15 8
-1216.35950806152 -589.958363725325 2731.56852139694 12 15 8
-1225.42904377998 -596.711820624851 2682.08213747059 13 16 9
-1232.17097889395 -594.667738846622 2700.38289728777 13 16 9
-1239.59356513954 -595.119518257561 2699.45779215119 13 16 9
-1246.97097807616 -595.439160984805 2699.54566349746 13 16 9
-1255.0415091661 -597.738627603361 2684.43598404377 13 16 9
-1262.19941940577 -597.398646765991 2689.58818669344 12 15 8
-1269.21979639907 -596.791739827557 2696.77270447266 13 16 9
-1275.86743301718 -595.386845264384 2710.04799943297 12 15 8
-1282.66839388985 -594.507950129094 2719.27455697201 13 16 9
-1290.0153031443 -594.95398278738 2718.35888074267 12 15 8
-1309.09219713094 -604.7680823315 2648.48420128272 14 17 10
-1318.79670571402 -609.49124056157 2615.03718442355 14 17 10
-1329.52205963228 -615.826604961245 2569.37405180476 10 11 6
-1338.42370061549 -618.433656380734 2552.14585029837 10 11 6
-1347.33377056412 -620.911926166859 2535.92394486325 10 13 6
-1355.84978317143 -622.590964751765 2525.79595410315 11 14 7
-1363.02595746839 -621.992253556065 2532.96081061439 14 17 10
-1371.08485833581 -622.868228187024 2528.93411271456 15 18 11
-1380.89789290335 -626.434544616338 2504.54041064238 12 15 8
-1392.71552745426 -632.835641479914 2458.74114096224 7 12 8
-1401.07518027861 -633.85890240354 2453.66937150249 10 15 11
-1403.08974296848 -625.840835966842 2516.8859432571 3 7 6
-1142.89155433197 -604.791714041964 2650.07762469112 17 20 13
-1150.25570403054 -601.680602494262 2676.35990314473 16 19 12
-1157.63363556555 -600.416851921873 2688.53674621635 12 15 8
-1165.15275650092 -601.140107245811 2685.58493484697 16 19 12
-1172.96806515022 -604.123752328365 2665.4699913762 19 22 15
-1180.49356465778 -604.451216520911 2665.53940299144 18 21 14
-1188.1015232829 -605.311094786573 2661.56893762831 15 18 11
-1195.4251821347 -604.570420603818 2669.72294245148 14 17 10
-1202.39504908431 -602.356894978959 2689.00249859694 13 16 9
-1209.1652010341 -599.735282486129 2711.32920487474 12 15 8
-1217.03196643593 -602.061124985554 2696.24502363422 11 14 7
-1223.25876498924 -597.954883506432 2729.72090637238 11 14 7
-1231.95106969028 -603.100864731012 2693.37801849959 11 14 7
-1238.52939173809 -600.730566005886 2713.71395164455 12 15 8
-1245.82540613291 -600.910239991412 2714.8192995431 14 17 10
-1253.76004056588 -602.975435867701 2701.74157671025 14 17 10
-1263.03637838142 -608.551956675365 2662.30363720489 14 17 10
-1269.19721876667 -605.496044218179 2687.72853981356 15 18 11
-1276.08969307524 -604.5951484724 2696.943619079 12 15 8
-1285.61712688564 -610.054581927229 2658.4819632995 14 17 10
-1290.78836299102 -605.223090081219 2697.12658009815 12 15 8
-1297.87742238956 -604.993409719849 2701.27997829995 13 16 9
-1307.22367593455 -609.517910149815 2669.89276085843 15 18 11
-1317.34186646471 -615.276514442155 2629.34255552345 14 17 10
-1328.65778799823 -622.954589485193 2574.53935484841 10 11 6
-1338.42322521609 -627.240316412391 2545.11481142631 10 11 6
-1347.80563125917 -630.579209312265 2522.78962453274 9 12 5
-1355.56772353548 -630.917413459248 2522.82977932119 9 12 5
-1361.20646467857 -627.696592511479 2549.32708964622 11 14 7
-1368.29681890229 -627.070436317814 2556.50258371981 11 14 7
-1378.46706462647 -631.380279648827 2527.02758609901 13 16 9
-1391.8282836212 -640.369129621526 2462.90269158166 10 15 9
-1401.46648373097 -643.327371557204 2443.56788223336 16 21 17
-1142.56530904096 -616.369315621828 2620.92373911014 14 15 9
-1150.17543972947 -615.757367594425 2628.03464583925 13 14 6
-1157.35737484599 -610.541253335447 2669.45038769359 12 15 8
-1165.06696501651 -612.627647304992 2656.40080487867 12 15 8
-1172.23968290157 -609.834009916849 2679.68450738445 14 17 10
-1179.76612627978 -610.427696449275 2677.73912810088 17 20 13
-1186.98786015586 -609.11753479117 2689.93534149497 17 20 13
-1193.69269615305 -605.352126237538 2720.32916399432 13 16 9
-1201.32756758097 -607.02887313232 2710.31088814032 13 16 9
-1209.31125828922 -610.073080783977 2690.17533134217 13 16 9
-1215.45845270463 -605.061270922555 2729.70536655066 13 16 9
-1223.30791171632 -607.423695608908 2714.6234413832 13 16 9
-1230.84928367263 -608.420746776257 2709.65371951569 13 16 9
-1238.41098211936 -609.418761881764 2704.68170382959 14 17 10
-1244.81567687055 -606.710830893974 2727.05378968854 13 16 9
-1253.22505249825 -610.318338627143 2702.83536442953 13 16 9
-1261.12012670854 -612.14399651011 2691.7773218602 15 18 11
-1269.84303116072 -616.03961337499 2665.50491431747 16 19 12
-1276.7419457099 -614.976750565365 2675.7266907114 13 16 9
-1284.66454799885 -616.534356881307 2666.67988109271 14 17 10
-1288.62625315688 -608.829769056006 2725.62305758321 14 17 10
-1296.20269833182 -609.827469446699 2720.64920076382 15 18 11
-1303.60408005953 -610.410471474466 2718.71940029761 18 21 14
-1314.4677233237 -618.070702618698 2664.98028138367 15 18 11
-1326.59651098891 -627.692652587141 2596.97986559498 9 10 5
-1337.83458929306 -634.971370048993 2546.2163162623 9 10 5
-1347.81737190612 -639.480710028972 2515.7573109299 10 13 6
-1355.9911110698 -640.51398300386 2510.70900903101 11 14 7
-1360.69204106245 -635.546493206877 2549.41195910635 14 17 8
-1368.95864081201 -636.854564007584 2542.3371779605 14 17 8
-1379.59454064273 -641.941809752285 2507.76720069327 12 15 8
-1389.2456089007 -645.218782952342 2486.4162506472 18 23 17
-1400.38239659015 -650.605595897021 2449.76893997086 10 15 9
-1134.3828284192 -623.640178232718 2621.96401187531 6 8 5
-1142.14842983241 -626.17531262447 2605.88531936704 10 12 7
-1149.60653597433 -622.372459106344 2636.18503959564 15 16 10
-1157.14088175265 -621.596115247993 2644.31265800113 14 17 10
-1164.30791651771 -617.637574094685 2675.65621958585 11 14 7
-1171.86243089908 -618.372970710973 2672.69978302857 12 15 8
-1179.27297374384 -618.000378068836 2677.8206130094 14 17 10
-1186.8252414852 -618.735213505916 2674.86445534166 14 17 10
-1193.9691592916 -617.10955621493 2689.0851633398 12 15 8
-1200.43086301212 -612.419890074383 2725.55349643708 13 16 9
-1208.25073716556 -614.956185150665 2709.46779379957 13 16 9
-1215.23566875324 -613.594955206867 2721.69342423277 14 17 10
-1223.42216777996 -617.252077583796 2697.50294331433 15 18 11
-1230.89424299174 -617.843285968154 2695.5643423304 15 18 11
-1237.75949481428 -616.336811744868 2708.8122126933 13 16 9
-1245.19962610311 -616.925656645938 2706.87759189796 13 16 9
-1252.96675879293 -618.495931140899 2697.85045759606 12 15 8
-1260.87347355552 -620.349205580367 2686.79103508183 11 14 7
-1268.26619916532 -620.659939789961 2686.87697203675 11 14 7
-1275.97747218971 -621.814183923199 2680.87877438428 12 15 8
-1280.41563115744 -614.801676757363 2733.71771169924 14 17 10
-1288.67770754835 -617.500176810272 2716.56980516835 14 17 10
-1295.46826689845 -616.674839492276 2724.78987443159 16 19 12
-1304.48201613549 -620.79244854773 2697.47406868952 15 18 11
-1314.85178132953 -627.465015974189 2651.85619945346 12 15 8
-1338.41387501432 -644.96496355549 2531.05383478521 9 10 5
-1345.48006293366 -644.018308697802 2540.24711511402 9 12 5
-1353.51014480955 -644.915915711263 2536.22431089081 11 14 7
-1361.14998988981 -645.103011053202 2537.2867702964 14 17 8
-1369.28016513013 -646.143960139785 2532.24392513237 15 18 9
-1378.03576081757 -648.18445399335 2520.07137323472 19 22 15
-1388.72031443869 -653.226732699451 2486.50289294119 18 23 17
-1399.11648644383 -657.564505708246 2458.0074617062 8 13 7
-1133.91435666771 -633.062903082523 2609.9543228063 4 6 3
-1141.60399737606 -632.972224735396 2613.02545096989 15 16 10
-1149.38634967576 -634.848243917933 2601.98160805329 12 13 7
-1156.24810647564 -624.199114277958 2680.71030447403 13 16 9
-1164.41407045464 -631.421760711237 2631.33767628411 11 14 7
-1171.93967999879 -630.8996180797 2637.45143988474 10 13 6
-1179.12203608282 -628.114766840019 2659.72627564009 12 15 8
-1186.91759738431 -630.130382224997 2647.67346484158 13 16 9
-1194.45398534636 -630.30864466863 2648.74905209151 11 14 7
-1200.27098136923 -621.555782098506 2713.5043015141 12 15 8
-1207.40522009527 -620.728417887378 2721.68171655403 13 16 9
-1215.9518141411 -626.291343992519 2684.35042342089 14 17 10
-1223.53010006508 -627.171817342195 2680.38371527185 15 18 11
-1231.19903989377 -628.337755152344 2674.39107161556 15 18 11
-1238.04196812795 -626.511168406487 2689.65649929051 13 16 9
-1245.57619557634 -627.248288599418 2686.70259896151 12 15 8
-1253.48742672923 -629.128904911957 2675.64268483232 12 15 8
-1259.45740268308 -625.147249696532 2706.12764404275 11 14 7
-1267.0557633799 -626.167935804246 2701.15111282786 11 14 7
-1273.10809685245 -623.03158301484 2725.5816575228 11 14 7
-1281.17939752069 -625.341619566251 2711.47959696402 13 16 9
-1288.78498948499 -626.36228856967 2706.50216328465 14 17 10
-1296.28669589496 -627.096321708535 2703.55231325934 15 18 11
-1304.83419891259 -630.13534101522 2684.35382918434 17 20 13
-1317.72653200312 -642.264290122936 2601.14846198576 12 15 8
-1331.26339176239 -654.852509397293 2514.84032930891 8 9 4
-1338.18646612685 -653.449265895798 2527.07356851666 9 10 5
-1343.22644807089 -648.569351579448 2563.71882307471 8 11 4
-1352.36713884132 -651.643739097836 2544.44664608471 9 12 5
-1360.79445160776 -653.273688899407 2535.33728236498 11 14 5
-1369.93204388949 -656.067473073527 2518.08012728552 12 15 6
-1375.70455920409 -653.053096616947 2541.53798548571 10 13 6
-1387.30539361515 -659.778807670141 2496.77431313941 9 14 8
-1141.21211821369 -643.738274417762 2591.93959623802 13 15 12
-1148.76682446117 -640.628473098171 2616.18272361494 15 16 10
-1156.31463109934 -639.231852950289 2628.33801737068 15 18 11
-1164.06044992076 -640.703611423188 2620.3209705733 11 14 7
-1171.35826755831 -637.862959528843 2642.58125046034 10 13 6
-1178.88902096427 -637.749975821423 2645.67214807957 11 14 7
-1186.50477488389 -638.356010972358 2643.71565588808 11 14 7
-1193.34936674979 -634.344462047691 2674.09138947934 10 13 6
-1200.86041612413 -634.800802068195 2673.15525667749 10 13 6
-1207.2152522169 -629.61635491062 2711.65123769983 11 14 7
-1215.58830703577 -634.409538774646 2680.3861772741 12 15 8
-1223.28164437533 -635.73331652679 2673.38297725163 13 16 9
-1230.06382909333 -633.430783038138 2691.67803353279 13 16 9
-1237.26749878551 -633.01043223955 2696.82455429063 12 15 8
-1245.34229160662 -635.64224830824 2680.7072908616 13 16 9
-1252.35254225111 -634.638488979752 2689.90740144902 13 16 9
-1259.2593370615 -633.485442542957 2700.12771666882 13 16 9
-1265.08289214826 -629.409920210925 2730.63094141085 13 16 9
-1273.21484960069 -632.044512022931 2714.50655148361 12 15 8
-1279.61765259279 -630.003441385502 2730.83426671801 14 17 10
-1290.72387875907 -639.816834456423 2664.97733891405 15 18 11
-1297.34502466851 -638.217260018828 2678.25542707567 17 20 13
-1305.05217816905 -639.254342820012 2673.26536234216 19 22 15
-1330.67143283701 -662.657225187493 2515.94268309134 9 10 5
-1338.90173903345 -663.868453450706 2509.87986323318 9 10 5
-1344.37053052055 -659.627484957874 2541.43461177673 9 12 5
-1352.31878841655 -660.392892376743 2538.42911738899 10 13 6
-1361.89057782551 -664.113341486918 2515.07361428749 12 15 6
-1368.74416053857 -662.812623614235 2526.30810854191 12 15 6
-1375.70445275267 -661.804099008906 2535.51444109691 12 15 8
-1386.33735898933 -667.016819337434 2501.95285494356 10 15 9
-1400.52392040218 -677.72939086921 2430.67521170635 10 15 9
-1410.75020464545 -681.63184254693 2406.23082371796 14 19 15
-1140.49069474047 -645.57324712109 2633.35275247727 13 14 9
-1148.04154072675 -644.286878796967 2644.5002701864 14 15 10
-1155.74881243788 -646.06651087266 2634.47323014955 14 17 10
-1163.10510152222 -643.457705622395 2654.71120924047 12 15 8
-1170.73048245627 -644.358438908068 2650.73867726642 11 14 7
-1178.10942488294 -643.205995578499 2660.90031311201 12 15 8
-1185.47079406933 -642.343474243413 2669.04905075949 11 14 7
-1192.95092599895 -642.506775777285 2670.13161903066 11 14 7
-1199.58984735808 -638.106488968742 2702.547609823 11 14 7
-1207.9341238723 -643.125192075002 2670.27904755826 12 15 8
-1214.67692427773 -640.040761747055 2693.61563543099 12 15 8
-1221.28934744006 -636.948204807016 2716.96847221175 12 15 8
-1228.85924611476 -638.134737974828 2710.98824254309 13 16 9
-1236.85705639529 -640.802619237731 2694.88068105641 13 16 9
-1244.33390668913 -641.400880429946 2692.94150274379 13 16 9
-1251.72373036724 -641.702561024288 2693.02777800025 13 16 9
-1258.33462949415 -639.627927610155 2709.32919541216 12 15 8
-1266.43278948745 -642.155591040323 2694.21666898285 11 14 7
-1273.53198773525 -641.71132509757 2699.37616417964 12 15 8
-1279.47097822329 -638.285454707258 2724.82777807286 13 16 9
-1286.21352887895 -637.237139283524 2734.06117869937 12 15 8
-1296.60429465681 -645.143238765268 2682.39733405074 14 17 10
-1303.59145684242 -644.546152994822 2688.57809533836 18 21 14
-1316.71241594513 -657.711897462248 2601.31569839851 17 20 13
-1327.84659724398 -665.662490114188 2549.55919705906 11 12 7
-1337.79892727142 -670.630251312025 2518.09727189834 10 11 6
-1344.83008324986 -669.453054074267 2528.30224424805 10 13 6
-1353.27979033473 -671.127283699274 2519.18996219038 10 13 6
-1361.93237840989 -673.104847427725 2508.03778640772 12 15 6
-1377.67729033296 -674.054078987864 2506.07541425021 11 14 7
-1387.67380698121 -678.150642273586 2480.65252398712 12 17 11
-1396.52024563625 -680.139629702576 2469.47618688203 14 19 13
-1139.97409218484 -652.830681339266 2636.45963518011 20 20 18
-1154.82062722055 -647.655367759243 2675.91130062612 12 15 8
-1162.51534168759 -650.051242719809 2661.85646185129 12 15 8
-1170.05782281701 -650.361570966609 2661.92394940236 12 15 8
-1176.92817237633 -645.292663114789 2698.34028719529 12 15 8
-1185.0385641439 -650.382110547905 2666.10085839814 12 15 8
-1192.2164707086 -648.593576257627 2680.31689586941 11 14 7
-1199.6578061045 -648.748463871505 2681.40428356086 12 15 8
-1206.61907706609 -646.501526330094 2698.66920998059 13 16 9
-1214.60065562824 -649.506202379974 2680.5491868571 14 17 10
-1220.94034810251 -644.996791908175 2713.00223227196 13 16 9
-1229.64010698285 -650.713714387081 2676.65991771514 12 15 8
-1236.80594190444 -649.961124725737 2683.82589955457 14 17 10
-1245.12364667021 -653.430146546307 2662.64185114278 14 17 10
-1251.45896877885 -649.957678957651 2688.04388248078 13 16 9
-1258.85577943026 -650.256609525008 2688.12927856218 11 14 7
-1265.68731559336 -648.889900113533 2699.36611004059 9 12 5
-1273.20183085928 -649.640423821615 2696.41494524184 11 14 7
-1281.34387270416 -652.059988467051 2682.30434504077 11 14 7
-1293.0953343918 -645.206092882067 2732.21542864492 10 13 6
-1303.86989653751 -653.864290748622 2676.47468044138 14 17 10
-1316.40563664576 -665.891258263892 2598.35222113364 13 16 9
-1326.98211870624 -672.757703834737 2554.72443962233 9 10 5
-1335.03609104364 -673.836469865406 2549.69120371965 8 9 4
-1343.03549878521 -674.763598859662 2545.6720649234 8 11 4
-1353.30193198722 -680.128018498029 2512.15661193295 8 11 4
-1360.20389617941 -678.764270336431 2523.38490247678 9 12 3
-1369.78011744766 -682.455595898376 2501.03669697655 10 13 4
-1378.35379086447 -684.158536074213 2491.90902026175 6 9 2
-1384.58266097846 -681.715881100027 2510.27275792938 8 13 7
-1389.16000067199 -676.652550066068 2545.96757738559 11 16 10
-1397.19981783379 -677.581715872587 2541.94340109647 11 16 12
-1139.41480362459 -658.709062045711 2648.63787757684 19 19 19
-1146.92138073626 -657.202942477336 2660.79802817092 10 10 8
-1154.61243084015 -659.482909407139 2647.75126881421 13 16 9
-1162.05697956218 -658.123539929892 2658.91161927881 12 15 8
-1169.35765097502 -656.000008317498 2675.1270686844 11 14 7
-1176.63876045928 -654.479139476854 2687.315077195 11 14 7
-1184.24794361487 -655.84706331797 2680.32273564307 11 14 7
-1192.05413476038 -658.283753160283 2666.25409272234 11 14 7
-1199.08465480073 -655.840839167024 2684.51754826762 12 15 8
-1206.06995147425 -653.696917762721 2700.77230088041 13 16 9
-1213.72517803409 -655.2177001 2692.76668856431 13 16 9
-1221.83053486634 -658.57770815353 2672.61653993354 12 15 8
-1229.6653789783 -660.410886050543 2662.57372062628 12 15 8
-1238.06564700358 -664.241363543206 2639.36470622333 13 16 9
-1244.83891960719 -661.781551269266 2657.6604604956 11 14 7
-1251.73494095301 -660.084015115876 2670.90398784911 11 14 7
-1258.21909877954 -657.304324041893 2691.25059401202 13 16 9
-1264.28545528756 -653.593072684734 2717.69324893651 12 15 8
-1271.21811844459 -652.8034144921 2724.88799134627 11 14 7
-1280.57008225993 -658.804557496332 2687.45734685579 13 16 9
-1287.00468407543 -656.625255057971 2703.7807297565 11 14 7
-1295.67855152556 -660.31992505945 2681.54490121683 12 15 8
-1306.70579158119 -669.442179026063 2623.75822791404 15 18 11
-1316.63133054364 -675.326323599441 2587.26362389188 16 19 12
-1326.95215807888 -681.68736459213 2547.69740425044 10 11 6
-1335.31254831132 -683.399200306505 2538.59660771096 9 10 5
-1343.34093276097 -684.335879446173 2534.57387794282 8 11 4
-1349.44720363111 -681.380940378922 2555.97462748394 10 13 6
-1359.28213120648 -685.899969282339 2528.55740066488 11 14 5
-1368.09550410392 -688.242894342024 2515.37074785663 11 14 5
-1374.74850238135 -686.528920669303 2528.64455976472 12 15 8
-1380.8840745358 -684.028602661139 2547.01978861259 12 17 11
-1388.64363166566 -684.495637943413 2546.0526716776 13 18 12
-1396.30864393719 -684.805921162824 2546.10462767921 12 17 13
-1138.76163054697 -661.286597539416 2681.98225449114 13 13 15
-1146.6815387643 -670.223863646102 2625.5907980394 15 15 13
-1154.33387738825 -670.535429758152 2625.64433901576 13 15 10
-1162.40042183749 -675.945141263915 2592.40353841056 12 15 8
-1169.07874043627 -665.742931362246 2661.07871199341 11 14 7
-1191.48674209618 -665.411101820711 2669.36697115478 11 14 7
-1198.90556028498 -665.245658053607 2672.47169947566 11 14 7
-1213.1064319981 -662.108243423603 2696.89303907371 12 15 8
-1220.71737933894 -663.337378138637 2690.90755869511 12 15 8
-1228.76095596478 -666.28363379167 2673.78733182996 12 15 8
-1236.73071631759 -668.610261704996 2660.70591396194 12 15 8
-1244.80635050389 -671.096814515695 2646.60377745501 11 14 7
-1251.9145031875 -669.988626886764 2655.79139543853 11 14 7
-1258.20386123857 -666.370943000812 2681.19878039723 12 15 8
-1263.94876016063 -661.490191706066 2714.73276171637 12 15 8
-1270.41271920385 -659.266387713213 2731.05212354662 13 16 9
-1277.28645940287 -658.450846213859 2738.25439129916 14 17 10
-1286.39743044475 -663.766361207963 2705.89069146482 12 15 8
-1296.28568731354 -670.66604166979 2663.35681127852 13 16 9
-1307.03187508737 -679.154850994869 2610.64221924473 17 20 13
-1314.25715184348 -678.667464919049 2615.78586703371 20 23 16
-1327.54259194759 -692.075317329318 2531.52688298326 10 11 6
-1336.80768745259 -695.708191936563 2510.2250373086 9 10 5
-1343.49290823173 -693.650466764988 2525.50953724676 8 11 4
-1349.70450791866 -690.795334845131 2545.88971811462 10 13 6
-1358.04188233355 -692.373250297899 2537.79912823705 11 14 5
-1366.91163148064 -694.905734458323 2523.59801183635 11 14 5
-1373.11886682045 -692.357724888153 2541.96417194832 17 20 13
-1380.10329572148 -691.393937133934 2550.1599231022 13 18 12
-1387.40122954686 -691.064091107096 2554.28699122766 14 19 13
-1146.06289016126 -675.431877861385 2641.8059117625 16 16 16
-1154.23488820928 -684.690316920722 2584.37591442084 11 13 8
-1161.9408953101 -684.375956397777 2588.45209819456 11 14 7
-1169.74093927355 -685.318752816461 2584.4578800788 11 14 7
-1183.25911576954 -670.961628357322 2680.48593918134 12 15 8
-1191.17695924547 -674.257682504868 2661.36670978673 11 14 7
-1198.30534552202 -672.185876345762 2676.595868209 11 14 7
-1205.57632763728 -671.374203673262 2683.74833243855 11 14 7
-1212.17470550593 -667.392269246371 2711.13180877521 11 14 7
-1219.54226472077 -667.681303694477 2711.22082920188 12 15 8
-1226.94002302824 -668.12827642488 2710.29880978698 12 15 8
-1234.96869659071 -671.116761812236 2693.18055394654 13 16 9
-1243.29316214143 -674.905150900828 2670.98881577289 12 15 8
-1250.74227991853 -675.198276236887 2671.06766894637 13 16 9
-1257.51892578437 -673.259927316144 2685.33338684912 14 17 10
-1263.96254890851 -670.519034131623 2704.67722630918 13 16 9
-1268.92098706452 -663.620173378003 2750.39724491626 12 15 8
-1276.07871616144 -663.738479763319 2751.5199286618 14 17 10
-1285.03244329409 -668.81564671292 2721.19083872175 15 18 11
-1294.567933458 -675.02308616231 2683.73783450232 16 19 12
-1303.53147845785 -679.318143787204 2658.44437572185 18 21 14
-1327.50548578822 -701.10333324238 2524.50099834633 11 12 7
-1335.70941356775 -702.379232404626 2518.44164066715 10 11 6
-1343.19473942957 -702.04701835709 2522.54555740696 9 12 5
-1350.18941767662 -700.746383176498 2532.75451662373 10 13 6
-1357.68246529471 -700.570944225793 2535.85019549745 12 15 6
-1365.31788043814 -700.716967098028 2536.91309957008 11 14 5
-1373.36738961828 -701.670310746582 2532.88777744585 14 17 10
-1380.81689758402 -701.492190157309 2535.98864248004 11 16 10
-1390.86944362561 -706.008457272056 2509.55217825681 13 18 12
-1397.60583004204 -704.535410210952 2520.80084409341 12 17 13
-1145.70181490573 -686.297961065657 2621.72440368681 12 12 12
-1153.16111860215 -683.248886795511 2642.95605482855 10 13 6
-1161.12041262738 -688.189162065581 2613.75863112885 10 13 6
-1169.06352853241 -691.377123841331 2595.64389059402 10 13 6
-1176.08359171938 -685.43514622518 2635.06254737648 12 15 8
-1183.31708867881 -682.84887004952 2653.30029506304 13 16 9
-1189.58992896473 -674.314134222724 2708.92956782433 12 15 8
-1197.78390709328 -679.585631850197 2677.68811473313 11 14 7
-1204.85358980787 -677.625339967839 2691.91720558357 11 14 7
-1212.24749864321 -677.753884721539 2693.01044245642 11 14 7
-1218.98474804477 -674.817901568348 2713.32481242866 12 15 8
-1226.70661339377 -676.716952171946 2703.29626567652 13 16 9
-1234.39722688788 -678.295560359921 2695.28638956254 14 17 10
-1241.91431834501 -679.067481929399 2692.33471935214 13 16 9
-1249.57511153559 -680.325500011019 2686.34333483824 13 16 9
-1257.16692945654 -681.260734705069 2682.37508218803 15 18 11
-1265.02410630754 -683.007760027386 2673.33717637416 14 17 10
-1269.70458183798 -674.852109148884 2726.14286358638 10 13 6
-1276.37258942637 -673.343264733654 2737.39972815666 13 16 9
-1287.97488325725 -685.822632509343 2661.41056327098 14 17 10
-1294.25616200445 -683.01654222268 2680.77449065526 15 18 11
-1301.7624840829 -683.627341348039 2678.83166745635 17 20 13
-1312.18605973593 -691.418492147687 2632.2021013757 15 18 11
-1322.36803077133 -698.080585639947 2592.65400301558 10 11 6
-1334.18437414659 -708.024940028614 2532.75564505945 9 10 5
-1341.70718786647 -707.84023180337 2535.8473446206 8 11 4
-1348.82274914981 -706.834959765093 2544.02662198102 10 13 6
-1355.80920150543 -705.6627010995 2553.22925871719 11 14 5
-1362.98777256593 -704.979416861227 2559.38590630822 11 14 5
-1371.23261813062 -706.430002417716 2552.31421526358 16 19 12
-1380.12234205865 -709.033663912351 2538.11079357128 11 16 10
-1391.6108504512 -716.251364472218 2495.37804895001 12 17 11
-1401.92264640397 -721.010158634209 2467.90194318994 9 14 10
-1137.71755594149 -701.180498266777 2575.39508698897 90 91 93
-1145.36759353233 -698.083103616862 2596.60304868703 13 13 13
-1152.65041849134 -690.753389808528 2644.04747739167 11 14 7
-1160.49177886243 -694.305308834205 2623.93077934924 11 14 7
-1176.03839400229 -697.352283051288 2608.89778443712 10 13 6
-1182.43168601859 -687.376911480666 2672.57020899462 11 14 7
-1189.69755040042 -686.035529799643 2682.74545874928 13 16 9
-1196.7746518172 -683.872906270684 2697.98053778581 13 16 9
-1204.33204614608 -684.977400597818 2693.00933963741 12 15 8
-1211.97192788241 -686.410379114712 2686.01309813452 12 15 8
-1220.18311047181 -690.468353989084 2662.8285198511 13 16 9
-1226.98076876619 -687.640215626404 2682.12794805787 14 17 10
-1234.10019787007 -686.612376113056 2690.30668330652 13 16 9
-1241.17009770854 -685.581443527315 2698.49135110043 12 15 8
-1248.41303124664 -685.370245610281 2701.61790829397 13 16 9
-1256.3886850275 -687.793789892563 2688.53601018678 14 17 10
-1263.92883856181 -688.571749396426 2685.58147786617 13 16 9
-1270.90004353818 -687.534019239001 2693.77868456297 10 13 6
-1277.71138117104 -686.16275840528 2704.01033761434 12 15 8
-1286.08524723399 -689.419250306589 2685.84202247802 11 14 7
-1298.61288160013 -703.774584513486 2599.66472906677 13 16 9
-1304.43386083491 -699.428640571833 2628.15170838035 17 20 13
-1315.3797287839 -708.344938791361 2575.41356348672 21 24 17
-1321.99506514644 -706.151611647186 2590.70642748395 10 11 6
-1331.23614631087 -710.269257117514 2567.39324081872 9 10 5
-1340.07588574413 -713.229212448239 2551.18162098661 8 11 4
-1347.99706121967 -714.028787599028 2548.17959630435 10 13 6
-1354.89507643833 -712.661734736768 2558.40044358699 11 14 5
-1362.63640317757 -713.126503777972 2557.43559572891 11 14 5
-1369.27397987975 -711.419749663363 2569.70366407268 17 20 13
-1378.02824044925 -713.888446363471 2556.52471934862 12 17 11
-1391.62554666578 -725.230493098258 2489.35325803833 12 17 11
-1403.24897025319 -732.405556689885 2447.61125161361 9 14 10
-1145.01765852131 -709.83763020839 2572.49150139722 12 12 10
-1152.24254957007 -700.068466317244 2634.0450758873 12 15 8
-1160.07117161554 -703.177176231942 2616.95234216924 12 15 8
-1168.36790460224 -710.594630019659 2573.61051092512 12 15 8
-1174.74654280884 -697.645209664834 2654.4088141528 12 15 8
-1182.17654978603 -696.942316545976 2660.53427265735 12 15 8
-1189.54487628996 -696.07076266401 2667.67443118765 11 14 7
-1211.41569854634 -693.60516869258 2688.11707395466 12 15 8
-1219.31514594744 -696.222218156058 2674.03726817521 13 16 9
-1226.15916242751 -693.671407087209 2691.31626728965 14 17 10
-1233.95702606784 -695.623285999615 2681.27837552153 13 16 9
-1240.96933852593 -694.234758291934 2691.48490263116 12 15 8
-1248.14288277953 -693.678919647052 2696.63482606321 12 15 8
-1256.41185095142 -697.140436825583 2677.47221412338 12 15 8
-1263.68277620431 -696.919433532252 2680.59549256303 13 16 9
-1271.1405847037 -697.368051944514 2679.66598357304 12 15 8
-1280.25014553337 -702.855364865866 2648.3108395155 12 15 8
-1287.4398806823 -702.299813650426 2653.45850290774 12 15 8
-1297.37762039619 -709.483111668735 2611.92688154984 13 16 9
-1305.00302445083 -709.941272158107 2610.97648275409 15 18 11
-1314.07586188537 -714.108665752989 2587.68466319035 17 20 13
-1324.08816224583 -720.308218424193 2552.1875093041 11 13 8
-1330.93487501061 -718.578774995157 2564.42941895215 10 12 7
-1339.85372444779 -721.748609909994 2547.20055200273 9 11 6
-1347.47895439552 -721.876930737032 2548.26492077861 10 11 5
-1355.40937520668 -722.682201116201 2545.2617573313 12 13 7
-1361.54642133999 -719.757152994882 2564.64337082187 13 14 8
-1370.0295813781 -721.747998525017 2554.52030100067 12 15 8
-1393.79790221998 -738.322595522692 2458.88386312932 9 11 6
-1144.77545615325 -724.740753553237 2530.23499204806 9 9 7
-1151.76683216916 -708.261219915096 2631.10295663694 13 16 9
-1160.0629139834 -717.968711595988 2574.66634403712 12 15 8
-1167.60641422453 -715.58031610713 2590.8505520622 12 15 8
-1175.19514112641 -714.53322219277 2598.97067101434 12 15 8
-1182.77424329591 -713.820091612725 2605.0772560916 12 15 8
-1189.63558133913 -708.042334336682 2641.49285173874 11 14 7
-1196.01786975141 -700.394354784988 2689.04882393898 11 14 7
-1211.4741473763 -704.172419554924 2669.9980392541 12 15 8
-1218.35072321779 -701.407202061734 2688.27985735048 13 16 9
-1225.84573955552 -702.026328858646 2686.33846697181 13 16 9
-1233.15120095883 -701.797017114366 2689.45717335531 13 16 9
-1240.01929972655 -699.867443220291 2702.70357421836 13 16 9
-1246.89932316117 -698.273143254866 2713.93399568906 13 16 9
-1254.8380328311 -700.759254512104 2700.85663248766 13 16 9
-1263.53378922257 -705.633917287492 2673.58274431552 13 16 9
-1271.42814636734 -707.447544929561 2664.5401337469 12 15 8
-1279.19968191588 -708.751497082126 2658.53505020717 12 15 8
-1287.97626491312 -712.961056153401 2635.28007221831 12 15 8
-1295.78476826476 -714.099613529645 2630.27762685224 13 16 9
-1303.42463587591 -714.725701244612 2628.31793795358 15 18 11
-1312.38217035569 -718.77837867832 2606.0478925142 18 21 14
-1323.77522041115 -728.667995573989 2549.22527620723 8 13 7
-1334.82330467684 -737.030478728159 2501.51159262901 8 13 7
-1340.51466745731 -732.350470351236 2531.02179492994 8 10 5
-1349.17631979666 -734.711152227298 2518.86180981052 10 11 5
-1356.31422468849 -733.632740448102 2527.03810620979 13 14 8
-1362.17604040468 -729.967078963842 2550.48310511186 14 15 9
-1369.51275008724 -729.570004879417 2554.60539746563 16 17 11
-1387.5157963048 -735.336042497279 2524.15650721738 16 18 13
-1407.45186109274 -758.458594430831 2389.71287599738 11 16 12
-1143.90150964978 -723.164967807251 2586.77446769665 10 10 8
-1151.79314662278 -726.024340334833 2571.68858766342 13 15 10
-1159.33870011627 -722.739423292918 2592.90885425685 12 15 8
-1167.26767316465 -725.430348812336 2578.82555840113 12 15 8
-1174.6682324436 -722.136013136316 2600.06413488044 11 14 7
-1182.40368292367 -722.773652105321 2598.09278849338 11 14 7
-1195.97630500732 -711.006806825541 2670.94214910813 11 14 7
-1202.99107012359 -708.368481113084 2688.19960933553 11 14 7
-1211.15957585357 -712.77307489353 2664.01334231349 12 15 8
-1218.55385285539 -712.538402468151 2667.1209509182 12 15 8
-1226.75140035824 -716.263930638212 2646.96026002099 12 15 8
-1233.77629386592 -714.305675349498 2660.18701829602 14 17 10
-1239.32074138834 -706.474842811657 2707.84706654923 13 16 9
-1247.02492500617 -708.128968234703 2699.83569583599 13 16 9
-1254.43899097263 -708.574829857658 2698.9116383956 13 16 9
-1262.7898417107 -712.308631268861 2678.73183794823 14 17 10
-1272.54285466338 -720.378943427574 2633.1946166567 11 14 7
-1277.87889532484 -713.72545443175 2673.82924285281 11 14 7
-1283.22312904707 -707.752656591515 2710.43365051779 12 15 8
-1293.59697890844 -716.880400735218 2658.77513403326 14 17 10
-1300.72181871002 -716.287357965438 2663.93103751725 16 19 12
-1311.61136782361 -725.785965622356 2610.19352700557 19 22 15
-1323.73371245916 -737.739955350955 2542.2000566126 7 12 6
-1335.28823289579 -747.448317002063 2487.37242689256 6 11 5
-1342.93450706796 -747.226353799974 2490.4486212095 8 10 5
-1348.42390447202 -742.112006794697 2521.9984982452 10 11 5
-1354.68724720362 -739.085264963303 2541.3640828602 13 14 8
-1360.8421918082 -736.051946021138 2560.74317760003 15 16 10
-1371.52403743395 -742.645784532091 2524.15605993125 15 16 10
-1379.6969675542 -743.815951456974 2519.10797923281 10 12 7
-1386.72477389168 -742.705979946957 2527.29793216934 13 15 10
-1402.47464719553 -758.27901263479 2438.70611468883 34 39 35
-1143.50590326046 -734.27252752494 2567.70559192031 5 5 3
-1151.12883592023 -730.932367367449 2588.9162968392 14 16 11
-1158.48262428321 -725.329178723087 2623.25528285292 13 16 9
-1166.69739490654 -732.565583436403 2582.94674507296 12 15 8
-1174.64815464401 -734.947032622161 2570.87528956873 11 14 7
-1181.58004986845 -727.762148015928 2614.3329049706 11 14 7
-1196.65214879347 -726.770885439263 2623.53466456171 11 14 7
-1203.13261952074 -719.903614119644 2665.0338370302 11 14 7
-1209.17340335447 -711.799857534603 2713.63891380849 11 14 7
-1218.65014441189 -723.258029057983 2648.9973546764 12 15 8
-1226.17787202362 -723.538392435599 2649.06660446784 12 15 8
-1232.6617771731 -719.089784840636 2676.46289708718 13 16 9
-1240.06283067155 -719.189311848509 2677.55516593111 13 16 9
-1247.67098999721 -720.16515353619 2673.58498090727 13 16 9
-1255.10836979873 -720.439345688298 2673.66524905085 13 16 9
-1262.29329649725 -719.834065529 2678.8136218186 13 16 9
-1270.89718742484 -724.152784175091 2655.58048224694 12 15 8
