ply
format ascii 1.0
comment KinectMotionCapture
element vertex 753
property float x
property float y
property float z
property uchar red
property uchar green
property uchar blue
end_header
-1170.11027846307 78.1505160765434 2659.99889259629 172 176 175
-1177.74469909228 78.0917748951766 2655.01508779856 176 180 179
-1185.59037985724 79.023289867761 2640.93264675929 176 180 179
-1193.38548998705 79.3998487378666 2631.89689412191 175 179 178
-1201.16928701827 79.5535984118731 2624.87851424882 173 177 176
-1209.01350202045 79.814741497891 2616.84462465522 171 175 176
-1216.99024246127 80.4016443770726 2605.77003723022 165 169 170
-1224.91551539746 80.6568472189737 2597.72604772909 173 177 178
-1233.10158557631 81.564258683487 2583.60119157906 175 179 180
-1241.71699741801 83.4475231145026 2560.35028156375 183 187 188
-1250.49233013415 85.4315135794372 2536.07146201213 172 176 177
-1258.48130326948 85.2350635463924 2532.05170117602 133 137 138
-1266.58144639846 85.2542550025207 2526.00212490135 132 136 137
-1275.57139626109 87.1117182407438 2502.7045427018 149 153 154
-1287.78263651828 95.2288824644023 2420.53854154159 168 172 173
-1299.07401049081 100.728099164794 2362.68040076493 120 124 125
-1308.07351897366 101.467968392779 2349.46216063827 79 83 82
-1316.1507045495 100.482996629555 2352.48775817983 91 95 94
-1324.59073410734 100.143496141082 2349.42001225402 96 101 97
-1333.10714347122 99.9102801169387 2345.33452731668 78 83 79
-1341.77754668644 99.8899450914681 2339.21364977745 79 84 80
-1350.61819889716 100.081338578196 2331.05559439418 87 89 86
-1359.57008769753 100.376798455969 2321.87569618883 86 88 85
-1368.33052314944 100.34998133289 2315.74360022909 194 196 191
-886.463430519316 92.6076734344372 2662.10219297968 178 183 179
-894.470087357637 91.6563391863986 2665.13650350752 149 154 150
-902.138949961299 91.1621448769495 2664.18077623555 134 139 135
-909.959852001357 90.4399008470113 2665.22205009798 130 135 131
-917.990056692718 89.3768418632176 2669.26164358302 132 137 133
-926.063534554974 88.2016649956103 2674.30381918881 130 135 131
-933.899705595283 87.3682236403552 2676.35140777141 121 126 122
-941.195852641512 87.4407220342254 2670.40178480403 117 122 118
-948.518547920012 87.5110538796798 2664.44909474849 109 111 106
-955.567736134043 88.1433409161519 2653.4901408402 99 100 95
-962.613126659007 88.8843924071017 2641.52344706681 110 112 109
-969.335329044234 90.4083631375437 2622.54097351654 100 102 99
-975.687370198967 92.9361565745178 2594.53214567816 109 111 108
-982.873188366419 93.8847148443036 2580.53200670707 136 138 137
-991.24383326195 92.1421014802001 2590.57726770746 107 109 108
-999.641740852652 90.1794496162433 2602.63532041335 97 101 102
-1007.72221874825 88.8905538682776 2608.68460902918 106 110 111
-1015.64900104702 87.9380073955557 2611.72889061969 137 141 142
-1023.48203126292 87.2089015714874 2612.7689092965 132 136 139
-1031.36930795794 86.2581551661546 2615.81811621239 126 130 131
-1039.29459438458 85.0867453352584 2620.87877531289 123 125 124
-1047.2140859612 83.8064629794842 2626.94813138652 127 128 130
-1055.09491142872 82.5283751269143 2633.02230698283 141 142 144
-1062.84838185799 81.6937821395653 2635.08021914555 146 147 149
-1070.54585311476 81.0802819421052 2635.12892296881 145 146 148
-1078.25368878913 80.3568822855642 2636.18455015727 151 152 154
-1085.99183211381 79.3044837316197 2640.26032283162 146 147 149
-1093.71336534345 78.1439340109624 2645.34638052682 143 144 146
-1101.42737776225 76.6569470923559 2653.4575379988 141 142 144
-1109.06208369983 75.7192152009684 2656.53822997877 140 141 143
-1116.66767644317 75.000835951138 2657.60660325952 141 142 144
-1124.26089202187 74.3919170231002 2657.66830551044 146 147 149
-1131.84121141536 73.4568436171203 2660.75577760856 149 150 152
-1139.38420208121 72.1972618096665 2666.87206425585 146 147 149
-1146.9487653788 71.8070092162597 2664.92139209567 151 152 154
-1154.51770779417 71.416179036956 2662.97017496853 155 159 160
-1162.0909112688 71.02477879276 2661.01842758764 158 162 163
-1169.66831862012 70.6328394837387 2659.06591673865 167 171 172
-1177.32344952202 70.6710342497345 2653.0718253145 168 172 173
-1185.21472726584 71.782142688517 2636.96760662372 167 173 173
-1193.04329373749 72.2438316170776 2626.91952727875 169 175 175
-1200.81343349097 72.2735947985933 2620.91110563413 171 177 177
-1208.72586364233 72.7291946020292 2610.85257663323 173 179 179
-1216.62189340293 72.9678361057443 2602.81228012122 176 182 182
-1224.55441419517 73.2038543103481 2594.76743665256 175 181 181
-1232.44902399279 73.2243716435559 2588.74326596217 168 172 173
-1240.96785090914 74.836541575207 2567.52073755737 175 179 180
-1249.84862082446 77.0778439337404 2540.2047808816 182 186 185
-1257.87190600106 76.980237915386 2535.1727907052 140 144 143
-1265.96340361876 76.9867218135248 2529.12432680414 135 137 136
-1274.99252652363 78.8908208077165 2504.8140461287 156 158 157
-1287.1857435704 86.7913537354114 2422.65062438067 175 177 176
-1298.91119771912 92.9804331286278 2356.67451891241 125 127 126
-1307.86646551704 93.5820197663997 2344.4700912909 94 96 95
-1315.95799219136 92.6074816094199 2347.49387167162 90 92 89
-1324.47546670725 92.3666428716614 2343.40827388375 88 90 87
-1333.20803432336 92.4380025084158 2336.27171002197 88 90 87
-1341.90202200915 92.4029091940198 2330.1481684144 87 89 86
-1350.47718258701 92.1576788567247 2326.05538331216 95 97 94
-1358.84248696277 91.5996477745856 2325.01291233623 91 93 90
-1367.36156171486 91.2490174860726 2321.93509107868 111 113 110
-1371.95792808091 85.8234011047743 2368.74043727466 157 159 156
-876.560940258556 87.6145689532133 2643.19569053921 199 204 200
-885.648267577803 85.3305307541291 2658.19185566158 171 176 172
-893.830463988731 84.1664938541498 2663.22043449852 144 149 145
-901.663377078271 83.4493996523439 2664.26043615983 134 139 135
-909.485022811621 82.7326624087535 2665.30160271181 127 132 128
-917.295393783123 82.0161681585526 2666.34441591623 115 120 116
-925.165467585253 81.1893163039528 2668.38775628137 114 119 115
-932.813944218878 80.6948977818954 2667.4345736484 117 122 118
-940.33073672917 80.4210186181772 2664.48162916784 114 119 115
-947.606345048544 80.5871060343122 2657.52663575061 109 110 105
-954.853681482657 80.8608021958293 2649.56720001552 108 109 104
-961.736123810919 81.9010504841283 2634.59699199503 97 99 96
-968.474669490542 83.3749481330841 2615.61261076393 123 125 122
-974.477246626953 86.5950888001254 2580.59104020366 147 149 146
-982.340568313535 86.0840271666035 2579.61109000728 128 130 129
-990.80942819694 84.1529274384962 2591.66020519507 112 114 113
-999.207183540329 82.2260588667218 2603.7181826665 106 110 111
-1007.32774830312 80.8477062689472 2610.77063162665 141 145 146
-1015.25015747892 79.9065168559193 2613.81542904864 141 145 146
-1023.07847126465 79.1835020442822 2614.85577999886 129 133 136
-1030.86207352753 78.5691457811819 2614.89397770492 121 125 128
-1038.82180293803 77.3059187846029 2620.95826742008 129 130 132
-1046.74283858095 76.0449179143272 2627.02738002626 135 136 138
-1054.7002097068 74.4627185833389 2636.11610560702 142 143 145
-1062.4241443809 73.7446836026875 2637.16970960781 144 145 147
-1070.11669522329 73.1344829734758 2637.2190187804 146 147 149
-1077.80297225938 72.5244132718682 2637.26911054214 145 146 148
-1085.52534494907 71.5931006658609 2640.33884532477 143 144 146
-1093.23671085794 70.5560570118043 2644.41815949447 144 145 147
-1100.94643434033 69.2003512483306 2651.52157910917 145 146 148
-1108.59366478144 68.1669156141298 2655.60888750449 144 145 147
-1116.21277872684 67.1349700472277 2659.69946047946 142 143 145
-1123.80180112259 66.4231408653287 2660.76988439225 150 151 153
-1131.37298128361 65.3937438208546 2664.86667277743 153 154 156
-1138.92072075983 64.4717348259661 2667.95817625196 154 155 157
-1146.48277438496 64.0792507215212 2666.00758289193 159 160 162
-1154.06935368791 63.8971803557352 2662.03824082757 163 167 168
-1161.61975337589 63.2925716837673 2662.10527489762 156 160 161
-1169.22559811201 63.108674273507 2658.13329316381 158 162 163
-1176.90103870486 63.2383310567595 2651.1284989814 166 170 171
-1184.7955455761 64.3085953336576 2635.02422514499 174 180 180
-1192.55762422357 64.4319862481806 2628.00863554651 175 181 181
-1200.40334261484 64.7619602661142 2618.9664497081 171 177 177
-1208.31993238178 65.1930503719999 2608.90770642592 158 164 164
-1216.25219842762 65.5167344191092 2599.8547365163 156 162 162
-1224.22623492043 65.8374016197445 2590.79680211533 159 165 165
-1232.09400941863 65.7402365566664 2585.78421759099 168 172 173
-1240.65766985506 67.4014263563163 2563.54803776893 176 180 181
-1249.24823730608 68.8482739232697 2543.32467903829 186 190 189
-1257.48861088904 69.256497559551 2533.2255896681 149 153 152
-1265.58492536806 69.2494734876039 2527.17631995524 140 142 141
-1274.66639562452 71.1938446558633 2501.85171348627 155 157 156
-1287.44009460974 80.0056772311232 2408.52817226257 174 176 175
-1298.74604951304 85.1991429733224 2350.66901705622 117 119 118
-1307.71582524689 85.7701533038593 2338.46285945169 88 90 87
-1315.76301472271 84.7037403446203 2342.50010189987 85 87 84
-1324.22974373035 84.3523861752754 2339.42905525682 84 86 83
-1332.70575684279 84.0002290236095 2336.35661185826 93 95 92
-1341.12181511415 83.5457278461287 2334.2998473557 96 98 95
-1349.54184856983 83.0908216172238 2332.24234757159 98 100 97
-1357.96585351648 82.6354558577651 2330.18459364778 97 99 96
-1366.08435454456 81.7756076327868 2332.19701865857 113 115 112
-876.342106511117 79.5077579308819 2646.26765025876 191 196 192
-885.085665960468 77.7036061862324 2657.27446315355 158 163 159
-893.271987863891 76.5558196548591 2662.30248435865 142 147 143
-901.266889636554 75.6269432888505 2665.33820270715 132 137 133
-908.933444484867 75.1326869689894 2664.38276359271 133 138 134
-916.599556475825 74.6381005285299 2663.42738061362 120 125 121
-924.265185003824 74.14312683209 2662.47205898767 117 122 118
-931.861851009667 73.7556666094901 2660.51737324568 116 121 117
-939.463377546654 73.3675060450226 2658.56184251372 111 116 112
-946.817687355087 73.408829432578 2652.60528354449 108 109 104
-954.017454053928 73.7700727617453 2643.64386658059 106 107 102
-960.79893509605 74.9856643201391 2626.67018170635 96 98 95
-967.831089875214 75.8742861702437 2612.68937685811 151 153 150
-974.045376878162 78.5741328473214 2581.67398526407 156 158 155
-982.054872320046 77.7434131943379 2583.69969654979 125 127 126
-990.375067212655 76.1680232292305 2592.74336620596 107 109 108
-998.772655541928 74.2769363864807 2604.80103002111 107 111 112
-1006.93361918131 72.814598999907 2612.85634570945 143 147 148
-1014.85167741609 71.8848846778399 2615.90165588391 141 145 146
-1022.63932447041 71.2736151810765 2615.93934069502 130 134 137
-1030.38744797705 70.7679513615333 2614.9737523355 120 124 127
-1038.3181668338 69.6294607147409 2620.03364680933 132 133 135
-1046.2712882619 68.2823171486494 2627.10666925113 139 140 142
-1054.18029627611 66.9376852492451 2634.1851901718 145 146 148
-1061.97772158555 65.9102688320842 2638.25373928409 146 147 149
-1069.68788237695 65.1984863241158 2639.30904571835 149 150 152
-1077.40335163612 64.3826756061924 2641.37141047126 149 150 152
-1085.11600544454 63.4632422858281 2644.44256709788 147 148 150
-1092.79439487732 62.6491691865295 2646.50979488669 146 147 149
-1100.47346782853 61.6278865184496 2650.59285725185 144 145 147
-1108.13705214839 60.4004569053314 2656.6940098524 143 144 146
-1115.75467361619 59.3825839146906 2660.78497228887 144 145 147
-1123.34418044445 58.3662307341969 2664.87919899503 152 153 155
-1130.90935864202 57.5580559521125 2666.96053934369 154 155 157
-1138.46172403858 56.8537877232713 2668.03551792176 154 155 157
-1146.02395383178 56.4589035082199 2666.0849088976 156 157 159
-1153.62024075369 56.371717793369 2661.1061781375 158 162 163
-1161.18646182845 55.8725956774974 2660.16327289874 153 157 158
-1168.79748334655 55.6804851471369 2656.1906667621 170 174 175
-1176.4235369065 55.4870885173785 2652.21618810241 176 180 181
-1184.27181125676 56.3129713760771 2638.13394184618 175 181 181
-1192.07191217564 56.6246799716666 2629.09749689998 171 177 177
-1199.99221228161 57.2384201573602 2617.02219512182 171 177 177
-1207.91299672826 57.6450829074224 2606.96275242824 159 165 165
-1215.8180896535 57.8456713599002 2598.92142509822 159 165 165
-1223.93053171738 58.5493928287071 2585.81398081021 165 171 171
-1231.95893497217 58.8447680933083 2576.74932836417 175 179 180
-1240.50404532513 60.346778256984 2555.5238100437 175 179 180
-1248.90196042433 61.2377748933738 2540.36463276097 185 189 188
-1257.19411580534 61.7218389332276 2529.25095423857 164 168 167
-1265.39593691472 61.9014338206147 2521.17265227122 144 146 145
-1274.54024856959 63.8799739124364 2494.8324264864 148 150 149
-1287.37129709392 72.5434857826583 2400.49443187838 172 174 173
-1298.35545803869 76.9852794894481 2348.72401728381 110 112 111
-1307.44593045991 77.7256344231364 2334.48673701814 78 80 77
-1315.56601384803 76.7718520282577 2337.50689903024 80 82 79
-1323.98221894728 76.3154278829584 2335.44988099975 82 84 81
-1332.26941678584 75.6604792789725 2335.42533985368 98 100 97
-1340.75732598182 75.3023684477833 2332.35142757303 109 111 108
-1349.0390468995 74.6474975013383 2332.32732944105 108 110 107
-1357.38858897632 74.0913962620871 2331.28682042467 113 115 112
-1365.27323887875 72.94544881064 2336.35248366888 121 123 120
-875.423627403358 72.2672197892906 2641.3626629612 167 172 168
-883.758870643911 71.0259967723609 2647.38003282369 143 148 144
-892.137965763536 69.6808606671153 2654.39989098054 142 147 143
-900.235033604707 68.655646262459 2658.43104067742 127 132 128
-908.151145847302 67.8432406529133 2660.46859767369 130 135 131
-916.050554483405 67.0314512425276 2662.50823755857 128 133 129
-923.57663661803 66.7471261147022 2659.55416129688 126 131 127
-931.113067167185 66.4617261820199 2656.59903671345 112 117 113
-938.527916256396 66.385200761679 2651.64267997997 102 107 103
-945.900684077719 66.4117614691403 2645.68385643685 100 101 96
-952.936982927937 67.0641074745457 2633.71853085345 99 100 95
-959.974402499118 67.816667948727 2620.74535467001 97 99 96
-966.965929023861 68.7732537916972 2605.76175390878 196 198 195
-973.875408270721 70.0369567314937 2587.76404154877 150 152 149
-981.372891701467 70.2550018357968 2579.77353550243 123 125 124
-989.658949933763 68.8100472762987 2587.81319434807 123 125 124
-998.02837227175 67.0572322824827 2598.86656214897 133 137 138
-1006.33209309308 65.3083315986102 2609.92787853379 143 147 148
-1014.33699634515 64.1826733045835 2614.97848144012 138 142 143
-1022.27250995748 63.1619577788762 2619.02978030202 141 145 148
-1029.9794470808 62.7599451530957 2617.06113143098 131 135 138
-1037.90609564462 61.6383762989599 2622.12148929037 142 143 145
-1045.74332079993 60.7236656697054 2625.17684744358 147 148 150
-1053.63410215362 59.5030259058917 2631.2498695854 152 153 155
-1061.41819522846 58.5911327342823 2634.31185088847 152 153 155
-1069.1796891961 57.6803507834482 2637.37664950015 150 151 153
-1076.93585819821 56.6689378970237 2641.45006474222 147 148 150
-1084.69307807356 55.4557317664786 2647.53973499072 147 148 150
-1092.38785461203 54.4477222937077 2651.62080268654 143 144 146
-1100.045447445 53.5424545809226 2654.69855302402 139 140 142
-1107.69329621298 52.4361982640345 2659.79366312466 144 145 147
-1115.30393547314 51.4327450730795 2663.88545892533 149 150 152
-1122.88548173835 50.5315754357173 2666.97268863275 149 150 152
-1130.4493779383 49.9333632048329 2667.0380215731 151 152 154
-1138.01112615081 49.4356906187072 2666.09567070382 156 157 159
-1145.57179327515 48.9377882931412 2665.15345535296 156 157 159
-1153.17043175204 48.8398520816177 2660.17445944375 157 161 162
-1160.7396523657 48.3408374888639 2659.2311795971 164 168 169
-1168.33794337243 48.0410129413678 2656.26813291225 171 175 176
-1175.96383713542 47.8398327455053 2652.29369469201 172 176 177
-1183.83075416066 48.7299907780891 2637.20102530685 170 176 176
-1191.702306973 49.3175725719656 2625.13187578993 173 179 179
-1199.55399656662 49.6041064894298 2616.08905917873 176 182 182
-1207.30447659507 49.3936481879733 2612.09933803141 162 168 168
-1215.13251397028 49.3791989473631 2606.08356726899 163 169 169
-1223.25843290644 50.1503639893555 2591.96657643854 168 174 174
-1231.56336126345 51.2115400445145 2574.80318099367 174 178 179
-1240.15030729606 52.7572691180309 2552.56463959732 176 180 181
-1248.55425280353 53.6100500779037 2537.40505066365 185 189 188
-1256.89794070529 54.1645356822309 2525.27682836771 172 176 175
-1265.20452633926 54.519805418088 2515.16937530846 149 151 150
-1274.36120801795 56.4297130580061 2488.82778655892 146 148 147
-1286.71772091389 63.9677205977217 2403.62187985744 170 172 171
-1298.0194264161 68.8566349819405 2345.76405697639 115 117 116
-1307.05776509554 69.4647020962356 2332.54131816693 83 85 82
-1315.42786642586 68.90851541948 2331.49824370225 86 88 85
-1323.79659894639 68.3522367771874 2330.45534029913 89 91 88
-1331.96496255321 67.5069793719565 2332.46150433048 99 101 98
-1340.39171441701 67.0471983424604 2330.40341923511 108 110 107
-1348.89429592761 66.682986830991 2327.32769200225 116 118 115
-1357.3317688416 66.2221644759119 2325.26827172549 120 122 119
-1365.15671051181 64.9963401897442 2331.34928365508 126 128 125
-874.941954909545 64.4800013769208 2641.44328020333 162 167 163
-883.023690118414 63.5684071000943 2644.46811674058 144 149 145
-891.165725253242 62.5544821803104 2648.4936250546 134 139 135
-899.041426222574 61.8513818549271 2649.52800992036 123 128 124
-907.059684244376 60.942666856487 2652.56076045281 124 129 125
-915.05585229579 60.0350331477735 2655.59650510417 125 130 126
-922.743910175891 59.5388396005473 2654.63838764011 128 133 129
-930.293896950871 59.2472582794783 2651.68134732956 119 124 120
-937.788097369214 59.0568565931962 2647.72331527535 106 111 107
-945.044506223853 59.2734178734 2639.76289781849 96 97 92
-952.09558960416 59.894873843862 2627.79604882969 104 105 100
-959.205556327467 60.512128187092 2615.82162234389 93 95 92
-966.650640501678 60.6173718214882 2608.84563957184 196 198 195
-972.971605742289 62.9507284827211 2579.83351476795 151 153 150
-980.988312912779 62.1363338411433 2581.85852334997 119 121 120
-989.17659901838 60.9185374134249 2587.89417090102 119 121 120
-997.592794313594 59.0976954459651 2599.94956795819 135 139 140
-1005.81273793391 57.5832159199138 2609.00534770625 146 150 151
-1013.89972566835 56.2729331679068 2616.06156735278 151 155 156
-1021.79738300946 55.3664987704881 2619.10960240005 150 154 157
-1029.57175801222 54.7616861617657 2619.14868621201 147 151 154
-1037.43255872382 53.8570000173702 2622.20107587605 148 152 153
-1045.27082121365 52.9534510760958 2625.25627518213 150 154 155
-1053.11208102767 51.9513414408611 2629.31928736289 152 156 157
-1060.90256834176 51.0502686916542 2632.3804422075 150 154 155
-1068.73079884411 49.8524536238385 2638.46096994901 143 147 148
-1076.48538311244 48.8550594687324 2642.5347863074 145 149 150
-1084.2266948035 47.7602580462656 2647.61820262173 141 145 146
-1091.89867504714 46.9636140738895 2649.68618434047 140 144 145
-1099.581222923 45.872075962292 2654.77668516898 141 145 146
-1107.24352898423 44.5855955146837 2661.88608016385 143 147 148
-1114.84993459986 43.5964442424735 2665.978126366 145 146 148
-1122.42462693349 42.9028474035279 2667.0502905716 143 144 146
-1129.99202199656 42.5033664982827 2665.09928932626 146 147 149
-1137.5511027554 41.8103137859224 2666.17316006242 155 156 158
-1145.11896244391 41.4102060594471 2664.22210248528 155 156 158
-1152.71989344654 41.3015231117531 2659.24284878356 158 162 163
-1160.35359857662 41.2884053449369 2653.25132603005 160 164 165
-1167.96803578263 40.9823588650398 2650.28652104896 162 166 167
-1175.60987916635 40.7722792574196 2646.31011584664 169 173 174
-1183.38902865561 41.1405754076169 2636.26844939548 175 181 181
-1191.30787661657 41.8912786038558 2622.17735368409 172 178 178
-1199.16664145282 42.155864302437 2613.13395219303 167 173 173
-1206.9534086091 42.0331601612687 2608.13130389356 162 168 168
-1214.72938985088 41.8130122863213 2604.13818559399 161 167 167
-1222.72332768934 42.1658957462376 2594.06999568418 163 169 169
-1230.98395261034 43.0887309827064 2577.92018046002 172 176 177
-1239.55962982523 44.5782925564743 2555.68319326062 179 183 184
-1248.20507934159 45.9650071220001 2534.44545683261 187 191 190
-1256.64457887928 46.6794362705936 2520.28948240892 184 188 187
-1265.05806285348 47.1994650629174 2508.15264071655 166 168 167
-1274.17968817109 48.9458969713884 2482.82354439934 146 148 147
-1286.22286941222 55.6907239544994 2403.70543157538 160 162 161
-1297.34942425228 60.144913517436 2348.89391285714 124 126 125
-1306.668385033 61.1919027141317 2330.59608215434 89 91 88
-1315.22644319767 60.9176320527271 2326.50550780882 89 91 88
-1323.73573569175 60.5484267692741 2323.42919650456 97 99 96
-1331.85744731718 59.6169364684263 2326.44909661684 109 111 108
-1340.09376980688 58.8736052727851 2327.43882426413 109 111 108
-1348.38970078818 58.2242193383011 2327.41293835564 129 131 128
-1356.90140400742 57.8542308909132 2324.33608800084 133 135 132
-873.844823740895 57.3982558644638 2634.54455498693 159 163 162
-882.116965695982 56.2948402726749 2639.56174950766 145 149 148
-890.273746855439 55.293799130106 2643.58514340727 136 140 139
-898.243508461913 54.4949368507654 2645.61596961422 117 121 120
-905.965372002459 53.9974855218293 2644.65363671592 114 118 117
-913.984228121768 53.0994226935572 2647.68628455722 106 110 109
-921.766010673983 52.502083736876 2647.72466453795 94 98 97
-929.472871135484 52.0044833296268 2646.7642043278 92 96 95
-936.649263302942 52.3028924456627 2637.80562957015 109 113 112
-943.868440459676 52.5981603608649 2628.84196403977 124 125 120
-950.826135405134 53.3862056437051 2614.87071620338 122 123 118
-958.086095002542 53.7733632880811 2604.89379191023 101 103 100
-965.227806864481 54.4535529683159 2591.90755098265 196 198 195
-972.539229494598 54.9318627085486 2580.91627726327 160 162 159
-980.604127143986 54.0275223277955 2583.94319592553 122 124 123
-988.788552436366 52.8292944891169 2589.9795140188 121 123 122
-997.29104752113 50.8481650676209 2604.03993768011 131 135 136
-1005.41843096454 49.5577072030868 2611.09130424159 138 142 143
-1013.58011215129 48.0742323702984 2620.15427314716 159 163 164
-1021.39496681553 47.3748589982882 2621.19624145727 160 164 167
-1029.26577925629 46.4810315712914 2624.24735312066 155 159 162
-1037.11405162861 45.588314107851 2627.30151499701 160 164 165
-1044.91144895231 44.7938032592456 2629.35383978811 160 164 165
-1052.7174082015 43.903241380981 2632.41303614669 154 158 159
-1060.47781794553 43.1105194926602 2634.4699720579 150 154 155
-1068.2818566963 42.028951848938 2639.54552555533 139 143 144
-1076.01736973215 41.1420118269921 2642.61350364683 148 152 153
-1083.7005273562 40.4486095635145 2643.67189124428 140 144 145
-1091.39624893232 39.5636396289923 2646.74507015529 140 144 145
-1099.09771014967 38.392354649611 2652.84134808806 145 149 150
-1106.77381271712 37.0319726009992 2660.95666280721 143 147 148
-1114.39209968581 35.8654811638786 2667.06354803962 145 146 148
-1121.95934356282 35.5591240843416 2664.10439305619 143 144 146
-1129.53630684887 35.2518193506075 2661.14402764359 145 146 148
-1137.11083238736 34.658695665292 2661.20826097357 155 156 158
-1144.65860938771 33.7814460629887 2664.29964189304 155 156 158
-1152.22145706604 33.283822878964 2663.35715368682 158 162 163
-1159.83168837012 33.1636780097015 2658.37676954702 160 164 165
-1167.49191356314 33.2304312166442 2651.37403981089 163 167 168
-1175.21848374831 33.4830408406735 2642.34692670058 163 167 168
-1182.987032839 33.7326501993191 2633.31482304087 162 168 168
-1190.84328623076 34.166605959003 2622.25567446808 172 178 178
-1198.62414001897 34.1292132911582 2616.24585235907 176 182 182
-1206.4307101534 34.0898563762946 2610.23306644359 165 171 171
-1214.29405427163 34.1417586317756 2603.20502777587 163 169 169
-1222.25582207839 34.3774164889671 2594.14884830347 167 173 173
-1230.40506458508 34.9813866628045 2581.03707422924 176 180 181
-1238.69581099832 35.7661888146344 2565.89179089307 179 183 184
-1247.31133398803 37.1007015654929 2544.65792659029 182 186 185
-1255.98880529444 38.3356726838787 2524.42428074135 182 186 185
-1264.53147334405 39.1032315377563 2509.24760448392 169 171 170
-1273.89601459868 41.2446730676147 2478.84823742165 147 149 148
-1285.41211186624 46.8622845218033 2409.87622156288 156 158 157
-1297.011306623 51.9980373264116 2345.93426088351 125 127 126
-1306.4516690406 53.1815113761777 2325.60554634976 86 88 85
-1314.84094967767 52.6249688392923 2324.56007935813 84 86 83
-1323.22892053421 52.0683305763677 2323.51477607146 93 95 92
-1331.41742530673 51.2390796379385 2325.51838445194 113 115 112
-1339.58838911019 50.410796854432 2327.52417929206 110 112 109
-1348.24143400479 50.2171391906931 2322.4136115058 130 132 129
-1356.61827023848 49.660613045227 2321.36969745898 139 141 138
-1359.46782277793 42.6134532305158 2393.59140557511 133 135 132
-874.418460162277 48.4112160530114 2646.58960158684 159 163 162
-882.318059640076 47.7184506145249 2647.62121711222 140 144 143
-890.041135458371 47.221788028326 2646.65873085169 129 133 132
-897.92371395547 46.5294201187888 2647.69246944795 131 135 134
-905.486069202746 46.227465443192 2644.73391294304 118 122 121
-913.05878208988 45.9244627322404 2641.77406662587 115 119 118
-920.498221300112 45.8147503831528 2636.814968856 107 111 110
-928.30436913286 45.2183650464467 2636.8500654137 90 94 93
-935.639700501913 45.2996968338445 2629.88808238261 88 92 91
-942.943242493365 45.4752422873549 2621.92189100264 95 95 93
-950.162054980692 45.8409830564229 2611.95015802616 94 95 90
-957.312396810886 46.3958236369872 2599.97085733014 98 100 97
-971.208047536656 48.5483301464896 2564.97501679278 146 148 145
-980.170144624342 46.0242294340447 2585.02635813221 124 126 125
-988.448336388542 44.6543093096344 2593.06680106605 120 122 121
-997.035106326383 42.5238933770538 2609.13271532977 138 142 143
-1005.19268451898 41.1611468868789 2617.18795096402 140 144 145
-1013.3007886901 39.8011963465556 2625.24959356938 152 156 157
-1021.02956219844 39.2981388433829 2624.28641311161 159 163 166
-1028.89324932327 38.4159632509519 2627.3383832876 162 166 169
-1036.67195236681 37.7239419737998 2628.38508401352 163 167 168
-1044.49601035287 36.8437236241282 2631.44199451741 160 164 165
-1052.32336292471 35.8704200849145 2635.50666637995 153 157 158
-1060.076509813 35.0866712945833 2637.56448502229 153 157 158
-1067.87373525723 34.0222275464366 2642.64060341619 147 151 152
-1075.56671622802 33.3342936468878 2643.69799098603 143 147 148
-1083.21780260687 32.8337366498571 2642.74449883774 144 148 149
-1090.91717355248 31.959759497808 2645.81695311118 142 146 147
-1098.61315975642 30.9007524969369 2650.905931515 142 146 147
-1106.31028293415 29.3788990203518 2661.03466268065 140 144 145
-1113.92164116354 28.4173548669826 2665.12625839225 148 149 151
-1121.49881519966 27.8277328681029 2665.18991171508 150 151 153
-1129.07300766544 27.5154411857816 2662.23014548616 149 150 152
-1136.6491575275 27.017776825903 2661.28599735449 145 146 148
-1144.20449814015 26.2437926264811 2663.3684753359 150 151 153
-1151.77025866967 25.7463123491756 2662.42562324674 157 161 162
-1159.39481324567 25.7071712885276 2656.4353109597 154 158 159
-1167.05973614736 25.7575599547523 2649.43203807274 160 164 165
-1174.77323800945 25.8970448665836 2641.41478108872 164 168 169
-1182.48326658599 25.8515055703463 2635.41405927001 166 172 172
-1190.28723403882 26.0770276108912 2626.37735877245 174 180 180
-1198.15854618615 26.3903608287886 2616.32433570935 177 183 183
-1206.07720890106 26.700351575599 2606.26565264637 171 177 177
-1214.1047819077 27.1878706956561 2594.17705597434 163 169 169
-1222.05619858371 27.3102580971115 2586.13015365378 161 167 167
-1230.22520524806 27.8805126730748 2573.01624218708 171 175 176
-1238.30194428895 28.0867166266758 2563.94555228143 175 179 180
-1246.96142117214 29.4566314046591 2541.69842246442 174 178 177
-1255.55550898549 30.460636440556 2523.49140508855 171 175 174
-1264.1927435458 31.3691344160132 2506.28694186636 173 175 174
-1273.21298988399 32.8070601655882 2482.98668368281 160 162 161
-1285.02200924655 38.7778078856762 2407.93082004864 177 179 178
-1296.6165845299 43.7450476969859 2343.98963935647 131 133 132
-1306.0594764769 44.8769397936883 2323.66074499164 89 91 88
-1314.39388059456 44.2320033166989 2323.63028641444 87 89 86
-1322.9110828487 43.8523180261405 2320.55277534888 91 93 90
-1331.23994916007 43.2074332243461 2320.52276745233 100 102 99
-1339.69903719878 42.7387540039068 2318.46067042657 110 112 109
-1348.09102575687 42.1819195125265 2317.41486627126 123 125 122
-1356.33361533045 41.4497453118719 2318.40378244199 129 131 128
-864.934328649646 42.4698352787505 2633.68023109516 13 17 16
-873.495979339909 41.1117780121895 2641.6852687904 148 152 151
-881.666388547722 40.1377589485023 2645.70689082846 142 146 145
-889.560906154405 39.4505728072901 2646.73912584842 129 133 132
-897.364061764157 38.8587079513001 2646.77458391333 109 113 112
-904.851750992687 38.6459967710301 2642.81742316838 113 117 116
-912.579332946172 38.1480617019852 2641.85437791986 103 107 106
-919.874481551598 38.2164255920661 2634.89744361061 102 106 105
-927.547994957196 37.8111075294413 2632.9329745267 103 107 106
-934.627192976535 38.2519245308928 2621.97077980165 101 105 104
-941.887716287945 38.5010508416909 2613.00207602786 105 105 103
-948.885121742904 39.2157955393525 2599.02606558914 94 95 90
-955.893787521482 40.0192069509333 2584.04072932977 60 62 59
-971.197323217794 39.746150267585 2574.06944004174 151 153 150
-979.484586306681 38.4905974071704 2581.10076264757 121 123 122
-987.918300027568 36.8660584184946 2592.14552918494 121 123 122
-996.376190358785 35.0601087619919 2605.20337082793 137 141 142
-1004.63087804596 33.5362717409207 2615.26276673141 140 144 145
-1012.78576074278 32.108383455498 2624.32643766314 155 159 160
-1020.66481650152 31.2367253148881 2627.37646222715 163 167 170
-1028.5214096812 30.3662294196197 2630.42928692749 166 170 171
-1036.32405618528 29.5886438816559 2632.48091207971 164 168 169
-1044.05216838296 28.9951122288426 2632.52597977698 160 164 165
-1051.90400807689 27.9444788141936 2637.59524626637 154 158 159
-1059.74573639506 26.804361467537 2643.67393761537 155 159 160
-1067.54869531243 25.6664477082467 2649.75770162205 153 157 158
-1075.20546099919 25.0763538732179 2649.81142361998 146 150 151
-1082.79510737281 24.8494134137406 2645.84157669838 146 150 151
-1090.47486899286 24.0777452380193 2647.90852157448 144 148 149
-1098.14715159793 23.2165125132021 2650.98432275067 144 148 149
-1105.83225131957 21.9053382453545 2659.09862535997 142 146 147
-1113.4413085193 21.1374278196042 2661.17438383382 148 149 151
-1121.02976938341 20.5501326168062 2661.2366224997 148 149 151
-1128.61573868605 20.3217243253749 2657.26723832031 149 150 152
-1136.20563326729 19.8235128200559 2656.32137636983 150 151 153
-1143.7751995286 19.0571626386591 2658.40205897048 151 152 154
-1151.33656492955 18.380778682489 2659.47584096897 158 162 163
-1158.92139071973 17.9719133123713 2657.52244891685 154 158 159
-1166.53941792364 17.740118999312 2653.54907301787 163 167 168
-1174.20687772979 17.6843318623492 2647.55369051736 165 169 170
-1181.88023235917 17.5381879082308 2642.56549742741 164 170 170
-1189.70943884852 17.9200271545216 2631.50986139512 172 178 178
-1197.69251112221 18.6506107813939 2616.40287648643 177 183 183
-1205.6939069308 19.2002487021129 2603.30993615686 167 173 173
-1213.69733232521 19.5699440658805 2592.23259061567 156 162 162
-1221.65322248237 19.6733235736437 2584.18518008772 152 158 158
-1229.8619679405 20.2983274393087 2570.05823790725 164 168 169
-1237.98443962834 20.569860365929 2559.97398169792 170 174 175
-1246.48564395871 21.5341847190047 2541.77866012926 176 180 179
-1255.20959683185 22.7529461686037 2520.53156924499 178 182 181
-1263.80569471667 23.5311133859847 2504.34026995631 194 196 195
-1273.02613295714 25.2552917547647 2476.98328650928 167 169 168
-1285.41391017068 31.9762886209123 2390.76794267613 174 176 175
-1296.27565439946 35.5663993055761 2341.03042203731 141 143 142
-1305.43562039904 36.2167549984529 2325.77701929551 85 87 84
-1313.82537549418 35.6611676520376 2324.73149057886 84 86 83
-1322.27667279184 35.1911034974611 2322.67036943869 90 92 89
-1330.92896819906 34.9768894240454 2317.5599493186 97 99 96
-1339.66963090164 34.8464324117912 2311.43083408178 104 106 103
-1348.00947961394 34.2037444943495 2311.39944986112 113 115 112
-1355.67886520469 32.7973490546557 2320.52365136081 117 119 116
-873.013668770007 33.3202703899911 2641.76597695613 143 147 146
-881.185297078094 32.3599694890281 2645.7874107314 133 137 136
-888.997518595662 31.7706948627544 2645.82197087207 128 132 131
-896.723623283545 31.2736601536024 2644.8591076065 131 135 134
-904.294161034758 30.9604939331305 2641.89955949868 119 123 122
-911.650472968218 30.9219606471839 2635.94296097578 107 111 110
-919.10551156073 30.7896624515301 2630.98173570551 102 106 105
-926.720619660226 30.4725246263021 2628.01687620954 95 99 98
-934.27923994891 30.2457989018338 2624.05090059443 90 94 93
-941.533339162599 30.4736528048543 2615.08281426145 93 93 91
-948.768856553976 30.789419404098 2605.10936848563 93 94 89
-955.290295559527 32.2826169078319 2582.1208011282 59 61 58
-962.489333247043 32.8612400697779 2569.1276737483 200 202 199
-970.604051662369 31.9874415017047 2572.14853491147 158 160 157
-978.999367832353 30.572843154191 2581.18216616859 117 119 118
-987.435492354463 28.9812366781446 2592.22654512562 130 132 131
-995.760777899673 27.4835097918546 2602.27706207368 117 121 122
-1003.98335572865 26.0791394795725 2611.33222311938 121 125 126
-1012.11135897723 24.7676374749636 2619.39101458128 159 163 164
-1020.07888806577 23.7273142546865 2624.44605683539 164 168 171
-1027.94457236073 22.8674072531473 2627.49771913281 157 163 163
-1035.7561871976 22.0977309322113 2629.54820426148 161 167 167
-1043.57953806262 21.2398962339957 2632.60538433209 163 169 169
-1051.40650108179 20.2945351325088 2636.66979095434 159 165 165
-1059.25242059384 19.1736202174199 2642.7479086982 155 161 161
-1067.03876616991 18.1432866497676 2647.82553527612 145 151 151
-1074.75562602826 17.2912481198082 2650.89574926205 146 152 152
-1082.38839328866 16.7924852387808 2649.94453850671 141 147 147
-1090.04548684783 16.1177965956005 2651.00636973245 138 144 144
-1097.68075752525 15.5313116982438 2651.06276467645 145 151 151
-1105.3241546837 14.769992782293 2653.13422036796 148 154 154
-1112.95932536382 13.8348517640184 2657.22277489478 144 145 147
-1120.56452526906 12.9884036980275 2660.30690866045 144 145 147
-1128.15047621122 12.4911003692663 2659.36153646116 149 150 152
-1135.73528889212 11.9936008044153 2658.41630682693 159 160 162
-1143.30644810621 11.3226820858586 2659.4886119542 155 156 158
-1150.86572574441 10.6522540459014 2660.56263880845 155 159 160
-1158.44792567877 10.2411994351645 2658.60982048164 158 162 163
-1166.07736052756 10.0878474520526 2653.626887034 161 165 166
-1173.71020095659 9.84698973727679 2649.65192666899 163 167 168
-1181.37770763372 9.69070472155709 2644.66424980629 164 170 170
-1189.20016520678 10.0460690649442 2633.60952571958 171 177 177
-1197.22603482715 10.9099631489739 2616.48147469031 173 179 179
-1205.25351419069 11.5125327778301 2602.37721252658 175 181 181
-1213.1667025025 11.6002083419161 2594.33517229225 171 177 177
-1221.21592596916 11.9397826470616 2583.25219074514 165 171 171
-1229.49730545289 12.6990031452293 2567.10045661657 166 170 171
-1237.93534567322 13.6217236597616 2548.91312711765 174 178 179
-1246.46364699706 14.5383033258217 2530.7143094696 170 174 173
-1254.95029148698 15.1963472309756 2515.54491302493 153 157 156
-1263.46424838578 15.765357394495 2501.38002971848 153 155 154
-1272.78739525412 17.5862121833295 2471.99460005161 161 163 162
-1284.55050134076 23.0751697298814 2397.9534219983 177 179 178
-1295.98789144139 27.4539798756681 2337.05670825956 148 150 149
-1305.15660875389 28.0660336341863 2321.80231427242 75 77 74
-1313.6174255376 27.593240392 2319.73977207489 78 80 77
-1322.08221752462 27.1200471049559 2317.67697511773 92 94 91
-1330.74740864268 26.8945327598945 2312.56521571677 99 101 98
-1339.56908897808 26.8326189412485 2305.41788208535 104 106 103
-1347.71274187691 25.9450301381737 2308.43492844339 107 109 106
-863.509370787545 27.2875750765253 2628.85936359425 112 116 115
-872.354032880023 25.7077465601898 2639.85272846091 141 145 144
-880.360564347416 24.9405237570602 2641.87888268516 129 133 132
-888.184111340966 24.3533619332093 2641.91178364066 133 137 136
-895.921405830674 23.8557935360352 2640.94752535942 116 120 119
-903.736026239389 23.2685160855482 2640.98178087317 115 119 118
-911.394686517836 22.859635226856 2639.01917475421 101 105 104
-918.913630784167 22.6280639058725 2635.05840350157 96 100 99
-926.169807835858 22.7504555521965 2627.09802269598 96 100 99
-933.396428088948 22.9586819817833 2618.13365753183 97 101 100
-940.473177841522 23.4292272375069 2606.1640029495 108 108 106
-947.547363758791 23.9839125231292 2593.18651937196 132 133 128
-953.627644403786 26.1202172948065 2562.1893350467 128 130 127
-962.673868183319 23.8486150908529 2581.22158555958 195 197 194
-969.903053415184 24.3922913088845 2568.22478797591 161 163 160
-978.513909160811 22.6540889258845 2581.26360229821 115 117 116
-986.904404279035 21.1827830740734 2591.30567162948 132 134 133
-995.098766575549 19.9767730848719 2598.34821696685 119 123 124
-1003.12138989881 19.0345074340155 2602.38843845686 114 118 119
-1011.27557848329 17.7461244868917 2610.44414152917 138 142 143
-1019.41735936926 16.3739555566898 2619.5093007545 151 155 158
-1027.43532341909 15.1781678709483 2626.57383263012 156 162 162
-1035.31395369963 14.2440302649783 2630.63200219567 159 165 165
-1043.16458554296 13.3113752053029 2634.69342162769 161 167 167
-1050.96096611645 12.4662749100315 2637.7536936269 157 163 163
-1058.80561104794 11.3648210444229 2643.83191918089 155 161 161
-1066.50691266842 10.6938855351577 2644.88822361819 149 155 155
-1074.2510516679 9.76700190745658 2648.96315779742 147 153 153
-1081.90501938472 9.1828793718195 2649.01721324025 142 148 148
-1089.56545401631 8.51377093579864 2650.07861282463 138 144 144
-1097.20392637017 7.93015776617762 2650.13460065575 143 149 149
-1104.84334639411 7.26190779984837 2651.19838020944 145 151 151
-1112.48502305099 6.3403273064993 2655.28608711766 147 148 150
-1120.09659139318 5.50476102885808 2658.36939748324 146 147 149
-1127.68954185084 5.17586602919581 2655.40733409208 147 148 150
-1135.27869995379 4.50989234172561 2656.47738004186 153 154 156
-1142.85585656618 3.8443871110112 2657.54916274178 155 156 158
-1150.41227316651 3.09571629670322 2659.6314397844 159 163 164
-1157.97435721839 2.51499866799498 2659.6969527987 158 162 163
-1165.60068713804 2.35130602364625 2654.71467432837 160 164 165
-1173.21367560976 2.01966878988491 2651.74987726435 163 167 168
-1180.95371554507 2.18518397180836 2642.72155283771 170 176 176
-1188.82468550705 2.67901649025648 2629.64479557552 174 180 180
-1196.78406491153 3.25110643927648 2615.54911215123 177 183 183
-1204.72942000249 3.57107971369802 2604.47914438196 179 185 185
-1212.51484012259 3.31130207539665 2600.48495252975 173 179 179
-1220.67866730471 3.95357034184335 2585.3558833212 175 179 180
-1229.0954050797 5.00048372980386 2565.15527071888 178 182 183
-1237.69003725939 6.20405248980441 2542.91667120383 181 185 186
-1246.1084774679 6.8289930807082 2527.75563315792 164 168 167
-1254.55729144829 7.36742727110723 2513.59920009204 147 151 150
-1263.07473416698 7.90112857995015 2499.43397476049 129 131 130
-1272.39891244986 9.64591866823908 2470.04837642412 145 147 146
-1284.15578366122 14.9390561495095 2396.00849213156 172 174 173
-1295.86219843216 19.5609839698219 2330.03888970298 148 150 149
-1305.1048614725 20.2146786788351 2313.76723069927 83 85 82
-1313.58717141889 19.7382492594117 2311.70225612659 85 87 84
-1321.88553780796 19.0209435479066 2312.68393225612 93 95 92
-1330.30236542437 18.4642287484299 2311.63502801797 98 100 97
-1338.98985812892 18.2266631140932 2306.52051724751 104 106 103
-1347.27305568157 17.5098783319731 2307.50432525503 115 117 114
-1347.24853124205 7.8159068225146 2423.42534018705 160 162 159
-863.206922799858 19.2808174546696 2630.93356702266 181 185 184
-871.604831473665 18.1706640277435 2636.94277144245 132 136 135
-879.620334894194 17.4111710444278 2638.9677856638 130 134 133
-887.369195589188 16.9132838689401 2638.00208482801 124 128 127
-895.117683547059 16.4151218279852 2637.03643123146 119 123 122
-902.94364419856 15.8299587430785 2637.06926598185 132 136 135
-910.538101134284 15.5041902666108 2634.1067660888 126 130 129
-918.070410579874 15.2637323682561 2630.14411007454 127 131 130
-925.129948246597 15.624549804458 2619.18457952127 119 123 122
-932.310108981697 15.8956147662932 2609.21791938033 104 108 107
-939.216619655111 16.5919722958251 2594.24561339673 171 173 168
-945.581648381411 18.1388404166035 2569.26104958142 132 134 129
-969.789433322205 15.8389167901384 2575.31578232398 158 160 157
-978.180668204078 14.4797617497356 2584.34977689376 115 117 116
-986.468931344593 13.2085478876503 2592.38870303994 127 129 128
-994.798575187911 11.7711613778855 2602.43851719393 128 132 133
-1002.72607876209 11.0121358774251 2604.47427177601 124 128 129
-1010.83667764596 9.83305417474253 2611.52743964613 129 133 134
-1018.90310593334 8.65651513881432 2618.58587278079 132 136 139
-1026.96004215875 7.39875410175825 2626.65363173085 137 143 143
-1034.90359285326 6.31121533346338 2632.71947778543 145 151 151
-1042.74995413177 5.39275010795795 2636.781633059 152 158 158
-1050.43592400676 4.89229999751159 2635.82378737514 156 162 162
-1058.2161052808 4.05922057396224 2638.88604929462 156 162 162
-1065.88931722846 3.55898599478588 2637.92979515708 151 157 157
-1073.67187739031 2.56200953534524 2643.00780628755 147 153 153
-1081.40530233657 1.64957191575102 2647.0837992055 150 156 156
-1089.12369937219 0.656235099265157 2652.16980792993 149 155 155
-1096.76747696846 -0.00628788522297197 2653.23326887129 150 156 156
-1104.38426939118 -0.504152521788648 2652.28404931574 147 153 153
-1112.02922271466 -1.49346749640564 2657.37921278988 140 144 145
-1119.63416131826 -2.23573611612868 2659.45517744465 147 148 150
-1127.22279163752 -2.81414100365923 2659.51761181995 149 150 152
-1134.81135411328 -3.22960483556844 2657.56377082837 151 152 154
-1142.37455760694 -4.05148680176368 2660.65332107272 158 159 161
-1149.93229208043 -4.71008362638328 2661.72726907897 155 159 160
-1157.50075365814 -5.206541532116 2660.78407722258 156 160 161
-1165.17996142296 -5.05808362017623 2651.7633892109 164 168 169
-1172.83442383205 -5.23440804345762 2646.77763323754 163 167 168
-1180.6062549494 -5.01091990360264 2636.73726142268 158 164 164
-1188.38120114801 -4.95092778294481 2628.71254589016 165 171 171
-1196.26696333169 -4.65379419604542 2617.65007511091 172 178 178
-1204.06799979081 -4.75903299912001 2611.63791299427 179 185 185
-1211.92486972174 -4.78665645506979 2604.61089169498 176 182 182
-1220.04295014389 -4.26074887583447 2590.49552494154 176 180 181
-1228.62120735815 -2.86816430004791 2565.23516959562 178 182 183
-1237.28914897934 -1.56324178394066 2540.97154011904 181 185 186
-1245.62900995663 -1.13406849128903 2527.83643830796 174 178 177
-1253.90126047556 -0.945324100746103 2517.7339488754 165 169 168
-1262.40602056717 -0.445812040423849 2503.5703962969 130 132 131
-1271.66599259889 1.14560349813547 2475.20114179444 131 133 132
-1283.50127179193 6.40052763802154 2399.13595881766 164 166 165
-1295.78794468443 11.7070016964771 2322.00662172273 144 146 145
-1304.99281415451 12.2412037818764 2306.74792117966 84 86 83
-1313.13516150412 11.2955512990507 2310.77321073809 85 87 84
-1321.4991921269 10.6614457667082 2310.73878615655 91 93 90
-1329.98671410556 10.1821162566491 2308.67316879034 96 98 95
-1338.6138774999 9.85662099677404 2304.57410541885 103 105 102
-1347.11463297485 9.3761473222001 2302.50659933492 117 119 116
-853.906780016536 12.886311783075 2621.02573067689 171 175 174
-862.630146173775 11.5382181969237 2630.0182480971 174 178 177
-870.765543015851 10.7007844938042 2633.03619268054 121 125 124
-878.792735591332 9.94887809004782 2635.05972818546 121 125 124
-886.552765762358 9.45036893811951 2634.09263510305 123 127 126
-894.312415817602 8.95158539078686 2633.12559017945 123 127 126
-901.993566221869 8.53640692722069 2631.16043427901 124 129 125
-909.755010870937 8.03682224875083 2630.19316751046 127 132 128
-917.007323598282 8.1217480141996 2622.23360788352 110 115 111
-924.01720361572 8.53736605943894 2610.27220262892 91 96 92
-930.951592777129 9.11530032735991 2596.30441653648 83 88 84
-937.762183120964 9.93743904161587 2579.32813513754 85 90 86
-969.677924980647 7.32270675365146 2582.40665553536 154 159 153
-977.797175461291 6.40294954668089 2586.43451898346 129 134 130
-985.936936509669 5.40268677533259 2591.46796220944 134 138 137
-994.271417665114 3.9953284707949 2601.51685334852 140 144 143
-1002.2882465562 3.08129236120661 2605.55772360792 141 145 144
-1010.3174123101 2.08729875636468 2610.60495196319 125 129 130
-1018.38820070195 0.932668751177118 2617.66278328594 129 133 134
-1026.44966408625 -0.300506398813655 2625.72991252727 136 142 142
-1034.42944208656 -1.44984615835247 2632.79908747716 138 144 144
-1042.24760029053 -2.27360951952571 2635.85658556678 139 145 145
-1049.93653647747 -2.77400971229927 2634.89836957328 148 154 154
-1057.67245221659 -3.43538506771307 2635.95032919688 154 160 160
-1065.39663579963 -4.0962519062181 2637.00375158504 148 154 154
-1073.18316106217 -5.07670153319659 2642.08098410283 148 154 154
-1080.95211198849 -6.13516827150809 2648.16878288484 150 156 156
-1088.68221051961 -7.19134155972212 2654.26118390762 151 157 157
-1096.32121451262 -7.84774002842878 2655.324984169 150 156 156
-1103.95607888356 -8.58292439746541 2657.39743587755 147 153 153
-1111.57868524442 -9.396409843906 2660.47931061458 155 159 158
-1119.17159832829 -9.97171326426063 2660.54120235857 152 156 155
-1126.75835024556 -10.4680523424658 2659.595727663 150 154 153
-1134.34700034551 -10.8859106442282 2657.6418820422 151 155 154
-1141.91689151823 -11.6180905692863 2659.72243410967 154 158 157
-1149.49486627048 -12.1145274358182 2658.77805500993 156 160 159
-1157.04928618557 -12.7673564362784 2659.85264173286 160 164 163
-1164.7439735772 -12.5625739253713 2649.8219462595 159 163 162
-1172.38686761525 -12.8275155770872 2645.84555441897 158 162 161
-1180.17938297651 -12.5507193970097 2634.79477384973 159 163 162
-1187.89294967148 -12.7419472913762 2629.80168125868 162 166 165
-1195.72537945219 -12.6258553510104 2620.76195727989 165 169 168
-1203.49038994807 -12.8208407921756 2615.76221443324 185 189 190
-1211.39577413356 -12.7099638269332 2606.71339990948 188 192 193
-1219.44109654523 -12.3720124507844 2594.6232223667 175 179 180
-1227.79232931587 -11.5026107273654 2575.43893897051 175 179 180
-1236.27743669616 -10.5633424071485 2555.2300777251 180 184 185
-1245.02659499547 -9.32639174471581 2530.95649188869 193 197 198
-1253.5504526067 -8.70534760000452 2514.77486180585 180 184 185
-1262.29230348528 -7.86238326896066 2495.54190120102 155 159 160
-1271.37404689573 -6.64781463078087 2471.22686965123 120 124 125
-1282.48622943469 -2.65059564442072 2409.36405770213 145 149 150
-1295.43924827835 3.43239672092319 2319.04862628711 140 144 145
-1304.82088126601 4.15367239260295 2300.74407248711 76 78 75
-1312.86119265407 3.07131662931051 2306.79782972992 81 81 79
-1321.17402210587 2.36497675784458 2307.77791234531 88 88 86
