ply
format ascii 1.0
comment KinectMotionCapture
element vertex 782
property float x
property float y
property float z
property uchar red
property uchar green
property uchar blue
end_header
-1170.42904715238 -380.824754224147 2776.38845828703 13 15 10
-1168.60829633507 -381.022511638323 2769.11172247988 13 15 10
-1169.8083529107 -381.02864972234 2761.32025031892 13 15 10
-1175.03472364004 -380.779016590037 2752.87374795805 12 14 9
-1166.16823545723 -381.42402603247 2746.72215362798 12 14 9
-1144.21777856641 -382.900727027633 2742.59164739933 10 12 7
-1124.28342927771 -384.250376077995 2738.0267389867 7 9 4
-1129.5117409315 -384.000959579767 2729.50414596986 7 9 4
-1117.63204578783 -384.839584929426 2723.57741779584 9 11 6
-1149.0230659295 -382.924546699012 2711.20076729074 10 12 7
-1146.19935780733 -383.186318209341 2703.94618213278 9 12 5
-1177.58447799748 -381.268782083952 2691.81212900676 10 13 6
-1147.59588811188 -383.261058363073 2688.40217640406 10 13 6
-1197.08412503241 -380.187006347472 2673.96159901253 11 14 7
-1221.41809129941 -378.71464687325 2663.1572887929 11 14 7
-1239.71340773632 -377.626168502613 2653.27520551891 12 15 8
-1213.75210850585 -379.362336482669 2649.18174437951 12 15 8
-1197.85152464461 -380.457180869273 2643.67887115467 13 16 9
-1239.27484441284 -377.889235825039 2631.02515618348 13 16 9
-1241.47498270139 -377.826599846444 2623.31970756483 12 15 8
-1235.63121196459 -378.278184600525 2616.57133905687 12 15 8
-1222.75007088072 -379.180232965024 2610.5990020355 11 14 5
-1193.78491934663 -381.112537337803 2606.36208833738 12 15 6
-1243.42594591289 -378.08858839996 2585.90549026049 16 19 10
-1244.62018097704 -378.088822115606 2578.33855780263 17 20 11
-1177.46860136757 -382.472025402357 2577.71522876593 16 19 10
-1194.94030057788 -381.506680170154 2560.7825871407 14 17 8
-1187.09382426939 -382.087831402289 2553.93279833964 14 17 8
-1180.25347024831 -382.604523872416 2546.94696264344 15 18 9
-1176.42835999124 -382.927602518835 2539.65665323105 14 20 10
-1175.61787166323 -383.056811762812 2532.08644798748 14 20 10
-1180.83496746797 -382.798047267172 2524.01224636481 17 25 14
-1137.02654826851 -385.771185530236 2512.12435871541 29 36 28
-1181.41676663114 -382.989250285917 2501.06822052834 20 27 20
-1133.64086578359 -389.873045877525 2874.71191785548 23 28 22
-1097.55797094823 -392.331080107135 2874.32079881053 15 20 14
-1089.08262285927 -393.146960220994 2852.68930207355 18 21 14
-1173.90587024311 -387.644076277998 2828.73956355202 12 15 6
-1193.23812152949 -386.45324456115 2817.54853521426 12 15 6
-1188.39282366245 -386.855736449554 2810.93726204744 12 15 4
-1177.50480205069 -387.65720311858 2805.40055688323 12 15 4
-1164.60390784066 -388.5920747255 2800.16499739062 13 14 6
-1153.71888336724 -389.39457625896 2794.50071773144 12 13 5
-1165.99728444734 -388.667292558913 2784.73441141589 12 15 6
-1133.96774308635 -390.867844515308 2782.64263384004 12 15 8
-1166.38371032175 -388.80861232454 2769.47981131055 13 16 9
-1167.58372424981 -388.812575233509 2761.68301671141 14 17 10
-1176.8377857942 -388.28326595646 2752.57199630396 15 18 11
-1183.07057495955 -387.953377866814 2743.99483327247 10 13 6
-1134.9452927497 -391.224006495271 2744.05418727317 9 12 5
-1114.0035683797 -392.695732305559 2739.62174830089 7 10 3
-1117.22012378164 -392.566816892859 2731.37985022188 8 10 5
-1112.38491482724 -392.971691506391 2724.36238422418 8 10 5
-1089.43646860573 -394.578789863167 2719.98858576661 7 9 4
-1176.17447919793 -388.904764649405 2699.60334997965 11 12 6
-1087.8221515783 -394.855246496111 2704.5685259527 11 12 6
-1185.61584890338 -388.441287202301 2683.10099261802 12 13 7
-1213.97818070327 -386.637271523367 2671.65228143809 12 13 7
-1205.11478891591 -387.307259846418 2665.34352406085 13 14 9
-1214.55010081585 -386.840189010472 2649.08178502798 13 14 9
-1193.61918834192 -388.314009872256 2644.21520540978 13 14 9
-1206.88570563483 -387.510568354792 2635.01982872671 13 14 9
-1227.18995629892 -386.237100500352 2625.04591247909 11 12 7
-1203.24616976637 -387.912761613863 2620.3916821646 10 11 5
-1207.45984005848 -387.711284468727 2612.36515303448 11 14 7
-1205.64056056019 -387.911957525247 2605.03710717868 13 16 9
-1252.07919088642 -384.890572273223 2592.40468483661 14 17 10
-1238.1932853726 -385.895673034382 2586.47388606466 14 17 10
-1219.28332392899 -387.237069295322 2580.9893750541 15 18 11
-1192.52757897421 -389.182461557119 2568.61279415859 13 16 9
-1186.88340065226 -389.716859776554 2553.96541914296 16 19 12
-1202.15003694087 -388.772686701527 2544.97521851756 15 18 11
-1201.33755206911 -388.904575427876 2537.48016809798 15 18 11
-1200.52499816204 -389.036292592156 2529.97867523964 17 22 15
-1186.65205152423 -390.043436062513 2523.54853018567 18 20 15
-1162.93018485043 -391.789222062832 2510.14560831576 26 31 24
-1202.2996887025 -389.22371357214 2499.53386947934 26 28 23
-1194.90706026925 -393.398515570469 2862.19714098746 23 28 22
-1158.81724417988 -395.953768606039 2861.9721424599 19 24 18
-1214.43523597925 -392.228727769023 2843.33543690763 17 22 16
-1148.31355848281 -396.929159158636 2841.22751226527 20 23 16
-1168.65790102144 -395.619009872291 2829.7260523706 12 15 6
-1176.91031419409 -395.137377870952 2820.60356619183 13 16 5
-1210.34596979002 -392.926246559949 2806.85904956775 13 16 5
-1210.53591286209 -392.996561078292 2799.3599179976 13 16 5
-1169.42889727129 -395.904576502722 2799.28622859348 14 16 5
-1174.65770578253 -395.629637273825 2790.78094579685 14 16 5
-1164.77921186979 -396.393296835163 2784.93715717227 12 15 6
-1170.00750569675 -396.118037390235 2776.4430090554 13 16 7
-1164.15861352671 -396.604957186364 2769.84753906501 14 17 8
-1196.57273680063 -394.457126116312 2756.85191559111 14 17 8
-1189.71619903922 -395.012783748703 2750.4567587399 14 17 10
-1211.04976102415 -393.625780042773 2739.48385824973 10 13 6
-1153.85889460405 -397.652025013506 2741.05421920924 9 12 5
-1141.97366371777 -398.556184724126 2735.26415649556 8 11 4
-1140.15586670628 -398.766135280103 2727.86820845602 8 10 5
-1119.21493311912 -400.296406999854 2723.3326760741 8 10 5
-1126.0397272497 -400.163289908733 2691.40663063917 11 12 6
-1147.36530437642 -398.771912827254 2680.75982665055 12 13 7
-1214.96689090222 -394.175858607515 2664.0238694253 13 14 9
-1183.97135802908 -396.403459454724 2660.59857697945 13 14 9
-1207.30046790933 -394.869225557903 2650.01648471595 13 14 9
-1212.52106392904 -394.588528796621 2641.83835653292 13 14 9
-1196.61924934844 -395.771873723559 2636.28855902 13 14 9
-1205.86282624606 -395.211744239182 2627.62040729389 11 12 7
-1241.25194777919 -392.83650438704 2615.92020548469 11 12 7
-1253.50807953031 -392.065029814002 2607.07171044687 11 14 7
-1259.72946057562 -391.711728090941 2598.96555602267 14 17 10
-1232.77036631869 -393.663362145149 2594.52986834044 15 18 11
-1209.83649888192 -395.3365215243 2589.5153492334 14 17 10
-1160.76785801794 -398.828165900026 2587.09895587128 14 17 10
-1192.31767290406 -396.793501964253 2568.64450152659 13 16 9
-1164.3677906076 -398.818781948096 2563.7450055272 15 18 11
-1232.90436544285 -394.124893360484 2549.6796750535 16 19 12
-1233.09442455914 -394.189296887226 2542.18235484103 16 19 12
-1228.26018529345 -394.603765756922 2535.12601326431 16 19 12
-1207.3494995999 -396.139332585757 2529.4119277234 19 21 16
-1158.3085871164 -399.638269016881 2525.90398354826 18 20 15
-1190.84686180229 -397.523757536215 2508.01099201289 28 31 24
-1177.98102034267 -398.49974126938 2501.36130657034 25 27 22
-1172.52413070115 -402.542453184654 2866.74600177089 14 20 10
-1196.90503458245 -400.892716441599 2854.28833624559 29 35 25
-1215.23584393465 -399.672282415089 2843.16075070837 11 17 7
-1144.07086294109 -404.912841374192 2842.03251625769 6 9 0
-1165.42448881654 -403.476771978773 2830.32813237898 13 16 7
-1177.70773370071 -402.68640740692 2820.44024480253 13 16 7
-1184.95197420586 -402.254823897688 2811.5494141139 13 16 7
-1206.29860917447 -400.81596302866 2800.1212563617 13 16 5
-1183.32058092877 -402.541495897848 2796.77646002957 14 16 5
-1163.36751697229 -404.052235280273 2792.77001927288 15 17 6
-1210.8983192498 -400.740251090796 2776.8812429822 13 16 7
-1173.82516786246 -403.475504179214 2775.77763752484 14 17 8
-1208.25734153238 -401.097245417172 2762.38267766763 15 18 9
-1212.47551546627 -400.879351678695 2754.19775748877 14 17 8
-1211.65878717391 -401.021604333645 2746.85742665838 11 14 7
-1226.95135495246 -400.009878193351 2736.91694206488 9 12 5
-1205.99860551807 -401.594535592277 2732.79414355984 9 12 5
-1189.07551539068 -402.891485065239 2727.92919064316 8 11 4
-1167.12156159887 -404.550163138355 2723.73996244816 8 10 5
-1222.2384162792 -400.92796199765 2685.46152355483 12 13 7
-1143.93853684429 -406.637977216189 2688.90998831541 10 11 5
-1149.16477465829 -406.346745506451 2680.51334609514 11 12 6
-1174.51343363158 -404.607660904588 2669.4458805779 12 13 7
-1173.70049697586 -404.749479408653 2661.94850082197 12 13 7
-1157.79804057056 -405.977460819116 2656.38518561194 12 13 7
-1199.23583943566 -403.076570492513 2643.51374358991 13 14 8
-1208.4804564886 -402.492560259768 2634.83058029927 12 13 7
-1212.69476380508 -402.270426098569 2626.80133396266 11 12 7
-1240.04030390528 -400.379841647929 2616.06782900521 11 12 6
-1258.33138822143 -399.140672230922 2606.52227689939 13 16 9
-1241.42405518036 -400.440373096212 2601.02920344247 16 19 12
-1203.40351431622 -403.265180563039 2597.75786701701 15 18 11
-1165.38802965875 -406.091571076888 2594.2778919767 14 17 10
-1135.4210364867 -408.338435993836 2589.75050732138 13 16 9
-1124.55922952459 -409.205820454949 2583.11846538779 13 16 9
-1181.05020418808 -405.203215831606 2569.76875379699 13 16 9
-1225.47128436642 -402.07022285223 2557.88336769952 15 18 11
-1241.743485674 -400.971621012038 2548.86617823132 16 19 12
-1185.65091983944 -405.11081309001 2546.49803553417 18 21 14
-1165.74494861124 -406.632139277757 2540.63968052223 18 21 14
-1216.18450135524 -403.057493667552 2528.67337069928 18 20 15
-1193.65072477456 -404.925996811154 2507.81216985524 24 27 20
-1128.54366155399 -409.728652433103 2505.05733062831 24 26 21
-1181.57745383457 -409.570293993529 2857.35692334007 17 23 13
-1182.77707480401 -409.567973458939 2849.59155839138 19 25 13
-1178.12140080364 -410.084925788124 2835.43690402752 19 22 11
-1185.36698551151 -409.635094238651 2826.5131305801 13 16 5
-1161.37621306316 -411.497419579109 2823.49484695291 12 15 6
-1181.7199555755 -410.07748575528 2812.13471634566 12 15 6
-1192.9937722861 -409.328312719099 2802.53706370354 12 15 6
-1195.19976797254 -409.250553986107 2794.62825012138 13 14 6
-1194.38353228231 -409.396718985865 2787.26446591848 13 14 6
-1206.66153316909 -408.571434538403 2777.60970141085 13 16 7
-1202.82316984081 -408.94152087956 2770.78689469026 15 18 9
-1183.87855909726 -410.433313172222 2766.49511467769 15 18 9
-1199.1763409535 -409.382705521041 2756.40191862574 14 17 8
-1228.56971662302 -407.283577468115 2744.08147207977 10 13 6
-1258.96596347204 -405.108018456348 2731.75557323286 9 12 5
-1224.92048193562 -407.723161312361 2729.79224182955 9 12 5
-1202.96081846971 -409.440998566513 2725.76264690543 9 12 5
-1198.1181116641 -409.886070430285 2718.99506219557 8 10 5
-1195.28949426744 -410.181285981538 2711.89643885599 11 13 8
-1203.10059695562 -409.936061700929 2680.6598969367 9 12 5
-1211.34200232164 -409.404861171684 2672.01153205303 9 12 5
-1204.48919710967 -409.999714639784 2665.42840877024 11 14 7
-1181.53897927555 -411.796811795578 2660.91984499368 10 13 6
-1172.67703394849 -412.542719180971 2654.47303889531 11 14 7
-1219.14704176924 -409.15381821516 2641.00888543772 11 14 7
-1219.33739851598 -409.2219621416 2633.495916643 11 14 7
-1221.5396316941 -409.139450531246 2625.73925819344 10 13 6
-1224.74735628382 -408.981355590027 2617.87382957765 10 13 6
-1266.17247029557 -405.962241743786 2605.62509487775 14 17 10
-1228.1446501778 -408.890024564191 2602.52768989679 16 19 12
-1195.14974148799 -411.442783295962 2598.67015259647 15 18 11
-1174.22608099425 -413.092653238329 2593.34043731427 13 16 9
-1239.96400008256 -408.326660866245 2571.40920243877 14 17 10
-1200.94589560465 -411.333952393993 2567.81268381779 14 17 10
-1190.08033649264 -412.230257422064 2561.29623622277 15 18 11
-1221.4337258085 -409.95691025228 2550.775053294 16 19 12
-1252.78309436519 -407.6818055582 2540.42222744421 18 21 14
-1217.79522392243 -410.389388311503 2536.07397763172 18 21 14
-1219.9961570135 -410.30322639799 2528.36272571419 17 19 14
-1189.03529634263 -412.710395169118 2523.39884207351 17 19 14
-1187.21874792761 -412.926616887601 2515.93803627891 17 19 14
-1168.32179656906 -414.428069638128 2509.78251453161 23 26 19
-1189.61503460089 -412.904620649754 2500.53211825392 23 25 20
-1201.33815946119 -415.555108589528 2860.83324541791 11 18 2
-1185.40026004821 -416.862332207945 2856.57008154948 26 32 18
-1185.59155204648 -416.934866439356 2849.0158459135 25 31 17
-1147.87132579338 -420.08969243525 2833.64350087323 20 23 12
-1179.30311724966 -417.765915515921 2820.11223827774 17 20 11
-1169.41901753821 -418.611959275405 2814.39908587935 15 18 9
-1195.80760694194 -416.672827576455 2802.01049364223 14 17 8
-1195.99850650036 -416.744777176817 2794.47222364681 15 16 10
-1217.34492975164 -415.190596493855 2783.18548686435 15 18 9
-1192.35113765564 -417.198332038035 2780.09506879882 15 18 9
-1162.32465199784 -419.594650823811 2777.7323845266 15 18 9
-1184.67629977947 -417.961964853766 2766.35044559267 13 16 7
-1202.99627526736 -416.638174655869 2755.75726089981 12 15 6
-1208.22234542269 -416.321633426178 2747.40367156277 11 14 7
-1204.38460399662 -416.703015733752 2740.53510522243 8 11 4
-1182.42333274415 -418.481497467233 2736.5125575839 10 13 6
-1180.60179486422 -418.708184591343 2729.23552041546 9 12 5
-1176.76716079223 -419.090187233608 2722.25416663405 8 10 5
-1199.10754333514 -417.452341450658 2711.31805246408 13 15 10
-1273.71499954115 -412.19114344575 2656.15023933262 9 12 3
-1248.74572076308 -414.205525170853 2652.09461972688 9 12 3
-1222.77385065644 -416.298873140097 2648.03079268412 10 13 4
-1195.79959732261 -418.471242755984 2643.95056539547 11 14 5
-1211.08189130819 -417.371227420244 2634.51573914802 11 14 5
-1223.34404524066 -416.50415213776 2625.52520029179 10 13 4
-1233.59296167106 -415.792264724113 2616.83600476708 10 13 4
-1252.8928818407 -414.377510340103 2607.15834417509 15 18 11
-1271.18453947697 -413.039642183155 2597.69635983841 15 18 11
-1218.07074644017 -417.243222662107 2596.16280742175 13 16 9
-1244.40712000915 -415.280166440776 2585.84067920227 13 16 9
-1262.69577264604 -413.94047794364 2576.49809519244 17 20 13
-1280.98172473083 -412.599737242633 2567.2528631011 17 20 13
-1218.83375660353 -417.510698101955 2566.05453249712 17 20 13
-1213.99809557054 -417.967882134078 2559.00789426025 16 19 12
-1225.24704920568 -417.173677648158 2550.43032804001 16 19 12
-1223.42731902649 -417.395657521166 2543.09701873698 18 21 14
-1215.57691370624 -418.087098074871 2536.282369147 18 21 14
-1178.77531913289 -421.114560246719 2524.26095585401 17 19 14
-1147.81712851722 -423.608267102918 2519.09979927557 19 21 16
-1152.03251088816 -423.360851036839 2511.05568184889 22 25 18
-1145.19498144193 -423.975016186995 2503.85479332618 23 25 20
-1207.36900413732 -422.693164416834 2852.13026958124 24 31 15
-1198.4867394685 -423.485071666146 2846.43754742625 15 21 7
-1143.23958954432 -427.956506723863 2849.77904719962 24 30 16
-1123.47176655504 -429.705052347395 2838.27740970822 24 27 16
-1186.14785244813 -424.816003796557 2818.81154077465 20 23 14
-1193.39301231041 -424.328187121039 2809.94515726727 18 21 12
-1161.34040163344 -426.964217533209 2808.28742525004 16 19 10
-1216.9484778468 -422.630044392612 2790.69229450228 17 18 12
-1211.09307003339 -423.182780978954 2784.28080942641 16 19 10
-1177.03133897009 -425.981037239213 2782.75595275436 15 18 9
-1162.11350379217 -427.256886892883 2777.75766889464 15 18 9
-1209.64829583105 -423.558598812448 2762.11841748616 13 16 7
-1212.86006861605 -423.389397749023 2754.10669627374 12 15 6
-1179.81483436188 -426.110439180688 2752.04469215191 11 14 7
-1164.90137909638 -427.387367998393 2746.88339220686 8 11 4
-1169.12265409368 -427.138459745629 2738.61057272445 10 13 6
-1148.17029277613 -428.898382932185 2734.27509357601 9 12 5
-1194.68011070123 -425.272832075778 2719.50911975724 8 10 5
-1214.00052282343 -423.816088174284 2709.07564778121 14 16 11
-1192.81018380462 -425.939685266342 2674.54251471339 10 13 6
-1195.01492273992 -425.848837902471 2666.69687288329 8 11 2
-1161.9988385166 -428.578690235257 2663.48612410723 9 12 3
-1220.55443262022 -423.973213781098 2648.31689839613 10 13 4
-1178.48573955491 -427.429513379909 2646.13202895743 10 13 4
-1206.84929509261 -425.240588092077 2635.03945137011 11 14 5
-1231.1852153041 -423.372803145753 2624.58335164829 10 13 4
-1245.45808278115 -422.31082878888 2615.44207808533 10 13 4
-1270.79394098339 -420.359710042378 2605.10257697931 15 18 11
-1290.09119783143 -418.891786822064 2595.57677203494 14 17 10
-1298.32297049235 -418.311450145676 2587.36697003499 12 15 8
-1241.18434429885 -422.983960518715 2586.19236716568 13 16 9
-1274.55877035204 -420.382792676739 2575.26902915815 18 21 14
-1245.58497518479 -422.793758519349 2570.85598876613 18 21 14
-1252.81215268177 -422.293682054818 2562.70558200679 17 20 13
-1246.96817851 -422.844931163726 2555.84882774561 16 19 12
-1223.02922262885 -424.853213495353 2550.64865579349 16 19 12
-1183.0094046902 -428.15784421504 2546.77514756747 17 20 13
-1168.12483808082 -429.439309879746 2540.47058276051 18 21 14
-1187.41673213198 -427.966691027386 2531.16874109237 18 20 15
-1207.71100818105 -426.411839181977 2521.8867958114 18 20 15
-1150.6188311283 -431.097559040096 2518.89194107306 20 22 17
-1132.72608064215 -432.623343567946 2512.56148196593 22 25 18
-1141.9668911386 -431.959634948006 2504.1126660794 23 25 20
-1093.93406538332 -435.919799152604 2499.81813135342 25 27 22
-1249.50465284526 -426.750079249295 2843.63116954875 10 16 2
-1206.343302349 -430.377053650084 2844.85971837479 19 25 13
-1194.43671723512 -431.442321195416 2839.731267666 12 18 6
-1193.61953631793 -431.59819771103 2832.39399872941 15 18 7
-1165.58924884273 -433.988561080337 2830.2356924442 16 19 10
-1192.99343514352 -431.827062111521 2817.5103027386 17 20 11
-1178.06795476211 -433.14228953842 2812.7685390957 16 19 10
-1183.29850362076 -432.801432571086 2804.26601488433 14 17 10
-1178.45199811304 -433.288946903891 2797.60132515793 14 15 9
-1176.62912222853 -433.527884948722 2790.37275253675 13 14 8
-1150.62688833014 -435.756954854455 2787.34991989927 12 15 6
-1160.89505369046 -435.001246519093 2777.955461042 12 15 6
-1180.22776573589 -433.498228346777 2767.08162641661 11 14 5
-1191.50006004997 -432.658054385795 2757.65050887699 11 14 5
-1155.4321450736 -435.719276858088 2756.02626797098 12 15 8
-1153.80583231757 -436.031699181046 2741.02710081003 10 13 6
-1153.99997703629 -436.104722802101 2733.36084550768 11 14 7
-1147.1456991991 -436.759473350406 2726.77096464826 6 8 3
-1175.4902940865 -434.945685671869 2676.90847923046 6 9 2
-1154.54812025257 -436.766272583783 2672.11902668294 11 14 7
-1193.17675866579 -433.741503141866 2651.8385080928 7 10 1
-1206.44985232938 -432.727645102418 2642.61203311748 9 12 3
-1238.02136416766 -430.280157789223 2623.76216945656 13 16 5
-1259.33696116854 -428.595958485477 2613.81050852063 17 20 11
-1268.57831869296 -427.912229099411 2605.36180964271 14 17 10
-1291.90088520525 -426.058722391906 2595.37826542145 15 18 11
-1259.9000271596 -428.798049239219 2591.58694953453 18 21 14
-1256.06482679401 -429.19919724234 2584.60717165448 19 22 15
-1232.11656369595 -431.271862948796 2579.70162807225 18 21 14
-1244.37355130412 -430.335650737188 2570.98724097652 20 23 16
-1237.52373943836 -430.987598987406 2564.2258233744 20 23 16
-1274.91601772725 -427.958826437424 2553.17200259418 18 21 14
-1225.83803747702 -432.124309058936 2550.39710918871 18 21 14
-1169.92386437582 -436.944975576152 2540.32504571718 20 23 16
-1129.9100609518 -440.361939541331 2536.08652984844 18 20 15
-1140.55151914645 -439.725538705907 2511.97439066248 22 25 18
-1225.10266382961 -436.212343900542 2848.52442439869 23 29 17
-1207.1439152742 -437.822470209778 2844.68283875906 13 19 9
-1179.10687498906 -440.287863307198 2842.71721932382 2 8 0
-1170.22621623103 -441.130941066504 2836.89746487087 6 9 0
-1184.91299872311 -440.155575179399 2811.48596513509 10 13 6
-1193.16673216746 -439.544593506588 2802.45076387928 10 13 6
-1156.07294106273 -442.784933766624 2801.61150637332 11 12 6
-1158.28185744715 -442.687876234588 2793.60926336 11 12 6
-1145.37711020875 -443.875392567251 2788.25302311544 10 13 4
-1149.60139944624 -443.607000352368 2779.88331706229 11 14 5
-1146.77329003783 -443.938212526461 2772.72618938083 12 15 6
-1131.85761443355 -445.298156762365 2767.56253240486 12 15 6
-1141.11865629512 -444.60073189699 2758.35920659175 12 15 8
-1160.45033937431 -443.044953126033 2747.58223779886 11 14 7
-1150.57255582119 -443.976374990751 2741.53055561874 8 11 4
-1099.40635918061 -448.427251628466 2741.84763490684 12 15 8
-1105.64631119019 -447.986764784023 2733.10927553429 13 15 10
-1095.77450019285 -448.91992676068 2726.82229678581 19 21 16
-1213.53032020905 -439.313019910447 2671.70522120006 11 16 10
-1185.53807733492 -441.79267696115 2667.9641234336 9 14 7
-1233.03381371901 -437.818770110732 2654.15656530651 7 12 5
-1244.29311088904 -436.941462118237 2645.26396805608 5 10 3
-1233.60147706977 -438.027126412592 2631.7465981142 11 17 7
-1232.784426442 -438.18240427966 2624.39555501016 13 19 9
-1243.034866425 -437.389296572129 2615.7340218679 16 22 12
-1230.14513496487 -438.578439779839 2609.789166178 14 17 10
-1229.32891986005 -438.733102955485 2602.4154527391 15 18 11
-1258.68976950236 -436.299682196929 2591.72517377412 19 22 15
-1264.91259359516 -435.849173680138 2583.66699322344 19 22 15
-1230.90406621005 -438.850711162416 2579.83515999181 16 19 12
-1227.07118132606 -439.263489108165 2572.75239773282 19 22 15
-1235.3064169768 -438.639810329413 2564.45378750592 19 22 15
-1258.62371239684 -436.719689610165 2554.74778082515 18 21 14
-1215.57606448664 -440.501354364132 2551.3663441128 18 21 14
-1197.66958295648 -442.123895166663 2545.46865233674 19 22 15
-1202.88876707826 -441.758495753814 2537.43665319937 19 22 15
-1219.16498744785 -440.441171008762 2528.4879078869 18 20 15
-1173.11653212958 -444.486313909362 2524.77170716088 17 19 14
-1136.31756287111 -447.821592489625 2512.31717791524 22 25 18
-1161.63939881954 -445.723925292488 2502.68306750329 24 26 21
-1209.77177726049 -445.011840323495 2851.59130734521 11 17 7
-1150.66822041677 -450.360610523348 2848.27056175567 14 20 10
-1158.92688754467 -449.730145736942 2839.0634545225 8 11 2
-1154.07968009882 -450.246102280324 2832.39565991446 11 14 5
-1153.26527789176 -450.40923063449 2824.94200289436 9 12 5
-1175.63285698134 -448.542150292274 2813.18908788136 8 11 4
-1095.19793300032 -455.680212890135 2820.31418913026 8 11 4
-1123.61318753896 -453.283434143614 2807.43353731468 10 11 5
-1138.9242910746 -452.03365562856 2797.02421342872 11 12 6
-1173.37861486372 -449.103806919875 2783.35580498344 10 13 4
-1161.48026170157 -450.238637427774 2777.83092973265 11 14 5
-1140.51634697209 -452.169873250091 2773.77238041947 12 15 6
-1144.74078803387 -451.890688016769 2765.40832925902 12 15 6
-1164.07512703597 -450.28388304292 2754.5916705933 11 14 7
-1175.34846581211 -449.384085001054 2745.1744268161 11 14 7
-1163.45435364247 -450.519924543752 2739.48271546225 10 13 6
-1145.51924767771 -452.187604586753 2734.66462349908 13 16 9
-1121.54415346961 -454.387569758425 2730.67104828362 16 18 13
-1171.23613623317 -450.643325566933 2669.8788164195 1 6 0
-1230.81451499278 -445.476244017814 2654.44679338205 8 13 7
-1206.84893064992 -447.678050767175 2650.07956234492 7 12 5
-1237.2315335508 -445.083107394163 2638.73721888365 9 14 7
-1243.45845058712 -444.619404001699 2630.53323956259 14 20 10
-1201.57603603583 -448.492192689924 2620.6207665845 14 20 10
-1183.65747382735 -450.162983606808 2615.14342231007 13 16 9
-1210.00743079797 -447.919593551671 2604.59140857868 13 16 9
-1238.36586388123 -445.496703830708 2593.95957203293 16 19 12
-1259.67892752081 -443.695303090021 2584.23276550919 17 20 13
-1227.6801702666 -446.612098510667 2580.17811611775 15 18 11
-1217.81230432041 -447.570645361388 2573.70036999295 16 19 12
-1241.13405198664 -445.58920011701 2563.88619965974 16 19 12
-1266.46399666394 -443.428120882976 2554.00325899506 16 19 12
-1233.46810126596 -446.435984586697 2549.70495378846 16 19 12
-1201.48222885097 -449.355997116268 2545.13394117235 16 19 12
-1176.53896345979 -451.652914954565 2539.7675875613 16 19 12
-1165.67379146588 -452.701648256141 2533.06301952132 18 20 15
-1163.04742223315 -453.103734854158 2517.94508741016 18 20 15
-1140.12406591732 -455.224193671379 2512.03948159764 21 24 17
-1152.38154646677 -454.219364009161 2503.38882957111 24 26 21
-1163.63222698193 -453.303000350279 2494.87493600929 25 27 24
-1187.37994978894 -454.528314918266 2856.07860271318 15 20 14
-1152.27978742744 -457.783178689364 2855.54080666712 18 23 17
-1130.29156320954 -459.858238049269 2852.24390728589 26 31 25
-1158.71590384564 -457.388524364164 2839.08645122497 14 16 11
-1152.86026655172 -458.009441515231 2832.61072800309 14 16 11
-1165.15024884629 -456.993125216197 2822.69280386268 12 15 8
-1165.34301127312 -457.068061555684 2815.07851958624 10 13 6
-1126.42298228434 -460.768878532304 2806.91354167239 12 13 7
-1153.82836043667 -458.385533222302 2794.37044700675 13 14 8
-1167.12225152121 -457.27610995974 2784.43374735098 12 15 6
-1163.28461623231 -457.715201965634 2777.50839336124 12 15 6
-1140.30374528476 -459.886429724346 2773.79614681885 13 16 7
-1152.58834957299 -458.867271199322 2764.09146555992 12 15 6
-1196.1017762845 -455.019739755086 2749.33937574906 12 15 8
-1184.20467799801 -456.187917958949 2743.73897421101 12 15 8
-1166.26523889497 -457.904257072806 2739.0286651515 18 21 14
-1151.35024532408 -459.347509268584 2733.74890227655 15 18 11
-1162.6231262952 -458.417099668986 2724.38241943874 14 16 11
-1176.25188950019 -457.90308438149 2661.61029217319 8 13 9
-1180.47098819785 -457.608702487012 2653.47135611378 10 15 9
-1211.04837293985 -455.003405838648 2634.52738008968 12 17 10
-1237.40361998658 -452.691321902821 2623.84237005656 11 16 9
-1202.37361373332 -455.968641291243 2620.52919436551 7 12 5
-1170.36706461357 -458.972427429312 2616.67634935099 10 13 6
-1186.65869836395 -457.57575281219 2607.21972029204 9 12 5
-1225.08128865633 -454.159933927882 2595.42147961596 10 13 6
-1213.19952449337 -455.329700585983 2589.21073706179 11 14 7
-1223.4495414453 -454.480662539764 2580.62579112934 13 16 9
-1225.65159290041 -454.365272129647 2572.91153776745 13 16 9
-1238.91680138307 -453.239389941985 2564.11352588138 14 17 10
-1250.16874635782 -452.296324336553 2555.57888335232 15 18 11
-1243.31793038512 -453.006193733152 2548.79451846174 16 19 12
-1210.32344690189 -456.105602264531 2544.34273695021 16 19 12
-1158.61928018934 -461.088822049101 2525.99647456791 18 20 15
-1176.90968696889 -459.500251414656 2516.85256305734 18 20 15
-1140.91578045966 -462.879801826437 2511.99401885105 21 24 17
-1134.07622386233 -463.59131836057 2504.76782999687 23 25 20
-1158.93423802975 -464.725406506231 2861.78357783468 16 20 19
-1191.39601473227 -461.806083247344 2847.75386218486 25 30 26
-1163.35341635582 -464.502267207903 2845.74834197027 15 20 16
-1154.47172191013 -465.420633220655 2839.88822705064 34 36 31
-1173.82081072829 -463.716562950596 2828.59953046105 16 18 13
-1187.11852994328 -462.573647891997 2818.54917511714 14 17 10
-1210.49503409979 -460.492684171006 2806.70178673238 13 16 9
-1200.60486219612 -461.504324411258 2801.04815189379 12 15 8
-1177.61316033505 -463.735598645678 2797.69474169126 13 14 6
-1179.82096964871 -463.622821484248 2789.75264536605 13 14 6
-1169.93509696699 -464.635846375928 2783.92949530807 12 15 6
-1144.93486511897 -467.057289324063 2780.64655791245 12 15 6
-1176.36629824641 -464.222147871863 2767.68768868914 13 16 7
-1199.73277471395 -462.136563875602 2756.2371780231 13 16 7
-1215.03594834035 -460.801157686046 2746.22972286281 14 17 10
-1194.06963874579 -462.847772749273 2742.14088783107 13 16 9
-1165.04719992092 -465.647255686195 2739.21185035622 15 18 11
-1147.10897752739 -467.4139746098 2734.39989411473 18 21 14
-1210.64985923753 -462.471624133788 2642.08387847979 11 16 10
-1195.74344579515 -463.957550288793 2636.41362966059 11 16 10
-1221.09534375718 -461.669553507014 2625.80895286601 9 14 7
-1226.31722750278 -461.26772101938 2617.71056210761 6 11 4
-1231.5382137239 -460.865436383238 2609.63841040879 11 14 7
-1180.41201004276 -465.751114905736 2607.92556952197 10 13 6
-1174.5682858303 -466.388287810838 2600.96678763084 11 14 7
-1223.05225211154 -461.923188538819 2588.16202336333 13 16 9
-1211.17081266775 -463.126115277805 2581.91230970662 12 15 8
-1218.40328057978 -462.533217365034 2573.65479972192 13 16 9
-1225.63481630298 -461.939681153249 2565.43440826234 14 17 10
-1225.82501005971 -462.007571620437 2557.928081827 16 19 12
-1225.00960203451 -462.169801997175 2550.51469984309 16 19 12
-1213.13218169958 -463.37283529725 2544.09846628332 16 19 12
-1196.22874006209 -465.049384576911 2538.05799727871 16 19 12
-1124.22254445072 -472.002944703108 2528.85056885568 18 20 15
-1130.45222325657 -471.503124876063 2520.57742906005 18 20 15
-1097.47467549151 -474.698121084772 2515.36110632748 21 24 17
-1079.57994542282 -476.472697721891 2508.8408823582 23 25 20
-1176.06038070897 -470.81687322572 2850.77942134021 20 24 23
-1143.98312668967 -473.975650873977 2849.52355078874 21 26 22
-1120.98540126323 -476.268671570336 2846.33926379205 20 22 17
-1157.47868953259 -472.875234190483 2831.69514961505 22 24 19
-1198.00004159255 -469.094035626362 2816.48799360595 20 23 16
-1229.44244187579 -466.178774453258 2803.17719153881 18 21 14
-1207.45337883417 -468.375359135769 2799.78259176241 14 19 12
-1194.53937095507 -469.704485750004 2794.63623922302 14 19 12
-1199.76994094343 -469.296533110969 2786.20493135401 12 17 11
-1180.81116566021 -471.205828106584 2782.01846837289 12 17 10
-1156.81623881188 -473.598906232246 2778.59267162447 15 18 11
-1121.73960015255 -477.056081771304 2776.90893622388 17 18 12
-1197.50926998887 -469.884056952342 2756.59513545297 17 18 12
-1204.75316157875 -469.281506318797 2747.90151291213 18 19 13
-1161.62064572097 -473.51340687975 2747.35358105649 17 18 13
-1184.98522356333 -471.363607194683 2736.04622510059 9 11 6
-1194.24350757089 -470.566956850314 2727.05722645294 10 12 9
-1261.59213233773 -464.990233617619 2643.03520943679 12 18 18
-1249.70008299574 -466.224816643551 2637.16617727317 12 18 14
-1307.26104853536 -460.76226545436 2622.67325562518 9 14 7
-1256.11505096851 -465.782428637307 2621.58962909139 15 21 9
-1234.16172144586 -467.988586618516 2616.78816053485 10 16 4
-1211.20520498743 -470.292758372022 2611.98131116638 13 16 7
-1162.08891859769 -475.124277436698 2609.98841575636 13 16 7
-1181.40103346137 -473.348724084205 2600.2215424213 13 16 7
-1194.6737366347 -472.155305127958 2591.20312784113 12 15 6
-1214.9870654186 -470.280282435012 2581.52031047834 12 15 6
-1212.15986872811 -470.641146934707 2574.29567223564 13 16 7
-1201.28585287317 -471.780198296082 2567.8491011332 13 16 7
-1212.54198752802 -470.778469129696 2559.2136998055 15 18 9
-1204.68693581912 -471.625445574369 2552.42296950744 15 18 9
-1238.06719390124 -468.480404139353 2541.84634039499 16 19 10
-1190.99116633788 -473.124916798693 2538.53017898658 17 20 11
-1172.07791729253 -475.043721345765 2532.5541822938 17 18 10
-1198.41519503553 -472.578186284989 2522.73623889939 21 22 16
-1112.13997622784 -481.027271503226 2522.05432284211 18 19 13
-1096.25238146537 -482.655842257459 2515.4707163732 24 25 19
-1071.31953244416 -485.162418892544 2509.47213947101 21 22 17
-1182.91068678811 -477.729587427664 2849.39917143937 10 14 15
-1135.70346409332 -482.461884290912 2851.12563912309 14 19 15
-1133.88110486731 -482.737118226814 2843.82857717763 22 24 19
-1167.35114117354 -479.542905117517 2829.79590081471 22 25 18
-1186.70088950036 -477.735057434177 2818.59285653554 20 23 16
-1204.03155155643 -476.12444121499 2807.86527776627 19 22 15
-1169.94505877614 -479.572623571459 2806.61035418721 15 20 13
-1157.03260563328 -480.938625673128 2801.3636431115 15 20 14
-1175.37008499379 -479.227964371909 2790.51106362316 15 20 14
-1203.78416908091 -476.523333274382 2777.99738046383 13 18 12
-1180.79362719214 -478.882366777468 2774.46145646208 16 19 12
-1184.00891137258 -478.659573241215 2766.37004122155 17 18 12
-1151.95340810377 -481.914560255887 2764.16077378426 16 17 11
-1162.22389535462 -480.996338298069 2754.85006201287 14 15 9
-1166.64054645617 -480.74911875146 2738.939454353 19 21 18
-1230.17890036888 -475.479501647484 2647.07362749829 14 19 22
-1225.33486373515 -476.049572392749 2640.23312769479 11 17 15
-1300.01425492198 -468.735763169529 2623.56594401067 20 26 16
-1235.7797205124 -475.193407527356 2624.04081865581 7 13 1
-1236.97517438593 -475.163956200133 2616.45812441797 17 23 9
-1222.06789829917 -476.732178887339 2610.73322705147 15 18 9
-1197.09955083837 -479.299917239009 2606.05638140104 15 18 9
-1184.20982684517 -480.669599734696 2599.91738469477 14 17 8
-1196.4769130293 -479.54086409379 2591.01502709772 14 17 8
-1206.73025057391 -478.611174205468 2582.38689863655 14 17 8
-1217.98847401609 -477.580684963444 2573.71006540665 12 15 6
-1244.33503192836 -475.048958755509 2563.60049180479 13 16 7
-1199.25704536653 -479.619317942662 2560.499235244 14 17 8
-1211.51942906525 -478.487232834875 2551.79358825497 15 18 9
-1218.7511227435 -477.854786312271 2543.60880226013 16 19 10
-1248.10780274699 -475.018878085515 2533.51364726965 17 20 11
-1225.16660733392 -477.389008377052 2528.03717717492 20 21 13
-1173.06672070626 -482.665042631451 2524.84261829913 21 22 14
-1143.09542102936 -485.738873865923 2519.59561403115 19 20 12
-1021.83750259917 -498.004840096121 2513.17227555771 23 23 21
-1153.45157992763 -488.267239793142 2855.22798313774 10 14 13
-1164.73913056972 -487.224331866734 2845.41827556705 23 28 24
-1153.83816891516 -488.421086946364 2839.95355706241 23 25 20
-1205.46095047367 -483.303269083302 2822.51699239408 22 25 18
-1206.659086464 -483.276812535767 2814.82625617667 21 24 17
-1199.98131006958 -484.141024357233 2801.11318411568 18 23 16
-1167.91103546997 -487.479376530383 2799.39172037014 17 22 15
-1156.00690131023 -488.779494054809 2793.92463885122 17 22 15
-1192.67957809437 -485.258529369335 2772.40632907933 15 18 11
-1144.49288495073 -490.233404753229 2773.03594620231 13 14 8
-1089.25827757706 -495.925515360712 2774.57657225998 12 13 7
-1156.97453346855 -489.160654484866 2755.69696132715 11 12 6
-1163.21417051987 -488.62357315842 2747.07462732959 11 12 7
-1145.27064220814 -490.538416956748 2742.31099966965 14 15 10
-1120.27723813553 -493.169556765269 2738.5453776081 20 22 21
-1251.30397793483 -480.879315115398 2636.96185875182 0 2 0
-1215.25080172591 -484.641132580891 2634.00933080988 25 30 24
-1238.59357249237 -482.353815428115 2623.70192658975 26 32 20
-1245.82850039156 -481.70638805345 2615.4161461097 8 14 2
-1238.97125126444 -482.494877123377 2608.78947064107 17 20 11
-1226.07693703471 -483.899142065612 2602.80206910062 17 20 11
-1220.22862740068 -484.585270126155 2595.9699370932 16 19 10
-1211.36232223675 -485.579485977003 2589.42691401683 16 19 10
-1211.55326091476 -485.649495373012 2581.88919833446 16 19 10
-1189.6090439674 -487.97931786052 2576.59879734531 15 18 9
-1232.05667371367 -483.733429366071 2564.82130832712 15 18 9
-1243.31228502676 -482.671481802941 2556.27101888481 16 19 10
-1235.45385261294 -483.561912285134 2549.56576064772 16 19 10
-1248.71962551817 -482.293064939946 2540.89919414803 16 19 10
-1265.00104408509 -480.714573907401 2532.0370303097 16 19 10
-1247.08542800399 -482.633007516693 2526.17864152091 17 20 11
-1152.74267925319 -492.372850230848 2526.53388271032 19 22 13
-1196.17833980054 -488.01545996948 2515.36861112168 20 23 14
-1064.84944273843 -501.639795868353 2509.98589974309 25 27 24
-1167.3624568146 -494.468612248033 2852.44505822416 10 14 13
-1156.45966776641 -495.695310481431 2847.01960994064 18 23 19
-1179.84968691654 -493.367695410608 2834.90884400981 19 21 16
-1201.21973046302 -491.248001640452 2823.30614866433 21 24 17
-1202.41820692391 -491.219264983425 2815.60455388395 21 24 17
-1192.52474600501 -492.34145495911 2809.96076536265 20 23 16
-1133.22660703443 -498.592844780176 2813.27579992848 18 23 16
-1191.89823796331 -492.598179916888 2795.06305663435 17 22 15
-1194.10532713626 -492.464651373866 2787.16206235004 14 19 12
-1151.95696520608 -496.939814092934 2787.00627617835 12 17 10
-1148.11848357988 -497.435785769811 2780.04360218385 12 15 8
-1123.11412468963 -500.132670886437 2776.63554009722 10 11 5
-1101.13664554636 -502.516327927739 2772.58733755322 11 12 6
-1192.03637117952 -493.157022281077 2749.9468034923 14 15 9
-1133.7790406717 -499.315585852771 2751.80059409305 11 12 7
-1103.74429521157 -502.539589037738 2748.87202774709 19 20 15
-1208.81238135884 -492.721756279711 2642.31045538177 16 22 18
-1229.13850122865 -490.688807733528 2632.29728668875 13 18 12
-1259.52889238379 -487.601740964124 2621.17895547213 8 14 2
-1262.73616670226 -487.356198431262 2613.42501950575 19 22 13
-1242.79211416402 -489.53296753694 2608.35124988592 19 22 13
-1242.98071626768 -489.603285165625 2600.90452466715 19 22 13
-1231.09217652202 -490.937950880014 2594.78153945011 19 22 13
-1229.26887332045 -491.218905398157 2587.51522901882 19 22 13
-1226.43991318818 -491.604991707816 2580.34175574076 18 21 12
-1230.65464655677 -491.252819665569 2572.4354824736 19 22 13
-1219.77654428132 -492.482369039348 2566.04212825693 19 22 13
-1224.99752628853 -492.023998615121 2558.03968664058 18 21 12
-1248.32590639135 -489.665328827783 2548.37133237075 17 20 11
-1234.43141303621 -491.211078715753 2542.20499358286 16 19 10
-1239.65025392691 -490.751024777692 2534.27871705581 15 18 9
-1220.72926919516 -492.825139811969 2528.43829734591 15 21 11
-1183.70788489247 -496.801297377693 2523.98839202073 17 23 13
-1105.65804091888 -505.18066210487 2514.7891380776 26 31 24
-1046.53080883863 -511.486945184981 2511.36559916115 24 29 25
-1157.06470633721 -503.166267348295 2854.46835517534 20 24 23
-1160.28382913918 -502.922018628398 2846.24995023152 10 15 11
-1171.57155978991 -501.819376517106 2836.48802047819 17 19 14
-1179.83208051309 -501.037974014041 2827.36120882741 19 22 15
-1172.96416852291 -501.866210977082 2821.1179215475 19 22 13
-1155.00459807657 -503.875728440579 2816.88894757934 19 22 13
-1179.39855635657 -501.375636155694 2804.83411721859 15 20 13
-1187.65651295108 -500.593010837164 2795.80883356404 13 18 11
-1184.8232590213 -500.991698378006 2788.78964653573 12 17 10
-1174.93314972506 -502.142839556537 2782.98377941805 11 16 9
-1153.95534005567 -504.476942054592 2779.02640049481 12 15 8
-1152.13309031801 -504.768983598947 2771.71633743801 14 15 9
-1147.28703796735 -505.383738921315 2764.89731518892 15 16 10
-1185.78077853454 -501.372417248508 2750.95768032568 17 18 12
-1163.80045990877 -503.815697502282 2746.95643578094 13 14 9
-1114.61422118832 -509.166303927832 2747.14016375386 19 19 17
-1246.86733444089 -496.155593825058 2637.51679213003 0 2 0
-1231.95288576926 -497.846929780871 2631.94935946963 12 17 10
-1256.3046132181 -495.326291494304 2621.56711700064 16 22 12
-1275.61965066938 -493.344270440832 2611.90770793324 22 25 16
-1227.48720076234 -498.601451934639 2610.11419290281 22 25 16
-1239.75573461338 -497.375363817478 2601.26910984766 22 25 16
-1246.99003118321 -496.688932904844 2593.04055811294 22 25 16
-1214.9725695881 -500.219481940832 2589.04861300826 21 24 15
-1213.15062457462 -500.506232906529 2581.73232089081 21 24 15
-1224.41056032087 -499.386317867086 2573.07525863137 20 23 14
-1232.65031761736 -498.590234643948 2564.77571665066 19 22 13
-1216.74138518381 -500.391261241013 2558.84089048345 19 22 13
-1190.77410622768 -503.275475261572 2553.75777910707 18 21 12
-1176.88225145549 -504.861146928801 2547.43612563655 17 20 11
-1155.95101643074 -507.205461362656 2541.6568082552 17 20 11
-1166.20480709079 -506.191715390021 2533.10122342265 19 25 15
-1146.28304931675 -508.428227074018 2527.09195020519 19 25 15
-1135.80901951825 -509.827835005699 2504.73277281122 23 28 24
-1149.9855116514 -511.665857480359 2848.24581935737 16 21 17
-1160.26610661774 -510.643792671676 2838.65156150511 21 24 17
-1154.4070266151 -511.381760716961 2832.18471103069 19 22 15
-1160.65178272521 -510.799227371247 2823.41110935998 19 22 13
-1171.93814558096 -509.665911494151 2813.73557289995 18 21 12
-1157.00364093024 -511.394968510116 2808.90217062309 14 19 12
-1185.43129151844 -508.388425366452 2796.19175629561 12 17 10
-1173.71512070848 -509.864320856461 2783.18035429613 12 17 10
-1162.8176383622 -511.153744478985 2777.48947681519 15 18 11
-1160.99436646657 -511.451362617821 2770.2040507267 17 18 12
-1154.13140511949 -512.300393764412 2763.74494797176 17 18 12
-1180.53195444508 -509.509354742719 2751.8036330284 16 17 12
-1176.69239796765 -510.026980361379 2744.86904239715 16 16 14
-1143.62667995127 -513.745276678486 2742.5368391717 16 16 14
-1278.88629666564 -500.045119202582 2633.48298299756 11 17 13
-1256.91984632675 -502.551840552487 2628.87159959621 19 24 18
-1240.99762086254 -504.39500266296 2623.41106924757 26 31 24
-1259.30839689733 -502.472657247234 2613.82943833294 20 23 14
-1253.45543659122 -503.208143225017 2607.12607397118 20 23 14
-1264.90333538347 -502.129776601971 2591.07815324434 20 23 14
-1248.98657394793 -503.973406213337 2585.41289254874 20 23 14
-1220.99449266666 -507.148516998496 2580.91875451502 19 22 13
-1236.28034632587 -505.554892383568 2571.87480351854 18 21 12
-1252.5701417733 -503.849347347693 2562.81233818602 18 21 12
-1181.31618303658 -511.797414743927 2562.25454813896 18 21 12
-1136.42828356269 -516.933944156187 2551.11611970047 18 21 12
-1129.58245900059 -517.782135888187 2543.98815332195 18 21 12
-1169.01144252165 -513.520809322739 2532.87258181423 19 25 15
-1161.74271078956 -514.6852689187 2502.81622195345 23 28 24
-1126.3755559041 -521.849481143677 2860.517292429 17 21 20
-1137.66791792869 -520.688743205746 2850.63673136586 12 17 13
-1157.02922585944 -518.625500982448 2839.2561207078 18 21 14
-1156.2133601753 -518.816415525698 2831.82050198376 16 19 12
-1177.58827216671 -516.52591325048 2820.2109319624 16 19 10
-1162.65115375863 -518.295717563346 2815.43593306812 16 19 10
-1167.88659544599 -517.809326602326 2806.89844335491 13 19 9
-1166.06206677918 -518.112702086405 2799.65595444399 13 19 9
-1176.33842267489 -517.0613597824 2790.25881007645 13 19 9
-1157.37252641459 -519.284249103516 2786.01394611349 12 17 10
-1155.5495038565 -519.587818625204 2778.72170970185 15 18 11
-1147.67749627176 -520.569341934973 2772.43988292077 18 19 13
-1119.84092439155 -523.889779867161 2761.72118246976 14 15 10
-1123.06088685898 -523.628769299175 2753.48795807233 16 16 14
-1232.35899305883 -512.605612178662 2639.33870512727 8 14 10
-1206.36612148323 -515.627625479434 2635.0985589352 13 18 14
-1219.64704509058 -514.225398069109 2625.98306375259 10 15 8
-1238.96739578206 -512.141258691467 2616.22564164416 15 20 13
-1246.20361274045 -511.418097220874 2607.96147291613 17 20 11
-1262.49943308045 -509.672356050352 2598.71601821244 17 20 11
-1269.7331630695 -508.94766220153 2590.55069421171 16 19 10
-1239.72252106836 -512.425691000785 2586.40732804916 16 19 10
-1228.83960472867 -513.745967936128 2580.10470787163 18 21 12
-1226.01016266002 -514.157223969856 2572.92304502573 17 20 11
-1228.21267249911 -514.000029153433 2565.22643799392 15 18 9
-1253.5601809418 -511.227140229467 2555.31395865842 14 17 8
-1168.41230006199 -521.033625640605 2548.2224611355 14 17 8
-1168.60636454711 -521.103897034452 2540.56229676998 14 17 8
-1162.76425813943 -521.856617181641 2533.41621973368 13 19 9
-1172.01249265312 -520.901842038522 2524.98977235101 19 25 15
-1138.00607423752 -524.842038727875 2520.06765332122 22 28 18
-1173.40619452846 -520.925830180624 2509.60148024694 23 28 21
-1184.66332403503 -519.741247752894 2501.1235304168 22 27 23
-1189.92027911959 -522.388443137982 2840.38204999063 19 24 18
-1184.05777085686 -523.158839064713 2834.01436923532 10 13 6
-1167.09947464695 -525.199834801531 2829.72649241054 14 17 8
-1173.34421761377 -524.58488767012 2820.98820785147 15 18 9
-1185.63990099053 -523.276295915451 2811.16128854365 15 18 9
-1162.63356451469 -526.012005336358 2807.83822612982 11 17 7
-1181.98825459823 -523.893674328567 2796.77541396047 10 16 6
-1136.7994518008 -529.174475928578 2797.24242142886 9 15 5
-1104.726079828 -532.95407693518 2795.17755953233 9 14 7
-1145.25539121896 -528.406210234685 2780.473189705 11 14 7
-1161.58146696621 -526.633022646959 2770.07471872432 13 14 8
-1126.48836169674 -530.761598790538 2768.31365723135 14 15 9
-1091.40011592366 -534.891918813212 2766.36079734265 16 17 12
-1081.51773089284 -536.129233108499 2760.16051311832 12 12 10
-1218.05335181811 -521.699343165821 2641.13700922285 10 16 12
-1168.89684693019 -527.464944785114 2639.71304613943 12 17 11
-1223.46824945102 -521.26429648258 2625.52130516801 9 14 8
-1231.71356258719 -520.406945601389 2617.0797310068 13 18 11
-1240.96435584187 -519.432652122596 2608.56491165922 15 18 9
-1258.26867121332 -517.527353498542 2599.19278465396 16 19 10
-1246.37535231405 -518.993809098366 2593.11507948693 15 18 9
-1232.47056316536 -520.693197585851 2587.18617068229 14 17 8
-1203.46883365257 -524.13838711954 2582.75443153717 14 17 8
-1214.73182761069 -522.929437746435 2574.07344197439 14 17 8
-1228.00632500612 -521.486817218397 2565.25247643415 13 16 7
-1212.28494419165 -523.489803645452 2551.77063436758 13 16 7
-1230.5883783571 -521.462781012431 2542.58834347387 14 17 8
-1168.39544301592 -528.755390021858 2540.59025700805 14 17 8
-1173.61991605197 -528.242818376864 2532.50024619909 16 22 12
-1153.69303827691 -530.643709575317 2526.51458229571 18 24 14
-1124.71546690634 -534.094433543493 2521.14204160327 20 26 16
-1145.03057807647 -531.832402390693 2511.80510228999 22 27 20
-1149.24971117147 -531.43512699387 2503.7753009816 22 27 23
-1219.79364865433 -526.32631380577 2841.92787798211 16 21 17
-1207.87410319009 -527.821288415263 2836.84457631211 17 20 13
-1205.03673800563 -528.25320918399 2829.94106328981 22 25 18
-1170.92498066347 -532.349983384071 2828.97715834074 14 17 8
-1180.19630893289 -531.364114635883 2819.68151290105 15 18 9
-1189.46618857787 -530.377737049267 2810.433706286 16 19 10
-1203.77852750389 -528.799276988947 2800.31363911897 12 18 8
-1153.53861333121 -534.792869805628 2801.87077799027 10 16 6
-1179.95370355609 -531.794254874708 2789.58403335502 10 15 8
-1135.77340055115 -537.080822759801 2789.74667054602 10 15 8
-1149.07717193635 -535.620397676416 2779.80069323561 13 16 9
-1164.39567393118 -533.922265915413 2769.58361911941 13 14 8
-1153.49787860277 -535.303255301355 2763.80665779935 14 15 9
-1071.22005450916 -545.177989363054 2761.80392885176 16 16 16
-1175.54350622342 -534.196862242496 2646.48614372305 8 14 10
-1217.02925361679 -529.396410232247 2633.78031015041 8 13 7
-1225.27608340433 -528.518156364335 2625.30190401697 9 14 8
-1239.56369510449 -526.925457648752 2616.15422607964 12 17 10
-1227.66897505916 -528.425300938809 2610.09543342437 14 17 8
-1232.89293090305 -527.902361489932 2602.04609321404 16 19 10
-1255.23180361463 -525.35521527499 2592.14532525479 15 18 9
-1210.11651201064 -530.783698307229 2589.58069167917 14 17 8
-1186.14753291388 -533.713442600752 2584.5645361129 13 16 7
-1186.34007406233 -533.785379096224 2576.96212116373 15 18 9
-1207.66956099086 -531.355119723589 2567.26865558016 15 18 9
-1205.84771597431 -531.664221262345 2559.9151321242 16 19 10
-1191.9497119391 -533.403318169714 2553.67840173657 16 19 10
-1182.07889279172 -534.665978699575 2546.99886788647 17 20 11
-1253.71560146439 -526.270308958625 2533.08739022991 18 21 12
-1186.4897160293 -534.32930971214 2531.41207725981 17 23 13
