ply
format ascii 1.0
comment KinectMotionCapture
element vertex 755
property float x
property float y
property float z
property uchar red
property uchar green
property uchar blue
end_header
-1194.54337035784 115.875439910468 2914.78714991194 165 169 168
-1209.78415571253 114.129299186677 2903.91864157979 172 176 175
-1222.01342980447 112.726051536454 2893.78478767081 152 157 153
-1227.21931571418 112.122310730582 2885.22261581377 148 153 149
-1227.40961409264 112.089413525335 2877.7497734685 130 135 129
-1231.61165047063 111.599972678541 2869.43608347676 129 134 128
-1241.83043363608 110.42583127895 2859.89952785051 131 136 132
-1252.0478630876 109.251915233671 2850.41612202233 136 141 137
-1254.2421779791 108.991035260402 2842.60023020892 144 149 145
-1256.43624494135 108.73017627867 2834.79405086886 162 167 163
-1271.66356914877 106.986302011556 2824.44475956264 175 180 176
-1293.90673106545 104.444165807981 2812.82022152979 146 151 147
-1304.11732054925 103.271275504355 2803.60524669713 140 145 141
-1308.31219019752 102.782842359227 2795.57273932263 140 145 141
-1305.49034168552 103.092677344956 2788.8592211893 141 146 142
-1303.6713531385 103.288352649055 2781.9453722941 142 147 143
-1303.85688417245 103.255899384656 2774.65933095639 147 152 148
-1304.0424434181 103.223363585689 2767.37209838876 151 156 152
-1307.23393952018 102.84882172354 2759.55970612297 158 163 159
-1309.42338857306 102.588186841621 2751.93425129916 152 157 153
-1312.61442042686 102.213540368864 2744.14921593017 138 143 139
-1312.79954479145 102.180715219027 2736.87866933801 129 134 130
-1312.98470080617 102.147821623974 2729.60681225753 131 136 132
-1311.16640084749 102.342671536762 2722.6558399148 133 138 134
-1308.34685966672 102.651232035716 2715.85077483826 126 131 127
-1309.53417033307 102.504006419225 2708.40596804014 123 128 124
-1315.72867768715 101.787225783418 2700.2011585425 137 142 138
-1317.91652878992 101.525999132739 2692.62819696115 135 140 136
-1317.10030563311 101.606237654662 2685.50701757324 137 141 140
-1312.27895020367 102.14175947808 2678.95783309627 143 147 146
-1304.45490925087 103.01843677205 2672.80582165643 150 155 151
-1295.63070249867 104.008646512677 2666.74817017794 126 131 127
-1287.80900914178 104.884623785996 2660.50365492918 98 103 99
-1284.99332984647 105.191255855399 2653.54558339117 83 88 84
-1287.1828647732 104.928707511369 2645.91471779195 79 84 80
-1291.37372810224 104.438520067118 2638.03690762057 71 76 70
-1296.56478103555 103.834496878707 2630.0541566648 78 83 77
-1314.76480790814 101.751681331851 2620.50055328973 96 101 95
-1339.9666608931 98.8731100144177 2610.20336628479 94 99 93
-1360.16227158963 96.5635695423268 2600.62831793124 106 111 107
-1366.34799180298 95.8462323743188 2592.76634277205 93 98 94
-1367.53080414155 95.6973234263335 2585.49553877507 90 95 91
-1366.71242090573 95.7756343627373 2578.44738827696 103 108 104
-1370.89584070312 95.2854029555245 2570.86044990384 114 119 115
-1374.07856289105 94.9086923950365 2563.39796880447 138 143 139
-1368.25957111817 95.5545911956094 2556.85954586341 134 139 135
-1360.44090995348 96.4274086006759 2550.48380442828 135 140 136
-1354.62353133572 97.0725059496714 2543.87214847163 141 146 142
-1355.80692069259 96.922077949623 2536.57716155932 151 156 152
-1352.99045162882 97.2257842825458 2529.64681547852 156 161 157
-1344.17546975481 98.2105971646656 2523.22282907247 160 165 161
-1196.95868735277 108.006941816628 2929.27341773699 190 194 195
-1193.13716393539 108.419056894905 2922.63231660288 179 183 184
-1197.34301156203 107.9393748046 2914.18014801268 164 168 167
-1208.57158866132 106.679552328163 2904.20283623326 148 152 151
-1221.80497807698 105.197120125074 2893.84781660536 160 165 161
-1225.00482348864 104.829388306019 2885.71641649712 153 158 154
-1224.19223254329 104.907414434618 2878.45090220542 122 127 121
-1228.39476625435 104.428359521987 2870.12892633101 123 128 122
-1238.61450011443 103.28095858782 2860.58392611767 136 141 137
-1248.83288067209 102.13379790317 2851.09207561214 138 143 139
-1254.03598632884 101.543743254348 2842.66258560199 143 148 144
-1258.23552602313 101.065140324651 2834.45811157925 157 162 158
-1274.46666832385 99.2503951150934 2823.9175226514 170 175 171
-1293.70345176405 97.1019570498491 2812.88158253862 148 153 149
-1304.91724455033 95.8445732373145 2803.47538658867 142 147 143
-1309.11233456767 95.3665997620439 2795.44549721532 135 140 136
-1305.28785662989 95.7790512748624 2788.920230211 138 143 139
-1302.46621426267 96.0800685977986 2782.18918749837 144 149 145
-1301.64962040496 96.1583951727034 2775.08044348458 146 151 147
-1301.83531067263 96.1253593443139 2767.78755322929 153 158 154
-1306.02944173871 95.6472210358144 2759.79496600804 150 155 151
-1311.22526374481 95.0578601067997 2751.65089116001 154 159 155
-1312.4123211384 94.9134359207463 2744.20966631097 150 155 151
-1311.59560114637 94.9913909476128 2737.10545312347 138 143 139
-1308.77527635728 95.2915923461251 2730.32203881654 121 126 122
-1308.96072699448 95.2580501332167 2723.03797043321 119 124 120
-1307.14271296268 95.446777004923 2716.06924862744 123 128 124
-1310.33327758961 95.0794722119231 2708.31035703326 124 129 125
-1312.52196488155 94.8232714754147 2700.71943550978 124 129 125
-1316.71324391971 94.344737091212 2692.83789014397 130 135 131
-1314.89541498314 94.5329345329086 2685.86136571449 144 148 147
-1311.07533285224 94.9431654234808 2679.16191101647 143 147 146
-1304.25195841232 95.6864338347024 2672.86530342363 146 151 147
-1296.42844174438 96.5404794104248 2666.66850091913 140 145 141
-1291.60928375473 97.0609816314985 2660.01730599062 117 122 118
-1287.7920896202 97.4700685361917 2653.20375006574 77 82 78
-1289.98132189502 97.2126455021265 2645.58089152628 77 82 78
-1289.16770924857 97.2881527508451 2638.3526042738 72 77 71
-1291.35688757025 97.0304108405896 2630.74083681342 70 75 69
-1302.55282217737 95.7734750167713 2622.03308138515 83 88 82
-1331.76049595937 92.5186772427927 2611.22187470204 99 104 98
-1353.9595835906 90.0413917268265 2601.38954410018 117 122 118
-1367.15026631047 88.5632470136837 2592.70825366388 119 124 120
-1372.33487068769 87.9728994099774 2584.99221840933 137 142 138
-1371.51629531563 88.0481523774371 2577.95761863755 140 145 141
-1371.69819185529 88.0122553187292 2570.80992824622 137 142 138
-1373.88059027309 87.7543409184851 2563.45363292187 138 143 139
-1368.06113925845 88.3834516151658 2556.9151329669 136 141 137
-1358.24142888865 89.4557930247416 2550.7359114973 133 138 134
-1354.42403044274 89.862368508586 2543.9276441989 137 142 138
-1356.60745122056 89.6034435583757 2536.5396312406 143 148 144
-1353.79068237925 89.8986169670459 2529.61183950752 144 149 145
-1341.97524159521 91.1909701853299 2523.45258424584 146 151 147
-1190.91952880923 101.032186116441 2923.1480782234 178 182 183
-1196.12940511431 100.454103300152 2914.46682225328 161 165 164
-1208.36216674517 99.1150628409893 2904.26560397824 160 164 163
-1218.58660397383 97.9937634179415 2894.56480561951 164 169 165
-1220.78371329314 97.7423908764031 2886.64058144685 145 150 146
-1221.97772525893 97.5997432025142 2878.93878009418 119 124 118
-1229.18998102634 96.8050250451717 2869.98131547454 134 139 133
-1241.41628823762 95.4671358904903 2860.02426966958 146 151 147
-1248.62631991645 94.6728147869114 2851.1541564622 148 153 149
-1253.82979266202 94.0958816041896 2842.72440816886 155 160 156
-1259.03260237757 93.5190649198799 2834.32069847285 170 175 171
-1275.2646347543 91.7475396736754 2823.78240377055 178 183 179
-1292.49756474321 89.8677307448678 2813.13610783588 153 158 154
-1305.71731440287 88.4227086882137 2803.34502046879 143 148 144
-1306.90522841003 88.2809042168063 2795.8824538297 138 143 139
-1306.08776462383 88.3562395028151 2788.79517303093 140 145 141
-1301.26115977044 88.8657120267361 2782.43250928334 144 149 145
-1301.4468063213 88.8322526988986 2775.14087291134 145 150 146
-1297.62348906651 89.232856542661 2768.55752128033 140 145 141
-1301.8181887311 88.7651452144853 2760.55390694834 150 155 151
-1309.01875463617 87.9718887073088 2752.05489205181 149 154 150
-1312.21021818731 87.6127022477078 2744.26958422668 149 154 150
-1310.39126029888 87.7959335769444 2737.33185091724 153 158 154
-1304.56523918363 88.4128539971976 2731.0370442745 125 130 126
-1306.75450353065 88.1618894771543 2723.41986689734 124 129 125
-1308.94376102716 87.9108486218184 2715.81220008691 115 120 116
-1311.13252883893 87.6597912221567 2708.21432930079 121 126 122
-1310.31635489812 87.7338646888357 2701.08460681972 125 130 126
-1309.50034868664 87.8077734630967 2693.94815206155 124 129 125
-1309.6859374101 87.7731591590973 2686.65753565998 140 144 143
-1308.86996002172 87.8468083141493 2679.51035084778 140 144 143
-1305.05028679351 88.2454066857362 2672.7824247129 144 149 145
-1298.22730563748 88.9687791121118 2666.44908344692 144 149 145
-1294.4090080295 89.3667861830136 2659.66675841516 122 127 123
-1289.58997540055 89.8729254814966 2652.99524215577 78 83 79
-1290.77844117705 89.7287984228552 2645.50861664424 76 81 77
-1285.96043862062 90.2343934010006 2638.79625713349 72 77 71
-1288.14996839864 89.9816745470124 2631.17614691282 70 75 69
-1292.34085009032 89.5122938194222 2623.31995971562 73 78 72
-1313.54483800233 87.2023945359223 2613.44181315913 90 95 89
-1337.74839867942 84.5681722975266 2603.32487397752 119 124 120
-1359.9469847025 82.1508924608063 2593.56725264857 128 133 129
-1369.13501881758 81.1408709768955 2585.38399809398 144 149 145
-1371.31817050187 80.8883196672113 2578.01334576764 137 142 138
-1371.5000628074 80.8520486166898 2570.8654192969 130 135 131
-1371.68197624882 80.8155768772862 2563.71645127858 140 145 141
-1365.86196518802 81.4279144375895 2557.17250537712 133 138 134
-1359.04263738143 82.148018509747 2550.69286925237 137 142 138
-1355.22486075673 82.5433060609567 2543.88726237841 144 149 145
-1357.4081209357 82.2895436259572 2536.50174450253 149 154 150
-1350.59094455982 83.008579768878 2529.9368763524 148 153 149
-1341.77473042465 83.9434097459728 2523.50738318725 149 154 150
-1324.96068930118 85.7423501322585 2517.70454552537 162 164 161
-1185.69106436443 93.9518922556998 2924.34217282553 163 167 168
-1196.92252922018 92.7508129988985 2914.3057466765 150 154 153
-1207.14913120716 91.6560508610707 2904.54883575681 151 155 154
-1214.36423360857 90.8794958540151 2895.49961701089 161 166 162
-1217.56522750198 90.5270450891916 2887.3490626648 160 165 161
-1223.77556610022 89.8567508174997 2878.57542678051 156 161 157
-1230.98820005485 89.0806879288382 2869.62321188476 154 159 153
-1237.19686972704 88.4106879251315 2860.91511937425 148 153 149
-1240.39562962805 88.058606841227 2852.85227412536 146 151 147
-1246.60290733818 87.3888273698101 2844.19882110482 150 155 151
-1255.81807656206 86.4014712342422 2834.97936880216 159 164 160
-1274.0572505813 84.4613303279957 2824.03962757533 167 172 168
-1292.29420060465 82.5215683107914 2813.19653942215 150 155 151
-1303.50969935699 81.3232842231345 2803.78712514141 139 144 140
-1304.6975777261 81.1837430892183 2796.3190567703 141 146 142
-1302.87793010949 81.3616331559175 2789.41187017963 141 146 142
-1300.05594866305 81.6452451985418 2782.67539140794 139 144 140
-1302.24631984303 81.3996878177439 2775.02076093428 142 147 143
-1301.42965099198 81.471492281643 2767.90794497929 151 156 152
-1302.61754108465 81.3316029170485 2760.43904450757 147 152 148
-1307.81430487825 80.7685496866825 2752.28640852226 142 147 143
-1309.00170118368 80.6286117251548 2744.83675478669 138 143 139
-1308.18501419842 80.7000909121257 2737.72429832211 137 142 138
-1303.36034701405 81.1944060606831 2731.26030414651 154 159 155
-1308.55584338856 80.631225105717 2723.15706614923 144 149 145
-1310.74486393626 80.3852320492647 2715.55475526878 118 123 119
-1310.93021588253 80.3505457392314 2708.27331562563 113 118 114
-1309.11231439444 80.527100660614 2701.29645070728 119 124 120
-1306.29291154826 80.8091859397801 2694.45755198387 123 128 124
-1305.47719736383 80.8797309251832 2687.30607201929 135 139 138
-1306.66451546272 80.738838474912 2679.85845000969 139 143 142
-1305.8489970867 80.8090762495862 2672.6989873151 145 150 146
-1301.02799309875 81.301665912893 2666.08997003996 141 146 142
-1296.20795355924 81.79393565825 2659.45224006381 124 129 125
-1291.38839597913 82.2859301799565 2652.78605314251 89 94 90
-1289.57305621788 82.4609209510584 2645.69806281279 73 78 74
-1283.75395863605 83.0579323958681 2639.11128377474 69 74 68
-1283.9416396346 83.0213506210412 2631.73678149594 70 75 69
-1282.12735499801 83.1956553593494 2624.6068166301 68 73 67
-1291.32321347579 82.2089538700075 2616.14279809017 73 78 72
-1312.52742166857 79.9562241049333 2606.31742642398 94 99 93
-1343.73637695595 76.6489321663871 2595.45848999406 94 99 95
-1364.93410277014 74.3971479473279 2585.88748739385 121 126 122
-1374.12186417646 73.4113867430877 2577.74094006226 136 141 137
-1374.30353988503 73.3747532234979 2570.60108975993 140 145 141
-1370.48320151015 73.7597274300162 2563.8752064938 125 130 126
-1365.66336006713 74.2498137602029 2557.22738983755 128 133 129
-1361.84448821304 74.6341543256769 2550.45283429206 129 134 130
-1357.02577527131 75.1235832376892 2543.75088122264 131 136 132
-1354.20824334078 75.4018693781586 2536.8347814117 138 143 139
-1347.39074058278 76.1013661841911 2530.26168957032 146 151 147
-1342.57441965902 76.5897500090888 2523.47445080686 153 158 154
-1327.75882378385 78.1311641434034 2517.50526169685 163 165 162
-1173.24233999967 87.6024896856735 2934.72870489506 179 183 184
-1186.48358898678 86.2240337057393 2924.17814764818 163 167 168
-1198.71955569653 84.9491856079621 2913.92058860068 156 160 159
-1208.94676138326 83.8812413107057 2904.16887793497 174 178 177
-1213.15186922056 83.4330561075448 2895.77944180637 156 161 157
-1217.35645381069 82.9850252124331 2887.41062167384 139 144 140
-1226.57718668139 82.020915724037 2877.99868323986 124 129 125
-1232.78695737266 81.3667077029089 2869.26451530395 137 142 138
-1238.9959286895 80.7125924599059 2860.56168930821 150 155 151
-1240.18846072909 80.5746182770241 2852.91342184461 148 153 149
-1246.39617711871 79.9207170932624 2844.25987259248 152 157 153
-1250.5970683389 79.4732643497523 2836.0360229265 164 169 165
-1270.843823781 77.3754041969474 2824.68934676449 171 176 172
-1290.08508533963 75.3811632475814 2813.64395125765 157 162 158
-1303.30715501944 74.006132811672 2803.84666586605 142 147 143
-1303.49247693428 73.9719046397285 2796.5668918685 141 146 142
-1300.6699491619 74.2469443629659 2789.84256111085 144 149 145
-1298.85034515887 74.4187640297995 2782.9178272346 146 151 147
-1302.04357236128 74.0750731031329 2775.08022771784 148 153 149
-1303.23173270741 73.9374944113006 2767.61257061502 154 159 155
-1306.42409166004 73.5937976965165 2759.79957430427 148 153 149
-1306.60945928509 73.5591822361585 2752.51759795317 145 150 146
-1306.79485663529 73.5244838383063 2745.23437078807 138 143 139
-1304.97615862708 73.6957440682474 2738.28295160367 130 135 131
-1305.16175535674 73.6608125327599 2730.99168167314 147 152 148
-1308.35339416667 73.3168542623085 2723.21587498394 156 161 157
-1307.53675216953 73.3847684787765 2716.08850764897 131 136 132
-1305.71872802556 73.5555041973466 2709.11018833569 121 126 122
-1303.90077569213 73.7260738855637 2702.11955935876 121 126 122
-1303.08501457135 73.7935403857234 2694.96660838892 118 123 119
-1304.27257675691 73.6549987193677 2687.51197071769 128 132 131
-1307.46328539876 73.3105378480129 2679.771978565 133 137 136
-1308.65049063299 73.1718511360597 2672.3311360491 139 144 140
-1304.83049997925 73.5474266814052 2665.59089586597 138 143 139
-1298.00695613748 74.2313663477743 2659.23720644728 127 132 128
-1293.18711123283 74.7092697325529 2652.57644397503 99 104 100
-1290.37031102445 74.9811791056948 2645.62489904632 81 86 82
-1284.55044323751 75.5613983406095 2639.04086732203 73 78 72
-1281.73474058341 75.8328054468931 2632.04588687405 65 70 64
-1279.92043566239 76.0011887043844 2624.91035676418 70 75 69
-1284.11245265247 75.5525992885715 2617.04144706975 73 78 72
-1300.3141840762 73.8707069062516 2607.78365944523 89 94 88
-1327.52309834962 71.0587078256504 2597.35001786837 102 107 103
-1355.72872068868 68.1445614354094 2586.95073145103 99 104 100
-1369.92104696511 66.6692760549101 2578.23297292488 122 127 123
-1372.10430643903 66.4267792488281 2570.86890355792 132 137 133
-1365.28240003735 67.1085124200949 2564.44884814355 123 128 124
-1360.46228264798 67.5844658404299 2557.78731680835 134 139 135
-1361.64556344906 67.4440148984314 2550.50728522896 136 141 137
-1356.82646629468 67.9194266174563 2543.80529793882 135 140 136
-1350.00771152478 68.5997355489267 2537.26053659791 132 137 133
-1344.19007127118 69.1770060033935 2530.58627898074 139 144 140
-1342.3739601157 69.3434512298868 2523.52858665031 147 152 148
-1333.55757763224 70.2278199961667 2517.05149175798 166 168 165
-1182.06467067472 79.0399358933583 2932.72908012556 191 195 194
-1191.29138423165 78.0988269815078 2923.10809200276 164 168 167
-1203.52765814836 76.8563105183574 2912.86391667408 156 160 159
-1211.74821377615 76.0162517262996 2903.56740392764 158 162 161
-1212.94280337799 75.8801305237632 2895.84070939126 135 139 138
-1218.15129860268 75.3419529390539 2887.25627799158 120 124 123
-1223.35889226769 74.8039434866556 2878.69793840652 145 149 148
-1229.56930967351 74.1655283588075 2869.95545181865 156 161 157
-1234.7757496272 73.6277328933401 2861.4517578195 154 159 155
-1238.97818273612 73.1905080316456 2853.17862771223 156 161 157
-1246.18944680767 72.4520516648871 2844.3203315796 153 158 154
-1253.39977295649 71.7136949522293 2835.49879971757 171 176 172
-1266.62704035627 70.3729470553494 2825.53517937366 166 171 167
-1288.87873423456 68.1288147040628 2813.89715630999 154 159 155
-1300.09607929365 66.9895779738409 2804.47898247072 143 148 144
-1303.28991466354 66.6536626549424 2796.62596251059 139 144 140
-1302.4726309102 66.7192688041131 2789.53052379438 147 152 148
-1300.65272485313 66.885121967119 2782.61118886418 155 160 156
-1302.84354437862 66.6494802746881 2774.95900698527 158 163 159
-1304.03146202098 66.5141750328469 2767.49395185404 151 156 152
-1304.21692447751 66.4791291970651 2760.2078070558 154 159 155
-1303.40014211978 66.5442867604487 2753.09229040557 146 151 147
-1303.58573557098 66.5090710073 2745.80084343804 141 146 142
-1303.77136067231 66.473786808934 2738.50808598219 138 143 139
-1304.95908476488 66.3380979574472 2731.05018355664 129 134 130
-1308.15094018021 66.0018694921102 2723.27421084735 128 133 129
-1309.33831082622 65.8660796762475 2715.83001393022 146 151 147
-1305.51602584039 66.2313425711283 2709.16837126338 150 155 151
-1304.69994178861 66.2957290398646 2702.02473445532 122 127 123
-1304.8857483478 66.2598113465232 2694.72420479971 117 122 118
-1304.06969236239 66.3239383975141 2687.56986772967 124 128 127
-1305.25745065534 66.1875620913303 2680.11921528733 123 127 126
-1306.44486070615 66.0511015752463 2672.67275814778 121 126 122
-1306.63071573724 66.0146758201479 2665.36978852454 129 134 130
-1302.81085881458 66.3786470907366 2658.61186189107 128 133 129
-1297.99004040278 66.8424982428638 2651.96473445743 105 110 106
-1291.16747116154 67.5062821280208 2645.55131254857 103 108 104
-1286.34847630183 67.9695096205453 2638.84156953255 85 90 84
-1279.5275314867 68.6326240963261 2632.35461587532 82 87 81
-1277.71344370894 68.7950495372335 2625.21352679792 78 83 77
-1281.90565648107 68.3569894913766 2617.33894610153 65 70 64
-1295.10606276704 67.0185312444136 2608.42760958702 66 71 65
-1318.31360433872 64.6800506658217 2598.43860542047 98 103 99
-1347.52295557361 61.7420219860594 2587.9019603241 102 107 103
-1363.71849319807 60.1045540114212 2578.94327212728 104 109 105
-1365.90207562502 59.8670909852786 2571.56266073411 114 119 115
-1362.08191375717 60.2292678456671 2564.81472571565 125 130 126
-1360.2632765495 60.391272090473 2557.84166708319 132 137 133
-1360.44598591742 60.3531479956001 2550.65981732748 146 151 147
-1355.62681338983 60.8144421597476 2543.95494232883 146 151 147
-1348.80759327799 61.4752037351012 2537.40737971737 137 142 138
-1343.98975666262 61.9358152719067 2530.6402349002 138 143 139
-1341.1731269726 62.1963206431405 2523.66978078398 142 147 143
-1334.35647655178 62.8559779602715 2517.02060007802 145 147 144
-1183.86124840986 71.2110292741309 2932.33217007631 186 190 189
-1190.07680162451 70.5875151454359 2923.39563304462 166 170 169
-1198.29937085045 69.7684671149202 2914.04298164464 162 166 165
-1210.535491097 68.5584437287279 2903.84902562998 157 161 160
-1215.74456479131 68.0333344698143 2895.24669260695 125 129 128
-1218.94605703556 67.7038883732923 2887.10136162487 128 132 131
-1218.13336301567 67.7656017571158 2879.82236047433 151 155 154
-1224.34432522968 67.1430097881935 2871.06624579571 154 159 155
-1235.57146587266 66.0317867793662 2861.30463036903 157 162 158
-1242.78390544827 65.311818427143 2852.42024247149 164 169 165
-1250.9985228942 64.4942453172573 2843.37063304877 162 167 163
-1260.21534773571 63.5791764920615 2834.16409002071 166 171 167
-1274.4460777572 62.1758480248922 2824.02264189143 163 168 164
-1286.66908585534 60.9681751038131 2814.34367780787 159 164 160
-1295.88171293174 60.0538037098047 2805.30194683014 143 148 144
-1303.08735009734 59.3348961145918 2796.68455963973 145 150 146
-1306.28101394901 59.0066788875039 2788.84650882437 150 155 151
-1303.45803799536 59.2642823574508 2782.12097283735 149 154 150
-1304.64598833087 59.131264140395 2774.65709557556 152 157 153
-1302.82635694239 59.2909791195518 2767.7297597242 151 156 152
-1304.01429752037 59.1578284573675 2760.26612161113 153 158 154
-1303.19742819947 59.2197831489252 2753.15056478564 147 152 148
-1305.38757788638 58.9889443886571 2745.52039474934 145 150 146
-1305.57305196123 58.9531602263974 2738.23300310915 143 148 144
-1308.76522895514 58.6247086431396 2730.452812212 134 139 135
-1309.95263352885 58.4912505376748 2723.00979289349 117 122 118
-1308.13391108311 58.650258382778 2716.04617314526 128 133 129
-1304.31138159487 59.0040777184703 2709.38179926719 139 144 140
-1301.49130618419 59.2602187622685 2702.54132977214 139 144 140
-1302.67910876011 59.1262945829967 2695.08225471479 130 135 131
-1298.85791898046 59.4795471834632 2688.36491186712 124 129 125
-1303.05106712414 59.0530768725394 2680.46621777483 128 132 131
-1304.23868315978 58.9188572460653 2673.01411612933 127 132 128
-1306.42794848152 58.6871104317581 2665.42685993737 123 128 124
-1300.6046374735 59.2344706301605 2658.94211971825 119 124 120
-1296.78519083438 59.5867489950926 2652.15560284088 100 105 101
-1292.96632860514 59.9387967496762 2645.34599758985 100 105 101
-1290.14929478222 60.1932277505192 2638.38481619635 86 91 85
-1285.3301170679 60.6421324971354 2631.65751632222 87 92 86
-1281.51300745781 60.9933835498528 2624.77855720602 88 93 87
-1280.69982371955 61.0524364248511 2617.51583929599 69 74 68
-1290.89814199003 60.041023281181 2608.95384772803 60 65 59
-1312.10566683521 57.9596351906008 2599.18282329014 95 100 96
-1338.3149058667 55.3922996169505 2588.96516742238 102 107 103
-1355.51302980963 53.7008720310135 2579.87215692851 101 106 102
-1358.69824017527 53.3711241623718 2572.36285414646 111 116 112
-1360.88243915382 53.1384904432142 2564.97265590687 131 136 132
-1359.06371513558 53.2946209278763 2557.99668334072 135 140 136
-1357.24529231045 53.4505061739784 2551.00867578653 141 146 142
-1352.42594360525 53.8976977507631 2544.29554414679 141 146 142
-1347.60707486816 54.3445696197483 2537.55398562475 138 143 139
-1342.7891632911 54.7910784968804 2530.78395300879 140 145 141
-1336.97153052897 55.334406184569 2524.07295747033 142 147 143
-1331.15475412247 55.8773858479194 2517.32811890535 149 151 148
-1186.66200810113 63.2974586291132 2931.70560664648 177 181 180
-1189.86612257609 62.9751500413598 2923.45612872372 164 168 167
-1196.08155527151 62.3676149253631 2914.5507838222 148 152 151
-1208.31870487286 61.1897727964994 2904.35115081192 143 147 146
-1212.52467484292 60.7727930460945 2895.96152556024 137 141 140
-1217.73389598751 60.2608906015577 2887.37693491803 135 139 138
-1215.91747625041 60.4143669733312 2880.30805328034 159 163 162
-1222.12925381035 59.8075798869857 2871.54636691267 164 168 167
-1229.34356054327 59.1059154115226 2862.6086573327 163 168 164
-1238.56368807572 58.2144250785692 2853.29835047042 166 171 167
-1247.78236108985 57.3231750674419 2844.03582447364 164 169 165
-1262.01614014344 55.9572338507091 2833.82467794565 177 182 178
-1271.23203996031 55.0664820674145 2824.67107306333 172 177 173
-1281.45018652924 54.0809068081686 2815.3711904213 155 160 156
-1288.6577622502 53.380404119621 2806.69779954337 126 131 127
-1297.87008867234 52.4902135518757 2797.68445789623 142 147 143
-1304.07287385294 51.8849052023119 2789.27581261798 157 162 158
-1305.26085577965 51.7541893081729 2781.81317271942 161 166 162
-1306.44897057242 51.6234048965062 2774.35459117484 157 162 158
-1306.63416976824 51.587438833907 2767.07774744873 153 158 154
-1305.81666579626 51.6463095895021 2759.97435890474 151 156 152
-1306.00199639826 51.61018850474 2752.69221291907 142 147 143
-1305.1849985739 51.6688163408167 2745.57810633241 141 146 142
-1304.36817163842 51.7273386623647 2738.45720752349 143 148 144
-1306.55817576859 51.5013851916692 2730.83797179671 146 151 147
-1306.74363022312 51.4649460433529 2723.55064371262 144 149 145
-1306.92911736344 51.4283931598159 2716.26191603493 139 144 140
-1305.11060772046 51.5812524172706 2709.28337733754 130 135 131
-1300.28609959075 52.0182220337024 2702.75159353875 130 135 131
-1299.47028788572 52.0759939196182 2695.59021024668 131 136 132
-1297.65260156836 52.2283520291609 2688.56963024988 128 133 129
-1302.84808891903 51.7176001160938 2680.52303920259 131 135 134
-1302.03243622143 51.7750295744596 2673.35507367685 133 138 134
-1301.21671417067 51.8323155795068 2666.18033989575 122 127 123
-1294.39175939473 52.4573770703589 2659.81857582215 115 120 116
-1292.5755720187 52.6088678361484 2652.74780550644 102 107 103
-1293.7638565099 52.4763008287832 2645.27135275718 98 103 99
-1294.95202942993 52.3436134772144 2637.79913137923 86 91 85
-1290.1323584936 52.7784518931431 2631.08532977546 88 93 87
-1281.3082110166 53.5913495816152 2624.8349775911 94 99 93
-1277.49137355328 53.930929499856 2617.93285047115 80 85 79
-1283.68624645557 53.324696661957 2609.83245179431 65 70 64
-1306.89802201896 51.111158887177 2599.81212252431 90 95 91
-1331.10752849007 48.8035860199361 2589.80420726424 102 107 103
-1350.30932378689 46.9691645022948 2580.47289178461 100 105 101
-1354.49586449647 46.552660883341 2572.84314057232 108 113 109
-1360.68349956357 45.9471245726347 2565.0263694454 131 136 132
-1358.86461719043 46.0973853395319 2558.05028348686 135 140 136
-1356.04548293042 46.3418722028879 2551.16051720219 134 139 135
-1351.22581839737 46.774983366417 2544.44461074558 134 139 135
-1346.40663500068 47.2077895158871 2537.70024752436 137 142 138
-1342.58875449936 47.5458165395251 2530.83721856416 139 144 140
-1337.77093826623 47.9779736206661 2524.03872493545 141 146 142
-1329.95321918234 48.6929120537071 2517.46597022632 158 160 157
-1185.44692469826 55.769399761522 2931.99473884769 175 179 178
-1186.643782515 55.6394237033879 2924.19531758645 161 165 164
-1194.86749488547 54.862988090743 2914.83441728244 145 149 148
-1206.10161717879 53.8097484952679 2904.85286810978 140 144 143
-1211.31193338858 53.3107737088013 2896.23935924932 139 143 142
-1215.51773532518 52.9042670034902 2887.8675464769 140 144 143
-1214.70506689103 52.9594014897707 2880.58048143339 163 167 166
-1221.920826092 52.2761512931474 2871.60577620469 164 168 167
-1229.13564832588 51.5930905247771 2862.66789428899 166 171 167
-1240.36310921293 50.5411592375897 2852.94810071059 166 171 167
-1250.58581404406 49.5816972466642 2843.48877901874 162 167 163
-1262.81379932796 48.4380149874172 2833.68399751846 173 178 174
-1268.01778998797 47.9401990756342 2825.31895736694 162 167 163
-1278.23664679689 46.9814014234344 2816.01074302946 156 161 157
-1287.45092274017 46.1150895811913 2806.94684647889 135 140 136
-1297.66714297514 45.1567687885716 2797.74219059978 124 129 125
-1300.86158002297 44.8438456341226 2789.89034219699 135 140 136
-1303.05285234275 44.6231031620382 2782.23646118452 161 166 162
-1307.24930307632 44.2181107035343 2774.23175170187 169 174 170
-1308.43706372676 44.0895393813989 2766.78006272318 162 167 163
-1309.62495683172 43.9608846465316 2759.33243218874 160 165 161
-1307.80475083501 44.1085418615166 2752.40528253112 151 156 152
-1308.99239716625 43.9798059124924 2744.95788477863 145 150 146
-1307.17283930391 44.1272274213329 2738.01447548952 140 145 141
-1308.36047918347 43.9983131327857 2730.56713840438 140 145 141
-1306.5410903386 44.1455277272583 2723.60757636972 131 136 132
-1305.72440926193 44.2005001026608 2716.47716523447 142 147 143
-1302.90347874698 44.4394032562275 2709.65160745788 138 143 139
-1300.0829964964 44.6781420547744 2702.80835348493 132 137 133
-1301.27123692987 44.5487046321089 2695.34630775944 128 133 129
-1300.45513042651 44.6031670607279 2688.18356797867 122 127 123
-1304.6489648475 44.1976526180649 2680.28987737756 132 136 135
-1302.83110926312 44.3438288149458 2673.26927526021 136 141 137
-1298.00830355141 44.7656855464873 2666.65472801685 132 137 133
-1291.18301676469 45.3710591513367 2660.28480073879 124 129 125
-1287.36357133693 45.7004249217312 2653.47363473825 101 106 102
-1291.55689905457 45.2943883036548 2645.5898623989 99 104 100
-1293.74691171201 45.0720605799551 2637.98351123295 93 98 92
-1290.92957156196 45.3090025571375 2631.01552379828 84 89 83
-1282.10466676437 46.0968338461816 2624.76785595731 82 87 81
-1276.28483497731 46.6087418188861 2618.1090698607 93 98 92
-1280.47799037374 46.2021027375609 2610.24071034085 93 98 92
-1303.69170806154 44.0510529109174 2600.2115708671 94 99 95
-1324.90006226865 42.0841704331851 2590.53107940059 102 107 103
-1344.10370573613 40.3012483813095 2581.18282716911 100 105 101
-1350.29287643814 39.7116734365635 2573.32317619537 104 109 105
-1355.48022917012 39.2138787498647 2565.59910191009 122 127 123
-1352.66083667286 39.4499566726234 2558.71039955907 125 130 126
-1350.84275392786 39.5940145203111 2551.70572593368 130 135 131
-1347.02337455358 39.9212951834713 2544.88041471851 130 135 131
-1343.20481461406 40.2482495211627 2538.03205155929 131 136 132
-1339.38683406619 40.574929570211 2531.1607492574 136 141 137
-1334.56884200067 40.9929689673214 2524.35396928584 140 145 141
-1328.75152453381 41.5022988163454 2517.60347144357 153 155 152
-1318.93373474157 42.377818472988 2511.14717989812 165 167 162
-1181.21959447304 48.5043912569736 2932.970869524 180 184 183
-1187.43684053887 47.9283335138819 2924.02844980385 159 163 162
-1196.66520496785 47.0835658097866 2914.44638365152 154 158 157
-1203.88447026179 46.4182881919444 2905.35394573463 148 152 151
-1209.09504477718 45.9324369585248 2896.73510766899 149 153 152
-1215.30888515025 45.3571058506201 2887.92657442527 164 168 167
-1218.51083557222 45.0506451081008 2879.78801617343 168 172 171
-1225.72683138519 44.3860578619888 2870.82410216716 161 165 164
-1232.94189092149 43.7216298507941 2861.89695207038 156 161 157
-1244.17013079766 42.6991974686199 2852.18771133904 159 164 160
-1252.38638102029 41.9456351212142 2843.1430171732 157 162 158
-1262.60833968722 41.0132453097254 2833.74192618473 158 163 159
-1263.79940579026 40.8865548583065 2826.16306820185 151 156 152
-1275.02265223055 39.8650467422823 2816.64998064854 167 172 168
-1287.24723442444 38.7543237900038 2807.0042680716 141 146 142
-1298.46743249586 37.7333421460405 2797.61088661927 126 131 127
-1300.6588504281 37.5175606289012 2789.9473164702 135 140 136
-1304.85597336618 37.1229375583292 2781.9274687569 160 165 161
-1307.04700119621 36.9071967431714 2774.28851364465 170 175 171
-1308.23482385343 36.7808146131232 2766.83675181168 159 164 160
-1308.4198909158 36.7438183900835 2759.56396621138 159 164 160
-1308.60498880528 36.7067239314182 2752.28987030331 159 164 160
-1308.79011875641 36.6695759227398 2745.01446381663 155 160 156
-1306.97039807876 36.8109938584415 2738.07097173963 148 153 149
-1306.15311893938 36.8629925951142 2730.95141731426 144 149 145
-1303.33164293423 37.0934701191369 2724.14745718026 140 145 141
-1304.51954742589 36.966601054803 2716.69197414173 136 141 137
-1303.70301494236 37.0182328227731 2709.55216858445 134 139 135
-1304.89084253992 36.8911741631635 2702.09948726079 132 137 133
-1305.07653616498 36.8533209122394 2694.80129320953 125 130 126
-1304.26030577758 36.9046021679018 2687.64930433596 121 125 124
-1303.44400458986 36.955770365045 2680.49063640258 123 127 126
-1301.62629302464 37.095963198776 2673.46730583159 127 132 128
-1296.80316936117 37.503635049169 2666.84995461123 135 140 136
-1291.98100794226 37.9110175778754 2660.20400967746 132 137 133
-1288.16094127935 38.2289832022879 2653.39555831166 108 113 109
-1289.34987296401 38.1008922346382 2645.90794181455 98 103 99
-1289.53698711014 38.0618655481781 2638.55296893423 96 101 95
-1286.71968978333 38.2900933624592 2631.57395122219 88 93 87
-1280.89860232701 38.7854402676979 2624.94645903141 81 86 80
-1277.08114246139 39.1022436055756 2618.04420181142 86 91 85
-1278.2704667858 38.9733760270302 2610.53108093994 90 95 89
-1296.48020350293 37.3302258074424 2601.07006196969 98 103 99
-1318.69168003281 35.3312680098751 2591.25779696748 100 105 101
-1338.89815748177 33.5108556598189 2581.7832263903 97 102 98
-1347.09019026675 32.7591761004718 2573.69637996305 102 107 103
-1348.27450365887 32.6306822699126 2566.37950498582 123 128 124
-1344.45458760258 32.9470141584709 2559.57273799986 122 127 123
-1345.63902216552 32.8181879735441 2552.25077039058 129 134 130
-1344.82206806954 32.8671411009606 2545.12456679091 130 135 131
-1343.00447164014 33.0048456365204 2538.08473978185 131 136 132
-1339.18618136459 33.3202045245379 2531.21338691972 136 141 137
-1335.36847192784 33.6352587291131 2524.31900571936 141 146 142
-1330.55074377133 34.0389283276571 2517.48648208649 151 153 150
-1318.73147481957 35.0644775754505 2511.19969611432 154 156 151
-1177.99576994526 41.1301859224241 2933.71743591619 185 189 188
-1184.21365969871 40.5699218784669 2924.7668167122 158 162 161
-1194.44686675003 39.6622512229269 2914.95264142084 149 153 152
-1202.67068247506 38.9286266907406 2905.6336689036 139 143 142
-1212.90132160247 38.0214896420004 2895.9204299204 162 166 165
-1218.11156064038 37.5489137730215 2887.33828232922 158 162 161
-1218.30219819377 37.5106896077079 2879.84646417281 143 147 146
-1228.52982017725 36.6041607466351 2870.25179865172 145 149 150
-1238.75608816788 35.6979023284138 2860.71034224195 154 158 157
-1249.98449183709 34.70509389023 2851.0171830324 160 165 161
-1256.19408509856 34.1464984370933 2842.39261107973 136 141 137
-1263.40622652396 33.5012731581775 2833.60012928117 143 148 144
-1265.60080064003 33.290004939946 2825.82737535514 156 161 157
-1275.82127967033 32.3847925505534 2816.5132947149 132 137 133
-1289.05006685927 31.2196308996383 2806.67880673373 134 139 135
-1299.267634144 30.3149236140541 2797.47906953838 144 149 145
-1302.46236228327 30.0173928727162 2789.63237146125 144 149 145
-1304.65353228732 29.806598923154 2781.9838464708 135 140 136
-1305.84183364458 29.6824569666966 2774.52510549609 147 152 148
-1306.02699499432 29.6449554892851 2767.24809231597 163 168 164
-1304.2064991323 29.7806860648169 2760.31946569151 150 155 151
-1306.39741113074 29.5697476017376 2752.69019407479 140 145 141
-1309.59066532933 29.2721741272478 2744.901056822 146 151 147
-1309.77574442153 29.2344544729342 2737.62702428948 150 155 151
-1307.95572064148 29.3698342953773 2730.67957045471 152 157 153
-1304.13125036762 29.6782107364883 2724.04225612154 151 156 152
-1304.31683978992 29.6401451511079 2716.74790668682 147 152 148
-1303.50022096735 29.6885138620444 2709.60797193928 150 155 151
-1307.69486254371 29.304124438929 2701.69609254058 145 150 146
-1306.87799832827 29.3523515490372 2694.55627176796 146 151 147
-1304.05747752755 29.5734218654545 2687.70487820134 139 143 142
-1299.23300137942 29.9673192996626 2681.12559685984 136 140 139
-1299.41919279008 29.9285832859301 2673.80699978013 133 138 134
-1296.59970382784 30.1491119471361 2666.90537201493 137 142 138
-1293.78066196173 30.3694615595817 2659.98607793568 137 142 138
-1288.95869738156 30.7624471314466 2653.31698151822 117 122 118
-1289.14577213868 30.7230708171685 2645.96317269372 100 105 101
-1288.33109177451 30.7699962953311 2638.73660185618 84 89 83
-1286.51534123711 30.9031399760457 2631.62905868685 85 90 84
-1281.69519853754 31.2952085086222 2624.87844742991 86 91 85
-1278.87869349143 31.514312566422 2617.85866825611 79 84 78
-1278.06541045389 31.5604727773723 2610.58598815672 80 85 79
-1286.26379814128 30.8294734627542 2602.27297498257 80 85 81
-1307.47649890793 28.9764603150145 2592.54486902821 95 100 96
-1330.68866534445 26.9513683218213 2582.71160164888 102 107 103
-1341.88482437431 25.9622227622069 2574.28260756354 100 105 101
-1346.07255561107 25.5771672728411 2566.64009300453 111 116 112
-1341.25161728292 25.9683941557476 2559.92899875861 122 127 123
-1341.43554658736 25.9280996932946 2552.69713928431 119 124 120
-1338.61712506062 26.1463185298817 2545.75131233011 121 126 122
-1340.8028361933 25.9332385661306 2538.32300918553 131 136 132
-1337.984949491 26.1510599362743 2531.35585267086 135 140 136
-1336.16800725185 26.2824233504665 2524.28364903309 137 142 138
-1332.35049703667 26.5858708496153 2517.36901917733 158 160 157
-1322.5309029474 27.4059331075997 2510.92369992718 162 164 159
-1167.54790937942 34.3681060406842 2943.68582673133 190 194 193
-1175.77567909659 33.6550357009889 2934.23438801271 177 181 180
-1188.01930490402 32.6054856871469 2923.91939262596 151 155 154
-1196.24488459827 31.8929202347855 2914.56341448723 140 144 143
-1202.46096009409 31.348957352587 2905.69188089974 154 158 157
-1207.67257047077 30.8892655993184 2897.06997060999 148 152 151
-1217.90294361371 30.0090878972659 2887.39607409143 144 148 147
-1224.11665118824 29.4656472544867 2878.62697259993 145 149 148
-1236.35199816105 28.417764265855 2868.6280078846 143 147 146
-1244.5711951917 27.7065529506465 2859.52294031819 147 151 150
-1250.78195703402 27.1636564694119 2850.86955252451 139 143 142
-1252.97747366789 26.9571670567755 2843.05576806337 140 144 145
-1259.18691330012 26.4145325569191 2834.45433811566 132 136 135
-1265.39555589442 25.8720202226687 2825.88419034351 154 158 157
-1273.60996771046 25.1616208554163 2816.95769256013 165 169 168
-1285.8366473526 24.1154270263276 2807.30861563037 159 163 162
-1296.05516423001 23.2374755042992 2798.10049334172 143 147 146
-1302.25978241719 22.6956444579327 2789.68836485599 142 146 145
-1306.45734706275 22.3218654452015 2781.67363442824 142 147 143
-1305.63945433465 22.3678574440647 2774.58093639141 144 149 145
-1305.82460279467 22.3298342315796 2767.30386678679 164 169 165
-1305.00674287225 22.3756555795316 2760.20037857023 159 164 160
-1305.19202466344 22.3374918371605 2752.91794703171 143 148 144
-1306.38023807559 22.2153539228208 2745.46479504297 140 145 141
-1305.56268127125 22.2609445244897 2738.34921216404 142 147 143
-1306.75081833343 22.1386918938226 2730.89892102286 152 157 153
-1302.92610011871 22.4356106863954 2724.25899473686 151 156 152
-1303.11174854086 22.3970042268948 2716.96175863458 150 155 151
-1302.29487150833 22.4421737777674 2709.81915582673 151 156 152
-1305.48762827708 22.151980033453 2702.05738364152 146 151 147
-1304.6710537649 22.1969308666568 2694.9120472362 143 148 144
-1300.84808747891 22.4930831506991 2688.20282648855 136 141 137
-1298.02774522268 22.7052412542477 2681.32556074845 133 138 134
-1296.20981779291 22.8334758779372 2674.28850231858 126 131 127
-1296.39623792404 22.7940787818153 2666.96025623135 123 128 124
-1291.57329799075 23.1731445200584 2660.31433394742 128 133 129
-1289.75636361992 23.3008746870011 2653.23792168726 123 128 124
-1288.94166826116 23.3447250455978 2646.01795985197 109 114 110
-1286.12365829464 23.5557670700975 2639.04834179078 93 98 94
-1286.31099074065 23.5156469373996 2631.6836629368 88 93 89
-1283.49366480742 23.7263117908611 2624.68690550774 81 86 82
-1281.6781981266 23.8531410550376 2617.55216351764 81 86 82
-1277.86035093718 24.1469851898695 2610.64039242962 78 83 79
-1280.0512100633 23.9390167410793 2603.01637621874 81 86 82
-1297.26085164145 22.4773217200568 2593.71988577575 88 93 89
-1323.47909355576 20.2639674323292 2583.53044390196 103 108 104
-1338.68106590487 18.9702782917843 2574.65536515882 97 102 98
-1343.87053651155 18.5121744085562 2566.90045870949 113 118 114
-1341.05120574526 18.7222326436957 2559.98140576145 122 127 123
-1339.23317452845 18.8485592841106 2552.94635504303 119 124 120
-1336.41465823231 19.0581606079244 2545.99497918432 121 126 122
-1338.60065237021 18.8501369288367 2538.56104426412 129 134 130
-1337.78420747815 18.8924124153107 2531.40776927432 130 135 131
-1338.9690844537 18.7676247667181 2524.07284691725 130 135 131
-1335.15105640949 19.0598065073393 2517.16635931014 155 157 152
-1327.33137044148 19.6853631804464 2510.56518120765 158 159 154
-1168.3400156951 26.6159461075925 2943.51205747432 187 191 190
-1180.585814346 25.5983029313781 2933.14639894263 172 176 175
-1187.80855952733 24.9882917033198 2923.97729576457 153 157 156
-1197.03884939579 24.215589427714 2914.39735507389 149 153 152
-1203.25553317181 23.6874415405921 2905.52835350095 152 156 155
-1210.47540016902 23.0780465194297 2896.4724013643 170 174 173
-1219.70239262373 22.3060720615811 2887.02211650091 170 174 173
-1227.92409118579 21.6157297367107 2877.83236314725 166 170 169
-1241.16406688371 20.5187569739228 2867.63380545243 168 172 171
-1246.37191293754 20.0729896261459 2859.16464410581 177 181 182
-1252.58297229564 19.545994009601 2850.51670148882 164 168 169
-1254.77872553523 19.3444050468292 2842.70825616999 178 182 183
-1256.97423428402 19.1428511649439 2834.9094040661 151 155 154
-1261.17635547945 18.7787675311636 2826.72699803577 123 127 126
-1266.38131661856 18.3334831392996 2818.37110771115 115 119 118
-1279.61266190668 17.2381778371853 2808.51164671944 115 119 118
-1291.83902145118 16.2244344994948 2798.90992315319 136 140 139
-1302.05720657473 15.3734898433635 2789.74376484747 142 146 145
-1310.26763306852 14.6852181685804 2780.99678627479 153 158 154
-1310.45238917079 14.6467892509776 2773.73461575563 149 154 150
-1310.63717884818 14.6083063804344 2766.47107507379 153 158 154
-1306.81025466748 14.8944688636238 2759.90581628347 156 161 157
-1307.99819138921 14.7746434570114 2752.45663651925 160 165 161
-1305.17483086708 14.979367494329 2745.68935293851 155 160 156
-1305.36016265732 14.9405302312456 2738.40424408912 150 155 151
-1304.54292679487 14.9827612155886 2731.28183517943 147 152 148
-1300.71803246255 15.2681732287046 2724.63643708606 158 163 159
-1301.90626591697 15.1479687281581 2717.1752529383 144 149 145
-1302.0920023737 15.1087686503788 2709.87393875799 140 145 141
-1305.28497382286 14.826290218902 2702.11206022703 139 144 140
-1301.4613151153 15.1111482021079 2695.41777476275 136 141 137
-1296.63582028978 15.4768377983692 2688.84801945858 133 138 134
-1295.8199829095 15.5182013098058 2681.67002159565 132 137 133
-1296.0063609699 15.4784402950526 2674.34302903061 131 136 132
-1295.19079369038 15.5195368360668 2667.15418804148 132 137 133
-1290.36729569592 15.8844397381154 2660.50554497043 134 139 135
-1287.54843291324 16.0871560920338 2653.56031845555 128 133 129
-1286.73378983003 16.1277665094933 2646.33483471106 130 135 131
-1282.91398389979 16.4110285927683 2639.48825580807 85 90 86
-1283.10151396025 16.3703907018465 2632.11529756759 81 86 82
-1282.28751611808 16.4105442472977 2624.86410501444 85 90 86
-1283.47666415968 16.2887608337729 2617.36548031642 80 85 81
-1278.65670675734 16.6521359437097 2610.57681821424 78 83 79
-1276.8420007798 16.7726226039628 2603.41485989351 81 86 82
-1293.05184701854 15.4378475486375 2594.22194982708 83 88 84
-1316.26845637117 13.537672747161 2584.34916435488 100 105 101
-1333.4745657687 12.1229226943668 2575.24112965781 97 102 98
-1340.66690114632 11.5164909879976 2567.26439036874 105 110 106
-1340.85079039868 11.4755469790064 2560.03339883541 109 114 110
-1339.03259965871 11.5959892079158 2552.99826460691 114 119 115
-1334.21212097637 11.958464633546 2546.23833470978 118 123 119
-1336.39816144853 11.7555333734252 2538.79873194543 125 130 126
-1335.5817724694 11.7946729837275 2531.63990462249 129 134 130
-1336.76685789889 11.67221559597 2524.29933721782 131 136 132
-1331.94807468295 12.0337294782757 2517.47211018903 153 155 150
-1327.12977150143 12.3949536446539 2510.61648588943 162 164 159
-1178.36565485571 18.1196748746777 2933.66229955972 171 175 174
-1186.59355498358 17.4494352865682 2924.26107708935 152 156 155
-1193.81594749512 16.8581688687917 2915.12588420216 145 149 148
-1206.05851580259 15.8736459408844 2904.92204065399 182 186 185
-1213.27868628314 15.2828510528924 2895.87419872769 176 180 179
-1227.52631982513 14.1416570137077 2885.35356222018 172 176 175
-1235.74805472407 13.4727168107375 2876.1853686457 177 181 180
-1242.965102755 12.8826150295505 2867.26963186011 180 184 183
-1245.16158952168 12.6858004925967 2859.4283193841 178 182 183
-1251.373158971 12.1746191375843 2850.77742077123 178 182 183
-1257.5839291785 11.6635905444408 2842.1579233215 174 178 179
-1257.77197831411 11.6241648895509 2834.76597943183 153 157 156
-1258.96356445637 11.5061437843626 2827.17610499049 136 140 139
-1263.1655894416 11.1524840647576 2819.00865158488 107 111 110
-1276.39811217143 10.0921264855706 2809.14069626536 115 119 118
-1289.62886952501 9.03210385692005 2799.34209760949 126 130 129
-1301.85463090592 8.05090004445463 2789.79869078437 141 145 144
-1308.05933051608 7.54093244087317 2781.41759251721 148 153 149
-1310.25039142126 7.34500724645276 2773.78929641225 158 163 159
-1309.43214647061 7.38443090251761 2766.70331187211 150 155 151
-1307.61087955632 7.50224100124147 2759.78557901378 151 156 152
-1306.79304462192 7.54149548026475 2752.68338796916 156 161 157
-1303.96951367084 7.73745709514612 2745.91335692795 157 162 158
-1303.152157549 7.77649407206371 2738.79221869243 154 159 155
-1303.33764582494 7.73702996230546 2731.50032078035 141 146 142
-1301.51771669426 7.85425883352658 2724.52967862676 151 156 152
-1301.70340902267 7.81462036109515 2717.22961842002 159 164 160
-1301.88913224448 7.77491364491006 2709.92827751698 154 159 155
-1304.07992066089 7.57845766898224 2702.31938609303 140 145 141
-1302.26067426264 7.69523469168054 2695.32157523091 139 144 140
-1298.43721732575 7.9684402765291 2688.6068924219 140 145 141
-1298.6233439795 7.9283260600356 2681.28934645876 135 140 136
-1296.80502149866 8.04466204771903 2674.25495215453 135 140 136
-1294.98724843178 8.16080361620014 2667.20820088477 134 139 135
-1288.1593972962 8.66797854009577 2660.83305906307 135 140 136
-1286.34234752 8.78375062615028 2653.74831757836 132 137 133
-1282.52192043362 9.05575945474979 2646.91393273068 122 127 123
-1281.70763893053 9.09295755682366 2639.67065330134 85 90 86
-1281.89522888019 9.05183857406203 2632.29483782424 83 88 84
-1281.08097475304 9.08880745172622 2625.04091753643 86 91 87
-1281.26869363976 9.04744407557656 2617.65980034141 76 81 77
-1275.44699159255 9.47474295295897 2610.98326376055 79 84 80
-1271.62924138794 9.74549894800977 2604.04291190383 82 87 83
-1284.83633153862 8.68834111172179 2595.17238551873 82 87 83
-1310.05804247965 6.6944573726464 2585.05831497244 99 104 100
-1326.26463241981 5.40383797592364 2576.04008328049 98 103 99
-1331.45544019965 4.97216473514486 2568.25196987203 103 108 104
-1333.64234373077 4.77459734522703 2560.7937198725 111 116 112
-1334.82774591847 4.65499656083018 2553.44383966014 116 121 117
-1333.00997779501 4.76932437227645 2546.385622924 118 123 119
-1334.19560098859 4.64945154787294 2539.03613772893 124 129 125
-1331.3774290887 4.84136059741641 2532.05230506979 130 135 131
