ply
format ascii 1.0
comment KinectMotionCapture
element vertex 783
property float x
property float y
property float z
property uchar red
property uchar green
property uchar blue
end_header
-1339.73879631155 -562.823448856702 2482.29983120925 16 18 15
-1351.06540774903 -568.346366886083 2435.55159829113 13 15 12
-1124.04846356809 -541.388511724813 2658.30876406927 16 18 17
-1131.63846941834 -541.856451167139 2657.36280851267 16 18 13
-1139.26564744921 -543.206933190144 2648.35232064041 17 19 14
-1146.94228224862 -544.670293117051 2638.32851128632 20 23 16
-1154.30996622682 -542.262147958926 2663.6045128215 20 23 14
-1161.96112768239 -543.50335313649 2655.59843128113 18 21 14
-1168.93256412091 -539.639556455547 2694.02094211166 15 18 11
-1177.09911956676 -544.323986081884 2654.71938786344 15 18 11
-1182.84891201071 -535.101535713671 2741.65258529404 15 18 11
-1190.16317858879 -535.440653834216 2741.74862848902 12 15 8
-1197.97157797511 -537.901239653196 2722.64085689367 12 15 8
-1205.26568013933 -538.018598452013 2724.7542066894 12 15 8
-1212.4472431606 -537.798640619205 2729.90401395682 12 15 8
-1220.83479716035 -541.614976432836 2698.63457162446 12 15 8
-1229.01148857438 -544.317558329332 2677.46610245303 12 15 8
-1235.104605681 -540.838373945144 2711.96800627616 13 16 9
-1242.79341759247 -542.079765447839 2703.9574669409 15 18 11
-1249.79550062521 -541.517778550904 2712.15207309177 14 17 10
-1256.74785151195 -540.952623430838 2720.35287717704 14 17 10
-1264.05516802973 -541.289629075159 2720.44954186659 13 16 9
-1271.72884349241 -542.41946059962 2713.44828477962 13 16 9
-1277.69866972767 -540.032560969058 2737.89109954822 9 12 5
-1285.52689125568 -541.50178798527 2727.84814824859 11 14 7
-1295.9785170813 -547.754526192173 2675.1644271908 12 15 8
-1304.97430448452 -550.946060620374 2649.86403865995 13 16 9
-1329.6645387317 -567.755233276084 2506.74851181515 12 15 8
-1341.23427216056 -574.075797189587 2453.92543615524 8 11 4
-1348.81471551231 -573.878085046964 2459.02552409881 8 10 7
-1123.59533130457 -543.293851727104 2709.76597598085 8 10 9
-1131.10671430798 -547.253205658213 2677.5985641439 17 19 14
-1138.62299782239 -547.264776461559 2680.69159552992 19 21 16
-1146.32109899553 -550.44560607066 2655.55312237798 19 22 13
-1153.58735859848 -547.283062795971 2686.88639752162 17 20 11
-1161.11154570552 -547.971198246912 2683.93362116829 18 21 14
-1169.6153637013 -555.825544775284 2617.3886123412 17 20 13
-1175.66418832849 -546.045252489938 2707.30656509841 17 20 13
-1182.57773985953 -543.649705976622 2731.63134548934 17 20 13
-1189.16752022814 -540.331709587899 2764.05631896008 13 16 9
-1197.22741891301 -544.210006558082 2732.82792924644 13 16 9
-1204.58158339786 -544.660861136218 2731.91136030558 13 16 9
-1211.99769944676 -545.340977118843 2728.97204946242 12 15 8
-1219.93720456018 -547.744944676519 2710.85569491216 11 14 7
-1228.15181095334 -550.729571539047 2687.66786273449 12 15 8
-1235.2150208241 -550.033858780961 2696.86217555324 12 15 8
-1242.77355840192 -550.834778253612 2692.89772237875 14 17 10
-1249.40147970412 -549.209692991774 2710.20588649107 14 17 10
-1255.97893851337 -547.694168539101 2726.51294945048 14 17 10
-1264.58075572738 -551.040119914532 2700.25444562346 14 17 10
-1271.13896199725 -549.635935496518 2715.55651729779 14 17 10
-1277.72130602589 -548.458693109856 2728.84055990116 12 15 8
-1285.86444396495 -550.535333232253 2713.7212327363 14 17 10
-1295.18250363967 -554.714169931973 2680.32100896485 15 18 11
-1304.86290778633 -559.25346368176 2643.85321443296 16 19 12
-1313.73210347908 -562.050925938755 2622.59857468565 17 20 13
-1328.86841927663 -575.271055742018 2510.898644129 15 18 11
-1336.39143555294 -575.165828094142 2514.99845508851 13 15 12
-1349.40633808827 -583.743790514831 2443.86140653532 21 23 20
-1123.11161702632 -550.694037140207 2710.85375615491 4 6 5
-1130.55566123641 -550.805629365607 2712.9483788837 16 18 13
-1145.66996035191 -555.547657803307 2677.81861474427 18 21 12
-1153.13779823594 -555.313450953601 2682.93241880823 15 18 9
-1161.06050035016 -559.612592407213 2648.69895713116 18 21 14
-1168.62731214041 -559.8460652188 2649.77089306174 17 20 13
-1176.02082779643 -559.028937345848 2659.93135302705 17 20 13
-1181.86984362019 -549.798674437173 2742.82139899963 17 20 13
-1189.08821210071 -549.663560235368 2746.95890922908 14 17 10
-1196.90240032842 -552.337534096039 2726.84329007216 14 17 10
-1204.15782183295 -552.319855248513 2729.9687984669 13 16 9
-1211.20217863897 -551.59576534064 2739.1656295752 12 15 8
-1219.38426171584 -554.984884572436 2712.95937949932 12 15 8
-1226.89075445517 -555.7907301527 2709.00143418572 12 15 8
-1234.33320601155 -556.361388155111 2707.06647594015 12 15 8
-1241.69552533544 -556.695925574638 2707.15627010469 13 16 9
-1248.2439800004 -554.900862294614 2725.48183091941 13 16 9
-1256.11503430374 -556.652629239166 2713.41866393637 14 17 10
-1263.44131274954 -556.984450088673 2713.51318890417 15 18 11
-1273.19516418065 -562.779183814492 2666.96194295375 15 18 11
-1280.02028297409 -561.80921565428 2678.20086035466 13 16 9
-1286.3132451906 -559.882353258493 2697.5656451264 15 18 11
-1293.71711508267 -560.333955607562 2696.64287521381 15 18 11
-1302.83887352779 -564.009862283056 2668.30474025542 16 19 12
-1318.14310833935 -578.577101877879 2547.51749727429 18 21 14
-1323.86149420816 -575.45926632685 2577.02844118009 16 19 12
-1334.869077879 -581.445182357849 2529.31355323174 9 14 10
-1348.95043587707 -592.009077134164 2442.93213940721 15 20 16
-1130.13051025086 -562.806640149028 2674.73804649179 18 20 15
-1137.76654741171 -565.877767522805 2651.62240386112 23 25 20
-1145.22104929911 -563.85231203155 2671.84990307441 21 24 15
-1152.80239646725 -564.790933491044 2666.87503866425 18 21 12
-1160.24360064042 -564.183283667994 2675.01472484115 17 20 13
-1168.22183924427 -568.22055472882 2643.79694447546 14 17 10
-1175.29624742915 -565.106450067969 2673.13867463811 14 17 10
-1182.22816987624 -562.101687554599 2701.49078702892 15 18 11
-1189.2338740505 -560.283855107581 2719.75922584632 14 17 10
-1196.70414903197 -561.095993404484 2715.80581686642 11 14 7
-1203.87564679152 -560.588837018183 2722.97149808822 12 15 8
-1211.97039407041 -563.804082556599 2698.79130357855 14 17 10
-1219.00117957827 -562.814787396103 2710.00450409242 14 17 10
-1226.62485316683 -563.990405711845 2703.00960752161 12 15 8
-1233.65094940569 -563.236995991284 2712.20839995932 11 14 7
-1241.4196504004 -564.775859643279 2702.17305985597 14 17 10
-1248.87818298025 -565.349512931524 2700.23610268172 12 15 8
-1255.01471912507 -562.530741696506 2726.67234991707 12 15 8
-1263.30715103617 -565.283793785225 2706.49749729425 13 16 9
-1271.64780638251 -567.92138173629 2687.32376943056 15 18 11
-1280.97090851591 -572.511110140318 2651.90862426238 14 17 10
-1287.56968353398 -571.020942173305 2667.20540676215 15 18 11
-1293.35150368739 -568.061602103474 2694.69323737134 15 18 11
-1305.07703370463 -576.818626398938 2624.72549380573 16 19 12
-1315.11516510664 -581.806242811815 2586.19862320388 16 19 12
-1325.97073701317 -587.908010869076 2538.50301051722 16 19 12
-1333.56600836776 -588.015560749505 2540.57875034705 14 19 15
-1344.18767041413 -593.156618217471 2500.97201582269 12 17 13
-1361.7818763751 -609.130615731393 2371.84048503544 18 22 21
-1129.66954161637 -573.076197632023 2652.65181912486 20 22 17
-1137.26691876448 -573.421854998748 2652.71254901531 19 21 16
-1144.93912359701 -575.22378183698 2640.67432936494 19 22 13
-1152.41366389233 -573.746554471531 2655.8618556142 17 20 11
-1159.93457911147 -573.602821465737 2659.96182737073 19 22 15
-1167.33817704702 -572.725747727825 2670.12087126186 15 18 11
-1175.31361218707 -576.239182786565 2643.94073700811 14 17 10
-1182.22725919299 -572.548734388652 2677.33224036501 15 18 11
-1189.30083030273 -570.682789370146 2695.59208308734 14 17 10
-1196.57855124757 -570.281051271524 2701.73709880071 14 17 10
-1204.83759755182 -574.294923299052 2671.4919007718 15 18 11
-1211.97926752918 -573.27948908067 2682.6909544544 16 19 12
-1218.71788068016 -571.029240730791 2704.0148874639 15 18 11
-1226.39292827476 -572.344945607539 2696.00626153565 13 16 9
-1233.67415828839 -572.305440088615 2699.12849170127 12 15 8
-1240.55646048099 -571.152403205539 2711.36747794525 13 16 9
-1249.36974096243 -575.561979663795 2678.03085527785 13 16 9
-1255.90040840565 -573.540189951033 2697.36596612362 12 15 8
-1262.72127852085 -572.503930745993 2708.60499889061 14 17 10
-1271.05332821466 -575.189671411488 2689.43271203868 15 18 11
-1278.09947052557 -574.771866536541 2695.6065850852 15 18 11
-1288.64130650561 -581.94810553984 2639.89073677661 16 19 12
-1295.59191722189 -581.161190444878 2649.09886112606 17 20 13
-1301.28444206607 -577.998488591599 2677.60522708284 18 21 14
-1325.86799357193 -596.556321966197 2532.4920041841 14 17 10
-1336.40630333691 -601.795627696802 2492.89593026499 8 13 9
-1345.66613378998 -604.536862632795 2473.60776773273 11 16 12
-1129.18603975586 -581.978849422463 2642.65801032709 18 20 15
-1136.76348924865 -580.835607846095 2654.81027209327 17 19 14
-1144.45453915437 -583.163206175173 2638.74033663357 18 21 12
-1151.96495554539 -582.015306011243 2650.90095146633 18 21 12
-1159.53599639574 -582.231820889656 2651.97207470835 20 23 16
-1166.62502195476 -578.459438214427 2685.34147608764 18 21 14
-1174.17283488743 -579.292611254652 2681.37844622409 17 20 13
-1181.99671186839 -581.750885600616 2664.28435149437 15 18 11
-1187.7646529632 -572.453153386417 2742.14542140736 13 16 9
-1195.96382225145 -577.160990865099 2706.87060718093 14 17 10
-1203.72528493737 -579.119867949478 2693.81421517157 14 17 10
-1210.93312506806 -578.570235136617 2700.97524922015 14 17 10
-1218.02953163541 -577.766121281884 2710.16513381699 14 17 10
-1225.54206771635 -578.595733095957 2706.20649691761 12 15 8
-1232.87481731283 -578.795482311873 2707.30755361632 12 15 8
-1239.27985975984 -576.216463765634 2730.6876226694 12 15 8
-1249.09980180551 -583.743846959595 2673.04741298537 12 15 8
-1257.05757881081 -585.465969563342 2661.98127282144 12 15 8
-1263.03035618406 -581.994012697548 2692.46722470375 14 17 10
-1269.83047740881 -580.923193765229 2703.70899606653 15 18 11
-1280.08960307024 -587.981763256844 2650.04373292099 15 18 11
-1288.0277726925 -589.330863147447 2642.00235886382 16 19 12
-1294.55149862546 -587.624149029744 2658.31562387735 16 19 12
-1304.01335689133 -592.035365515127 2625.90599422268 18 21 14
-1329.05138118328 -611.375728999916 2477.71481500893 15 18 11
-1337.80556892969 -613.268798511289 2465.54205057724 6 11 7
-1344.62252837503 -611.70306630055 2480.81140595464 8 13 9
-1128.68844577973 -589.669707065111 2642.74036071343 12 14 9
-1136.27167959779 -588.617422748629 2653.88445306453 19 21 16
-1143.55124619745 -582.867521482602 2702.34113587144 19 22 13
-1151.08539624987 -584.340718691553 2693.34258050699 20 23 14
-1158.82703274288 -587.596692283345 2670.21448675864 19 22 15
-1166.09101699647 -585.638664953374 2688.4500842821 19 22 15
-1173.49235165681 -585.459095243832 2692.56488461073 16 19 12
-1180.76599290508 -584.639218102401 2701.73260985515 14 17 10
-1188.07497597015 -584.327104096915 2706.8662731644 13 16 9
-1195.65399911284 -585.54870081515 2699.87706978776 12 15 8
-1203.15221510444 -586.259369244838 2696.92759381589 12 15 8
-1210.44522217186 -586.0720921963 2701.0558924907 13 16 9
-1217.34301070794 -584.469434978112 2716.31506363474 14 17 10
-1224.51411275796 -584.147880216503 2721.46590881763 14 17 10
-1231.65163272178 -583.824099003863 2726.62069871432 14 17 10
-1239.75048992615 -586.593704753184 2707.47773376217 11 14 7
-1246.79732360415 -586.011090611062 2714.65877360902 11 14 7
-1256.4223443615 -592.667142801242 2665.10281192198 12 15 8
-1263.38284474084 -591.699550959388 2675.31691339235 13 16 9
-1270.07408133465 -590.209589916691 2689.59447068084 13 16 9
-1278.87930860045 -593.906649236244 2663.31126684344 15 18 11
-1286.26285191625 -594.102527362728 2664.40597459188 14 17 10
-1294.71950202612 -596.639902552586 2647.23312182584 11 14 7
-1303.63863639786 -599.964053830223 2623.95802257829 11 14 7
-1335.2174819699 -617.563879180197 2495.10142773752 14 19 15
-1346.5293353601 -624.068157854842 2447.34993381659 14 20 16
-1135.71878385082 -594.203874915927 2670.09235782279 13 15 10
-1143.16987384591 -592.593406475671 2685.28245964525 12 15 6
-1150.52455499623 -590.847507492934 2701.49192316826 18 21 12
-1157.9377867444 -590.784400147064 2704.59761814323 17 20 13
-1165.22794516957 -589.809172623577 2714.7705601301 18 21 14
-1172.90057656103 -592.215864213963 2698.70313148137 15 18 11
-1180.55416878404 -593.975225139497 2687.67504984575 13 16 9
-1187.83452178585 -593.257084473965 2695.8345183242 13 16 9
-1195.49214421406 -594.757885766446 2686.82062703158 12 15 8
-1202.96919200269 -595.213970800943 2685.88873675512 12 15 8
-1210.44501688243 -595.66970917926 2684.95699817754 13 16 9
-1217.72055554424 -595.337965971009 2690.09478345779 14 17 10
-1225.03428865308 -595.266698463891 2693.21287378522 15 18 11
-1231.59226332998 -592.694665557121 2715.56618909838 16 19 12
-1238.64433142377 -592.090374745597 2722.74675890509 11 14 7
-1246.88305704213 -595.175430335281 2701.57131519383 12 15 8
-1255.22812591008 -598.266750457786 2680.38285723987 12 15 8
-1262.84091209127 -599.117171688043 2676.41176452151 13 16 9
-1270.0002796941 -598.777102022607 2681.5640253357 13 16 9
-1277.18075708828 -598.567307584627 2685.70630774971 16 19 12
-1283.93143364445 -597.426989891442 2696.95382622356 15 18 11
-1291.75812498356 -598.80652337342 2688.92644414286 10 13 6
-1302.94897724518 -607.23772653069 2627.08654448481 12 15 8
-1325.68081837382 -622.958148031878 2512.4297072352 17 20 13
-1335.75653356961 -627.574468560193 2479.94401199896 12 17 13
-1345.70343464413 -631.666142069116 2451.50399902577 11 17 13
-1135.36383006366 -607.233028863531 2628.85267125064 8 10 5
-1142.84902635817 -603.865733408236 2657.13478361861 8 11 4
-1150.38728075946 -603.667324480304 2661.23244756063 16 19 10
-1164.7562302957 -597.422358041801 2713.84178931224 18 21 14
-1172.58035904614 -601.066090408128 2688.68880770166 15 18 11
-1180.39580400275 -603.785669737178 2670.58876627791 13 16 9
-1187.81230907112 -603.578581487883 2674.70136069147 13 16 9
-1195.20069970286 -603.369490656055 2678.81769861552 12 15 8
-1202.8648290328 -604.628072305475 2671.81797188836 11 14 7
-1210.43890860158 -605.353368119966 2668.85906711126 11 14 7
-1217.52725412424 -604.070034534897 2681.07199723404 11 14 7
-1224.86577465325 -603.989028773277 2684.18696859263 11 14 7
-1231.56706406835 -601.758303634717 2703.49999633227 12 15 8
-1238.44721155809 -600.461736501122 2715.73887348862 13 16 9
-1246.17567622372 -601.986876114653 2706.71644586644 14 17 10
-1254.457155024 -604.996635579812 2686.54339588809 15 18 11
-1261.70894524219 -604.909417794406 2689.66917431758 15 18 11
-1268.36759071422 -603.334874301612 2703.95057604052 15 18 11
-1276.90781212778 -606.623666173528 2681.73059713923 13 16 9
-1284.30081582729 -606.940390318258 2681.81651516448 14 17 10
-1291.44749334564 -606.714290978523 2685.96273239605 14 17 10
-1303.5121216782 -617.20865270996 2609.91064345508 17 20 13
-1316.16910792222 -628.134532278269 2530.76246657229 19 22 15
-1323.86818240361 -628.337375172545 2531.81757596939 18 21 14
-1333.46322916748 -632.217092401317 2505.43652861984 8 13 7
-1342.38439010056 -634.604643870945 2490.22068729018 9 15 11
-1134.82127544482 -613.202812730436 2642.03699342431 11 13 10
-1150.31294883303 -617.920043455402 2611.8989859312 13 16 9
-1157.51544825803 -612.435879409825 2655.32707004697 16 19 12
-1164.74529998772 -609.511245389659 2679.61122497868 17 20 13
-1171.78928776349 -606.171197595094 2706.94054195021 17 20 13
-1179.10739902488 -605.809677633195 2712.0729360057 15 18 11
-1187.16440406774 -610.205472024619 2681.8539573107 14 17 10
-1194.43558990963 -609.436700161285 2690.01443646106 13 16 9
-1202.31598097034 -611.936299143355 2673.92108503344 12 15 8
-1209.97454715164 -613.075686522288 2667.9296660274 12 15 8
-1216.80497216097 -610.66369934671 2688.23378815939 11 14 7
-1223.41452517575 -607.834122898039 2711.58791593609 12 15 8
-1231.04039580726 -609.105585991099 2704.59299759113 12 15 8
-1238.04272847248 -608.18454511678 2713.79431413166 11 13 8
-1246.4727320256 -611.92815015462 2688.56598593872 12 14 9
-1253.91950782379 -612.380246273951 2687.63786292303 12 14 9
-1260.92417880112 -611.593512971834 2695.83131398331 14 17 10
-1268.1376799699 -611.492598320987 2698.9618345896 16 19 12
-1275.27402714415 -611.252072409843 2703.10954326392 16 17 11
-1283.46638986472 -613.633923281716 2687.98487689898 17 18 12
-1292.98745595342 -618.924016595199 2651.53894401866 16 17 9
-1298.51261499544 -614.949775018159 2683.08736064043 18 19 11
-1312.06939979367 -628.428884497823 2586.70149577602 21 22 14
-1325.31651845983 -640.273276951657 2502.44317669832 20 21 13
-1331.46039638942 -637.278713640218 2526.86267058377 12 17 10
-1339.66400340334 -638.44864519881 2520.80307387234 10 15 9
-1348.72775183686 -641.151752496359 2503.55513554298 13 18 14
-1134.34956107431 -622.127035932219 2633.04969779196 9 11 8
-1141.91958301917 -620.666564471216 2646.20973815679 11 14 7
-1149.76646277257 -624.992276254645 2617.02448439381 14 17 10
-1157.15199576777 -621.734144655144 2643.30394743509 11 14 7
-1163.79699226921 -612.523718468433 2712.99357834399 12 15 8
-1170.9217274425 -610.485472213742 2730.23865497756 14 17 10
-1178.83143326049 -614.813929708142 2701.04580839262 15 18 11
-1186.38740292787 -615.961087069229 2695.0669730182 16 19 12
-1193.94458475055 -616.970699156118 2690.09555152031 14 17 10
-1200.97644851852 -615.200581999163 2705.33754986827 14 17 10
-1208.82019277978 -617.600924548344 2690.25643772322 14 17 10
-1216.31358292709 -618.193881514566 2688.31494109744 14 17 10
-1223.17469734491 -616.275415957933 2704.58554438279 14 17 10
-1229.37234238968 -612.255776059872 2736.04991917226 14 17 10
-1237.55579994312 -615.637551773773 2713.87470716119 10 12 7
-1245.72078172619 -618.605857861205 2694.72377325407 10 12 7
-1254.62708543579 -623.54234447315 2661.37716970561 10 12 7
-1260.58058362284 -619.507183383987 2692.87173143629 12 15 8
-1267.6482151394 -618.973901025646 2699.04261865115 13 16 9
-1275.11046234837 -619.563527754742 2697.10523997864 16 17 11
-1285.59140794883 -627.617175717365 2641.39954132344 17 18 12
-1290.28596210183 -621.307017085233 2689.1694156165 15 16 8
-1301.44449367788 -630.22573390026 2627.3348332388 18 19 11
-1324.79291536134 -648.262671263254 2502.52955905506 18 19 11
-1331.15216013927 -645.62481556977 2523.89981424457 20 23 16
-1339.5818458815 -647.233834609656 2514.79009927108 15 20 13
-1348.43171293731 -649.555009216629 2500.59090756165 10 15 9
-1133.85169298981 -629.976968736152 2632.12457393724 10 12 9
-1141.90342742746 -640.555823580773 2558.58886713636 16 18 13
-1149.60061810875 -638.503876882102 2575.76270889597 14 17 10
-1156.5433988739 -627.999768507511 2653.473988815 14 17 10
-1163.69158535394 -623.952476380327 2684.81942856299 12 15 8
-1170.84578022468 -621.446296784676 2705.08313834674 11 14 7
-1178.01879002256 -619.921773668545 2718.29255480265 12 15 8
-1186.30958173642 -626.170573238855 2675.95607448317 13 16 9
-1193.89259892308 -627.052151742826 2671.98901907965 14 17 10
-1200.43358357996 -622.406288659137 2707.43964637162 14 17 10
-1207.91172359842 -623.140938117545 2704.49297918444 15 18 11
-1215.5294965705 -624.444344354709 2697.49915550064 15 18 11
-1222.82651774479 -624.327011529587 2700.61921006732 15 18 11
-1229.87357155715 -623.353636343378 2709.81480785253 15 18 11
-1236.66288155798 -621.663911437438 2724.0796000886 10 12 7
-1244.84091102456 -624.821880508606 2703.91985028024 10 12 7
-1252.38482558548 -625.699477399975 2699.95742389906 10 12 7
-1260.08966725815 -627.006997080471 2692.95274538877 11 14 7
-1266.38860509143 -624.306084934879 2714.33036047152 12 15 8
-1275.91665532315 -630.487482482726 2672.84722746971 15 16 10
-1283.39064415898 -630.939878896127 2671.91570921862 15 16 10
-1290.86352071979 -631.392055145745 2670.98432919309 14 15 7
-1298.08690716459 -631.268538310933 2674.11355665332 16 17 9
-1312.60563338919 -647.419249011971 2562.49841520471 18 19 11
-1324.40395985073 -656.539586158033 2500.5845211677 17 18 10
-1330.56199112836 -653.408924290974 2525.00165011954 16 19 12
-1340.15263145832 -657.351287934612 2499.62900474219 13 18 11
-1347.983348911 -657.684310852324 2499.66034160101 11 16 10
-1141.24968967069 -644.7403538379 2584.88325625797 8 10 5
-1148.9603617923 -644.068101188092 2591.98145720055 10 13 6
-1155.88424261051 -633.492578044845 2668.68698028604 13 16 9
-1163.41460549299 -633.808586790415 2668.75575481333 12 15 8
-1170.87379168037 -633.548613708495 2672.86312387398 11 14 7
-1178.21063411062 -632.566884456131 2682.02253575275 11 14 7
-1185.62172965145 -632.44636743923 2685.12834612744 12 15 8
-1193.90670766314 -637.663405553151 2650.8520918083 12 15 8
-1201.02197164434 -635.667605829308 2667.09077507389 12 15 8
-1207.42256433216 -630.628740146258 2704.57374222912 15 18 11
-1214.32823159889 -628.76261275871 2719.83123631484 15 18 11
-1222.23159381944 -631.384612574797 2703.73534056052 14 17 10
-1229.38536001955 -630.818655009313 2709.8953926271 14 17 10
-1236.74250044701 -631.121744737366 2709.98599053966 13 15 10
-1243.83468261431 -630.551654887865 2716.15371704723 13 15 10
-1251.52877620794 -632.017520251522 2708.1431097332 12 14 9
-1258.82324647754 -632.173505601471 2709.24858794627 12 15 8
-1266.10580027209 -632.328609855295 2710.35579121338 12 15 8
-1272.62268992288 -630.437416491312 2725.66173643678 15 16 10
-1283.63065764347 -640.387903257318 2658.80974463912 16 17 11
-1289.65810354603 -637.181224743591 2683.24320995537 14 15 7
-1296.35467159605 -635.871880250017 2694.49703572484 16 17 9
-1332.28040698962 -666.039879045431 2492.57231558819 9 12 5
-1339.77345755379 -665.63527847449 2497.68252453293 9 14 7
-1347.45904227742 -665.670733957277 2499.7468039302 11 16 10
-1132.85409059579 -645.689640301619 2630.27507338318 6 8 5
-1140.5997290717 -648.636556889194 2612.18410181136 14 17 10
-1148.30182254448 -649.106082792508 2611.22416256002 10 13 6
-1155.36783094835 -640.803346541239 2670.78629252223 13 16 9
-1162.82626750347 -640.384086278288 2675.90102275363 12 15 8
-1170.68258071268 -643.918874825373 2653.76679910777 11 14 7
-1177.41877145447 -637.778466018095 2698.25927496012 12 15 8
-1185.1076457493 -639.846979663469 2686.21967710627 13 16 9
-1193.04712706032 -643.094860402476 2666.09017374536 10 13 6
-1200.55275648493 -643.405023348078 2666.16201946726 11 14 7
-1207.25699419211 -639.736237507783 2693.53310978757 14 17 10
-1214.41987027323 -638.860712689513 2701.7065839569 14 17 10
-1221.91617462983 -639.606283898944 2698.75767872975 13 16 9
-1229.15939703324 -639.317445473739 2702.89168250928 13 16 9
-1236.17355594916 -638.286671943812 2712.09123422659 14 16 11
-1243.81914554584 -639.622965521772 2705.09402580013 13 15 10
-1251.03991904411 -639.477690150884 2708.22376230905 12 14 9
-1258.18978315488 -639.182486211276 2712.36939988822 12 15 8
-1265.15865665513 -638.439356604799 2719.55998626134 12 15 8
-1272.94183549378 -640.074439136741 2710.53077989585 13 14 8
-1280.71052412099 -641.562913567646 2702.51092310279 14 15 9
-1289.34218879042 -645.141360618431 2680.28029542039 14 15 7
-1296.54253110076 -644.993950056807 2683.41233572908 17 18 10
-1320.93921377546 -667.138131096638 2537.32419037645 19 20 12
-1331.47509679588 -673.451318838441 2496.72331996384 13 16 9
-1343.47737426746 -666.751091172639 2546.60350791995 13 18 12
-1132.2987230695 -649.990299243229 2653.53419073902 0 1 0
-1139.9790942883 -652.97928290873 2635.45147491719 13 16 9
-1147.79624575711 -656.865978377133 2611.30769096298 9 12 5
-1155.21602265623 -653.314104848278 2637.58210700857 12 15 8
-1162.86904709597 -654.076351415898 2634.61344768679 12 15 8
-1170.42112295369 -653.79416678656 2638.70916617242 12 15 8
-1176.96515853001 -645.591493071411 2696.3208440349 12 15 8
-1184.5725191711 -647.091548306041 2688.32115051839 12 15 8
-1191.66728170053 -645.149705610511 2703.55484723967 11 14 7
-1199.20611689721 -646.200223196461 2698.58582301542 12 15 8
-1207.02874849213 -648.602336102085 2684.51503736668 12 15 8
-1214.79238467905 -650.407536685128 2674.48103071023 12 15 8
-1222.56868892704 -652.064932917547 2665.45298128409 12 15 8
-1229.86413060375 -651.617016458413 2670.58773657888 13 16 9
-1235.3649422616 -644.535472868445 2720.27081802091 13 15 10
-1242.13333284701 -642.86889407792 2733.53035446389 13 15 10
-1249.2339312431 -642.556875247508 2737.68209583158 11 14 7
-1257.36471978817 -645.569414469384 2719.54347289173 11 14 7
-1265.2301870332 -647.527620873482 2708.48947415844 11 14 7
-1273.14838410695 -649.48891772044 2697.42890319283 10 11 5
-1280.44519806468 -649.632985990054 2698.53429781301 11 12 6
-1288.73065970339 -652.35762352612 2682.39098860303 11 12 4
-1297.21855387733 -655.390881871579 2664.20785555496 15 16 8
-1307.017010901 -661.320822578009 2626.72130384301 18 19 11
-1317.61008379986 -668.633318098482 2580.0693249865 13 16 7
-1327.53892630316 -673.977691961606 2546.59618879834 11 14 7
-1338.21667633 -680.553517934846 2504.97061877227 12 17 10
-1139.52606318073 -662.188996541196 2625.45467218603 9 12 5
-1147.31308814543 -665.079190619239 2608.36655408405 9 12 5
-1155.17500280127 -667.82262284196 2592.27615052869 12 15 8
-1162.40590107667 -662.221981327522 2631.66939523504 11 14 7
-1169.71687608714 -659.495052836853 2651.91295844987 11 14 7
-1176.34578222939 -652.045185165875 2703.46942432875 11 14 7
-1183.82782475059 -652.801344336545 2700.52232677737 11 14 7
-1192.12525454892 -658.74110052418 2663.22312023788 11 14 7
-1198.53043406319 -652.635965054348 2705.74138276046 12 15 8
-1206.68073337352 -656.905215979447 2679.54141690623 12 15 8
-1214.42427720547 -658.582353646604 2670.5175077747 12 15 8
-1221.79609292493 -658.424605824851 2673.62812199287 12 15 8
-1228.21615616867 -654.433590976711 2702.04151412576 13 16 9
-1235.11671724279 -652.887789709135 2714.27718743825 14 16 11
-1241.64837341927 -650.26233384684 2733.6103448939 14 16 11
-1248.97586649743 -650.705158750916 2732.69708324106 13 16 9
-1257.16486439304 -653.918243291567 2713.54379688042 12 15 8
-1265.24704814469 -656.520527099926 2698.43346070173 12 15 8
-1272.6038935668 -656.813626932228 2698.52382885244 13 14 8
-1279.39433620906 -655.562089347475 2708.75864503076 14 15 9
-1288.41285124602 -660.334808891559 2679.42835529006 14 15 7
-1298.43983133491 -667.28255449853 2635.86960274567 16 17 9
-1307.09004218429 -670.371484995611 2617.666119878 19 20 12
-1316.83157329561 -675.791478781848 2584.21655818656 16 19 10
-1328.41003853608 -684.946788540787 2526.36118229076 13 16 9
-1336.82684234762 -686.66204146124 2517.25311440047 10 15 8
-1348.2773030789 -694.601177124521 2467.47272755124 15 20 14
-1139.10652953712 -672.683902058796 2607.39509635347 12 15 8
-1146.9831353606 -676.545340064761 2584.25151343085 15 18 11
-1154.55500595976 -673.931058109018 2603.45488770232 12 15 8
-1161.99254982849 -671.000845743158 2624.68980762925 12 15 8
-1168.86256886815 -663.577494093176 2675.20880704353 11 14 7
-1176.07322383684 -661.401647110589 2691.43511192978 10 13 6
-1184.02439627689 -665.419938061176 2667.2749495027 10 13 6
-1191.98069583942 -668.669559467798 2648.15079873687 11 14 7
-1199.2725813036 -667.420225017028 2658.32304361739 12 15 8
-1206.07043218328 -663.834698657805 2683.66681609421 12 15 8
-1213.32759769457 -663.197776451372 2689.81401792393 12 15 8
-1220.44308077468 -662.09083219927 2699.00072439169 12 15 8
-1227.46658972878 -660.824403128383 2709.20617578723 13 16 9
-1234.74711282233 -660.803237209339 2711.32085537079 12 14 9
-1242.43405337548 -662.343837123299 2703.31133752469 12 14 9
-1250.29260622189 -664.355860652175 2692.25834339295 13 15 10
-1258.06063106317 -665.901028878739 2684.23871873755 12 15 8
-1263.9992109192 -661.646971525833 2713.71919153585 12 15 8
-1271.36885310833 -662.091496154015 2712.80067439931 14 15 9
-1281.02555807247 -668.977532794999 2670.29541432253 15 16 10
-1289.02969872833 -670.84379958843 2660.23179521464 15 16 8
-1297.57058793595 -673.972289257253 2642.04205921922 18 19 11
-1311.05568130317 -689.083645000733 2546.67736685094 21 22 14
-1317.98436949847 -687.502130055477 2558.90943601429 19 22 13
-1328.3042783174 -693.812475398219 2520.35112488496 10 13 6
-1337.52695289845 -697.289051871152 2500.06184858344 10 15 8
-1345.95518261513 -698.872606022615 2491.95993535065 13 18 12
-1138.50999717186 -677.319551080248 2627.63693145898 12 15 8
-1146.39312053982 -682.649113413583 2595.42673701729 11 14 7
-1154.14602395387 -683.276788271877 2593.45294609838 12 15 8
-1161.02336773882 -672.89862487264 2662.10281914734 12 15 8
-1167.92462566846 -666.589637702118 2704.55863718027 12 15 8
-1184.37425655034 -679.478214437824 2625.95001645989 11 14 7
-1192.55424886847 -683.572447080458 2601.76149865454 11 14 7
-1199.29473300674 -678.191397037943 2638.19346113765 12 15 8
-1205.77744183232 -672.481630129017 2676.67186071931 12 15 8
-1212.42607203432 -668.659180240816 2703.04179876052 12 15 8
-1219.13293605297 -665.77895300205 2723.36010748013 12 15 8
-1226.38797091683 -665.747891812862 2725.47794178522 13 16 9
-1234.4157681984 -668.892753858214 2707.35252001362 12 14 9
-1242.32292293525 -671.247765366571 2694.2787494348 11 13 8
-1250.74227991853 -675.198276236887 2671.06766894637 11 13 8
-1257.09087165587 -671.82586282122 2694.45293360588 12 15 8
-1263.10827785062 -667.807487029006 2721.90857553699 10 13 6
-1271.14457417355 -670.326112941343 2707.81143262622 16 17 11
-1280.47345800274 -676.364821367203 2671.39169467571 17 18 12
-1288.29821051439 -677.775057786408 2664.3723225025 16 17 9
-1295.48306206579 -677.425376526037 2668.51345039183 18 19 11
-1322.91159929779 -708.494419368678 2475.71348054128 20 21 13
-1329.50837808403 -705.761790024043 2495.03822884268 13 16 9
-1337.21615579988 -705.755957960354 2497.09962995644 14 19 12
-1345.42781468784 -706.875795208187 2492.04682386407 10 15 9
-1138.03667833978 -686.150525049651 2620.6649646818 15 18 11
-1146.00288970117 -693.161276456895 2578.37099664445 10 13 6
-1153.42295697015 -687.562812330405 2615.72526571644 12 15 8
-1160.79825070435 -684.03075244355 2639.98967071143 12 15 8
-1167.73600300386 -677.288197493582 2684.45516687382 12 15 8
-1175.76358453989 -682.55040859133 2653.2344546379 12 15 8
-1183.52181506949 -684.453149476067 2643.20137944444 12 15 8
-1191.7675548511 -689.409672291396 2613.96825179512 11 14 7
-1197.99078847418 -680.871656791081 2669.60370653776 12 15 8
-1205.62447863137 -681.970082439187 2664.62297113939 12 15 8
-1211.77884116153 -675.33772646169 2708.17883282052 12 15 8
-1218.84901092806 -674.172951074578 2717.37104182569 12 15 8
-1226.0473591681 -673.811645188668 2721.51069506378 13 16 9
-1233.61091427946 -675.064217677848 2715.53119067779 12 14 9
-1241.57825683707 -677.773613163372 2700.43546807597 11 13 8
-1248.94936113478 -678.059021372204 2700.52403654768 13 16 9
-1256.6457258231 -679.478159297181 2693.5207098576 13 16 9
-1262.62052871393 -675.221412955971 2721.98896805576 10 13 6
-1270.81262713939 -678.262055257433 2704.85045511194 15 16 10
-1278.86787618262 -680.657524398058 2691.75855005169 17 18 12
-1284.95166456288 -677.362117478372 2714.16913603159 15 16 8
-1294.3169592367 -683.179415891697 2679.75964534392 17 18 10
-1306.14491876471 -694.876064404927 2608.77893320973 20 21 13
-1319.40178510882 -709.205822613726 2521.50264123839 19 20 12
-1331.59874944654 -719.96919354316 2456.52002485883 12 15 8
-1340.33955665854 -722.086752269502 2445.35720852128 13 18 11
-1145.05368905433 -690.616134632993 2642.97952839226 11 13 8
-1152.88838871908 -694.815638143519 2618.83437829579 9 12 5
-1160.2719430379 -691.377592298696 2642.09007263435 10 13 6
-1167.51019158055 -687.768569241947 2666.37137737928 11 14 7
-1182.93906056775 -691.455453941467 2647.32377301087 12 15 8
-1189.72053828274 -686.198863965184 2681.73509276525 11 14 7
-1197.13420585371 -686.161425264831 2683.83311385138 12 15 8
-1204.98464641582 -688.740893006471 2669.75932486558 12 15 8
-1211.3506269026 -683.134544481387 2706.23718960608 12 15 8
-1220.25063934806 -690.796273428805 2660.80534174562 12 15 8
-1226.79854135231 -686.819656376564 2687.18720380793 13 16 9
-1233.66968403884 -684.805328875699 2701.44092897924 10 12 7
-1240.75183030115 -683.937013797961 2708.61680964108 9 11 6
-1248.012380069 -683.888805337481 2710.73391056204 14 17 10
-1255.53899519644 -684.828038318603 2706.77380536433 15 18 11
-1264.02860484456 -688.90160059569 2683.5545220789 13 16 9
-1269.00704032581 -681.590775877687 2730.27864734377 13 14 8
-1279.92226706411 -692.772828195257 2663.44147235646 14 15 9
-1286.66487685797 -691.073392374431 2675.6964524638 15 16 8
-1296.06570626269 -696.820431752047 2642.29002932531 17 18 10
-1306.90392275713 -705.892336379604 2588.55804138252 21 22 14
-1317.75646632671 -714.317266862278 2538.85331011485 21 22 14
-1325.98009186156 -715.783103350521 2531.78430736725 11 14 7
-1335.51973720896 -720.242518059929 2506.41938749782 11 16 9
-1137.03849530413 -702.109327204769 2617.80825739759 3 3 3
-1144.5457027914 -698.119887343605 2644.07037003857 18 18 16
-1151.92493763835 -694.45155359678 2668.33392433363 11 14 7
-1159.52951614131 -695.735734635789 2662.34938371088 11 14 7
-1167.32204550116 -698.842088020959 2645.26090767203 11 14 7
-1175.07760467435 -700.793329807753 2635.22853384219 11 14 7
-1181.85467020344 -694.288686860629 2676.69140773304 12 15 8
-1189.11146866155 -692.916418615669 2686.86770752271 12 15 8
-1196.89450026381 -695.362512301611 2673.80966663895 12 15 8
-1203.55688137073 -690.825764713145 2703.19906886553 12 15 8
-1211.32303033749 -693.105658313331 2691.15062451979 12 15 8
-1219.04653113748 -694.888872268767 2682.12925571954 12 15 8
-1227.10213104673 -698.009026005389 2665.00822664286 13 16 9
-1233.76224356641 -694.788340119904 2686.33916018561 10 13 6
-1240.80274852393 -693.566163136509 2695.5349200185 10 13 6
-1248.58629358896 -695.352065030703 2686.50630539629 10 13 6
-1255.84752318552 -695.130685461074 2689.63055253688 12 15 8
-1262.19127567177 -691.89020145502 2711.00115407259 11 14 7
-1270.77375291923 -696.193451688949 2686.76295896791 12 15 8
-1278.70754124814 -698.152407146046 2676.70812323806 11 14 7
-1287.4398806823 -702.299813650426 2653.45850290774 13 16 9
-1294.53558178708 -701.573622635351 2659.62561945459 17 20 13
-1309.10818838101 -720.890419705148 2544.98854999813 19 22 15
-1316.44621050738 -720.178620791552 2551.12546421517 19 22 15
-1324.5678249198 -721.489588599651 2545.07647110961 12 17 10
-1333.92587925598 -725.673930347079 2521.74886252635 11 16 9
-1344.95278375086 -733.416040742087 2477.05948989205 8 13 7
-1136.51002322961 -708.842208815799 2623.93854151891 10 10 10
-1144.10262887235 -707.294561096727 2635.07991953107 8 8 6
-1151.6293708709 -705.742505953945 2646.22974559858 12 15 8
-1159.23280714712 -706.203208634438 2645.28209494647 11 14 7
-1166.90786719026 -707.504687658423 2639.28904446656 11 14 7
-1174.40181947778 -706.786610319727 2645.40624271858 11 14 7
-1182.6546054505 -712.808653460905 2611.13612572768 12 15 8
-1189.06978146589 -703.824050050687 2666.74645112114 12 15 8
-1196.24581543084 -701.914421868088 2679.9544760184 12 15 8
-1204.07390354413 -704.395397007422 2666.89090420749 13 16 9
-1210.43006209489 -698.419018445089 2704.37694757354 13 16 9
-1218.25053376227 -700.899060456663 2691.31432379271 13 16 9
-1225.62918291673 -701.009074756589 2692.40941618422 13 16 9
-1233.11240454074 -701.627270995967 2690.4694952655 12 15 8
-1240.97310611063 -703.774376208126 2679.41634844984 11 14 7
-1248.84234549244 -705.754389926965 2669.36986377189 11 14 7
-1254.60383322899 -699.90826795642 2705.92253419906 13 16 9
-1262.64207504372 -702.567603848294 2691.82551905714 11 14 7
-1269.80907674314 -702.161599640383 2695.96896644674 12 15 8
-1277.71697136352 -704.143272174069 2685.91742192324 11 14 7
-1286.2481804164 -707.8359481937 2665.7150055222 13 16 9
-1295.00099550902 -711.87662896585 2643.47047625927 16 19 12
-1307.07725570049 -724.652930030474 2569.43831933347 19 22 15
-1316.51891815301 -729.571590197526 2542.07122209149 19 22 15
-1325.21053211508 -732.269115619076 2527.89277053904 11 16 9
-1334.4681262921 -736.172233046122 2506.59257266062 10 15 8
-1345.60134130437 -744.204968314404 2460.88277108558 9 14 8
-1143.55544604408 -713.789399807492 2642.21983913326 10 10 8
-1151.37974905372 -718.175440203009 2618.07647771613 12 15 8
-1159.10506890723 -719.323601503854 2613.0841981817 11 14 7
-1166.60645204426 -717.566437286441 2625.24433583596 11 14 7
-1173.78066765077 -713.237889998569 2652.55503823462 11 14 7
-1181.79109219304 -717.463976457312 2629.39571581575 11 14 7
-1189.0656456346 -715.181943206833 2644.60607981439 12 15 8
-1196.30319369989 -713.237683150383 2657.80633691379 12 15 8
-1203.60351323449 -712.147371599478 2665.9623335882 13 16 9
-1210.51845390816 -709.162558352099 2685.24671304967 13 16 9
-1217.72332157913 -708.236065806117 2692.40736586569 13 16 9
-1224.27350621994 -704.378394375353 2716.77364184239 13 16 9
-1232.03920439676 -706.546917030659 2705.73264755935 12 15 8
-1240.18787557594 -710.098981241584 2686.58552669414 12 15 8
-1247.9925346935 -711.929260565505 2677.55415376064 12 15 8
-1255.46576096498 -712.378682011762 2676.6227228386 13 16 9
-1262.54302613563 -711.443284065652 2683.79927624022 13 16 9
-1270.35685138157 -713.103530821782 2675.77399875156 14 17 10
-1279.1925280294 -717.886694254761 2649.49009549656 14 17 10
-1287.01304545777 -719.206788775994 2643.47870154942 15 18 11
-1293.83743388764 -717.575231363933 2654.71596782364 17 20 13
-1304.48962003981 -726.719542544086 2603.02276024423 19 22 15
-1316.52267560679 -738.838313747739 2534.03293917836 21 24 17
-1325.43792958746 -742.0947233139 2516.80498918066 11 16 9
-1336.63446721082 -750.761027187978 2468.06565223517 7 12 5
-1345.72909093136 -753.857888800107 2451.82258488869 13 18 12
-1143.16962610159 -724.747739997668 2623.1493491019 15 15 13
-1150.99668919378 -728.332292016034 2604.04220831137 13 15 10
-1158.7126909118 -728.79926992834 2603.08052668321 12 15 8
-1165.90237216138 -722.840267874388 2639.4549100064 11 14 7
-1173.97251820791 -727.993867949707 2611.25166124252 11 14 7
-1181.44296196107 -726.544223376345 2621.40109559463 11 14 7
-1189.14258180294 -727.354677899135 2618.42674839606 11 14 7
-1196.7020877718 -727.119512762797 2621.51373610498 11 14 7
-1203.24327031615 -720.601555058368 2660.99063753747 12 15 8
-1209.47691271038 -713.546268129249 2703.5280449572 13 16 9
-1216.10586230173 -709.798118513857 2726.87709285734 13 16 9
-1223.92668459444 -712.515538914887 2712.80736334988 13 16 9
-1231.5090591354 -713.835960276289 2706.82568908792 13 16 9
-1239.40501571645 -716.384651629722 2693.75406629046 12 15 8
-1246.22549821011 -714.375271427572 2707.00619921593 13 16 9
-1254.03906722778 -716.400265409789 2696.9665400555 14 17 10
-1262.3916782588 -720.185629630375 2676.78665572281 13 16 9
-1271.51963244422 -726.26400066702 2643.41539861734 13 16 9
-1278.19991299039 -723.899884538996 2658.69970819769 13 16 9
-1286.05245154239 -725.408073679057 2651.67712644592 14 17 10
-1292.37795634147 -722.331094038669 2671.03482130291 15 18 11
-1301.53785719678 -727.546739555183 2642.69598124466 17 20 13
-1312.605098641 -737.542908225616 2586.92199162472 21 24 17
-1327.76886615655 -757.462889670535 2474.2285919786 11 16 9
-1335.81865018685 -758.11813474198 2472.21806498784 7 12 5
-1345.63331923439 -763.02694377619 2445.81207988357 12 17 11
-1143.12710474259 -746.185310482201 2544.60575048621 9 9 7
-1150.96240859221 -745.781956671374 2548.66580469816 13 15 10
-1158.37325258769 -739.209034781422 2588.0340327767 12 15 8
-1165.9460204022 -737.384900852454 2600.18508568288 11 14 7
-1173.36418885061 -734.673555967641 2617.39177099719 10 13 6
-1181.22759604411 -736.903605998116 2606.33874523666 10 13 6
-1188.67977273467 -735.422369251076 2616.49037601332 11 14 7
-1196.79049791125 -739.071097704671 2597.34800487801 11 14 7
-1209.31662959499 -722.974544230965 2692.48735721688 11 14 7
-1216.57079439695 -722.358057582967 2697.62705996676 12 15 8
-1224.18273559689 -723.693767638512 2691.64197649153 12 15 8
-1231.7439670675 -724.675160025981 2687.67766240415 12 15 8
-1237.60106787219 -718.181280335774 2726.23206923516 11 14 7
-1245.47208322277 -720.760692495683 2713.16363985796 13 16 9
-1253.73082325997 -724.592064763551 2692.99559123089 13 16 9
-1262.23764877476 -728.96476989444 2669.77470702039 12 15 8
-1270.9651296073 -733.70166364769 2644.51187121213 11 14 7
-1278.62420267308 -734.512282328973 2641.54258444381 12 15 8
-1284.75219811198 -730.491157726492 2665.96135695758 12 15 8
-1292.5373227803 -731.835660980727 2659.95468436593 12 15 8
-1301.53457712403 -736.588160720762 2634.65798324742 13 16 9
-1319.25634298216 -765.03576401444 2475.31084744029 16 19 12
-1327.37203775734 -765.873083231642 2472.28464729707 13 18 11
-1335.35645326634 -766.351337729216 2471.28949891113 11 16 9
-1344.36428929202 -769.348528231468 2456.06468677376 8 13 7
-1142.57878624266 -753.220903920087 2549.73162140672 7 7 5
-1150.46033910977 -754.054265976196 2546.73463036836 13 15 10
-1157.95029387286 -748.446573369173 2580.04892466113 12 15 8
-1165.68508523065 -748.379186566833 2582.10679252987 11 14 7
-1173.10496569663 -745.08377265645 2602.33526790157 10 13 6
-1180.42992781035 -741.960724655008 2621.56811507504 10 13 6
-1188.04073651714 -742.063254977048 2622.63397534941 10 13 6
-1194.60597328766 -734.615675437491 2666.13665576092 10 13 6
-1201.15167375985 -728.592767215767 2701.5833084164 11 14 7
-1209.45217167537 -734.26191245264 2671.33729657455 11 14 7
-1217.2867312897 -736.515954574901 2660.28793400368 11 14 7
-1226.30596001923 -744.545303259626 2616.85755096564 11 14 7
-1232.46679473541 -737.963479740566 2655.37406227195 12 15 8
-1237.47935699244 -727.212486837321 2717.20137697307 11 14 7
-1244.19926381031 -724.942143343405 2731.47306100894 13 16 9
-1252.40606405086 -728.821863940529 2711.31186175377 13 16 9
-1261.49513252244 -735.606576040154 2674.92377564749 12 15 8
-1269.68954038652 -738.593811756713 2659.80044832018 13 16 9
-1277.95825883044 -741.585425654437 2644.66761873287 14 17 10
-1285.44774381354 -741.856096510762 2644.74161545336 13 16 9
-1292.27557915679 -740.126100129167 2655.9779520689 13 16 9
-1302.27527700015 -747.855951213565 2614.44003803078 14 17 10
-1318.85372973289 -773.450336961679 2473.36763620681 18 21 14
-1327.85363272329 -776.663326063898 2457.13669526508 14 19 12
-1336.51100428361 -778.786090366661 2446.9919920105 12 17 10
-1141.92042805969 -756.601898908369 2575.01654368173 9 9 7
-1149.55185965537 -753.44393799364 2594.21105333377 14 16 11
-1157.55720715445 -758.271083890566 2569.03857317212 9 12 5
-1172.26782833404 -749.205562758886 2622.60577585913 9 12 5
-1180.05658963542 -750.942177615985 2614.58406758399 8 11 4
-1188.14289223128 -754.868183326143 2594.43778734397 11 14 7
-1201.09279644352 -738.998062018809 2685.49386301614 12 15 8
-1208.38749751976 -738.351191114016 2690.62842706278 13 16 9
-1219.38704125836 -758.739676623699 2579.46337854362 13 16 9
-1226.29079658009 -754.811111861556 2602.77789746511 10 13 6
-1231.81412015589 -744.826957467051 2659.50457558672 12 15 8
-1236.94853700791 -734.457262815855 2718.29438612683 12 15 8
-1244.62014621086 -736.184652607234 2710.2872734471 11 14 7
-1252.0525962223 -736.811588703039 2708.35371154157 11 14 7
-1260.36496729699 -740.748890718792 2688.1792490403 11 14 7
-1269.70249925021 -748.005360843981 2649.746024322 12 15 8
-1277.18504382169 -748.272814978202 2649.82063842496 12 15 8
-1284.77467629364 -748.908540193929 2647.86748422345 11 14 7
-1293.37823592182 -752.681742067263 2628.6639380585 12 15 8
-1302.51207622063 -757.753486211874 2602.34358570962 14 17 10
-1314.49944683114 -770.597659156022 2533.3613761759 20 23 16
-1326.71076801173 -783.093184371593 2466.36591524875 11 16 9
-1335.76306981592 -786.349704614368 2450.12854988255 12 17 10
-1149.09725378453 -762.523473406353 2587.23740586737 14 16 11
-1156.74998980569 -761.148799846098 2596.35636128869 9 12 5
-1164.25336531892 -758.478885821806 2612.54483527355 10 13 6
-1171.66418111615 -755.803102569579 2628.7450849761 10 13 6
-1179.64279563106 -759.590659880774 2609.61956607119 9 12 5
-1187.76049359076 -763.753722404007 2588.46230505785 11 14 7
-1194.79624974774 -758.850108289227 2616.79645905742 10 13 6
-1201.45928894149 -752.454165070095 2653.23517325796 11 14 7
-1208.72235281105 -751.054040074293 2662.40269043464 13 16 9
-1218.51674548938 -764.501930046614 2590.67268015483 13 16 9
-1224.76466050219 -757.161804239839 2632.19962895616 11 14 7
-1230.67245442511 -749.249939056189 2676.79057849802 12 15 8
-1237.14508252613 -745.045802968474 2701.16586093877 12 15 8
-1243.61144953686 -741.392267922609 2722.52007315151 11 14 7
-1252.47611941103 -747.98625242373 2688.17510285434 11 14 7
-1261.08101702813 -752.911108772673 2662.92781943073 11 14 7
-1270.63243598756 -760.831940698019 2621.44635088838 12 15 8
-1276.57511076532 -755.492942060315 2651.93114260858 12 15 8
-1285.34607927399 -760.059787300815 2628.67804644386 12 15 8
-1292.75392980403 -759.952222501026 2630.77660878771 12 15 8
-1300.39210381086 -760.593103010642 2628.81717019716 14 17 10
-1325.23452797209 -788.534316872731 2480.67329102543 12 17 10
-1332.21772535381 -786.380024842994 2493.90473647469 13 18 11
-1341.88521245041 -791.367286322472 2468.52525277644 9 14 8
-1148.61633405355 -771.079148523672 2583.28896421102 14 16 11
-1156.03718720797 -765.375430104207 2615.60394199728 11 14 7
-1163.66514018758 -765.089979629392 2618.68225549926 10 13 6
-1171.62248709115 -768.925360793108 2599.55975687767 11 14 7
-1179.56358584265 -771.64098732787 2586.48269995333 10 13 6
-1186.86258900175 -768.165755985117 2606.72554628677 11 14 7
-1194.45672602117 -767.877073736208 2609.80831157864 10 13 6
-1201.68032646782 -765.142424652434 2626.03152936033 10 13 6
-1208.87029578773 -762.778372038717 2640.24430559529 12 15 8
-1215.94629672445 -760.220762902755 2655.47872205343 13 16 9
-1223.31845666673 -759.731406973013 2659.59634740341 12 15 8
-1229.76193418032 -754.711855098599 2688.0041089582 13 16 9
-1236.08864011012 -749.871548480481 2715.41898758536 12 15 8
-1243.42212651919 -750.124908145454 2715.51216614849 12 15 8
-1252.11718942075 -756.052581259897 2685.21783602173 12 15 8
-1262.51236281433 -768.047683912334 2622.47869041794 12 15 8
-1270.17588322286 -768.693132877839 2620.51634104591 11 14 7
-1278.43413667138 -771.424843155805 2607.39974744635 12 15 8
-1283.93837059905 -764.66985149683 2644.99005551895 12 15 8
-1292.07107908018 -767.020884596164 2633.90374115443 12 15 8
-1300.37989869283 -769.755219007079 2620.78084410709 14 17 10
-1323.29350593637 -792.565606885376 2502.08900603352 12 17 10
-1332.73486448311 -797.231749099956 2478.75227038166 14 19 12
-1342.00352023126 -801.141590389935 2459.46632425673 11 16 10
-1155.77973450366 -777.657939754067 2591.48224388693 14 17 10
-1163.28896176035 -774.706340405913 2608.67693289873 11 14 7
-1171.50705758529 -781.443317670055 2574.41302778675 11 14 7
-1179.29089040365 -781.912138341782 2573.44288609111 12 15 8
-1186.37387631452 -776.096894496045 2605.79973401368 12 15 8
-1193.61272176325 -772.938698499873 2624.03554837864 11 14 7
-1201.35981755195 -774.160986179037 2619.04098681416 10 13 6
-1216.27602960371 -772.787494367865 2629.26888067657 13 16 9
-1222.60962286295 -766.169297260141 2665.7483627531 12 15 8
-1229.07934006792 -761.261447847299 2693.14521654706 13 16 9
-1235.99798479098 -759.217431501493 2705.37732109539 13 16 9
-1243.35839892405 -759.469490646324 2705.46713581288 12 15 8
-1260.03245758004 -767.845247479123 2664.1059293405 12 15 8
-1270.27767338514 -778.672906982566 2608.43671336207 11 14 7
-1275.41034963478 -770.089941569121 2655.13824015366 12 15 8
-1282.76095917992 -769.9623065872 2657.24389297991 13 16 9
-1290.68291071129 -771.760260566513 2649.20572488588 13 16 9
-1302.70326550988 -786.287419316765 2574.17746834581 14 17 10
-1326.24470075307 -810.582608643934 2449.3645880947 9 14 7
