ply
format ascii 1.0
comment KinectMotionCapture
element vertex 768
property float x
property float y
property float z
property uchar red
property uchar green
property uchar blue
end_header
-64.5579945991264 75.6789514368177 2002.5142238458 148 153 149
-72.6509134705711 75.9136118208019 2005.43369699346 150 155 151
-77.0046247066443 75.9052935363784 2009.90303160416 136 141 137
-84.1771889148779 76.0778253629765 2013.26250393752 141 146 142
-89.4808398784357 76.1288638474168 2017.39993294548 144 148 147
-98.5488240168464 76.4202710751496 2020.07820990143 141 145 144
-109.508920798098 76.8306546808828 2022.06400494431 144 148 147
-119.542471064331 77.1794742947749 2024.46809550034 145 149 148
-122.9974340653 77.1073084079601 2029.45656441453 137 141 140
-127.397813765794 77.0948491016006 2034.09655546239 151 155 154
-132.745774218796 77.1418605337578 2038.39595445023 140 144 143
-141.875338921893 77.4271132486934 2041.29898233621 139 143 142
-146.293286362046 77.4132071139792 2046.00421452906 150 154 153
-152.606663255872 77.5180380000304 2050.02727031475 151 155 154
-157.981203149828 77.5627985582014 2054.42393247343 161 165 164
-282.860925907057 96.891119232511 1622.37214700633 202 202 200
-114.682620683491 84.8284091167764 1726.8008049942 144 148 147
-86.297184594581 82.598355933238 1748.59116826051 172 176 175
-78.7893162010351 81.7842279741018 1759.16791755427 179 183 182
-73.9985950723852 81.1555282874198 1768.26101064736 156 160 159
-63.7310986636879 80.1613979272964 1780.16804807579 154 158 157
-57.0930311401412 79.4137505350441 1790.11892046639 154 158 157
-55.0053555942971 78.9724709232794 1797.67540005186 165 169 168
-52.9119662708113 78.5319027677773 1805.21204369957 188 192 191
-52.6415137700871 78.2136322739278 1811.79960801196 193 197 196
-49.6238898878403 77.713738270944 1819.76361503794 200 204 203
-44.7684418058338 77.0936581615091 1828.62090256669 197 202 198
-38.9870712959945 76.4143896486869 1837.89937352167 206 211 207
-35.9450580484595 75.9178074119886 1845.77491849038 201 206 202
-36.5669198745397 75.6634209958235 1851.81948368736 188 193 189
-34.4324467209134 75.2286368810738 1859.206313844 185 190 186
-26.7778920696127 74.4338712257807 1869.25067015746 178 183 179
10.3246108033925 71.7198900197844 1893.44041665948 169 174 170
64.0565341222663 67.9346217456599 1925.35044178074 192 197 193
81.9461394366923 66.4945267467779 1939.84987415016 180 185 181
86.0361545097161 65.954752606691 1947.70344502119 173 178 174
90.1344622044928 65.4161866254423 1955.52652526995 166 171 167
90.5476257228779 65.1170895009094 1961.59680111727 156 161 157
90.9634313739123 64.8184423682036 1967.65755134519 146 151 147
90.4571322741712 64.5796706794865 1973.28337762168 135 140 136
89.0264402088703 64.4005133598173 1978.48214629945 129 134 130
85.7430065362061 64.3399070920158 1982.84152308603 125 130 126
84.3104457272248 64.160750266787 1988.04723035499 117 122 118
81.0222536983838 64.0998536201027 1992.42409065541 111 116 112
78.6593357185932 63.9797369065824 1997.22452169477 113 118 114
74.4364902937802 63.9773112837117 2001.21169751528 127 132 128
68.34940888734 64.0919773565188 2004.40123644231 120 125 121
47.3655494416718 65.1448972675471 2001.14665014571 108 113 109
4.9308942854549 67.5418206331348 1988.76039648446 124 129 125
-31.9748771096131 69.5800044124416 1979.00070102836 102 107 103
-43.751592142879 70.0343239636902 1980.14892903731 100 105 101
-48.0762525005127 70.0202457725786 1984.50769594913 102 107 103
-50.537428630431 69.889288479258 1989.66563155601 84 89 85
-54.8699110975646 69.8746593575388 1994.05216357607 86 91 87
-62.0138455353851 70.0338367550925 1997.29690789578 111 116 112
-66.3573294059618 70.0181880778303 2001.72457129912 117 122 118
-72.5797809476374 70.1179957747525 2005.40686769451 133 138 134
-76.9339594948679 70.1014639401421 2009.87275173434 149 154 150
-84.1082094501928 70.257756185411 2013.22823009476 147 152 148
-86.5950116496728 70.1250843911732 2018.48115685172 128 132 131
-94.7232087622316 70.3375982302607 2021.51762902523 139 143 142
-104.743121223353 70.6639714411074 2023.85598457751 143 147 146
-114.776181043555 70.9889540685913 2026.24227575571 143 147 146
-121.053742560214 71.0834784460685 2030.12677809814 133 137 136
-126.395914325756 71.1202270785612 2034.39820542956 144 148 147
-134.57471706251 71.3277112955539 2037.61939092718 144 148 147
-139.931133807428 71.3632239268492 2041.94199770613 144 148 147
-145.293254122545 71.3982430738873 2046.28639818573 151 155 154
-151.606944626694 71.4896143070021 2050.30304964734 153 157 156
-158.874600965247 71.6371110196944 2053.99977456271 161 165 164
-165.203953791245 71.7271545368689 2058.07280988277 156 160 159
-117.411011500411 78.9186346268944 1725.40702234653 127 131 130
-85.375942585439 76.5415042847116 1749.14036797941 178 182 181
-76.9525272964651 75.6953656816626 1760.19398163223 177 181 180
-73.0679043792848 75.1438812061597 1768.8027400294 152 156 155
-64.6168260544313 74.3012669911077 1779.75680038839 167 171 170
-57.9751557864352 73.5773738978947 1789.70929371582 195 199 198
-52.2335767637852 72.9133966868871 1799.14608581378 199 203 202
-50.1359638721486 72.4835921219387 1806.67291472582 193 197 196
-48.0328407004831 72.0545403811911 1814.1797603419 191 195 194
-45.9242444972414 71.6262515982737 1821.66676735605 206 210 209
-40.1463748401962 70.9671214523602 1830.97187962442 201 206 202
-37.1073598100813 70.482937084033 1838.86545472932 188 193 189
-34.9784818045564 70.0574056621687 1846.27982926265 174 179 175
-33.7625291027031 69.6902983275328 1853.22242400088 149 154 150
-32.5423058505723 69.3237932991008 1860.15047231004 140 145 141
-19.3645862644782 68.2111100554798 1872.86746356 142 147 143
29.7241229335619 64.8645326949493 1902.81126819998 149 154 150
72.4451110785758 61.9288347234456 1929.38048007205 192 197 193
83.8986563206761 60.9458351723686 1940.7872984357 180 185 181
87.0708372306801 60.4792292161357 1948.19801732879 172 177 173
90.2499814355067 60.0136018989178 1955.58350073441 158 163 159
91.5883979675538 59.6627774644741 1962.08215595541 148 153 149
92.0065518860171 59.3693807036805 1968.13796684783 140 145 141
91.5019773633918 59.1332093448502 1973.7585673084 132 137 133
90.072708950595 58.9539278457288 1978.95197184305 130 135 131
86.789910314816 58.8878494491792 1983.30553604651 128 133 129
84.4313323887582 58.7650864160162 1988.0881825693 120 125 121
80.2150008805174 58.7549766979123 1992.04678667007 105 110 106
76.9228001706936 58.6882043962303 1996.43435632508 105 110 106
72.6981366426764 58.6773476624006 2000.42342395562 123 128 124
64.7476782670959 58.8904775948669 2002.79991149243 123 128 124
34.4432175907625 60.4465804834429 1995.50258325706 118 123 119
-9.88189883607782 62.8359461870808 1982.33782949268 120 125 121
-36.5571377457439 64.156568230435 1977.00345242725 87 92 88
-43.6753083506434 64.3021030637536 1980.14392748404 88 93 89
-50.8023078362783 64.4467323257032 1983.31661071424 89 94 90
-54.1998367376921 64.3682548652834 1988.08785327641 86 91 87
-57.6002111634817 64.2895711430862 1992.87045951249 96 101 97
-61.9398748554825 64.2660675063122 1997.27805110878 92 97 93
-67.2207361253401 64.2975305537276 2001.31850754454 115 120 116
-73.445193302252 64.3836900436388 2004.99963370705 122 127 123
-76.8624314736828 64.3037851620176 2009.84315172686 149 154 150
-82.1604446446877 64.3337844039438 2013.94636563974 139 144 140
-85.585034637234 64.2533831503977 2018.81779516969 127 131 130
-92.7743055171266 64.3922401328206 2022.21803556679 136 140 139
-102.79566441258 64.6945018855151 2024.54653873382 143 147 146
-112.830176348895 64.9953868393192 2026.92300732491 142 146 145
-120.050246507743 65.1311583040409 2030.43565137393 144 148 147
-126.335738246732 65.2115947735942 2034.34070271004 144 148 147
-135.460512992615 65.4546183183296 2037.20021415886 131 135 134
-140.818507288401 65.4791750652882 2041.52176110316 139 143 142
-146.182204206504 65.5032962040119 2045.86513476871 148 152 151
-148.713410942599 65.364521216184 2051.27907363015 152 156 155
-153.139994210029 65.333925424079 2056.00490295863 168 172 171
-155.675805569084 65.1951089029634 2061.4359116607 168 172 171
-281.204942022866 83.6015364089827 1623.41966709154 188 188 186
-112.867969572573 72.5497120152911 1727.89837411138 176 180 179
-86.2728778739847 70.6080712875809 1748.72445393599 176 180 179
-78.755559837115 69.8469393329554 1759.29957745904 186 190 189
-73.9580452179585 69.2552231310158 1768.38986806703 191 195 194
-69.1507420868342 68.6648123185669 1777.44464000315 184 188 187
-61.5954771131693 67.9086612222865 1787.88201864049 189 193 192
-54.9394715363571 67.2099154233222 1797.79809348355 189 193 192
-48.2708184538716 66.5128201123506 1807.66825264861 188 192 191
-47.0787680377978 66.1498154229327 1814.70311110714 165 169 168
-43.1358778443758 65.6214899468128 1823.11015590751 109 113 112
-40.1010859259767 65.1494968782592 1831.02710754697 112 117 113
-36.1421787987684 64.6233126725161 1839.37603649745 112 117 113
-34.0104999352209 64.2083658560736 1846.78576553714 116 121 117
-30.9546957613085 63.7392435123356 1854.62744423803 130 135 131
-27.8921677766322 63.2711081303412 1862.44385284086 139 144 140
-8.26443315523373 61.8181222875136 1878.27445392205 139 144 140
49.1414590663151 58.1276649745061 1912.19075084549 199 204 200
79.9200816606869 56.0318664070278 1932.97308377361 189 194 190
86.77559906988 55.3593578582249 1942.16497511252 180 185 181
89.0298494581425 54.9606377579194 1949.1298648034 186 191 187
89.4427905275126 54.6713027414983 1955.20759435557 163 168 164
91.70665865469 54.2740415791123 1962.13769636391 154 159 155
90.2763908326898 54.0940957125701 1967.33439206224 140 145 141
89.771609214657 53.8602074893988 1972.95766739105 130 135 131
89.2679255411697 53.6266086751147 1978.57658447333 126 131 127
88.7655758243933 53.393319428645 1984.19120879196 120 125 121
85.4810081104009 53.3216641546126 1988.54782028761 119 124 120
79.4077831122264 53.4107970261224 1991.66979275991 107 112 108
75.1855987581675 53.3919844367643 1995.64416828151 101 106 102
70.0289973066657 53.4262510322491 1999.22504237947 106 111 107
57.4208691785971 53.8872475198562 1999.5680393407 122 127 123
20.5788336305046 55.7326203628516 1989.44904542276 136 141 137
-19.1142587358115 57.7309941741648 1978.32310232785 107 112 108
-41.1428125205096 58.7124394353983 1975.00488659864 84 89 85
-45.4655821791927 58.6821091859021 1979.34544399447 74 79 75
-52.5955019338302 58.8103056260417 1982.51952381019 78 83 79
-55.0596081705437 58.6732183701181 1987.68446819184 70 75 71
-57.5251305918427 58.5361479290987 1992.85561022783 102 107 103
-59.0559180335863 58.3464105494593 1998.41933372418 90 95 91
-64.3354965986 58.3672196322011 2002.44830137271 124 129 125
-68.6832263246611 58.335042421344 2006.88036453195 126 131 127
-71.1581704386668 58.1976621608343 2012.08629186256 140 145 141
-77.3922109825418 58.2696725227761 2015.79406616964 131 136 132
-83.633408111409 58.3409635856464 2019.52888636886 138 142 141
-93.6452266632006 58.6202401399575 2021.80745645877 132 136 135
-104.611620316347 58.9502211804685 2023.76586858229 141 145 144
-112.765958038482 59.1227123513755 2026.87412749826 143 147 146
-120.930784625652 59.2941419856932 2030.0197302932 139 143 142
-128.161840018573 59.4128078238865 2033.56328978869 153 157 156
-137.290761422908 59.6340575656989 2036.42352110582 141 145 144
-139.815541866779 59.4926898013468 2041.81196346038 144 148 147
-145.179371212625 59.5060799578373 2046.14905382378 149 153 152
-148.656189317147 59.4160494412081 2051.20738766194 150 154 153
-154.97759843428 59.4800420859913 2055.23541141337 163 167 166
-156.566576142702 59.2869973702492 2061.01309588604 163 167 166
-104.681946739248 65.9996839151842 1732.33592181408 198 202 201
-81.7081952639316 64.3550180794905 1751.20861196477 181 185 184
-76.0046211544601 63.7274500640744 1760.80856669414 172 176 175
-69.3779668681591 63.0481418094349 1770.84588897409 196 200 199
-65.4759221464949 62.5297505732463 1779.41085696464 185 189 188
-57.913046998632 61.8004889510504 1789.83695712299 187 191 190
-52.163859984965 61.1788606093967 1799.27131007803 178 182 181
-48.2324225804973 60.664359798157 1807.72960500879 131 135 134
-46.1232717564577 60.2564689310039 1815.22743100079 111 115 114
-44.9245486596672 59.9019477841972 1822.24287116831 109 113 112
-42.8051348756977 59.4954749452067 1829.70348807033 113 119 115
-39.762628603456 59.0372921740702 1837.60144594725 123 129 125
-38.5495754940708 58.6848327295683 1844.56498323752 129 134 130
-32.7382409445975 58.0716340383691 1853.7739166127 132 137 133
-28.7547074653489 57.564313726314 1862.04332241963 135 140 136
-1.75513279340822 55.7559081898718 1881.45268298802 110 115 111
61.2083429987209 51.9252824294137 1918.02511767891 162 167 163
82.7937941661396 50.4432969488022 1934.36143284212 150 155 151
88.7334159082267 49.8467911414408 1943.10552905021 157 162 156
90.0683302922065 49.5104762691016 1949.62681214976 174 179 175
91.4072117159917 49.1748115140458 1956.13331234679 181 186 182
92.7503053454224 48.8397747690725 1962.62503445378 176 181 177
92.2468505085248 48.608264000981 1968.24488470496 165 170 166
89.8924348698153 48.4798157944575 1973.00848814977 153 158 154
87.5364616795589 48.3512705303807 1977.77827771239 149 154 150
86.1062610965517 48.1714624147531 1982.97481073424 143 148 144
83.7476019558476 48.0428989075951 1987.75409667546 132 137 133
78.6005902919555 48.0672989948388 1991.29313657479 117 122 118
73.4475077802921 48.0910871763343 1994.85386550552 114 119 115
66.4278669493224 48.2159535523421 1997.61593435234 89 94 90
49.1574257872946 48.8979056484708 1995.9261546804 95 100 96
7.63535242084967 50.8936443122682 1983.79562608323 111 116 112
-27.4211827178861 52.5279280111231 1974.70771824998 97 102 98
-42.9317116717645 53.0962222500809 1974.20461263016 80 85 81
-46.3224984212174 53.0071445733664 1978.94413048188 90 95 91
-52.5202156830351 53.0687194276876 1982.51138415114 112 117 113
-55.9193325565024 52.979010487292 1987.28143157383 0 2 0
-56.5129001677449 52.7387927084388 1993.230820255 142 147 143
-57.1054486963094 52.4989598774245 1999.17573929533 113 118 114
-61.4469700161511 52.4591823388552 2003.57995341007 111 116 112
-67.6696652344502 52.5187420007242 2007.23774402668 138 143 139
-72.0214294097254 52.4780904028734 2011.68036504332 149 154 150
-78.2574598055006 52.5364543832258 2015.38691166957 164 169 165
-84.5006537300557 52.5941560278181 2019.12056593253 151 155 154
-95.4574125880643 52.8985848846054 2021.02614461644 152 156 155
-103.602846270934 53.0532451241096 2024.09008706313 150 154 153
-111.7585402244 53.2068920112521 2027.19148410596 151 155 154
-118.981234692983 53.3103573785218 2030.69347532399 151 155 154
-127.156730571915 53.4620895556373 2033.86718418732 136 140 139
-133.452839849873 53.5147688367915 2037.79413192899 126 130 129
-138.81087577436 53.5178245331226 2042.10318781724 124 128 127
-144.175074034054 53.5204346104413 2046.4339128853 135 139 138
-148.598081521408 53.4738322773379 2051.13636035117 146 150 149
-152.07773591939 53.3782676165788 2056.20265984466 169 173 174
-152.715469874013 53.1368337066251 2062.31433267842 168 172 173
-265.998804195365 69.9155759918503 1624.56375036667 168 167 165
-123.078307152113 61.2839704705518 1715.83151661329 187 189 188
-92.8481008233719 59.3006508002996 1738.72195395888 195 199 198
-81.692096381758 58.3881285013793 1751.2779786458 178 182 181
-77.8072315901328 57.8829139991949 1759.91505144945 185 189 188
-71.1777005928393 57.2272760741988 1769.95663727228 175 179 178
-69.0996986675356 56.8253719029079 1777.57389270663 180 184 183
-60.6214984177218 56.0719590982158 1788.48264275224 125 129 128
-55.784724084502 55.5214940224478 1797.45321353814 106 110 109
-48.1932232450395 54.8219134638714 1807.79177118381 102 106 105
-47.9130022423104 54.5245650409597 1814.35720508564 110 114 113
-46.7138156313918 54.1776648996442 1821.37573581996 124 130 128
-45.5105663875826 53.8313790381042 1828.37957061869 121 130 125
-41.5497373256064 53.3363365767303 1836.74102506918 125 135 127
-39.4177216501965 52.9418346933546 1844.16241145286 128 135 128
-33.603174244309 52.3497457209135 1853.3727436932 120 127 120
-24.0972483381034 51.5611434618673 1864.34078243286 123 128 124
13.0468648626261 49.2924867860661 1888.65719253877 85 90 84
67.7579752410249 46.094429828507 1921.1987428921 193 200 193
85.6709662864932 44.8767539902528 1935.75177243987 176 183 176
89.7707834932075 44.4000571016377 1943.60830907286 108 115 107
92.9554606604581 43.9735998847386 1950.9979796242 117 124 117
94.2985468279496 43.6460430249289 1957.49445184381 118 123 117
93.7957107319542 43.4168422651262 1963.1134632496 137 142 136
91.4425299354327 43.2855185801226 1967.87066654081 139 144 140
89.0877051479539 43.1540914089454 1972.63390831248 143 148 144
86.7313215469219 43.022610359054 1977.4033681484 140 145 141
85.301125064059 42.8425716520479 1982.59974036389 128 133 129
82.9420533026919 42.711057661892 1987.37869550426 134 139 135
78.7226967561954 42.6761375831792 1991.33240250508 121 126 122
72.6387443639502 42.7372983786155 1994.47654358457 119 124 120
62.8243395035861 42.990229600056 1996.00598677752 111 116 112
38.0928176284949 44.0105649179614 1991.05802477118 87 91 90
-2.52220175695728 45.841841679009 1979.35319929139 105 109 108
-32.0031037922259 47.0912808505016 1972.69993917969 133 135 132
-42.8542087444266 47.3798475041537 1974.20416007678 138 140 137
-45.3105560930629 47.2375272274477 1979.33792239483 151 153 150
-52.4440789342737 47.3332537403679 1982.50395093009 133 135 132
-55.8430394285854 47.2379812918108 1987.27083426232 0 1 0
-54.5625344694658 46.9054539336544 1993.99652013059 1 3 0
-54.2153183863399 46.6210310558735 2000.32044591962 160 162 159
-58.5551538539801 46.5733323160117 2004.71339976374 138 140 137
-65.7155853763149 46.6667843182742 2007.97789895109 147 149 146
-72.8846220786616 46.7593206010177 2011.2746983704 147 149 146
-80.0627138864796 46.85104781822 2014.60367779745 154 156 153
-85.3678414121881 46.848120575373 2018.7125178562 154 155 157
-93.5038673012376 46.9851308150538 2021.72945869991 147 148 150
-100.707493173439 47.0743887674617 2025.15261116145 143 144 146
-108.86331799 47.2094268774485 2028.24181644308 145 147 146
-117.97285616685 47.3899908176768 2031.00532377288 143 145 144
-126.149699437565 47.5229374997609 2034.17217505969 137 139 138
-132.446575883014 47.56216227074 2038.09254764802 129 131 130
-134.967028463314 47.415720588295 2043.46171808712 125 126 128
-143.168850748015 47.5463848697845 2046.71987056886 141 142 144
-149.486360422393 47.5839165015118 2050.71578133271 139 140 142
-156.758988173964 47.6668115009537 2054.39110701295 167 168 172
-158.347872923822 47.473430937963 2060.16823431231 165 166 168
-251.538188196899 62.6197272292108 1632.51019204673 189 189 187
-102.160654210294 54.0839372027641 1727.14176831229 211 213 212
-89.1961380630617 53.1100675102151 1740.73705273065 140 144 143
-81.6751520551482 52.4271711090522 1751.34795162889 108 112 111
-77.7872114861768 51.9378226129843 1759.98362163976 98 102 101
-71.1533596026457 51.3060220437127 1770.02421451737 98 102 101
-69.0730591520528 50.9146083602977 1777.63955912268 96 100 99
-62.4174635077768 50.2856980471403 1787.60124643471 91 95 94
-56.6640175180888 49.7060096658699 1797.04626534193 99 103 102
-49.983816909476 49.0803494045122 1806.91865115638 103 107 106
-49.7035109170914 48.7879498378653 1813.48689395705 108 112 111
-48.5038686837125 48.4486697893301 1820.50854398213 116 120 119
-45.4652383016239 48.0156652854511 1828.43585949688 120 126 122
-40.583111842257 47.4893639040342 1837.2533024188 135 141 137
-37.5289466560054 47.0584377727742 1845.1251814486 157 162 158
-32.6286390500574 46.5346434965449 1853.87670419165 194 199 195
-13.9125103980824 45.3098077490345 1869.33964120952 209 214 210
39.8371284513737 42.3132078090943 1901.68181593677 187 192 188
78.923374649269 40.0738984392075 1926.59863599305 183 188 184
87.628608207021 39.3788577178495 1936.70177345246 166 171 165
90.809780404344 38.9646748574091 1944.11220665628 167 172 166
93.0740056458201 38.5978943187991 1951.06069115065 162 167 161
93.494265415587 38.3244863443054 1957.1208387919 141 146 142
93.917180891453 38.0515154898769 1963.17140229165 128 133 129
92.4904971377232 37.8712187339976 1968.35456951379 107 112 108
89.2099122474543 37.7830407732451 1972.68596200615 108 113 109
85.9262243555281 37.6946483508386 1977.02873993563 100 105 101
82.639340392872 37.6059909466077 1981.38275244241 101 106 102
80.2785377333484 37.4713704395474 1986.1666372875 103 108 104
76.986311062146 37.3823515046341 1990.54072248368 105 110 106
71.8299980039607 37.3841903086923 1994.09958811263 111 116 112
58.2873166712417 37.7946281998049 1993.98462203122 113 118 114
26.087746568175 39.1103065396577 1985.77810240127 130 135 131
-11.7552552299545 40.6918960786387 1975.31264063248 146 151 147
-32.8546963938736 41.4531659149365 1972.30212499072 141 143 140
-39.0394695231457 41.4891742667103 1975.80517828154 136 138 135
-43.3622297687339 41.4344099207302 1980.13027431902 147 149 146
-51.4314330572241 41.5589809189896 1982.8921914804 50 52 49
-62.3195787431297 41.8169799169604 1984.51463854439 23 25 22
-58.2313402776959 41.3574977749955 1992.42549777547 3 5 2
-55.0724761453341 40.943944478869 1999.91868941493 168 170 167
-59.4134869643648 40.8879647420293 2004.31077892041 165 167 164
-67.5153519599536 41.0095958634393 2007.19210651439 134 136 133
-74.6877317098642 41.0857802348276 2010.49006525079 129 131 128
-79.9877825341815 41.0725222891695 2014.57353424735 131 133 130
-83.4113916620596 40.9703337092136 2019.42663761921 160 161 163
-90.6057024559686 41.0444944063105 2022.8056734041 151 152 154
-97.809057465728 41.1177895309102 2026.21681309016 145 147 146
-105.964569215832 41.2342270490971 2029.29404159999 140 142 141
-115.074644401088 41.3935068684555 2032.04517603456 132 134 131
-123.25139088834 41.5078350815893 2035.19991325674 146 148 145
-132.383913393599 41.6648293343745 2038.03387622635 137 139 136
-135.850463589083 41.5592052149206 2043.04424234622 120 122 121
-143.108109152549 41.6274344600877 2046.65375388646 121 123 122
-148.478965884936 41.6080381644966 2050.99623590931 166 167 169
-155.75275763582 41.6748910367936 2054.66482610909 200 201 205
-131.471744995003 49.8150388469047 1704.68508173052 175 175 175
-101.244801025937 48.0143529454053 1727.70200795627 115 119 118
-91.0044968506751 47.2194622331184 1739.83579430123 89 93 92
-84.3916541308185 46.608222874398 1749.96737135783 88 92 91
-80.5027423358453 46.1344103329782 1758.60924398535 91 95 94
-72.9538803447931 45.4811082879063 1769.13532914889 95 99 98
-69.9591577598127 45.054896622168 1777.22995435101 90 94 93
-65.1287252531634 44.5397154298644 1786.24634749289 98 102 101
-63.0334694079278 44.1604511098148 1793.81476514357 106 110 109
-57.2698832534495 43.6028180411078 1803.23606017608 153 157 156
-53.327900608386 43.1360676709256 1811.68534982403 184 188 187
-45.7087645592444 42.4920196164138 1821.95636366842 208 212 211
-40.8293421427444 41.9833708478288 1830.79499110715 204 206 203
-35.0215020270987 41.4316647003227 1840.05572180315 204 206 203
-34.7184313280853 41.147501326044 1846.54464361056 210 212 209
-24.2919108907731 40.3770646576157 1858.00248447504 190 195 191
11.0145610201202 38.4170708024019 1881.54300027741 198 203 199
67.573133733444 35.4512127488165 1915.16545309716 196 201 197
86.4104256432332 34.2994562763705 1930.22467311465 154 159 155
91.4346876671748 33.8099562372953 1938.5376289841 158 160 157
93.6978669428379 33.4531349634707 1945.49628470294 159 160 155
94.1177148413011 33.1845172895984 1951.56098588666 171 171 169
91.7648628772396 33.0471806058178 1956.31317199475 172 177 173
91.2621067173691 32.8227403770296 1961.93489216344 161 166 162
89.8339819406577 32.6419881276684 1967.12312204674 125 130 126
88.4056469325532 32.4613848631819 1972.31222653925 107 112 108
86.049078632122 32.3241382640925 1977.07826755066 95 100 96
83.6909527801439 32.1867946074499 1981.85049467988 109 114 110
78.5427976457658 32.1786301842633 1985.37275602264 101 106 102
75.2490515860835 32.0838899505466 1989.7488702819 97 102 98
68.2288244578897 32.1604535783878 1992.48262010889 102 107 103
50.952346320883 32.7066929611014 1990.72957263923 103 108 104
13.1405560824442 34.1892125054619 1980.08568085839 122 127 123
-19.1294121891838 35.4093050647812 1972.08018797278 133 138 134
-30.9050149627685 35.688302270699 1973.11359702893 137 139 136
-34.2862332678016 35.5836440487156 1977.80868140376 138 140 137
-38.6058590661693 35.5211549218907 1982.11726283081 146 148 145
-49.4812818948542 35.7540239568788 1983.67660667649 24 26 23
-67.8643667565308 36.322488339091 1982.14895538093 16 18 15
-59.0904727169905 35.6680518733654 1992.02326984115 0 2 0
-52.1773656864009 35.0998073136434 2001.06624000499 180 182 179
-57.455398139572 35.0778314555381 2005.06245507144 171 173 170
-62.7393903782185 35.0553107344599 2009.08045365531 143 145 142
-71.7903711989996 35.1991561669243 2011.60243783289 137 139 136
-75.2071573840198 35.0920595674099 2016.42803931107 114 116 113
-80.5104032315151 35.067918617441 2020.5164998433 170 172 171
-87.7044466348758 35.1261449683855 2023.883553725 147 149 148
-99.6229365555825 35.3902629042439 2025.43808076111 142 144 141
-108.725722009964 35.5288895813318 2028.15003956338 155 157 154
-120.673868289396 35.7898881892778 2029.81363448911 156 158 155
-125.075989914839 35.7204863789444 2034.42414244686 153 155 152
-137.050622098602 35.9787754951803 2036.18343469055 79 81 78
-140.520606149932 35.8672015221504 2041.20372264059 223 225 224
-115.104428393805 42.9333517122272 1713.60643851458 193 195 192
-101.237708839739 41.9989088378895 1727.77415994619 193 197 196
-92.8136549782081 41.3240565471611 1738.93447293742 192 196 195
-86.1979267078104 40.7365463068173 1749.07031783352 200 204 203
-79.5697566392382 40.1507132252212 1759.16009861925 192 196 195
-73.8419397452792 39.6089232985279 1768.72512945846 185 189 188
-68.1031163888421 39.0687022932343 1778.24935697203 177 181 180
-63.2677424748944 38.572202364253 1787.25919800878 184 188 187
-61.1689789934096 38.2036332752553 1794.82041588003 187 191 190
-58.1483675376671 37.7936949205718 1802.83012391827 195 199 198
-52.3703314197863 37.2586733805612 1812.21204480427 194 198 197
-43.827963434119 36.5993243507454 1822.94286858886 198 200 199
-36.1885406624463 35.9839062668323 1833.15663727321 213 211 212
-31.2921925472123 35.4956136367144 1841.94527471006 211 209 210
-28.2256268401644 35.0919792865236 1849.7874146159 195 195 195
-6.74221140024711 33.8580334143314 1866.66009668308 207 211 210
50.7038382157654 31.0113784855725 1900.96002972331 174 180 178
78.7397874032203 29.5006515512858 1920.60486488697 188 194 192
90.214150994427 28.7390341402234 1932.07462240563 198 202 201
91.5514516485703 28.4332359598182 1938.60631239347 189 191 190
94.7409707833535 28.0458400430296 1946.00266692836 176 174 175
92.3886535129153 27.9055613466886 1950.75101039111 164 160 161
91.8857922703775 27.6833618539767 1956.3745353946 152 154 151
90.4578884548652 27.5022741199121 1961.5617330848 153 158 154
89.9567523353577 27.2805629782718 1967.17916136389 170 175 171
89.4567356255123 27.0591292864677 1972.79214415035 168 173 169
87.1013067841904 26.9190937000311 1977.55265826406 161 166 162
81.9567807040653 26.900460029608 1981.05483590502 149 154 150
75.8765288875631 26.9216123384978 1984.15997820814 167 172 168
70.7194723654716 26.9016414241297 1987.70829916965 143 148 144
64.6251446568917 26.9213390849736 1990.86478411264 151 156 152
44.543673770912 27.541849566208 1987.88312566446 157 162 158
5.77916578010296 28.9591923957708 1976.83901862063 40 45 41
-24.6424989218403 30.010126284317 1969.6569796778 0 4 0
-33.6234381681164 30.1394496939819 1971.91067379456 13 15 10
-34.2024984419367 29.9097984814846 1977.81194172957 92 94 89
-38.522608596804 29.8391371578901 1982.11716198015 65 67 62
-48.4650950075447 30.0054694891666 1984.06700834935 0 1 0
-64.9798764211331 30.4467088964733 1983.31595913074 15 17 12
-61.8251317723695 30.0582047710958 1990.84118936297 9 11 6
-53.971165695605 29.4743583603483 2000.27833350651 3 5 0
-58.3124068827352 29.4021485064429 2004.66103147735 67 69 64
-63.5979678327006 29.3687306897612 2008.6779745232 73 75 70
-73.592725797651 29.5299129338091 2010.81864343277 52 54 49
-77.0110023284918 29.4171850440126 2015.646222971 25 27 22
-84.2007739033561 29.4597019794173 2018.98749828817 6 8 3
-88.5709850730914 29.3851236310292 2023.47626078303 0 1 0
-102.380763099427 29.6968851591122 2024.29020877439 0 1 0
-113.37673422055 29.8908570991994 2026.27256721364 3 5 0
-127.222162063526 30.198784379884 2027.21645524392 6 9 2
-130.684180721971 30.0822466090818 2032.2031063468 21 24 17
-152.130520243502 30.6935170968133 2030.38678360301 26 29 22
-109.856262936875 36.9234708687039 1709.81016460843 152 157 151
-103.272068791257 36.355217924992 1720.07524757828 202 207 201
-95.7644084171574 35.7484183828173 1730.78366551616 206 208 205
-89.1543863086683 35.1835063074579 1740.95403454888 204 206 203
-81.6192493509584 34.5802311678012 1751.56266244033 199 201 198
-75.8958991414342 34.0586050162103 1761.15700755542 189 191 188
-69.2476498917451 33.4986268611828 1771.18949074669 195 197 194
-66.2446400307546 33.0991663557538 1779.27023619942 184 186 183
-63.2344914721075 32.7006109889027 1787.32597754651 190 192 189
-60.2176077391352 32.3030150148502 1795.35638919927 189 191 188
-55.3605282996557 31.8275106847743 1804.29889739591 192 194 191
-46.8242711879034 31.1959048514845 1815.06992525955 189 191 188
-37.3547260832727 30.5271265584856 1826.2477603418 211 211 211
-31.5428777388442 30.0172375845409 1835.52093946666 225 221 222
-27.5590067934663 29.5869949271422 1843.83682610158 219 217 218
-21.7260968436352 29.0799461978364 1853.03360079532 219 219 219
16.3490785511848 27.2134547677356 1878.04338592458 193 197 196
65.5451415145589 24.8893532675073 1908.23414480555 149 158 153
83.4607235303664 23.8912799026241 1922.91527107111 135 144 141
91.2528306238323 23.3219127064467 1932.59122691369 156 162 160
92.5927738403543 23.0240453157429 1939.11811267078 169 173 172
93.9368077845457 22.7268243373136 1945.63021846867 185 185 187
94.3596874996671 22.4686231025402 1951.6902395057 175 173 176
93.8593825623417 22.2490876814973 1957.30595540434 140 142 141
91.5069437205804 22.1061954370432 1962.05310018013 116 118 115
88.2255706722908 22.0012751584718 1966.37684872574 105 107 104
88.6533605920525 21.7442194773445 1972.41936237792 110 112 109
87.2262645703197 21.5633984678511 1977.60372928407 141 143 138
83.0103909062327 21.49609877263 1981.52406223035 144 146 141
75.0691274285453 21.5792021802079 1983.78478348385 138 140 135
68.9794663302119 21.5858933381711 1986.9157305926 131 133 128
61.0190876564858 21.66693039383 1989.24611823608 121 123 118
39.9948348251673 22.270759983879 1985.85704352251 112 114 109
-1.58808437229019 23.6923688220316 1973.5899480546 5 7 2
-32.0270780068963 24.6594075307463 1966.42021004029 4 6 1
-37.2781427674191 24.6178195445082 1970.30391727847 7 9 4
-36.9237367688546 24.3532622435705 1976.61369040591 0 1 0
-38.4384975279168 24.1632555148181 1982.11773991767 11 13 8
-42.7635918661775 24.084045982984 1986.43606857314 21 23 18
-52.7175810102944 24.2252410738195 1988.41368102173 8 10 5
-59.870487076622 24.2549228364697 1991.60997847501 9 11 6
-55.7657173750903 23.8443744602025 1999.49035468444 1 3 0
-61.0483762521392 23.8003455508661 2003.48982361394 4 6 1
-64.4564890866159 23.6829369912735 2008.27578318722 0 1 0
-79.1598838009993 24.0015465148174 2008.51555787877 0 1 0
-85.4080335051624 23.9915575846179 2012.22394667234 0 1 0
-94.4907709918796 24.0894091785166 2014.83572804704 7 9 4
-94.1535206529567 23.8253228116392 2021.20949409942 12 15 8
-108.915968079758 24.1376224915655 2021.66453623322 20 23 16
-119.920267368062 24.3040298125426 2023.66041266746 18 21 14
-131.88443272958 24.5048027913106 2025.3454599959 15 18 9
-139.134354829182 24.5251993393314 2028.89609676767 10 13 4
-176.690654238487 25.6850561325009 2020.99622562784 19 22 13
-134.612070428044 32.1870822973964 1689.6279860642 189 192 185
-112.583600183389 30.9986328046319 1708.40203088568 132 135 128
-95.9813668097951 30.0405161376125 1724.08826943344 224 229 222
-93.019443418906 29.6484564658033 1732.32716241833 220 222 217
-87.3148626498903 29.1451159756069 1742.00181037415 223 224 219
-81.5988185491516 28.6431807895208 1751.63571348398 216 217 212
-71.3046193531857 27.9566542922515 1763.63781367262 215 216 211
-68.3051327694719 27.5695526755376 1771.73944311867 212 213 208
-67.128246811571 27.2574193267783 1778.86272173958 210 211 206
-71.4406654224224 27.167515979955 1783.1272363886 215 216 211
-69.3437331278886 26.8191555257303 1790.70801177216 213 214 209
-64.4903151471172 26.3612797281546 1799.67524397991 205 206 201
-48.6145104113982 25.464642457191 1814.20106417188 114 115 110
-39.1406346216154 24.8275517458943 1825.38375517168 2 2 0
-31.4881484509235 24.2657497977728 1835.58287243714 1 0 0
-25.6613468624793 23.7786243460927 1844.8139757715 1 0 0
-2.33204627758354 22.6032658080903 1862.66380684577 1 3 0
44.9892572676853 20.4914545976055 1892.15563918769 0 3 0
73.9461801377228 19.1117766205979 1912.36106643174 181 191 183
84.4956735921851 18.4587909440462 1923.43648499323 124 133 128
91.3697616968558 17.9520281885808 1932.66360568535 124 133 128
91.7874228811029 17.6979024826523 1938.74557518026 123 129 127
94.0575895945117 17.3727510375247 1945.69828258415 137 138 140
95.4075329923223 17.0840444319999 1952.19335875704 116 117 121
96.7616930155528 16.7959952309244 1958.67365898818 115 117 116
94.4118308643589 16.6505379885156 1963.41008212274 123 125 122
90.2047240830559 16.5757894501894 1967.29316254192 131 133 130
87.8500363915042 16.4300087440433 1972.04683323272 128 130 127
85.4937999879546 16.2841897690773 1976.80669433796 113 115 110
81.2760047359102 16.208493887694 1980.72886085131 106 108 103
73.3310893943799 16.2725199618671 1982.99063181865 123 125 120
66.3072898154999 16.3004679297041 1985.70648756094 149 152 145
54.6144098556469 16.5016825157009 1986.3845841712 158 161 154
33.5775770677766 17.0485076449237 1983.00715576086 60 63 56
-13.6281745237559 18.5621503810112 1968.29485996152 1 4 0
-42.2199903309721 19.375699330311 1961.96264808084 13 16 9
-51.2196117007586 19.4601438098445 1964.25737105355 12 13 7
-45.2603837459837 18.9931576229297 1973.00951612206 10 11 5
-45.8445552195894 18.7678831846297 1978.93252420621 1 3 0
-44.5531683342808 18.4745668972193 1985.64256343268 13 15 10
-57.3250195650554 18.6937147757541 1986.44167065707 16 18 13
-65.4218983814971 18.7407756306369 1989.25647676015 17 19 14
-72.5894094334989 18.7528464748114 1992.49681007326 20 22 17
-80.706131055567 18.7979012420795 1995.38402208585 4 6 1
-87.8920126431724 18.8081651572196 1998.69142079673 14 16 11
-101.676956966874 19.0532192040849 1999.37105050602 18 20 15
-107.943668237682 19.027595082712 2003.13848351737 15 17 12
-119.874820998957 19.2022342577103 2004.68446201584 11 14 7
-121.442523619059 19.0077508805331 2010.38224795986 15 18 11
-121.121883268455 18.7469135779029 2016.81973493247 13 16 7
-116.072996849004 18.3205624526687 2025.08206318846 13 16 7
-117.634683163434 18.1276702704204 2030.75851636587 18 21 12
-135.286875919228 18.4967054297341 2030.28761714529 18 21 12
-177.590777451769 19.7197717505842 2020.57203842724 20 23 14
-209.529540764058 20.573903616978 2015.00304742554 10 13 4
-113.491992717821 24.9937463160507 1707.98354335681 89 92 85
-101.436335170081 24.2633565915599 1721.21157076739 5 8 1
-99.3878225354026 23.9187543178217 1728.97449157641 23 24 19
-100.070948626038 23.679089197606 1735.25581323581 18 19 14
-87.0563640254995 22.9200018524394 1748.80173465284 41 42 37
-73.1053527851544 22.1292968862662 1762.74724616447 111 112 107
-66.4463089137559 21.6173868464435 1772.76999873257 164 165 160
-71.6727567838444 21.5538063766301 1776.54842337854 189 190 185
-80.5691939002906 21.626623078324 1778.45177324946 119 120 115
-83.0604129643731 21.4587228481367 1783.69885756878 29 30 25
-80.9664222121058 21.1202468417997 1791.29679484519 6 7 2
-58.6683879100245 20.0346618752176 1809.13494443138 2 3 0
-42.7650736360936 19.1911741515842 1823.59218294147 15 16 11
-38.7888503010931 18.7908293614088 1831.95626862552 24 23 21
-30.2030271562042 18.2230184516464 1842.5826152753 24 24 22
24.4476216608398 15.9759451312776 1875.9499778622 31 33 28
66.2816475154457 14.2096407630088 1902.65335137446 205 210 203
80.5104243846202 13.4553066093628 1915.59053617383 185 192 184
87.3784254726249 12.9710294991439 1924.85491753633 154 161 154
92.4113381853151 12.554997898171 1933.18213921964 133 140 133
92.8312283689021 12.3061556635303 1939.25916858406 121 127 123
94.1791121021549 12.0246880271557 1945.76692670518 105 109 110
95.5311023464129 11.7438686284775 1952.25984741913 104 108 109
95.9604237125258 11.4966370547634 1958.30287753828 117 119 118
93.6101511505561 11.3482440265399 1963.03897094613 126 128 125
89.4018330314164 11.2651814460259 1966.9212997743 142 144 141
86.1179265925496 11.1491369690857 1971.24743106611 145 147 144
83.7604673053569 11.0002918102887 1976.00945741333 148 150 145
81.4013570834202 10.8514001286294 1980.77758398558 147 149 144
74.3855404177638 10.8642087338719 1983.45470704594 148 150 145
65.4971638906525 10.9405571707696 1985.33035928121 157 160 153
47.2725170422883 11.3372293571077 1983.1069271187 170 173 166
16.8899524512183 12.1476980868907 1975.62790001488 0 2 0
-21.0084331299389 13.2085519782867 1965.04023117302 18 21 14
-35.5975657383154 13.4652295421051 1964.81574344004 14 17 10
-48.3360319173503 13.6559760369398 1965.47296736377 12 13 7
-47.0509320573298 13.3690667734526 1972.21039414241 10 11 5
-49.5090832806582 13.2093883873217 1977.33896586955 13 14 8
-51.9686213317874 13.0497157697551 1982.47361928098 12 13 7
-66.6269036774765 13.2987352823456 1982.50196509952 15 16 10
-68.1601817615709 13.1066158156521 1988.0734319377 11 12 6
-67.8144245463619 12.8521493875886 1994.42168715149 15 16 10
-71.2272912833911 12.7229771976979 1999.21879911538 14 15 9
-86.8779902762453 12.9976658418753 1999.05075017559 15 16 10
-94.0738805272345 12.9909802330797 2002.38367902737 15 16 10
-102.221062476909 13.0143663261624 2005.37123282229 15 16 10
-108.491865411438 12.975091108285 2009.14616781391 11 14 5
-120.434308328135 13.1194618102941 2010.71402549487 13 16 7
-125.779524137482 13.0477774585588 2014.92829585462 14 17 6
-126.403560768884 12.8229180920028 2020.99957751087 14 17 6
-131.757015788248 12.7507429656334 2025.24412859316 17 20 9
-144.691372863297 12.9209999396391 2026.61572100941 15 18 7
-173.752672265248 13.6039991244011 2021.94418741272 23 26 17
-199.062673331555 14.1614851201259 2018.85178643295 25 28 19
-192.864640351115 22.0498034780662 1657.91869859036 139 140 132
-141.71932313248 19.9594824682349 1692.70974540332 201 202 194
-110.540893045796 18.5891094995976 1716.36291662597 18 19 11
-151.364225657386 19.7651406878296 1701.12058016766 5 6 0
-139.308022042141 19.073864201906 1714.37127418785 149 150 145
-116.268687872277 18.0018253267582 1733.36199533303 8 9 4
-85.8772767441103 16.6797503137065 1756.0704570911 20 21 16
-77.3939894242344 16.1268482106906 1767.08784082528 0 1 0
-77.136284299367 15.8611872066216 1773.75594852352 0 1 0
-86.9556490368764 15.943433632799 1775.19650983518 0 1 0
-91.285837093658 15.8350406213663 1779.51532554793 0 1 0
-92.867142689796 15.6319076086524 1785.2581557488 20 21 16
-73.3227948913653 14.7084403124957 1801.73266605003 14 15 10
-50.9879591193112 13.6955647980205 1819.48008393278 21 22 17
-38.7356676035993 13.030035613296 1832.0180684863 27 28 23
-25.5412438376981 12.3362276902231 1844.93749633956 23 24 18
19.0029835970498 10.5931166749802 1873.28295581402 8 9 1
73.7620499760874 8.5198083961379 1906.35749139301 214 216 205
81.5444379280179 8.02695516779615 1916.11783941694 194 196 185
88.4173925525189 7.5666499173888 1925.37849933538 192 195 186
90.6817753504936 7.26105134038639 1932.36456142974 155 158 151
92.951787382461 6.95627354307109 1939.33070599015 144 149 145
93.3758700145895 6.7130862784137 1945.39573986684 88 92 91
93.8026070908098 6.47037931266074 1951.45122154845 98 104 104
94.232127980767 6.22813515633107 1957.49712418017 134 138 137
92.8085257415583 6.04662065873073 1962.66808152448 140 142 139
88.5989981803434 5.95535978807353 1966.54972480282 142 144 141
84.3849461693495 5.86366229179146 1970.44789081386 142 144 141
82.0263785327036 5.71182951028286 1975.21214601679 145 147 142
77.804729689064 5.61942670154263 1979.13807228114 144 146 141
70.784321406544 5.61567408869994 1981.82178722888 146 149 142
58.1619554962514 5.78843037765246 1982.03566651311 89 92 85
29.6631372014964 6.46040496976057 1975.26879045806 2 5 0
-6.34634146176261 7.36237062756172 1965.36030750147 13 16 7
-26.5257918994177 7.75966214674244 1962.60149915822 14 17 8
-32.708506216814 7.71529560593935 1966.04616398456 23 26 17
-40.7704523547845 7.72841519476268 1968.70984316056 14 15 9
-49.7788574810112 7.76950102132994 1971.00980411574 13 14 8
-53.1759560265817 7.63566091914995 1975.74449577728 16 17 11
-53.7621143373179 7.41511746613697 1981.67879651722 14 15 9
-62.7950700134523 7.4538331671911 1984.06748345676 17 18 12
-67.1428299051779 7.34791366409431 1988.45310159234 11 12 6
-72.4350969095253 7.27030881275741 1992.4670455233 14 15 9
-79.6150020466278 7.24915295559796 1995.73148902293 14 15 9
-93.3943658026037 7.42590823036597 1996.3472789088 13 14 8
-101.539134136006 7.43074162540301 1999.31415821726 13 14 8
-103.093442082502 7.23699867960574 2004.96267983308 13 14 8
-103.704071640129 7.01535799650481 2010.98714478286 16 19 10
-105.257983416083 6.82223853376145 2016.63458912967 18 21 10
-120.989056170202 7.04861035102659 2016.73444749753 18 21 10
-135.795901920952 7.2446903651026 2017.28095689348 19 22 11
-140.210912998252 7.13301475028864 2021.91263139262 22 25 14
-152.208614861206 7.24256627565066 2023.66460072775 21 24 13
-175.598533151534 7.68158862135897 2021.16208677082 18 21 12
-194.278216387442 7.97925429819767 2020.56467898099 20 23 14
-115.308715887822 12.9858290224464 1707.14751006218 152 152 144
-161.593328088112 14.2275207093213 1688.84350858593 9 9 1
-203.385918803653 15.3126913368612 1673.24615251251 8 7 2
-211.453956812371 15.3025703392288 1675.9187057435 134 133 128
-134.539367451536 12.5670452480806 1723.73055059169 1 0 0
-114.208186194506 11.6577400357771 1741.1889640589 16 15 10
-96.5886379969794 10.8401105516244 1757.08405771312 15 14 9
-86.267758043113 10.2585697383567 1769.05337994178 13 12 7
-92.4304260912487 10.1999787135731 1772.41370728229 10 9 4
-94.9303866875466 10.0252041924096 1777.68890712999 13 12 7
-93.7592256281579 9.73528422302598 1784.84746554188 12 11 6
-62.2596236680784 8.50069250562684 1807.39391372039 17 16 11
-34.3873097666914 7.38695837830521 1827.89693510505 10 9 4
-29.4780763336375 6.99070482398183 1836.69584053644 18 18 8
-7.0585840058206 6.05679552127279 1854.17880035205 8 5 0
52.2696206392548 3.99668502207294 1889.77988440694 19 11 0
73.8695741868063 3.10433048871027 1906.43554621013 141 127 116
81.6567300504474 2.63808133739478 1916.19498833386 158 144 133
88.534145666141 2.20177049400848 1925.45469879006 199 186 177
91.725554413467 1.87877158537923 1932.88469446366 202 193 184
93.0732016278866 1.61244027315131 1939.40288701552 176 175 170
92.5726595047058 1.40221026172792 1945.02489397599 171 173 168
92.0734683835782 1.19224846470166 1950.64251877841 155 160 156
92.5029660445378 0.955059749928641 1956.69123488473 124 126 123
92.0069530612337 0.745812118788255 1962.29751077126 118 118 116
88.7251141235432 0.618919179344021 1966.60865217387 96 96 94
84.5106992340261 0.519031084100438 1970.50345887759 91 91 89
81.2219825533596 0.391573764905603 1974.83977967204 78 79 74
76.9991400509811 0.290974491443927 1978.7649629386 69 70 65
68.112639405518 0.324872263535933 1980.60777828804 75 76 70
47.0909185746791 0.707225932515473 1977.06993896205 62 63 55
9.23959998447099 1.56843090754637 1966.18054271113 12 13 5
-11.8557782639457 1.9417711453578 1962.91095284282 11 12 4
-19.8954393556023 1.93868689561914 1965.48259077672 8 10 0
-26.0746233533211 1.8813917536966 1968.9050567536 10 12 1
-32.2609787714874 1.8234333633033 1972.35465909118 11 12 4
-42.2024347774874 1.87016401205302 1974.22516952841 13 14 6
-46.5313678054844 1.75784362010915 1978.53684602281 15 16 8
-45.2348168929728 1.48814448671412 1985.24262286307 12 13 5
-42.0561758122409 1.16708071950965 1992.72077961608 16 17 9
-65.1838582281976 1.57485297677516 1989.22490558457 14 15 7
-77.9993455208019 1.69378399074986 1990.12275327224 18 19 11
-87.0677455212436 1.70754670998956 1992.62728403461 17 18 10
-89.5541658229284 1.53999929826147 1997.85677424079 17 18 10
-95.8129659934826 1.4751136073126 2001.57004718778 15 16 8
-99.2487787029446 1.33288964995947 2006.44411284731 17 18 10
-98.9115594681076 1.08878685846663 2012.83061096641 19 22 11
-101.405850904047 0.921340022659187 2018.08938864975 20 23 12
-115.248184052996 1.05727918018798 2018.91320239039 17 20 9
-128.163223823274 1.16591668418735 2020.17324111006 17 20 9
-131.625782167154 1.02175478851589 2025.14538455539 20 23 12
-139.829940614552 1.00256280083648 2028.31759934807 20 23 12
-160.37374115182 1.30627443608204 2026.85247007424 19 22 13
-112.571311261656 6.8748835914804 1708.7121427284 34 34 26
-176.203753474212 8.49670656326827 1681.02249658519 1 1 0
-217.112115641488 9.43585284244007 1665.94630147131 133 132 127
-182.254365528496 8.15008565706303 1691.57850478532 120 119 114
-129.053390685467 6.33928604593385 1726.70641368338 5 4 0
-107.792331275483 5.46795817966199 1744.63359813474 23 22 17
-102.063443531131 5.05067028801735 1754.27232816099 1 0 0
-106.40425213051 4.92455665196083 1758.61938799213 24 23 18
-95.1576867259316 4.35171886683498 1771.05363659233 18 17 12
-93.9879763558458 4.06916963255614 1778.22223462556 19 18 13
-90.976909488071 3.73510112015572 1786.31528009481 8 7 2
-51.1858822400055 2.3631402715709 1813.06023410198 27 26 21
-21.4511625373375 1.28414036262102 1834.46400692624 27 27 19
-8.24144628534329 0.675689065760363 1847.3805464812 17 15 3
38.1642369826734 -0.854790452951684 1876.74259946868 36 29 19
68.0446965711863 -1.91473969308033 1897.61729625602 157 143 132
77.6697963367692 -2.40713899401808 1908.32987285459 180 158 147
81.7698572016323 -2.74477486225534 1916.27283616971 152 130 119
84.9542769126095 -3.05587704944289 1923.73675624383 117 97 88
89.9956673699866 -3.4164544462524 1932.06751260415 191 177 168
91.3438115609688 -3.67504535010117 1938.58874686807 175 170 164
91.7694998277336 -3.90796667913575 1944.65430071238 170 169 164
91.2706992228916 -4.11548600560342 1950.27201765241 174 176 171
92.6289996819751 -4.37244015515188 1956.75657704443 130 132 129
93.0627144143608 -4.60391328578659 1962.79324451168 129 129 127
90.7109272085835 -4.76088293209988 1967.5290821562 123 123 121
85.5673199415279 -4.84411226831728 1970.98753061381 127 127 125
80.417637406927 -4.92798290464942 1974.46766595453 131 132 127
71.5359100027468 -4.91478754825155 1976.27922426188 127 128 123
56.1168522667015 -4.73271871148608 1975.19359046083 103 104 98
16.4184582562463 -3.92342229729582 1963.33568108946 69 70 64
-16.8030702850239 -3.29034973083804 1954.59621090743 2 3 0
-24.8446379747003 -3.31245744978816 1957.16291724353 20 21 13
-27.2858553977504 -3.47941998055502 1962.22401826158 15 16 8
-29.728494687167 -3.64635191194503 1967.29134673212 17 19 8
-34.9824997544401 -3.74194494045595 1971.15187479649 14 15 7
-40.242445351959 -3.83810948817383 1975.03409805804 23 24 16
-46.4465189208605 -3.91122290585051 1978.53898730328 24 25 17
-42.3317941239081 -4.24344402166189 1986.43185392633 15 16 8
-51.3608700629722 -4.24674504714102 1988.7805380235 19 20 12
-74.5042947574133 -3.90153482753632 1985.30361359119 18 19 11
-86.3904786878571 -3.83895342775105 1986.61095519895 17 18 10
-94.5260705317628 -3.8706646491183 1989.52069164279 16 17 9
