ply
format ascii 1.0
comment KinectMotionCapture
element vertex 751
property float x
property float y
property float z
property uchar red
property uchar green
property uchar blue
end_header
-1011.83215803018 471.455945596749 2419.81791851254 215 219 220
-1015.02687975734 470.739903732257 2411.52210603147 215 219 220
-1017.22578693089 470.248528394786 2403.27924375742 214 218 219
-1017.43352517502 470.207146981843 2395.11568135733 212 216 217
-1019.63177550808 469.714809287345 2386.88813259164 210 214 215
-1028.79676045444 467.64533094339 2378.46815621772 208 212 213
-1031.98931532628 466.926804985938 2370.25436472136 207 211 212
-1034.1861634856 466.432979999467 2362.08002082325 211 213 212
-1032.40282071921 466.839345264441 2353.99923399039 199 199 197
-1038.57948692487 465.443682474638 2345.76278700693 201 201 199
-1037.79073265507 465.623730130519 2337.66587093002 206 206 204
-1034.01780568545 466.478527058881 2329.60076994694 209 209 207
-1031.24012639729 467.107487958638 2321.50361836355 206 206 204
-1036.4206028938 465.934791001455 2313.33295788983 212 212 210
-1040.60558136618 464.986919513615 2305.1937224264 224 224 222
-1038.82257526344 465.38893693193 2297.08578444073 223 223 221
-1038.03449516765 465.565200825271 2288.96778138363 223 223 221
-1015.36915541086 470.69171254834 2280.75923345017 182 183 178
-881.338851490033 492.303714591613 2536.12473653223 221 225 224
-893.514083833607 489.596055824109 2526.7024451644 216 220 219
-902.69829102004 487.55627102137 2517.56307969618 209 213 212
-921.84478656122 483.289358294602 2507.77192373095 201 205 206
-932.022045304113 481.026422800956 2498.68922314433 212 216 217
-945.186656002851 478.095210815128 2489.46672588641 207 211 212
-954.364839952432 476.054448750331 2480.5617200713 203 207 208
-968.522148681076 472.900120173374 2471.40974135109 206 210 213
-974.709378169564 471.526673080601 2462.7842981858 210 214 217
-978.903763609272 470.598144124273 2454.29817437216 212 216 219
-985.089471816583 469.223961677906 2445.73139857925 213 217 218
-996.253324815276 466.736293562841 2436.95603799814 215 219 220
-1005.42429151404 464.6935516974 2428.33098158962 217 221 222
-1016.58546669222 462.205452997142 2419.6691419694 217 221 222
-1022.76669551629 460.829825387183 2411.26655949759 216 220 221
-1026.95638641731 459.898821934318 2402.97058238294 214 218 219
-1027.16344271311 459.857562056378 2394.83380338098 211 215 216
-1029.36116126921 459.370767650473 2386.63299025783 210 214 215
-1032.55409595275 458.660843338476 2378.41359018879 208 212 213
-1031.76560554761 458.840397477452 2370.31515625493 207 211 212
-1034.95797557263 458.129363093589 2362.11663308749 205 207 206
-1041.13532228423 456.750564543717 2353.87169709619 209 211 208
-1050.29677718689 454.704056124195 2345.60502560602 210 212 209
-1047.51729963513 455.326353506039 2337.57100162123 199 201 200
-1039.76377488007 457.05996531914 2329.58308318018 203 205 204
-1039.97002631801 457.013578021887 2321.4722553837 203 205 204
-1043.1606212274 456.299415081369 2313.33975068146 206 208 207
-1047.34542821996 455.362512713293 2305.21899503899 208 210 209
-1039.59416640863 457.093181323457 2297.13947273328 209 211 210
-1036.81672723662 457.711394906698 2289.0213969379 210 212 211
-1030.06175152043 459.218171737807 2280.87132681369 218 220 219
-1027.28540181191 459.83483487483 2272.70900626131 218 220 217
-896.834604305425 480.331915142313 2543.41985364609 217 221 222
-904.027039947368 478.75740949779 2534.39975244352 217 221 222
-908.22871403387 477.842605068115 2525.64349940355 215 219 220
-912.43007703826 476.927280131578 2516.90817043823 210 214 215
-924.602174986495 474.251848927335 2507.63366078552 212 216 217
-931.790817879239 472.675952258614 2498.76029978579 212 216 219
-942.963934437513 470.219845585997 2489.66610023988 214 218 221
-953.139117506117 467.983510963279 2480.69308616147 215 219 222
-967.297561185811 464.867172383459 2471.53754035556 214 218 221
-977.469693219608 462.63032961395 2462.68322567789 213 217 220
-982.660382746693 461.492665639351 2454.15102030823 212 216 219
-990.838059856688 459.694927885941 2445.49274187746 211 215 216
-999.01462980905 457.896944717957 2436.87747149516 211 215 216
-1009.18183119469 455.658773789136 2428.21443755299 211 215 216
-1017.35627345139 453.860033519923 2419.69083675917 210 214 215
-1024.53374932218 452.280807830067 2411.25034721557 209 213 214
-1028.723377076 451.360687771973 2402.95919907515 208 212 213
-1031.9169718858 450.659950687258 2394.7238635222 208 212 213
-1033.11909893694 450.398363616965 2386.56786377031 206 210 211
-1037.30756692979 449.476748613489 2378.32976273725 206 210 211
-1034.52789520122 450.093155804853 2370.29700342211 205 209 210
-1038.71549357923 449.170575071892 2362.0825282355 202 206 205
-1041.9074040831 448.467285444885 2353.91028046964 199 203 202
-1050.07442282412 446.664942890508 2345.66362374074 204 208 207
-1047.29473084559 447.278954711019 2337.62908389943 195 199 198
-1041.53069450896 448.551376303888 2329.61552405479 203 207 206
-1042.73166979893 448.285294341256 2321.49971284997 201 205 206
-1049.90165524699 446.700740491087 2313.346254007 197 201 202
-1052.09686528378 446.213890560537 2305.25274767834 190 194 195
-1048.32323215762 447.044390851059 2297.17983309201 200 204 207
-1044.55038509791 447.87419858065 2289.08477747546 199 203 206
-1037.79434030588 449.36199391537 2280.95610966956 204 208 211
-1035.01722402131 449.970638527011 2272.81513989017 203 207 208
-1031.24615079293 450.798113421694 2264.64825198166 200 202 197
-1033.44185307297 450.307531299031 2256.53149974143 200 202 197
-881.431653074345 475.181856575504 2553.22175852868 219 221 218
-901.584880787719 470.801580721073 2543.08911259622 217 221 222
-911.767736686306 468.594173202061 2533.84727743798 215 219 220
-918.959188557476 467.038415332475 2524.88575532203 213 217 218
-922.163331715943 466.351255177601 2516.25273162333 209 213 214
-932.342736720951 464.142965813189 2507.1448224831 210 214 215
-939.531361245879 462.586160092156 2498.29267775054 207 211 214
-946.719015562231 461.028892439665 2489.47795614368 209 213 216
-953.905703851507 459.471341799631 2480.70068637127 209 213 216
-967.068966532485 456.61023082969 2471.6061433891 209 213 216
-981.22653142094 453.531698133922 2462.52553683572 208 212 215
-985.421052760433 452.624739854925 2454.05726251967 208 212 215
-990.611227976449 451.500176919202 2445.55922509479 210 214 215
-996.796611984597 450.158130956163 2437.03962580895 210 214 215
-1007.96054810398 447.729979608834 2428.32492110456 209 213 214
-1016.13567428667 445.952904192978 2419.79785216484 208 212 213
-1023.31375963163 444.392662320457 2411.3539256206 207 211 212
-1032.48211074237 442.397794906951 2402.87317456378 207 211 212
-1034.68011366885 441.92226525858 2394.68266727812 205 209 210
-1036.87783754848 441.446209709928 2386.5025014386 203 207 208
-1039.07504274968 440.969695193025 2378.33278975631 202 206 207
-1039.28128282822 440.926732005772 2370.22608246996 201 205 206
-1043.46884858678 440.015083423994 2362.02462026639 201 205 204
-1044.67024226398 439.753928539631 2353.90707214485 198 202 201
-1051.84253265208 438.1903078875 2345.6860047159 201 205 204
-1049.06248941086 438.796130595342 2337.65640059888 192 196 195
-1046.28286017635 439.40136293042 2329.60998176838 200 204 203
-1047.48357714516 439.138050597448 2321.50724046451 193 197 198
-1050.67409569383 438.440293186764 2313.395335198 192 196 197
-1050.87959207905 438.392726467899 2305.3127511053 185 189 192
-1049.0956489898 438.778424945822 2297.23323656536 187 191 194
-1046.31709033297 439.380371310196 2289.14144762837 202 206 209
-1047.51748473546 439.114143901097 2281.04818334946 207 211 214
-1046.72871267317 439.280988967737 2272.94711152972 203 207 208
-1039.97296640589 440.748238330886 2264.78471566023 201 203 198
-1035.20692107985 441.781132563517 2256.60786092422 192 194 189
-1034.41922343915 441.945830998028 2248.46249209837 153 154 149
-858.827042232266 471.484816864346 2572.28315090907 216 221 217
-882.973871891836 466.300712080127 2561.63626413813 221 226 222
-897.147868393037 463.262639051208 2551.95689571057 221 225 224
-914.310592475625 459.580531109623 2542.10999514119 215 219 220
-921.503084566377 458.0439993597 2533.13778595521 212 216 217
-931.684626632669 455.863590078089 2523.97628854243 208 212 213
-931.898060615441 455.828314716684 2515.5966731532 207 211 212
-938.090928454602 454.505286147365 2506.79567445042 207 211 212
-941.293585639415 453.825483810676 2498.22862800837 204 208 209
-951.471055722323 451.643757844953 2489.22486405834 203 207 208
-963.640022501298 449.032717284922 2480.15119385009 202 206 207
-975.807323634798 446.421399938526 2471.14232564522 205 209 212
-988.969143580114 443.595424095376 2462.14189516377 207 211 214
-992.167307980021 442.913876932472 2453.74856885965 208 212 213
-999.349473558783 441.374095624268 2445.16714162168 208 212 213
-1002.54653123415 440.691642721947 2436.81609743327 207 211 212
-1014.70679479276 438.079021103932 2428.0715568199 204 208 209
-1020.89013648333 436.752463607209 2419.64840870227 203 207 208
-1030.06018276434 434.782469794629 2411.13743666414 200 204 205
-1038.23304084428 433.026527862386 2402.71237975591 207 211 212
-1039.43516032029 432.770701502251 2394.57218626119 200 204 205
-1036.65443922145 433.371903151144 2386.56411343102 199 203 204
-1039.84753066123 432.68630484016 2378.36470617157 197 201 202
-1042.04454985366 432.214701387071 2370.20753747829 195 199 200
-1047.22780557143 431.099543018898 2361.99003591573 194 198 199
-1048.42877299624 430.841205607544 2353.88284761117 191 195 196
-1053.61090647646 429.725145629958 2345.70823890099 195 199 200
-1053.81616701436 429.679982443282 2337.63745326642 193 197 198
-1053.02611423127 429.848492028607 2329.57889889567 203 207 208
-1051.24143159494 430.230606194908 2321.52443985981 184 188 189
-1049.45678345142 430.61211412303 2313.45865700557 183 187 188
-1048.66750348828 430.778734293034 2305.37719423365 189 193 196
-1050.86272971976 430.302266481791 2297.28487769202 188 192 195
-1054.05262483504 429.610977046986 2289.20428317661 204 208 211
-1057.24209277313 428.91920114841 2281.13986189766 201 205 208
-1056.45256624053 429.0835462193 2273.0655930882 185 186 188
-1045.71708525402 431.388390819066 2264.8930648721 175 177 176
-1037.9669281738 433.049923468908 2256.69613297768 193 195 194
-1034.19560375252 433.854237866244 2248.51419460015 206 207 202
-868.561942358156 460.819105519035 2571.46710393851 215 219 218
-888.721556367397 456.547747693904 2561.19248244325 220 224 223
-904.890344891458 453.123896857333 2551.36116141911 216 220 219
-920.0597950267 449.911789427903 2541.69731364979 213 219 219
-925.258536363502 448.817956424127 2532.89747798414 209 215 215
-933.446832422558 447.088334120468 2523.89731136187 206 212 212
-934.65704705507 446.840975971015 2515.4498236204 207 213 213
-941.847014671349 445.322464948544 2506.58630412312 205 211 211
-946.0461669852 444.439001620666 2497.96226235556 203 209 209
-959.21369082014 441.649019145544 2488.77755101471 202 208 208
-970.386379273338 439.282397946256 2479.78684111932 202 208 208
-981.557779570531 436.915456345933 2470.8554575893 206 212 212
-989.738402030302 435.183615620282 2462.15281983925 208 214 214
-993.932919785101 434.298325172403 2453.70795087371 208 212 213
-999.123245636671 433.200970781557 2445.23324052955 208 212 213
-1004.31264025813 432.103207236404 2436.78516177725 207 211 212
-1015.477935022 429.734710093193 2428.0907334181 203 207 208
-1024.64940453525 427.789488492595 2419.54141023907 201 205 206
-1034.81570291431 425.632283591028 2411.00060400627 198 202 203
-1040.00151339215 424.533070349656 2402.70037421905 206 210 211
-1041.20334307334 424.279965114599 2394.56510385651 196 200 201
-1039.41813660492 424.661198416071 2386.53017218841 197 201 202
-1040.61989541481 424.407031706081 2378.39653199132 194 198 199
-1042.81700662336 423.940745451063 2370.24147618698 192 196 197
-1046.00949684205 423.262329431002 2362.0732785214 191 195 196
-1049.20156612661 422.583425285095 2353.92100830802 189 193 194
-1056.37458799488 421.057842026481 2345.71219372362 193 197 198
-1059.56553555286 420.378096154174 2337.60286068957 192 196 197
-1062.75605882799 419.697803028496 2329.5095225009 202 206 207
-1059.97522906043 420.286069493463 2321.49180801653 180 184 185
-1053.21455098641 421.719700757267 2313.48606771345 183 187 188
-1050.43481993375 422.306534351123 2305.42387313764 191 195 196
-1049.64546903538 422.469752320298 2297.34152973911 194 198 199
-1054.8255066992 421.363733318458 2289.2596140206 197 201 202
-1060.0046022929 420.257368067279 2281.2048211014 199 203 204
-1060.2094616534 420.207510161507 2273.14467404187 182 183 185
-1051.46230283471 422.059637620836 2265.00118327671 173 175 174
-1042.71662042998 423.910768690983 2256.80824408192 200 202 201
-1037.94997784246 424.91573301658 2248.62474341059 187 188 183
-1038.15638674666 424.863061816208 2240.50101411589 199 200 195
-859.132347444733 454.214075037329 2580.91493499438 215 219 218
-872.314820821331 451.461345655603 2571.18594328004 212 216 215
-895.467212039798 446.616957669749 2560.66175559239 215 219 218
-919.613443732816 441.563433475207 2550.178446806 213 217 216
-931.792107000604 439.019553569112 2540.79791616209 208 214 214
-934.996378502595 438.357567246214 2532.18690607587 205 211 211
-937.203184255384 437.904304980432 2523.66693805554 205 211 211
-937.416215485066 437.868716710017 2515.30272767467 208 214 214
-939.62286070651 437.41453374218 2506.79736998471 202 208 208
-949.802612998106 435.287297674745 2497.76291646932 199 205 203
-962.970848724477 432.532656951006 2488.58832919593 200 206 204
-974.14409611657 430.19589647089 2479.60783617272 202 208 206
-983.32301203065 428.276958263387 2470.80502772474 206 212 210
-994.493348894373 425.939712248717 2461.93776690326 208 214 212
-1000.68059887428 424.647285416998 2453.3985161788 206 210 211
-1007.86321265014 423.145496882229 2444.8403655595 206 210 211
-1010.06398877445 422.688134930183 2436.56097916893 205 209 210
-1019.23735953487 420.767672047923 2427.97325745682 201 205 206
-1028.40947706888 418.84682258161 2419.43410109049 199 203 204
-1038.57626031338 416.716797262463 2410.90352797912 196 200 201
-1040.77416250076 416.257922845622 2402.72551624299 201 205 206
-1042.97202629485 415.798575362494 2394.55782189582 187 191 192
-1042.1820115515 415.965454306229 2386.4960299431 190 194 195
-1044.37952435077 415.505059905975 2378.34092959037 188 192 193
-1046.57675658973 415.044140008367 2370.19623026785 186 190 191
-1050.76470626314 414.165039580311 2362.01471104288 187 188 192
-1053.95666607361 413.494327170214 2353.87551511092 189 190 194
-1058.14356223948 412.61424681581 2345.73411844042 190 191 195
-1060.33931910849 412.151438979799 2337.64505456378 185 186 190
-1064.52523165142 411.270480131878 2329.54115802672 195 196 200
-1062.73919962016 411.641733118585 2321.51845133278 172 173 175
-1056.97288026854 412.847544315163 2313.51327372123 185 186 188
-1054.1928971544 413.426219269937 2305.46149525159 192 194 193
-1053.40296837539 413.586773327349 2297.38955233871 194 196 195
-1060.57286422899 412.077027065107 2289.31991778375 191 193 192
-1064.75736331095 411.192840242488 2281.27712303559 205 207 206
-1062.97218554417 411.560444713872 2273.21711123155 162 163 165
-1050.24526410572 414.222803016008 2265.04452157903 183 184 186
-1040.50415500613 416.257987631188 2256.8364418467 192 194 193
-1035.73728800511 417.249207320723 2248.64695410046 186 186 184
-1031.96579529295 418.03099935937 2240.4474103391 185 186 181
-1027.2004588577 419.020608052478 2232.20569780515 158 159 151
-840.723178954802 449.416870604139 2591.2646064953 214 218 219
-863.882639593064 444.635000977374 2580.53124879126 210 214 215
-878.062997484367 441.71113114943 2570.725877803 210 214 215
-898.224949261717 437.548505651588 2560.47663663037 214 218 219
-914.395469306091 434.211581570705 2550.67097704951 214 218 219
-924.58108095419 432.112915138535 2541.43819545802 206 212 212
-934.765315045503 430.01413529879 2532.25913178952 204 210 210
-939.963207794994 428.946999749093 2523.5118027374 204 210 210
-945.160651112991 427.879440544127 2514.79090892482 207 213 213
-945.373145250146 427.843395072534 2506.44719907311 200 206 206
-953.559628155771 426.156028740177 2497.56326797558 198 204 202
-961.74524302438 424.468290178203 2488.72218788848 200 206 204
-967.936417870647 423.19300420728 2480.04794432625 202 208 206
-978.112916310634 421.092022465563 2471.16885247662 206 212 210
-994.26672739202 417.753127883141 2462.00479649133 208 214 212
-1005.43661313772 415.445348148717 2453.19613033555 205 209 210
-1006.64131960114 415.200239813548 2444.95701181273 205 209 210
-1008.84232926996 414.748337437834 2436.67435976599 204 208 209
-1019.01258774351 412.645955981247 2428.03764451491 200 204 205
-1031.17357836781 410.130851809793 2419.36939437956 198 202 203
-1039.34893387949 408.440382847112 2410.92635380752 196 200 201
-1043.5390108261 407.574460440665 2402.67584292127 201 205 206
-1044.74073361597 407.326605320398 2394.55038741021 186 190 191
-1045.94255776226 407.078299947544 2386.42981188113 189 193 192
-1045.1523392206 407.241872081432 2378.37243447445 188 192 191
-1047.34966436503 406.786329164175 2370.22987747181 185 189 190
-1050.54228284302 406.124144160178 2362.07409460327 184 185 187
-1053.73448051949 405.461531014077 2353.93429840991 186 187 189
-1055.93058322084 405.00451610976 2345.82861342303 188 189 191
-1056.13567493142 404.959277831623 2337.76434551772 184 185 189
-1058.33158775858 404.501169980003 2329.67423273753 195 196 198
-1059.53175302674 404.248687916204 2321.60468251496 174 175 177
-1057.74630157308 404.613721277381 2313.5619314708 184 185 187
-1057.95129565783 404.566108228049 2305.49892927461 196 198 197
-1054.17597669725 405.342016732252 2297.44261127031 196 198 197
-1058.36126208522 404.469267403425 2289.3720408708 193 195 194
-1063.54085862492 403.390077453562 2281.32684799234 205 207 206
-1064.740514141 403.13424686014 2273.28295004205 160 161 163
-1056.9864188888 404.731410335061 2265.16149610064 184 185 187
-1043.26517002865 407.563181836386 2256.92440761953 190 192 191
-1034.51909533833 409.364424611396 2248.68390930726 182 182 180
-1026.76902558686 410.958772695759 2240.41142669088 183 183 181
-1024.98705879822 411.317119646494 2232.21597872514 198 199 193
-824.303816918781 444.113080033739 2601.51813923698 204 208 211
-842.479945761426 440.412409452476 2591.15210073781 207 211 214
-865.641006362208 435.692893795645 2580.42316184646 207 210 215
-888.798884202052 430.973565270808 2569.81881720621 206 209 214
-905.969596792287 427.476529975682 2559.85841483827 209 212 219
-920.146410351115 424.590452310851 2550.24147174374 208 211 216
-922.354762238339 424.148482134682 2541.67320000975 201 205 206
-933.537174868042 421.872958683439 2532.40957414412 204 208 209
-936.741339725475 421.226668859485 2523.81026100007 206 210 211
-945.927225094893 419.357911700312 2514.78894263889 207 211 212
-946.139655892824 419.321643015227 2506.44746863398 196 200 201
-955.323683367844 417.452300137529 2497.49813432252 201 205 206
-961.516146356551 416.193536579263 2488.7912861856 202 206 207
-968.704404816957 414.730758127059 2480.05440776223 202 206 207
-978.881598626546 412.656959944611 2471.17732607201 208 212 213
-996.033276863684 409.157849869098 2461.95862442233 207 211 212
-1006.20721040201 407.083599244557 2453.20847962979 203 207 206
-1007.41193253789 406.841127575098 2444.97157962125 203 207 206
-1011.6058216894 405.987391306769 2436.59448388617 202 206 205
-1025.76169841502 403.098067957798 2427.78301500863 198 202 201
-1038.91949268791 400.412107962163 2419.09025998463 197 201 200
-1046.09860048196 398.947024172863 2410.70854600872 195 199 198
-1047.30026976172 398.70236430812 2402.58861267767 197 202 198
-1044.5178524223 399.271127105551 2394.612004465 181 186 182
-1044.72366551654 399.228877784163 2386.52275169863 187 192 188
-1044.92947779564 399.186088508347 2378.43295102951 179 184 180
-1049.11864091348 398.329048996931 2370.23701829397 182 187 183
-1052.31135877548 397.675000124778 2362.08608710593 180 184 183
-1053.51225772973 397.427304313948 2353.99300099906 182 186 185
-1050.73073322959 397.992528364448 2345.9776979006 181 185 184
-1051.93162544561 397.743754004642 2337.88371708444 181 185 184
-1055.12335097856 397.087628575802 2329.76933990669 189 193 192
-1055.32851052612 397.041051818446 2321.70098354101 167 171 170
-1054.53843352108 397.197260811974 2313.63949320834 175 179 178
-1056.73397437561 396.742976306385 2305.55869883341 188 192 191
-1055.94395033813 396.897970817455 2297.49383432696 187 191 190
-1060.12941266491 396.03615786849 2289.42809118853 197 201 200
-1063.31935237483 395.377026771705 2281.38028290639 199 203 202
-1065.51398184534 394.920701043327 2273.34224165641 157 159 158
-1058.75427982443 396.292793004758 2265.2322776531 189 191 190
-1047.02134020472 398.680016533261 2257.02417850508 186 188 187
-1039.26923549689 400.253539599393 2248.80886873206 181 183 182
-1029.52878286079 402.232551672386 2240.51481838304 182 184 181
-1028.74100511832 402.382269805241 2232.34717072944 192 194 189
-1023.97548815892 403.343897663025 2224.08247003836 166 167 162
-832.045728824129 433.863035911478 2600.8156389719 203 207 210
-851.22043577877 430.010183170083 2590.37579374971 204 208 211
-874.382614834107 425.353389750506 2579.67048808751 204 207 212
-894.549182088783 421.299550398481 2569.35766425704 205 208 213
-909.726112473936 418.250620801838 2559.58599498577 207 210 215
-922.906217033731 415.603555402699 2550.06303868467 205 208 213
-925.114516268613 415.166880920413 2541.50251089483 199 203 204
-932.308611814003 413.724995594486 2532.55993239938 201 205 206
-936.510364946037 412.885674084565 2523.88163773194 205 209 210
-943.702981599963 411.443159022514 2515.00550806417 203 207 208
-946.906285411932 410.804000624027 2506.44750473512 195 199 200
-952.103336160683 409.762654218578 2497.77009917389 199 203 204
-960.290003935347 408.118152289017 2488.92496724836 200 204 205
-969.472508369499 406.272622317337 2480.06072711459 202 206 207
-984.634020922134 403.221555405349 2470.88934526385 208 212 213
-996.803294475262 400.772967893887 2461.96879004259 206 210 211
-1004.98494058033 399.127519016527 2453.32823038945 201 205 204
-1009.17931678736 398.285059834788 2444.9348825159 201 205 204
-1013.37313963212 397.442147783341 2436.56267570021 200 204 203
-1027.53018145818 394.590863288652 2427.75583864179 197 201 200
-1037.69995111601 392.542569093975 2419.19630273907 195 199 198
-1044.87966598141 391.096409742658 2410.81118191564 193 197 196
-1045.08542041312 391.055196362742 2402.72533419837 196 201 197
-1044.2949310792 391.214099084348 2394.67352663613 176 181 177
-1045.49692934705 390.971089050759 2386.55183156049 184 189 185
-1043.71071380663 391.329546816294 2378.5225585175 178 183 179
-1049.89185027973 390.081961289503 2370.27039195675 179 184 180
-1051.09304887206 389.83742673515 2362.16898926979 178 182 181
-1049.30713775382 390.194299843326 2354.13544165855 179 183 182
-1044.53426877647 391.152546457409 2346.14512799026 180 184 183
-1050.71372088893 389.903068612437 2337.95676025333 179 183 182
-1052.91030794109 389.455644710844 2329.85176802705 187 191 190
-1052.12000594021 389.609636016074 2321.78736533975 163 167 166
-1048.34391410235 390.364743614975 2313.73891964681 172 176 175
-1053.52622529375 389.313997070221 2305.62749390199 186 190 189
-1055.72185420919 388.864610682349 2297.54851702334 190 194 193
-1059.90762777526 388.013518301487 2289.48212049532 198 202 201
-1060.11248394003 387.964141398901 2281.42261479974 180 184 183
-1060.31732922494 387.914167202352 2273.36289299885 164 166 165
-1061.51729009721 387.66305683836 2265.31212888962 183 185 184
-1052.76795156525 389.416253015779 2257.14760407915 175 177 176
-1047.99909048571 390.366650460849 2248.9922200475 175 177 176
-1033.2836300284 393.320689371938 2240.63548439663 176 178 177
-1033.4903646474 393.267391285572 2232.49835193723 182 184 181
-1030.71322184964 393.814703487473 2224.29256436742 193 194 189
-828.593307204717 425.86983885277 2609.8319459691 212 216 217
-838.791134703156 423.853507377797 2600.21013156411 201 205 206
-861.957474713303 419.259166366766 2589.40925795999 201 205 206
-882.127767928049 415.259732640572 2579.00922727342 201 205 208
-903.293002860679 411.06202993125 2568.62802826179 205 208 213
-920.465247778061 407.657376137131 2558.70692938147 205 208 213
-931.650672888225 405.442213224301 2549.38105105275 202 206 209
-928.871952331392 406.002009299458 2541.25033199447 198 202 203
-930.082909815002 405.768377801324 2532.78854967975 198 202 203
-930.296378038063 405.732493133687 2524.4069418353 204 208 209
-938.486762916116 404.110649110817 2515.44086094771 199 203 204
-944.682077772838 402.884917028841 2506.65801858459 195 199 200
-955.861374608769 400.667844513104 2497.56960405784 198 202 203
-967.039388226926 398.450630338782 2488.54051481319 199 203 204
-975.22507770687 396.82769562159 2479.75677524593 202 206 207
-987.396958033686 394.411841587927 2470.77880975423 208 212 213
-994.583520241042 392.986486460879 2462.14840906053 204 208 209
-1004.7590488168 390.96636850773 2453.39404817317 200 204 203
-1012.93996117155 389.342364854289 2444.79586746573 200 204 203
-1020.12333696323 387.916057470295 2436.28898047475 199 203 202
-1031.29164564763 385.697045634927 2427.63726347107 197 201 200
-1034.48741204853 385.062411574553 2419.38803095186 195 199 198
-1041.66787157794 383.635080011091 2410.99402190806 192 196 195
-1042.86999194325 383.395641749918 2402.86206514663 194 199 195
-1044.07197325718 383.155640317688 2394.73493830538 172 177 173
-1046.27006659482 382.717238390762 2386.58076232605 180 185 181
-1046.47576067161 382.674240507568 2378.49535742607 177 182 178
-1052.65715039745 381.442912739081 2370.25074920001 178 183 179
-1047.88294832157 382.388790223495 2362.29925662168 176 180 179
-1044.10540688079 383.135941100103 2354.29892311694 175 179 178
-1040.32841982055 383.882464232441 2346.27624847672 175 179 178
-1049.49562601144 382.055411660286 2338.02975629415 175 179 178
-1054.67901247848 381.019746858438 2329.88317387818 184 188 187
-1055.8796513913 380.7752412686 2321.80367650516 164 168 167
-1053.0986111164 381.321487287824 2313.75839584668 168 172 171
-1058.28072564367 380.284420560109 2305.66001996269 186 190 189
-1063.4623746589 379.246934458228 2297.58871239893 192 196 195
-1065.65732196254 378.80253105875 2289.54172561946 193 197 196
-1059.89067322229 379.940008231841 2281.47604984523 167 171 170
-1055.12012065148 380.878849054898 2273.3836913297 167 169 168
-1058.31044914155 380.234859292276 2265.33694577089 177 179 178
-1054.53560577116 380.974629751301 2257.22323780464 168 170 169
-1054.74084865674 380.92280914971 2249.14599386448 174 176 175
-1042.01329849716 383.440688926671 2240.84284689844 177 179 178
-1040.22980879084 383.782876063847 2232.6895686683 181 183 180
-1036.45734874626 384.519731289846 2224.47958192024 180 181 176
-840.329067536586 414.892058083549 2608.70592316995 203 207 208
-848.531070152762 413.294009622228 2599.31133067177 199 203 204
-872.696377426854 408.566648962543 2588.44201616734 200 204 205
-890.871950162167 405.012752970132 2578.25530751847 200 204 207
-910.042818055622 401.263254775003 2568.07648025835 203 206 211
-923.225716879251 398.686868131889 2558.52020385153 203 206 211
-932.416953353822 396.892490415414 2549.36960868074 198 202 205
-933.627534057339 396.661963314604 2540.91656071177 198 202 203
-934.837985679602 396.430930407455 2532.46801458952 193 197 198
-937.045748168325 396.003998734867 2523.9482505659 202 206 207
-944.239129453317 394.599335318756 2515.07355386118 190 194 195
-954.422961216983 392.607976650093 2506.02555513109 195 199 200
-961.614202837971 391.202682492445 2497.23380666617 195 199 200
-971.795478734919 389.210803887252 2488.28514179364 199 203 204
-974.996938314832 388.586597931404 2479.82459701168 204 208 209
-990.160313607658 385.617081145256 2470.66797506574 202 206 207
-996.350253064453 384.406047492872 2462.10167920663 199 203 204
-1006.52640752306 382.413191617391 2453.35212856862 198 202 201
-1015.70460160224 380.615383967066 2444.70759259226 198 202 201
-1022.88830560946 379.20807526041 2436.20827711766 197 201 200
-1032.06414132903 377.409695091543 2427.65529927843 196 200 199
-1032.2707446464 377.369035961744 2419.53686927962 193 197 196
-1038.45558846908 376.155964700611 2411.17686541498 189 193 192
-1041.650688371 375.528440281418 2402.96131576996 189 194 190
-1045.84152719495 374.705228661735 2394.7268876311 166 171 167
-1048.03963976981 374.272103289646 2386.57762535284 174 179 175
-1048.24520702764 374.22910915974 2378.49718100678 173 178 174
-1050.4426632067 373.795051321765 2370.36324695234 175 180 176
-1044.67235666289 374.922308753574 2362.4295576412 171 175 174
-1041.89054070818 375.46324266359 2354.39956471488 169 173 172
-1041.10085047827 375.613136714976 2346.31617737168 167 171 170
-1049.27301011768 374.005714672354 2338.08721194579 162 166 165
-1052.46559196869 373.373969077458 2329.96554407968 175 179 178
-1055.65751034019 372.74168302638 2321.85990220305 166 170 169
-1055.86263336385 372.694425773661 2313.7922426547 155 159 158
-1062.04055335729 371.475785480327 2305.69686642404 185 189 188
-1068.21763079389 370.256799318636 2297.63404886707 193 197 196
-1067.4266453668 370.40307693112 2289.59739926272 179 183 182
-1059.66882185387 371.914355401393 2281.52944196257 143 147 146
-1051.912338704 373.42470371263 2273.41742468608 172 176 175
-1055.10311584801 372.788817115304 2265.36184473184 168 172 171
-1052.32316423398 373.322592570312 2257.25130071561 162 164 163
-1052.52856010234 373.270701230826 2249.16800172544 177 179 178
-1042.78491443674 375.16806719598 2240.91108072807 175 177 176
-1041.99621790441 375.309804191819 2232.7800978231 175 177 174
-1038.22309455208 376.035825648966 2224.5750781851 185 187 184
-1041.41358632315 375.396623949759 2216.52709209315 187 188 182
-844.082689354936 405.521196222232 2608.38164169989 196 200 201
-850.289358924845 404.330433250634 2599.192564948 196 200 201
-870.464822301626 400.439637997402 2588.70711404392 198 202 203
-891.635210203983 396.356043206885 2578.2377146312 199 203 204
-910.807448358556 392.658156705879 2568.06074948188 201 205 208
-923.991264015431 390.116997233756 2558.50646427879 201 205 208
-929.192946534783 389.118171606047 2549.69368861344 197 201 204
-934.393708550893 388.118993987285 2540.90718667447 197 201 202
-936.601753791197 387.697688847856 2532.38241307751 191 195 196
-945.790691390123 385.926793550534 2523.33755475559 201 205 206
-950.989568336913 384.92649414126 2514.63284815187 186 190 191
-960.176540332954 383.155038665196 2505.67353571142 193 197 198
-961.385031698845 382.92506780552 2497.30274354362 195 199 200
-970.570074535047 381.152985564769 2488.41815638096 200 204 205
-974.768764780381 380.344098883243 2479.89224851095 204 208 209
-989.933280367698 377.415331547921 2470.73481352798 199 203 204
-998.11749122826 375.83510391099 2462.05471910197 197 201 202
-1008.29426738822 373.869331169264 2453.30995000456 196 200 199
-1016.47612582989 372.288649470301 2444.72130872138 196 200 199
-1022.66371860391 371.092882084382 2436.27244588374 196 200 199
-1026.85746318071 370.281977888049 2427.94699040878 194 198 197
-1031.05041634342 369.470717342981 2419.64275873019 192 196 195
-1036.23918559486 368.466479920194 2411.31954275187 188 192 191
-1040.43096116543 367.654452540781 2403.06051208597 187 192 188
-1042.62972056584 367.227066841671 2394.89213244325 165 170 166
-1047.81692137409 366.221593323963 2386.63821422318 172 177 173
-1049.01858853417 365.985906871397 2378.52799869515 168 173 169
-1050.22011608506 365.749747424854 2370.42273171378 171 176 172
-1044.44936726545 366.860527335959 2362.48863578063 167 171 170
-1044.65521861413 366.815717020558 2354.39513810014 167 171 170
-1044.86106725583 366.770367254389 2346.30116699699 166 170 169
-1047.05863464961 366.339547710792 2338.17568810514 158 162 161
-1049.25591883452 365.908203374963 2330.06071451561 168 172 171
-1053.44412561993 365.091544336139 2321.93619121725 162 166 165
-1060.61861024949 363.697343471416 2313.81127515041 146 150 149
-1066.79664710442 362.495087276192 2305.72892355072 179 183 182
-1070.98281589133 361.677290277189 2297.68283044002 191 195 194
-1065.2144600334 362.782631589859 2289.64936972664 177 181 180
-1059.44693148085 363.887242488375 2281.58279079066 136 140 139
-1052.68504375403 365.183422068682 2273.47674287762 169 173 172
-1051.89528939355 365.324900517037 2265.38682595302 162 166 165
-1049.11533521921 365.850454043926 2257.26755392918 158 162 161
-1046.33578526091 366.375269756988 2249.13169153483 176 180 179
-1042.56173511139 367.091721704093 2240.96194412694 171 175 174
-1039.78306549418 367.615222702416 2232.79026331345 172 174 171
-1037.00479956348 368.138046046937 2224.60207742046 172 174 171
-1033.23223594974 368.852301664438 2216.37187279533 191 194 187
-1040.40184421193 367.451956665375 2208.43094495958 104 107 98
-837.636796446054 398.105595498752 2617.67954475635 193 197 196
-842.846763588614 397.121309583317 2608.55858893972 187 191 190
-855.041635381888 394.805931533699 2598.78059587709 192 196 197
-875.218503623268 390.969496503144 2588.30793060638 195 199 200
-893.396594176307 387.513301417681 2578.12772062784 194 198 199
-904.58783554516 385.387698967992 2568.67068588856 200 204 205
-915.777799617482 383.261893264265 2559.27267887215 194 198 199
-926.966009201363 381.135927590553 2549.93374679024 195 199 200
-938.152702547546 379.009795401498 2540.65389573877 187 191 192
-941.358045802437 378.403791606126 2532.06110756288 183 187 188
-953.539846425636 376.08714883379 2522.80194793418 199 203 204
-954.748954028358 375.860555038237 2514.41069712767 185 189 190
-961.941674129455 374.493489525285 2505.60221151276 188 192 193
-958.164166921543 375.216053487472 2497.57414053385 193 197 198
-966.353032602552 373.658230974986 2488.74550128487 202 206 207
-972.546313977771 372.480128343051 2480.08395047015 200 204 205
-993.694175432805 368.45228339039 2470.56414732519 199 203 204
-1004.86954523029 366.323944194958 2461.72449007011 200 204 205
-1011.05918950222 365.145096185241 2453.21361431094 194 198 197
-1017.24800269115 363.965869242976 2444.73481328548 195 199 198
-1024.43264033917 362.596424070824 2436.23966284085 193 197 196
-1028.62631905391 361.796373982512 2427.91911100074 189 193 192
-1030.82641515811 361.37562463405 2419.70561394568 186 190 189
-1034.02268041293 360.764565289009 2411.46219720073 183 187 186
-1037.21853180942 360.153135972437 2403.23455822564 187 192 188
-1041.41027185465 359.351411317823 2394.98797828565 166 171 167
-1044.60521977551 358.739052160716 2386.79465187709 168 173 169
-1045.80718108552 358.505928235236 2378.67569139545 170 175 171
-1047.00900316469 358.272331215048 2370.56166456446 164 169 165
-1046.21863225888 358.417785014937 2362.50011279315 161 166 162
-1049.41246300935 357.803562594609 2354.34844864513 158 163 159
-1050.61386189998 357.568457724926 2346.24934247584 157 162 158
-1048.82766403122 357.901969735527 2338.20191872068 159 164 160
-1049.03323778626 357.855492771025 2330.11748084173 161 166 162
-1050.23448553357 357.618807625665 2322.02258509855 148 153 149
-1058.40532537861 356.053813438648 2313.88143278407 143 148 144
-1061.59711095556 355.436834454005 2305.80674131566 177 182 178
-1063.79300265902 355.009071855499 2297.75003651878 169 174 170
-1062.0065319469 355.33935859234 2289.70048858844 160 165 161
-1058.2296712969 356.04827614586 2281.6324954238 130 135 131
-1054.45335763957 356.756477893398 2273.54235531354 163 168 164
-1049.68216270806 357.653599570076 2265.42098288498 155 160 156
-1047.89749224865 357.981243207361 2257.3075616738 163 167 166
-1045.11780039673 358.4978740868 2249.16845672979 168 172 171
-1042.33851355559 359.013826959873 2241.01279457022 167 171 170
-1038.56471820943 359.718597385046 2232.82054584558 166 170 169
-1033.79638566577 360.612196136356 2224.58351873795 168 170 167
-1029.02897180924 361.505007000286 2216.31906497021 175 177 172
-1024.2620018803 362.39713263237 2208.02720043712 186 189 182
-833.405636982972 390.247822987556 2618.16887097599 180 184 183
-843.60675938315 388.339909004612 2608.53469074981 188 192 191
-857.798674196688 385.682207849905 2598.56342662698 191 195 196
-882.966646004338 380.963151524169 2587.62358713759 191 195 196
-897.153932686841 378.305332081042 2577.83307939933 192 196 197
-904.35440066069 376.959011102582 2568.74405396065 198 202 203
-912.551852532711 375.425071007166 2559.60547972277 192 196 197
-924.738740608654 373.141527879666 2550.17369987806 193 197 198
-936.9242089898 370.857759389551 2540.80648943532 188 192 193
-943.122577588452 369.697805449685 2531.97492376183 187 191 192
-957.300000009813 367.039071029685 2522.56896308901 194 198 199
-957.511555881121 367.00228503685 2514.26112880224 180 184 185
-961.712506415095 366.216053983738 2505.67120689099 191 195 196
-956.93748610276 367.114731121815 2497.71033851962 192 196 197
-964.129646523073 365.765760307534 2488.94315586245 203 207 208
-973.315234724393 364.042058276367 2480.08920088468 198 202 203
-994.464381965377 360.071342385808 2470.5711607693 198 202 203
-1009.62874668321 357.224001046985 2461.50705125234 195 199 200
-1015.81826438189 356.061425022763 2453.00926923047 197 201 200
-1019.01655796585 355.460058926676 2444.69698622037 198 202 201
-1024.20813415137 354.483880226503 2436.30351761791 196 200 199
-1028.40212284743 353.694581050728 2427.98239413576 192 196 195
-1031.59896869374 353.092009878798 2419.72539981058 189 193 192
-1031.8056012937 353.050382648354 2411.6047858749 185 189 188
-1036.99496627298 352.072721977012 2403.29614764615 186 191 187
-1040.19039937753 351.468909538093 2395.08371059778 166 171 167
-1042.38934257233 351.051708155581 2386.91908276863 166 171 167
-1041.59904429755 351.195252018974 2378.85264158248 168 173 169
-1043.79740153893 350.777129426328 2370.70060092963 163 168 164
-1045.99571931824 350.358564061463 2362.55895196529 160 165 161
-1048.19375420073 349.939443811763 2354.42776379577 157 162 158
-1050.3912729402 349.51998395691 2346.30705885334 156 161 157
-1046.61291076904 350.221948924564 2338.29028518621 158 163 159
-1046.81863472569 350.175341943546 2330.19983730639 159 164 160
-1048.02010839414 349.941267499238 2322.098914952 143 148 144
-1056.19194092462 348.397972867844 2313.95158915154 141 146 142
-1060.37971886736 347.602164580651 2305.86621444173 173 178 174
-1063.57138671064 346.99280934979 2297.80431021281 176 181 177
-1064.7714427197 346.756921631458 2289.7568479443 147 152 148
-1062.98513177577 347.081070764686 2281.7037904222 131 136 132
-1059.20794517221 347.778494555098 2273.62687074595 156 161 157
-1053.44100806469 348.848794019827 2265.50965990248 151 156 152
-1051.65568498905 349.171092784879 2257.40668149421 162 166 165
-1048.87550077216 349.679542107564 2249.27803515303 169 173 172
-1045.10066429113 350.374116388379 2241.1155297515 164 168 167
-1042.32136074641 350.881250908186 2232.95105195715 169 173 172
-1037.55238698607 351.761276007351 2224.72451147637 177 179 176
-1032.78433117259 352.640483406692 2216.47054125752 183 185 180
-1030.00651640474 353.145571047875 2208.24567912504 185 188 181
-834.165064116882 381.443466468541 2618.14254969256 163 167 166
-845.365238516012 379.377842448841 2608.41010619129 186 190 189
-863.550543057403 376.019418435146 2598.05292760412 188 192 191
-888.719990258309 371.36836102433 2587.128436633 187 191 190
-898.916010043787 369.487163550925 2577.72237039601 187 191 190
-906.116870223877 368.159674166033 2568.63823609353 193 197 196
-913.316773590289 366.831959359776 2559.59125534409 188 192 191
-927.500159042594 364.211700126602 2549.99355045729 190 194 193
-937.690813230451 362.329710423156 2540.79633972719 187 191 192
-945.884949570336 360.816729388712 2531.80985219633 194 198 199
-957.0704848522 358.74969416805 2522.63871608336 186 190 191
-958.279477286396 358.528202643296 2514.25744488724 176 180 181
-960.48594244778 358.12169272813 2505.81031222049 193 197 198
-958.702495132118 358.452915103223 2497.64360409941 190 194 195
-967.88973471367 356.753861390219 2488.75157292716 199 203 204
-977.075731237851 355.054568433494 2479.90786786169 188 192 193
-994.237620846972 351.878973342224 2470.63743589466 197 201 202
-1006.41184856693 349.625866217692 2461.74247124366 190 194 195
-1012.60227346082 348.479370718397 2453.2358237077 192 196 195
-1014.80389664741 348.070431828944 2444.96599935595 192 196 195
-1021.98974736935 346.738865826825 2436.46410951582 188 192 191
-1030.1715997116 345.222493027664 2427.95408135091 184 188 187
-1036.35877503004 344.074731981582 2419.57307963399 180 184 183
-1033.57504478222 344.586316053912 2411.58639031878 177 181 180
-1037.76789142731 343.806503839135 2403.32008851271 181 186 182
-1039.9670336484 343.395134472264 2395.14461922759 164 169 165
-1040.17312690143 343.352030316995 2387.04349903057 160 165 161
-1037.39026825446 343.861368570942 2379.0296579356 162 167 163
-1040.58531367691 343.264231429921 2370.83954026766 159 164 160
-1045.77277078802 342.297972144814 2362.6177100665 154 159 155
-1043.98605913009 342.621420837626 2354.57023696819 151 156 152
-1043.19590139384 342.760035733152 2346.49301070349 152 157 153
-1041.40967336988 343.082365354525 2338.42543394143 153 158 154
-1043.60779304664 342.667093758852 2330.29506410625 149 154 150
-1042.81790308466 342.804046860443 2322.20558798925 124 129 125
-1048.00294308539 341.835103156952 2314.06601972494 148 153 149
-1054.18321089118 340.681618687108 2305.94884215986 162 167 163
-1061.35825477675 339.343536791167 2297.86232465722 178 183 179
-1068.53231838994 338.005235719236 2289.81388426061 114 119 115
-1065.74987185593 338.508135382574 2281.76769831293 138 143 139
-1060.97701086047 339.378658895931 2273.6922071639 145 151 147
-1056.20460047568 340.248555417269 2265.58910658519 156 162 158
-1056.40971236265 340.197159815055 2257.51743885597 169 173 172
-1053.62920441218 340.697439570284 2249.40199808053 160 164 163
-1047.86322788918 341.749330672967 2241.21815399666 157 161 160
-1047.07362940859 341.880207404275 2233.10143665047 165 169 168
-1042.30418209802 342.746641087958 2224.888135526 163 168 164
-1038.53033882687 343.42825691913 2216.67289825664 173 175 172
-1028.787436143 345.213249478402 2208.26628105076 174 176 171
-1029.98925816317 344.973530530901 2200.14568327172 140 143 136
-831.929793990962 373.189030651209 2618.42534846151 166 170 169
-846.125549920527 370.607341331786 2608.38557587254 182 186 185
-863.314014156752 367.479678777138 2598.12798168485 187 191 190
-887.487051320495 363.078537525865 2587.29750080303 185 189 188
-900.678118576147 360.678532885133 2577.61135918541 185 189 188
-909.875459544463 359.00613921058 2568.35315632132 191 195 194
-918.073709542778 357.51538040382 2559.22975328509 188 192 191
-929.26421475137 355.478742114744 2549.89701310286 190 194 193
-938.4577752887 353.805734384174 2540.78590325176 184 188 189
-946.652210922983 352.31431367157 2531.80154328387 195 199 200
-954.845784016292 350.822609294721 2522.85991461663 187 191 192
-958.050010118658 350.23998337685 2514.32656520758 180 184 185
-958.261519486192 350.202369497954 2506.01965952914 190 194 195
-957.475672645476 350.346078691528 2497.77941839795 196 200 201
-965.666369497539 348.853129413802 2488.94886652377 193 197 198
-976.84764582324 346.814596734916 2479.97478900568 185 189 190
-993.013669591987 343.867012881892 2470.76290300303 194 198 199
-1003.19446281407 342.009915515418 2461.97782044994 188 192 193
-1011.37959630294 340.516169774704 2453.35452411299 192 196 195
-1015.57558440237 339.748995491935 2444.97901302697 192 196 195
-1020.7681408477 338.799744448004 2436.57614531884 187 191 190
-1027.95362762886 337.486791213966 2428.10846450236 183 187 186
-1038.12860342578 335.628481735358 2419.54944560466 179 183 182
-1038.33476574404 335.586649602516 2411.44699189868 176 180 179
-1041.53097498862 334.99940272201 2403.23133221814 178 183 179
-1037.75056963993 335.683245717359 2395.27495502866 163 168 164
-1034.96718686267 336.184864149538 2387.26398502306 158 163 159
-1033.18061463922 336.504254444626 2379.2067047474 158 163 159
-1037.37297251277 335.733452038749 2370.9785046538 156 161 157
-1043.55703990145 334.59906552858 2362.72400735639 153 158 154
-1037.78559384409 335.643226727151 2354.75495663576 149 154 150
-1035.99943798753 335.960525544898 2346.67915763212 150 155 151
-1035.20983942822 336.095630504852 2338.57630809689 151 156 152
-1039.40048698111 335.322555703546 2330.40318854773 145 150 146
-1042.59466767528 334.730567204557 2322.26172045987 116 121 117
-1043.79651795563 334.501164009858 2314.151094436 146 151 147
-1049.97752787289 333.363897178785 2306.0223258352 148 153 149
-1054.16606516725 332.589193493058 2297.92993352949 162 167 163
-1061.34115502487 331.269765282358 2289.86164817044 109 114 110
-1061.54589209799 331.220119990112 2281.80650881306 144 149 145
-1060.75512915093 331.351183562153 2273.74482825376 143 149 145
-1061.95533372751 331.119007481498 2265.69554472291 162 168 164
-1059.17375917408 331.611801865194 2257.60442848246 169 175 173
-1055.39731292513 332.285287882892 2249.48219543471 153 157 156
-1049.63075825534 333.320827666169 2241.30339054308 160 164 163
-1049.83633606681 333.267687507264 2233.21163969962 163 167 166
-1046.06138397591 333.939155223243 2225.02884268274 162 166 165
-1038.30673967254 335.335127835307 2216.7221490979 172 177 173
-1026.57299862257 337.455359920205 2208.25869777132 175 180 174
-1021.80540944579 338.305787126852 2199.94626303109 176 179 172
-828.695607709541 365.10169169597 2618.811180123 157 161 160
-837.901001809443 363.453862525519 2609.26460845155 170 174 173
-859.084382545546 359.655410271105 2598.59356818076 183 187 186
-884.257890233912 355.14020530378 2587.65624718426 180 185 181
-902.440738011255 351.879516162709 2577.50002762576 180 185 181
-912.636621797657 350.052221992807 2568.15715391961 188 193 189
-919.837102231928 348.762225574725 2559.12811845944 188 193 189
-929.032583413543 347.113734457514 2549.9682672274 192 196 195
-937.228796689716 345.644137562839 2540.93786359124 182 186 187
-943.428468606568 344.532572110548 2532.1073155587 198 202 203
-948.629667199505 343.599806243395 2523.38438329723 185 189 190
-954.827764438723 342.48766970079 2514.61476592879 183 187 188
-956.036999334559 342.270705083112 2506.228879136 192 196 197
-957.246108374988 342.053323828857 2497.84746385625 200 204 205
-965.437414037632 340.581969373772 2489.01630441292 177 181 182
-978.614374258904 338.215159770692 2479.91715684317 187 191 192
-994.781235795477 335.311109902196 2470.7099466232 190 194 195
-998.979426772463 334.555289806247 2462.26985549054 186 190 191
-1007.16544875077 333.083094439228 2453.63497303998 191 195 194
-1016.34762763843 331.431602694858 2444.9917996953 190 194 193
-1025.52855937299 329.77990280669 2436.39714592507 184 188 187
-1031.71711017009 328.664939229023 2427.98827634459 179 183 182
-1037.90506624311 327.549590677105 2419.61156207385 175 179 178
-1039.10798491464 327.328755856032 2411.46837968135 173 177 176
-1040.31100429899 327.107350915617 2403.32997372091 173 178 174
-1033.54031567351 328.316865295601 2395.47484099798 164 169 165
-1032.75006867751 328.452326080286 2387.38839188421 156 161 157
-1030.96373163207 328.76603884791 2379.32514873339 151 156 152
-1037.14933703015 327.648285150572 2371.03772452269 148 153 149
-1040.34464415042 327.066773319517 2362.85415605182 148 153 149
-1035.56922354347 327.915561159407 2354.85536529447 143 148 144
-1033.78306505887 328.227218886189 2346.77361203519 148 153 149
-1031.99741977244 328.538226687812 2338.68042816185 148 153 149
-1038.18092785063 327.418360509024 2330.47270625823 141 146 142
-1037.39101828771 327.549590145021 2322.36852600871 110 115 111
-1038.59354267656 327.322795233964 2314.2436788516 142 147 143
