ply
format ascii 1.0
comment KinectMotionCapture
element vertex 752
property float x
property float y
property float z
property uchar red
property uchar green
property uchar blue
end_header
-215.900042267975 432.094664385487 1883.65047536675 156 157 159
-221.130126430217 431.170803624877 1873.80815660929 155 157 156
-237.284865010913 428.410122576886 1865.23801668703 154 156 155
-248.471451629887 426.484362387961 1856.17748092627 154 156 155
-259.656468614706 424.558599946973 1847.17828948768 152 154 153
-261.902936369805 424.134688059936 1837.14903198476 153 155 154
-266.134836152375 423.37670901803 1827.37984105801 150 152 149
-274.337836022085 421.951066728776 1818.14071369459 146 148 145
-282.539447369154 420.525377105699 1808.94647899447 138 140 137
-292.725472818971 418.76594821205 1800.06177174008 139 143 144
-291.990774918383 418.840852586415 1789.74857552328 140 144 145
-291.256173083842 418.915371270968 1779.43121058853 140 144 145
-292.50657924151 418.655815652806 1769.3904773221 137 141 142
-296.734209455706 417.895852300944 1759.78602531882 139 143 144
-303.938442581897 416.63570660078 1750.64237306019 134 138 139
-304.19541636986 416.541784769594 1740.49810119138 118 122 123
-315.367307832499 414.614832095013 1732.01994743601 136 140 141
-316.615540686837 414.353814424372 1722.06258455315 139 143 144
-316.871542448593 414.25895099324 1711.9552918183 109 113 114
-313.159360956526 414.829890787253 1701.2112632092 138 142 143
-311.431499626035 415.067299512934 1690.77133235562 145 146 148
-313.67168322848 414.638098436458 1680.98200218369 152 153 155
-301.033837935307 416.70554084234 1668.68923332591 157 161 160
-289.389441465234 418.605544509408 1656.49742199653 156 160 159
-277.746653995175 420.504519624391 1644.24162099271 186 192 188
-38.8931358407172 451.539641409237 2017.26703147087 152 153 148
-43.1465933052242 450.797109823291 2006.67187794256 147 151 150
-64.3020533514447 447.257000486367 1997.36946368297 152 158 156
-106.332968081812 440.262367578018 1989.80943489753 156 162 160
-123.504575413488 437.381189617544 1980.47532310887 154 158 157
-130.733157286302 436.144931227025 1970.4056858369 153 157 156
-135.972883863515 435.237229324505 1960.20385823643 152 156 155
-147.175233001331 433.342623924491 1950.56072024782 147 151 150
-162.35162581514 430.79031501982 1941.34329417763 154 156 155
-173.550564755045 428.8955971877 1931.83331781598 150 152 151
-182.760647018499 427.329496230249 1922.19126993286 150 152 151
-186.007517230037 426.749318483 1912.00319445535 157 159 158
-197.202444935633 424.854048041275 1902.64939767655 158 159 161
-210.382918907992 422.630258667226 1893.56648464896 157 158 160
-220.581206846519 420.899255208109 1884.23303789857 155 156 158
-228.791238714974 419.49683189853 1874.73468162788 153 155 154
-241.966728069122 417.272989133568 1865.84652742059 154 156 155
-249.180944610777 416.034433259988 1856.33587019419 155 157 156
-256.394383564385 414.795661133851 1846.86469639529 150 152 151
-260.627275818638 414.049241620436 1837.06912796847 150 152 151
-265.852517145184 413.138316991333 1827.42064903992 148 150 147
-277.035021919199 411.242509533093 1818.56113164402 146 148 145
-281.26555906705 410.495276558842 1808.85673550229 131 133 130
-286.488242880801 409.583772412393 1799.30759079241 140 144 143
-286.746582484102 409.492187819511 1789.11244767523 139 143 144
-291.968367195873 408.579959599528 1779.60699031924 140 144 145
-291.233733134427 408.651545930389 1769.28773638804 133 137 138
-292.484121044225 408.394696027544 1759.25062150031 136 140 141
-296.711751178457 407.645656163929 1749.65790142268 121 125 126
-299.946451842576 407.060255610581 1739.93984616895 107 111 112
-310.126970875284 405.327440663492 1731.29892477656 140 144 145
-311.375647259953 405.069425903014 1721.32745148553 119 123 124
-313.616494406049 404.647190439192 1711.51966686743 115 119 120
-311.888341718913 404.879875208366 1701.08605102021 134 138 139
-311.152631327454 404.948206965002 1690.80536928335 147 148 150
-314.384902514919 404.361232502655 1681.1805764512 143 147 146
-309.68125318984 405.083841936324 1670.23190992609 150 154 153
-304.978481117441 405.80573453269 1659.25751243086 154 158 157
-291.35029578118 408.000115440142 1646.69879811682 176 182 178
-29.643082425419 442.142260788449 2016.69954829343 146 148 143
-39.8640365859762 440.4397338893 2006.51080300286 149 153 152
-59.0327619013857 437.280793363294 1997.04981045706 154 160 158
-104.049826132814 429.915541595583 1989.70725815202 155 161 159
-126.194034046637 426.272141876283 1980.76773339954 153 157 156
-133.422956414257 425.055299027355 1970.70563532426 152 156 155
-135.680643442695 424.646706060494 1960.25433803019 152 156 155
-144.895748225673 423.105739501403 1950.43365527801 149 153 152
-156.09775856547 421.241230688395 1940.84539887505 158 160 159
-169.285780377032 419.053363903865 1931.50606105419 149 151 150
-177.50288455109 417.673665555455 1921.75569489384 151 153 152
-186.712725038132 416.132116737849 1912.14945866728 158 160 159
-198.902254364838 414.10564911537 1902.89980225925 155 156 158
-210.096329344867 412.240795275217 1893.61199195381 157 158 160
-221.288836071594 410.375878796328 1884.3854071635 155 156 158
-228.506045306045 409.156992678546 1874.77890500422 152 154 153
-240.689233911482 407.130472584085 1865.7770096085 153 155 154
-248.89730208727 405.749818808802 1856.37877569916 156 158 157
-260.084187625154 403.884715181691 1847.38101028458 149 151 150
-263.324027278776 403.310970616775 1837.47462082133 148 150 149
-265.570142967054 402.898259119332 1827.46182463687 147 149 146
-271.788239816672 401.839676798582 1817.96805561036 146 148 145
-278.998347034096 400.619560449281 1808.63780395143 129 131 128
-287.200494768709 399.237958928574 1799.47926856493 137 141 140
-288.451532687277 398.98537738454 1789.42133211769 136 140 139
-291.687985426446 398.409893674469 1779.64544764404 138 142 141
-290.953295983563 398.479033968426 1769.32573184518 131 135 134
-289.225920811926 398.708930921731 1758.8587346568 136 140 139
-292.461607714943 398.132270660906 1749.11151842339 117 121 120
-298.67427666546 397.071772334606 1739.82783323789 105 109 108
-309.847973620687 395.205501532958 1731.33494531094 134 138 137
-311.096746129298 394.950552162586 1721.36300654307 106 110 109
-310.360941680969 395.017438493132 1711.08444888732 119 123 122
-304.664127431519 395.889315340353 1700.00421811841 140 144 143
-303.928850772856 395.955190882056 1689.70394730697 144 145 147
-313.114246935097 394.410396743845 1681.04959539812 140 144 143
-319.322361863814 393.348710065777 1671.94262119995 150 154 153
-319.578025873565 393.252796191905 1661.84740109897 154 158 157
-306.9395516863 395.248803301567 1649.50250988157 171 177 173
-292.319166855848 397.565639303582 1636.73638517647 175 181 177
-26.3590407054135 431.739425650313 2016.54770173538 144 146 141
-38.5700554624835 429.74607031969 2006.49387370784 144 148 147
-56.7457110102878 426.798164620255 1996.95459416493 146 152 150
-104.749649106198 419.078840191197 1989.83762331797 157 163 161
-121.923934215516 416.290999180246 1980.49907273054 150 154 153
-133.130488155981 414.457274019956 1970.75696500076 152 156 155
-135.388347585711 414.05439698369 1960.30506699303 150 154 153
-140.627901056466 413.174112988761 1950.1301194419 150 154 153
-151.831040080312 411.339793364946 1940.53016498261 160 162 161
-166.014206461966 409.028690558117 1931.27297049597 150 152 151
-182.183215404219 406.399793365975 1922.2865947636 156 158 157
-189.405720051791 405.200984278146 1912.49468668373 151 153 152
-198.614761183397 403.684196062838 1902.94627806451 146 147 149
-208.816096862595 402.008378981349 1893.55296993271 158 159 161
-221.003041922492 400.015012786098 1884.43053259892 154 155 157
-231.20138293554 398.339182712795 1875.15425244477 148 150 149
-239.411535347721 396.980778157896 1865.70777364452 150 152 151
-248.61360906583 395.463597287273 1856.42192928993 153 155 154
-256.821385619888 394.104924967679 1847.06801975045 149 151 150
-262.048022051261 393.22225800845 1837.39535620195 145 147 146
-266.281057644826 392.497974237439 1827.62727802181 146 148 145
-269.520225580227 391.932060931805 1817.75555023667 147 149 146
-278.716946697775 390.414144390001 1808.6781141474 124 126 123
-281.954773095368 389.847627935121 1798.85817069191 129 133 132
-285.192142387765 389.280873060357 1789.05583649407 130 134 133
-284.457793014438 389.348002208545 1778.72067018546 127 131 130
-290.672804484799 388.304885951568 1769.3640947368 127 131 130
-289.937917608397 388.371261047913 1759.03980147935 128 132 131
-293.173784034836 387.803195735932 1749.29479744284 110 114 113
-296.409189572417 387.234893011386 1739.56755162414 105 109 108
-304.60664339507 385.874107353668 1730.61482104818 114 118 117
-306.84819775104 385.463750574626 1720.78282584694 100 104 103
-307.104888521157 385.369904090845 1710.64969619821 117 121 120
-302.400287435375 386.067285688622 1699.72046485951 139 143 142
-302.657221955354 385.972383997379 1689.57667562127 130 131 133
-310.851091593178 384.610935172611 1680.7539905588 146 150 149
-320.036035088583 383.091199462147 1672.14423624782 140 144 143
-317.315638213881 383.470415727991 1661.540132956 143 147 146
-305.668199974807 385.273068045523 1649.36267611506 160 166 162
-292.038800444181 387.391217908782 1636.76956569884 177 183 179
-27.0529889966649 420.692784259306 2016.67292765322 146 148 143
-35.2866364836517 419.357774057192 2006.33329899236 142 146 145
-67.3868039715009 414.270559393441 1997.83039556649 144 150 148
-105.449336283442 408.24601929404 1989.96813766904 152 158 156
-119.641752878131 405.973686904078 1980.39104150017 147 151 150
-132.837972180947 403.857701220836 1970.80849771392 151 155 154
-134.10161749336 403.616767992088 1960.27032770459 149 153 152
-139.341873455891 402.750218257997 1950.09199592107 149 153 152
-147.563429048325 401.414859264173 1940.21526109408 159 161 160
-165.724183946595 398.517342140978 1931.32177871428 150 152 151
-179.906443682109 396.244802872083 1922.14142565657 157 159 158
-188.123672940285 394.909122069571 1912.44275821447 148 150 149
-195.345782925215 393.729414081248 1902.68678420738 149 150 152
-209.522989870314 391.456809561296 1893.70384164139 156 157 159
-222.704618019508 389.340327067788 1884.69103724865 152 153 155
-232.903595681213 387.692176339335 1875.41959460823 148 150 149
-240.12054222127 386.512012425977 1865.86493637675 151 153 152
-250.31686870694 384.863727249341 1856.69696651981 154 156 155
-257.531578693907 383.683288493849 1847.22942542664 150 152 151
-261.765296419934 382.970499960119 1837.43770505909 146 148 147
-265.005241045717 382.413412744311 1827.54509829871 147 149 146
-268.244726097188 381.855997737393 1817.67010133761 148 150 147
-278.435490433782 380.207062686881 1808.71882175043 126 128 125
-279.687631067039 379.960876557524 1798.63397908509 125 129 128
-281.932245958558 379.558407738961 1788.69083703676 127 131 130
-279.212152288237 379.934692378332 1778.07173571263 125 129 128
-290.392267558945 378.129369590561 1769.40276385391 125 129 128
-289.657325367413 378.193328641874 1759.07803834029 125 129 128
-291.90081412571 377.789505972888 1749.18678060732 109 113 112
-291.166083913998 377.852535177647 1738.86209657864 113 117 116
-293.408894549642 377.4480559128 1728.98731243782 110 114 113
-294.659203076329 377.19890644702 1718.97089304155 97 101 100
-297.893782244384 376.638239213417 1709.27481822053 143 147 146
-299.143580589372 376.388475334408 1699.27767878284 126 130 129
-299.400747664 376.293961873369 1689.12521735499 136 137 139
-303.626657880711 375.576949920635 1679.63410671619 134 135 137
-304.875516234759 375.32623904826 1669.66336378396 145 149 148
-301.163956101831 375.852869408083 1658.84747424943 146 150 149
-295.468800229358 376.689883823429 1647.66499576895 146 152 148
-284.814877909989 378.303499555644 1635.57200877278 174 180 176
-22.7735907036819 410.417983089558 2016.45237523311 145 147 144
-34.9866684413023 408.490579641346 2006.38873283102 141 145 144
-64.1055230802139 403.951706132113 1997.66081952935 142 148 146
-104.160257064768 397.724085616783 1989.94401528485 147 153 151
-121.337145148382 395.029481432035 1980.6038419679 143 147 146
-130.556577017862 393.563437024271 1970.69448732122 151 155 154
-130.826233440318 393.478892762823 1960.06460307351 149 153 152
-133.084397932611 393.086767948607 1949.61232707195 150 154 153
-150.254469915045 390.39199777534 1940.5383723757 159 161 160
-169.410411015825 387.390589689486 1931.74617742613 151 153 152
-183.593466924222 385.156580752986 1922.5760780775 158 160 159
-187.835298959321 384.45675362439 1912.49046414874 144 146 145
-192.076300741229 383.756640506183 1902.42766752897 152 153 155
-208.242506599181 381.215757272423 1893.64534865146 154 155 157
-223.412542169147 378.828425805671 1884.8442009719 150 151 153
-235.599660556732 376.901241351196 1875.79537503595 148 150 149
-242.816946967475 375.740553164636 1866.24834501617 153 155 154
-253.013838145936 374.119936480026 1857.08801330454 154 156 155
-258.24186961583 373.265497198798 1847.39113552461 151 153 152
-264.462722490579 372.257557451864 1837.84402758399 146 148 147
-267.702708914522 371.709101851284 1827.95905517038 146 148 145
-271.935413124603 371.007086477955 1818.21851390691 147 149 146
-281.133562457035 369.539022513626 1809.1481108788 127 129 126
-282.385353751478 369.296023504518 1799.0710188805 124 128 127
-284.630172215631 368.899439239719 1789.13556367725 126 130 129
-278.930711744066 369.727186356803 1778.11137333015 125 129 128
-285.14701848429 368.71751598684 1768.74008586575 125 129 128
-283.419603243702 368.932028721515 1758.25813632171 126 130 129
-284.670981434003 368.686885842859 1748.20421273058 112 116 115
-282.943818532555 368.900461121459 1737.71139433062 102 106 105
-283.20223694546 368.807535128135 1727.5117307686 101 105 104
-286.43831427499 368.255408744368 1717.77559790221 103 107 106
-290.666352564782 367.550224171684 1708.21401412515 132 136 135
-299.856016722106 366.080337907091 1699.47328448882 132 136 135
-300.113137117199 365.986287016341 1689.32314413129 140 141 143
-301.36241880767 365.739034573192 1679.33956914007 137 141 140
-296.658415993889 366.408378045572 1668.35685007944 142 146 145
-294.931276957388 366.618705941986 1657.85961216576 142 146 145
-295.188611909739 366.523067444233 1647.69938151718 140 146 142
-280.565901769421 368.71808051421 1634.90265868325 170 176 172
-256.025585147879 372.438953393108 1620.23978667371 174 179 173
-8.54566142997015 401.628806193014 2015.54043317524 142 147 143
-26.7287558977833 398.828697578715 2005.86910799563 139 145 143
-59.82916234893 393.765674707966 1997.41686279139 140 146 144
-100.88171850385 387.496601500105 1989.76536462746 143 149 147
-123.032549391046 384.094518841456 1980.81677401829 143 147 146
-134.241755054065 382.351703660521 1971.07796470746 155 159 158
-129.539178878282 383.021330666088 1960.03046733954 150 154 153
-137.763437971435 381.730263075076 1950.10495182437 153 157 156
-154.934468916287 379.082412571413 1941.04389628239 159 161 160
-174.091514345229 376.133227150048 1932.26461303775 155 157 156
-183.304719295387 374.691377678395 1922.62460662837 157 159 158
-188.540825134893 373.852041111569 1912.63769543257 142 144 143
-195.763964471475 372.711191500638 1902.88321392995 152 153 155
-211.931120476803 370.214439397509 1894.1111446107 154 155 157
-226.108289302348 368.019119551943 1885.21267422004 152 153 155
-238.29612375549 366.125055032759 1876.17142359726 154 156 155
-244.520145076454 365.134427517665 1866.51907034367 153 155 154
-255.711209067712 363.390953558301 1857.4792682777 151 153 152
-260.939429858564 362.550568351014 1847.79008136106 150 152 151
-267.160551690081 361.559482372016 1838.25055793622 145 147 146
-265.433697856458 361.771861880275 1827.75370095715 143 145 142
-269.666866034975 361.081066585648 1818.00707345636 146 148 145
-278.865853393127 359.637927496649 1808.93067989146 131 133 130
-283.09747529094 358.946733608786 1799.24405841848 117 122 118
-283.3560584915 358.856764696759 1789.04112947023 122 127 123
-278.649218564378 359.518133853067 1778.15140763254 123 128 124
-277.915145072022 359.577507115589 1767.79713126722 121 126 122
-277.181162906401 359.636405921467 1757.43877610168 124 129 125
-274.461488308865 359.995383534134 1746.78471300901 115 120 116
-278.691585184988 359.3021048599 1737.15545618362 109 114 110
-278.950301855632 359.209489585698 1726.94446930221 93 98 94
-285.164836119616 358.215265852133 1717.65904175799 141 146 142
-289.393264284392 357.521351093461 1708.09432097425 140 145 141
-298.583699250884 356.076467618206 1699.35031151498 124 128 127
-301.818221954624 355.532497577415 1689.68369646286 135 136 138
-303.067463065733 355.288466956781 1679.70516679859 129 133 132
-300.347400936049 355.644426750974 1669.0630095037 127 131 130
-302.58893111775 355.24961820628 1659.25797840145 135 139 138
-302.845738374106 355.154690377186 1649.11913500166 138 144 140
-290.205390441797 357.009371317785 1636.69573107576 149 155 151
-249.790250464559 363.062261446058 1619.20267614296 172 177 171
-8.2436052375483 390.686843795365 2015.59719905205 139 144 140
-33.3916097701246 386.89902033414 2006.42831118375 135 141 139
-65.4993862788808 382.074670870959 1997.91959005719 137 143 141
-97.6026798670952 377.251154774504 1989.58697180012 141 147 145
-123.733930867176 373.317001435168 1980.94977471697 143 147 146
-135.938121065039 371.456367678057 1971.29585552041 155 159 158
-134.218650975421 371.668461956915 1960.51010998952 147 151 150
-142.442948859753 370.399624231605 1950.59762231019 153 157 156
-155.637752426305 368.390579279543 1941.1852351224 159 161 160
-180.76165586275 364.605717985362 1932.97080691678 157 159 158
-185.004352494364 363.928681117227 1922.8665471993 152 154 153
-189.246454030295 363.251322528104 1912.78520044342 144 146 145
-189.511891577541 363.165290622656 1902.31860713632 152 153 155
-204.686802673404 360.860294561977 1893.42463722097 155 156 158
-224.828922953304 357.816122079078 1885.15138837616 154 155 157
-240.992990215718 355.363796126473 1876.54773920886 154 156 155
-247.217039773592 354.389939553449 1866.90296491674 153 155 154
-255.427913955889 353.12032108328 1857.52360849973 151 153 152
-263.637397279041 351.850625891808 1848.18920451062 150 152 151
-269.858779411741 350.876245937485 1838.65744525648 146 148 147
-266.144547569918 351.379069800639 1827.92041377825 144 146 143
-267.397732389368 351.142722024276 1817.79599957668 147 149 146
-275.604293853771 349.872151055619 1808.58417639557 136 138 135
-280.829640546254 349.044504815428 1799.02099732133 117 122 118
-282.081509650463 348.807246919872 1788.94702861342 122 127 123
-280.354026552419 349.012411613173 1778.46701875515 123 128 124
-276.640560344662 349.512210747436 1767.69681592437 120 125 121
-271.934449995765 350.159041116493 1756.76296901225 124 129 125
-270.208002017918 350.362519783684 1746.24069274587 117 122 118
-274.438698450152 349.680485109903 1736.60007613234 102 107 103
-279.661500896331 348.850725334694 1727.13406566631 81 86 82
-286.869083170129 347.725931237867 1718.00484724443 137 142 138
-287.12717026694 347.633153469365 1707.81829181553 127 132 128
-290.362955151609 347.097730219377 1698.11152324599 118 123 119
-294.590946084198 346.414732157937 1688.58493730775 133 134 136
-303.78015376995 344.994786365203 1679.90634560592 126 130 129
-304.036942357441 344.901003868227 1669.76946161947 133 137 136
-307.270593565658 344.364918273121 1660.145373342 141 145 144
-303.55821111629 344.859687375171 1649.32741261785 123 129 125
-295.877744137536 345.94298890276 1637.78589009301 135 141 137
-260.419693093892 351.148328521611 1621.20205171659 171 176 170
0.296807030804924 380.990063117724 2026.09049543962 147 152 146
-13.9111756110042 378.870476397716 2016.06903076184 114 119 115
-33.0914096230441 376.023935187157 2006.48434401999 131 135 134
-69.1807736951469 370.705709590109 1998.27307398564 135 141 139
-96.312454578392 366.696878986206 1989.56359054672 142 148 146
-120.456577401073 363.124673070616 1980.76255398786 146 150 149
-136.640457386267 360.715687837252 1971.43109090555 156 160 159
-136.909686578664 360.631917526146 1960.81873529682 144 148 147
-142.151020514691 359.821141732089 1950.6488335478 152 156 155
-151.369342581377 358.428942994955 1940.87146842082 156 158 157
-175.500954435631 354.857940314228 1932.55137100116 157 158 160
-187.698410675802 353.030126041457 1923.20520202178 141 143 142
-194.923171300176 351.928397351016 1913.4293600072 147 148 150
-196.1822455896 351.697593887479 1903.08071797292 154 155 157
-204.399600301334 350.450167707068 1893.47190838728 156 157 159
-224.543251327475 347.461015287917 1885.19790898354 152 153 155
-239.714483635501 345.197844723528 1876.48330304929 152 154 153
-245.939316541835 344.240731846977 1866.83521566562 155 157 156
-252.163272091373 343.283372395379 1857.22115367159 156 158 157
-256.398880804988 342.615934980547 1847.40422149707 148 150 149
-261.627677387099 341.803212175277 1837.7315572084 143 145 144
-260.894153991611 341.860251426342 1827.34395028184 142 144 141
-264.134835684112 341.336878745209 1817.45873647148 146 148 145
-270.355312434648 340.378344782182 1807.97937689377 139 141 138
-271.608088360854 340.144386588708 1797.87350940674 116 121 117
-273.854114765412 339.765036307696 1787.90934823244 122 127 123
-274.113321419641 339.675201509807 1777.68219655646 123 128 124
-272.386117516747 339.874683227592 1767.17584805487 119 124 120
-268.673157244964 340.363244143194 1756.37380475992 122 127 123
-264.960703745899 340.851219998609 1745.55132683902 119 124 120
-268.19921471364 340.325154187999 1735.74806079711 76 81 77
-274.415853299466 339.364551072608 1726.41648829595 94 99 95
-283.609760240717 337.96970256694 1717.58118094404 127 132 128
-286.846254532908 337.443153328914 1707.85621450162 106 111 107
-286.111742207423 337.495141040151 1697.51115921902 131 136 132
-292.325348052627 336.534084926585 1688.2976303328 124 126 125
-299.530516199166 335.428359387247 1679.28323871562 137 141 140
-304.749922944914 334.611834423462 1669.97347929524 125 129 128
-309.968354675337 333.795302086062 1660.69249414595 126 130 129
-304.270786153101 334.568828463337 1649.5361418105 128 132 131
-299.566395860762 335.197162044818 1638.5245334918 127 132 128
-282.956576682379 337.559058668406 1625.34445380195 167 172 166
-7.63933855825893 368.797858458455 2015.71132754728 130 132 129
-21.8468383239649 366.716722456736 2005.75002076034 132 137 133
-55.9498594403922 361.782265361411 1997.35832706985 139 144 140
-85.0742082500973 357.561887563695 1988.7669834943 146 151 147
-114.19448996361 353.34223242843 1980.33537206649 146 150 149
-122.422541625527 352.117949799063 1970.32401358579 152 156 155
-132.638734400624 350.608301330871 1960.52845773758 147 151 150
-138.875437509982 349.668794859508 1950.435346101 156 160 161
-151.078065485999 347.873784572011 1940.92227016177 160 164 165
-172.228317934796 344.796157991383 1932.31996521419 151 155 158
-183.432662037726 343.143885422289 1922.86838019629 138 142 143
-190.658248288557 342.061473127113 1913.08101029718 152 156 157
-194.900263303418 341.406284601524 1903.02684959116 151 155 156
-207.094705028816 339.611263031609 1893.8337085707 152 156 155
-225.251500760429 336.961991540757 1885.35218639173 148 152 151
-238.436015147712 335.024917834304 1876.419213154 150 154 153
-246.649050380399 333.799741453221 1866.99378910567 150 154 153
-252.873411032196 332.85916951423 1857.38191945012 147 151 150
-256.11558197581 332.345333504717 1847.44874029074 148 152 151
-260.350914335898 331.688863120492 1837.65438452217 146 150 149
-261.604989228287 331.458967370093 1827.51143566358 141 145 144
-265.839333019308 330.801949913922 1817.75512919502 142 146 145
-272.060146898816 329.860281578974 1808.28070246166 137 141 140
-269.339258900609 330.198185442382 1797.65143590181 124 129 125
-268.605532511514 330.251194305495 1787.27675993667 119 124 120
-265.885245573383 330.588007854343 1776.62283117104 124 129 125
-266.144978648004 330.497912870266 1766.37482579464 122 127 123
-262.431920306148 330.975909668006 1755.55594769346 119 124 120
-260.705837098462 331.169027965581 1745.00829077859 115 120 116
-261.958775468447 330.935596705918 1734.8966402069 67 72 68
-264.204624988174 330.559804631062 1724.94321283225 93 98 94
-272.407131182573 329.331669550879 1715.92612325161 110 115 111
-277.63031625438 328.5295335753 1706.48414354734 116 121 117
-281.859871959695 327.869229396061 1696.91144302496 131 136 132
-286.088824643109 327.208785663167 1687.36216084543 133 137 136
-291.309930628431 326.406362932887 1678.00113114823 126 130 129
-297.522498993735 325.461911342665 1668.83665444065 124 128 127
-302.742046165436 324.65924340339 1659.53628529324 134 138 139
-298.036839855706 325.274893271619 1648.53362617837 127 131 132
-298.293935411248 325.180909012914 1638.38452818087 137 139 138
-291.605324259532 326.079010130658 1626.98715187466 159 161 158
10.5746290428113 360.370383423719 2014.52464233117 138 140 137
-8.61041918039485 357.627590734008 2004.87252149912 124 128 127
-58.6361909705526 350.547199883421 1997.63764723804 133 137 136
-88.757349961234 346.26652274637 1989.13092571636 148 152 151
-116.884822706206 342.266382584777 1980.62926447753 149 153 152
-121.134368272729 341.623713821946 1970.2942264823 149 153 152
-132.346005781193 340.001762914982 1960.58082218761 141 145 144
-138.58318221185 339.078905756277 1950.48708826465 156 160 161
-159.737609772943 336.058773108228 1941.79266281015 158 162 163
-170.944202257232 334.436844911188 1932.27645992132 141 145 146
-180.160582832826 333.094438693646 1922.62843836456 133 137 138
-184.403927490405 332.450569884402 1912.53446485464 151 155 156
-198.589234268139 330.409283059981 1903.4833238959 152 156 155
-215.755140655524 327.949125997666 1894.82408457388 154 158 157
-233.912925034278 325.349524014485 1886.36657871996 153 157 156
-241.133485370834 324.286395456433 1876.79634435321 152 156 155
-245.371074354809 323.642018323622 1866.92677670776 151 155 154
-249.608065216172 322.997320275678 1857.08024119203 149 153 152
-252.850690244386 322.491946099961 1847.13840049885 144 148 147
-257.086557147923 321.846767033935 1837.3352766684 142 146 145
-258.340935442573 321.61985148073 1827.18366970464 140 144 143
-262.575809794463 320.97403637446 1817.41865529992 142 146 145
-271.778011397627 319.630573469419 1808.32366251477 140 144 143
-272.037421476001 319.542335038088 1798.09027437395 132 137 133
-266.336199728461 320.290245569096 1787.04919841603 116 121 117
-259.64247943133 321.176832800686 1775.83914248751 117 122 118
-259.902651582186 321.087041055366 1765.5743020852 117 122 118
-259.169393898619 321.136177080432 1755.16782434092 121 126 122
-259.429541557241 321.045581598477 1744.90307818948 117 122 118
-259.689641370179 320.954578721059 1734.63976458325 73 78 74
-258.956754740171 321.002472463894 1724.22677570172 82 87 83
-262.195663402824 320.492926052215 1714.42570362321 137 142 138
-276.355592983874 318.451463159546 1706.36620237386 130 135 131
-282.571233597864 317.524076190682 1697.10929900917 113 118 114
-286.800441789461 316.87508809169 1687.56233086215 127 131 130
-287.058448446375 316.782571814774 1677.37920007258 133 137 136
-299.227601830678 315.020030893026 1669.2092902442 132 136 135
-301.469819624152 314.648896858577 1659.40280475759 129 133 134
-299.741709404425 314.834005225207 1648.91644526001 130 131 133
-291.067157697791 315.992218501313 1637.19014542422 148 149 151
-285.370770342893 316.732509969731 1625.95194389198 156 158 157
-270.745113964723 318.723372368491 1613.05116897197 164 166 163
22.8203237304747 351.019438082757 2013.75324582902 135 137 134
-4.32768460472976 347.230851928696 2004.64211053371 121 125 124
-53.3628125337007 340.424524000021 1997.32046073987 130 134 133
-87.4663840106211 335.677359873798 1989.10835782019 148 152 151
-112.611375222561 332.165462830644 1980.362834286 150 154 153
-118.851014082936 331.259658857873 1970.18184568874 149 153 152
-130.063878218673 329.667957958122 1960.46230546715 142 146 145
-141.274940211311 328.07628983256 1950.80390964301 158 162 163
-166.409152799112 324.565671861083 1942.481025448 157 161 162
-173.637998967134 323.522424389012 1932.6082988628 137 141 142
-177.882399529287 322.890038201569 1922.48538609912 132 136 137
-172.182204002164 323.627442275606 1911.39292086798 152 156 157
-187.363919011347 321.487487776421 1902.41023936773 153 157 156
-208.508889519057 318.526023820939 1894.13909745586 155 159 158
-233.627861220231 315.017272711907 1886.41388440072 155 159 158
-243.831361324542 313.562889861938 1877.17374206107 153 157 156
-246.080863083301 313.203594135721 1867.08596025344 151 155 154
-248.330283580257 312.843956794133 1857.01031242656 149 153 152
-252.567069353534 312.210266822958 1847.18361208872 145 149 148
-260.778824114462 311.029002034353 1837.86470698682 143 147 146
-260.045139579202 311.078911909029 1827.47574298549 139 143 142
-263.286564159664 310.581269679245 1817.58912191709 141 145 144
-268.514897785943 309.809843193759 1807.97889235378 139 143 142
-266.787305541521 309.995323822542 1797.47268829339 133 138 134
-262.079662207848 310.590342607666 1786.55244923665 115 120 116
-258.365789181103 311.048149820971 1775.74373382237 115 120 116
-260.612864600722 310.685385615129 1765.75638235558 117 122 118
-259.879719609285 310.732177769669 1755.35230833304 123 128 124
-255.173596050606 311.325084539818 1744.36107869748 118 123 119
-253.44783305955 311.50755423395 1733.78947295716 84 89 85
-252.715070845072 311.553047236665 1723.35971896762 63 68 64
-253.968759175709 311.325024961957 1713.23388987533 125 130 126
-266.144336202917 309.595137924626 1704.83865826744 103 108 104
-272.361144014805 308.684365586347 1695.55397627618 135 140 136
-279.569804785835 307.637099060184 1686.46584958077 141 145 144
-284.792120702875 306.862743221933 1677.08766762761 130 134 133
-295.969505999916 305.269837552735 1668.7441449509 128 132 131
-299.20462967016 304.768231013934 1659.09952871168 125 129 130
-298.469222974541 304.811934126962 1648.78053314865 134 135 137
-286.816680541409 306.354952490655 1636.52379095008 149 150 152
-283.105017650604 306.806676424593 1625.63148879829 153 155 154
-266.493652399596 309.029560405364 1612.36257391299 159 161 158
30.0915594774001 340.928643492782 2013.32782714962 132 134 131
-1.03987144164863 336.67608918333 2004.48386166072 115 119 120
-43.1130021424271 330.945201844954 1996.63079917034 125 129 130
-78.2148192671617 326.156682351124 1988.46755586556 149 153 154
-105.352126272435 322.444408511878 1979.85660390172 149 153 154
-118.557188005954 320.614280196321 1970.23539891721 149 153 154
-128.775914699562 319.187353595809 1960.42962912611 148 152 153
-137.998530821285 317.894693614098 1950.59131450223 161 165 164
-164.129473038064 314.318336015041 1942.3503592497 155 159 158
-171.359007173587 313.294471596491 1932.47155654134 135 139 138
-178.587529320287 312.270426455296 1922.63211181586 138 142 141
-174.875875361871 312.723108315965 1911.74048910331 153 157 156
-189.063962394961 310.758835986718 1902.66337836741 156 160 159
-210.210637557426 307.855133546097 1894.39695729672 155 159 158
-236.325575676311 304.280996045668 1886.78388140209 155 159 158
-245.535277998633 302.988506181953 1877.44114066605 150 154 153
-244.802640715573 303.037533922518 1867.01962404139 148 152 151
-246.058074700004 302.817782812035 1856.82512490247 149 153 152
-250.295558908797 302.195307381521 1846.99249338341 144 148 147
-262.483477853193 300.499976585147 1838.15200072718 141 145 144
-260.756056280898 300.681597431246 1827.64430665966 140 144 143
-261.016289972297 300.59464020692 1817.38010453009 143 147 146
-261.276480424712 300.507304370221 1807.11718580502 143 147 146
-263.523767738757 300.151569135142 1797.11977514922 130 135 131
-261.796721443538 300.331349519377 1786.59543780738 117 122 118
-261.063104215335 300.376770055832 1776.19902290746 116 121 117
-261.32317902454 300.287814482793 1765.93888477149 117 122 118
-259.596617346307 300.466235457686 1755.39414728995 125 130 126
-254.890138129776 301.045882675624 1744.4025809094 118 123 119
-250.184540015891 301.624842040814 1733.38516421005 113 118 114
-250.445258449516 301.534184630884 1723.09804370072 60 65 61
-250.705925121184 301.443060849066 1712.81244547378 105 110 106
-257.917657644055 300.415262973785 1703.62516801317 101 106 102
-264.135494994886 299.521171924347 1694.31815915671 125 130 126
-275.316735115333 297.958419887531 1685.85635327556 122 126 125
-282.525205845584 296.930680137106 1676.79662037999 136 140 139
-300.652990222389 294.432514667819 1669.62053324426 130 134 133
-303.888020699871 293.939785749344 1659.98909140599 117 121 122
-303.151975009598 293.981351382819 1649.68345011851 141 142 144
-287.528110403392 296.026616465463 1636.73703750416 151 152 154
-276.868859152125 297.402925142709 1624.59752158808 149 151 150
-261.248975172036 299.446200174138 1611.4933955517 147 149 146
36.368654419622 330.666264681549 2012.97186986065 127 129 126
15.1866780999077 327.815940858483 2003.39239591138 108 112 113
-18.9289615321098 323.253726700539 1994.89788792749 121 125 128
-56.0256590663846 318.297271881411 1986.82246483669 151 155 158
-95.106872839628 313.078569567853 1979.11069014098 150 154 157
-120.253349098314 309.704110909537 1970.45469658798 147 151 152
-132.462602903966 308.0415392317 1960.82486265246 148 152 153
-142.680397548256 306.642199446162 1951.08514117475 161 165 164
-161.849680753409 304.058573037991 1942.22007235581 153 157 156
-168.085045432474 303.185687060484 1932.24147837881 135 140 136
-177.303661834062 301.917889471114 1922.58618199566 141 146 142
-177.569953899321 301.833760744901 1912.08823465174 152 157 153
-193.747969919766 299.6451661193 1903.22259408651 158 162 161
-206.940460398509 297.851245058965 1894.13159384996 154 158 157
-231.06880716347 294.611366456281 1886.29464296354 154 158 157
-241.273996900423 293.21229147475 1877.04784925655 148 152 151
-244.518352562626 292.733165031919 1867.06655218586 146 150 149
-250.744676157924 291.859531912836 1857.44983764764 148 152 151
-254.981898947787 291.248502824589 1847.63038869857 143 147 146
-265.182546489645 289.849136628421 1838.56080702705 141 145 144
-264.448643256741 289.894420105514 1828.18474780606 139 143 142
-264.708619007707 289.807921676091 1817.93111950084 142 146 145
-260.993446972805 290.246115253187 1807.1614390016 142 146 145
-263.240907842711 289.896275698472 1797.16357550902 132 137 133
-260.519917445619 290.202246679665 1786.50402398278 120 125 121
-257.799298498791 290.507728646407 1775.82942982734 116 121 117
-257.066163076481 290.550286910402 1765.42043578458 114 119 115
-255.339749039952 290.723566959688 1754.86440802378 124 129 125
-249.639890675354 291.420998613256 1743.71584600663 118 123 119
-241.954115436611 292.380006587395 1732.23900703781 107 112 108
-240.229083567774 292.551718283324 1721.6272753985 74 79 75
-238.504044212575 292.72301497427 1711.00606596353 100 105 101
-243.731108685329 291.976534183752 1701.47222408258 104 109 105
-251.93629573586 290.836963719096 1692.44545122044 112 117 113
-270.070128695417 288.387543927251 1685.08530387148 115 119 118
-287.208365820356 286.069646023137 1677.66022210517 136 140 141
-299.379992170929 284.407011779649 1669.49160749652 127 131 132
-304.600927686397 283.661052339566 1660.19786628411 114 118 119
-300.886936154779 284.093109785319 1649.3754591218 145 146 148
-290.224961085252 285.440767431185 1637.30231140004 148 149 151
-284.52728342079 286.133417186873 1626.06338563349 147 149 148
-268.90589710202 288.133605247169 1612.98103751421 144 146 143
38.6649453016021 319.853347142853 2012.89247053863 133 135 132
28.4299375238053 318.479731215905 2002.5169452603 103 107 108
3.26815172899497 315.171395272025 1993.31494990211 119 123 126
-47.765408582114 308.510482403688 1986.26009886261 153 157 160
-94.8111964706824 302.367032352513 1979.16552322949 150 154 157
-121.949763526535 298.803387196839 1970.67423494564 145 149 150
-137.144516426689 296.787325197781 1961.30568893703 147 151 152
-151.342311500622 294.900233628212 1951.93202508999 160 164 163
-161.559066340271 293.528656257524 1942.27207671085 152 156 155
-166.800208757456 292.801297910606 1932.19922741178 135 140 136
-172.040857805844 292.073677653401 1922.15470424357 144 149 145
-174.296629812989 291.732218799624 1911.84101126754 152 157 153
-192.465292189263 289.330064370249 1903.17035956349 159 163 162
-208.642102507984 287.185757825596 1894.39007034056 153 157 156
-232.77238362173 284.011982253577 1886.55781953417 153 157 156
-241.983930494262 282.769294146074 1877.20578546449 146 150 149
-249.205533667967 281.784002747662 1867.67836895661 145 149 148
-252.449330111402 281.313247794526 1857.72791675351 147 151 150
-253.704288866967 281.099445051265 1847.55837810355 145 149 148
-257.941305944623 280.499484224994 1837.75885334737 141 145 144
-261.183791969942 280.027817742418 1827.8586380937 137 141 140
-264.425821022677 279.555972823703 1817.97609132066 140 144 143
-260.710368983152 279.983617574285 1807.2060278546 138 142 141
-262.958000315684 279.639644513916 1797.20780108189 135 140 136
-258.249499623275 280.194828836978 1786.27829939721 122 127 123
-251.55423978745 281.006321973656 1775.0477837185 115 120 116
-249.827714881669 281.174893169883 1764.48170832018 112 117 113
-254.062566239101 280.572447948457 1754.76415986065 123 128 124
-252.336324087072 280.740250513243 1744.19553295718 118 123 119
-244.64976115636 281.677921354729 1732.72656954957 100 105 101
-234.977780515921 282.87154074673 1720.9131022378 87 92 88
-235.239532060565 282.781028426591 1710.5857599572 97 102 98
-232.521696985212 283.075085856762 1699.7900956732 97 102 98
-244.700868044461 281.444500672272 1691.3703443126 119 124 120
-267.801603880238 278.403332771909 1684.80118677353 123 127 126
-286.927299333473 275.875844798235 1677.69995542323 131 135 136
-299.099853408337 274.246514216655 1669.53084104261 121 125 126
-301.342695088102 273.899341743709 1659.72569999776 113 117 118
-299.613995728627 274.064560593666 1649.24101029131 149 150 152
-290.936986314568 275.126344234029 1637.51655224775 143 144 146
-283.253478839061 276.059330397713 1625.92314101976 147 148 150
-273.58607303949 277.24780058916 1613.9253442638 143 145 144
41.9569838987339 309.154223152958 2012.74436227997 139 141 138
38.6892285137606 308.692067535828 2001.85742015966 102 106 107
19.4963840648157 306.20954253312 1992.1800512153 98 102 105
-47.4661174867745 297.668645870728 1986.3163026087 146 150 153
-103.472250487246 290.518248364373 1979.94064807873 155 159 162
-126.631584321111 287.53377295414 1971.14214980932 147 151 152
-138.842201461552 285.937489471949 1961.53020718655 149 153 154
-155.030992567901 283.836775014272 1952.33779789326 157 161 160
-163.258089432462 282.745208620771 1942.50625667352 144 148 147
-165.515178309511 282.410088167458 1932.15722633426 137 142 138
-167.771714720395 282.074637779247 1921.82010923963 140 145 141
-166.049410465957 282.243042487484 1911.09822219193 158 163 159
-182.230645765393 280.142358972005 1902.20115323091 158 162 161
-206.366033330249 277.03390821635 1894.23014059386 154 158 157
-232.48712937743 273.674079839275 1886.60650016033 152 156 155
-238.716081815239 272.834317819857 1876.92340952814 150 154 153
-252.898903434317 270.986833915796 1868.17748782849 148 152 151
-255.148213895646 270.650606423777 1858.12195148035 147 151 150
-255.408918215545 270.565894657195 1847.84176655825 143 147 146
-253.68142558722 270.732499648601 1837.32072673826 140 144 143
-256.924437851924 270.269395828263 1827.40913815366 136 140 139
-259.17281793468 269.931885543741 1817.38858685934 137 141 140
-260.427242672093 269.719812340833 1807.25110132418 140 144 143
-262.67504749418 269.381704968956 1797.25239210322 139 144 140
-258.959918355104 269.797860134897 1786.45737193792 125 130 126
-248.289207821523 271.093613063633 1774.67922991325 117 122 118
-242.588163031259 271.759910595683 1763.54360809928 114 119 115
-248.811104078912 270.917337579277 1754.09244518691 119 124 120
-248.078293587216 270.954350739296 1743.65547303632 123 128 124
-242.3786626938 271.619158364078 1732.47231627609 106 111 107
-232.706087169167 272.785837530455 1720.65317276001 107 112 108
-228.994548599086 273.198128996143 1709.70434738798 53 58 54
-224.290578808634 273.735481787529 1698.57861623355 92 97 93
-232.498334469394 272.640211763127 1689.49901958634 122 127 123
-254.608621273839 269.787650943659 1682.73439120009 123 127 128
-279.69494792812 266.559357130004 1676.58619310998 125 129 130
-292.862047158697 264.837676725214 1668.56513726407 101 105 106
-298.083956956869 264.119940077487 1659.25429638108 136 140 143
-296.355340557966 264.280215278942 1648.76105617906 143 144 148
-292.641567363012 264.690817806212 1637.90707902445 155 156 160
-289.920918556264 264.975601150533 1627.21142731154 147 148 150
-283.230194328012 265.761459026368 1615.77611920797 148 150 149
50.5102085746429 299.137927279032 2023.37669155331 142 144 139
44.2545224965771 298.313735204404 2012.66547545705 132 134 131
36.0088957182541 297.242323583114 2002.13136165843 99 103 104
16.8148063684042 294.812073849004 1992.46146683148 96 100 101
-45.176252224747 287.072276921646 1986.21828099695 154 158 159
-112.13461993762 278.717339476371 1980.71576581311 152 156 157
-129.323864219002 276.536899953033 1971.44473989706 143 147 148
-137.554742264568 275.46746110974 1961.49850067236 156 160 161
-150.759401116838 273.781038763186 1952.03801729617 155 159 158
-159.982553217263 272.58816780565 1942.28590053659 143 147 146
-165.224797393534 271.88869194744 1932.20925353291 136 140 139
-167.481503245087 271.558988287552 1921.87168450424 141 145 144
-163.769416143163 271.968841833629 1910.95100479479 160 164 163
-177.962508510749 270.158866336538 1901.84394030224 158 162 161
-206.078750865598 266.623172484348 1894.27988829033 154 158 157
-232.201831352116 263.334868661643 1886.65548665089 152 156 155
-240.42011353895 262.265395253393 1877.19217531851 149 153 152
-251.620795359477 260.826235017578 1868.11254859388 147 151 150
-251.881768463501 260.742201931129 1857.8225873715 146 150 149
-255.125363229868 260.288339148755 1847.88883013066 144 148 147
-253.397740389915 260.449817167969 1837.36737448428 140 144 143
-254.652596946649 260.241503366424 1827.20772372151 136 140 139
-256.90152340173 259.909786372634 1817.18136348164 136 140 139
-261.138014815775 259.33166237927 1807.42583018975 137 141 140
-262.39204951081 259.122517047337 1797.29740779597 137 142 138
-257.682832763384 259.651093499143 1786.36732253904 127 132 128
-246.017412024377 261.040230506331 1774.44868319782 119 124 120
-244.291210281196 261.198569312879 1763.86831552189 114 119 115
-245.546031556732 260.987654075552 1753.70725044916 118 123 119
-241.832792233704 261.391092242164 1742.82471519157 122 127 123
-236.132909494641 262.039824926462 1731.62481661038 100 105 101
-224.473004144124 263.425242865933 1719.48662353215 108 113 109
-219.768659192336 263.949761430835 1708.36177457838 41 46 42
-219.037957616466 263.982401927821 1697.8376836628 99 104 100
-233.206477112744 262.17245322624 1689.70036566529 107 112 108
-253.331916633077 259.626198258957 1682.61368416977 124 128 129
-273.454534790514 257.080574380668 1675.63794892472 108 112 113
-286.623050640705 255.394828356204 1667.60011024687 103 107 108
-295.817626770485 254.200265317914 1658.95369979851 148 152 155
-297.067996609403 253.987411053853 1648.97385510016 131 132 136
-297.325174281449 253.897006076351 1638.82539086172 149 150 154
-292.618349299214 254.419577202573 1627.78605429121 147 148 150
-282.948790317484 255.554723526183 1615.81515629062 149 151 150
61.7692603807116 289.355854599763 2022.70777341763 146 148 143
49.5390507361488 287.823293184009 2012.37985813238 138 140 137
35.3186382117014 286.049011652373 2002.26200227492 112 116 115
16.1231619410458 283.67105939617 1992.59405478228 91 95 94
-72.7481053764145 272.841177527114 1988.43761738425 154 158 157
-115.821484144271 267.567970276356 1981.09097886471 153 157 156
-127.040079536958 266.158615045484 1971.33390521459 149 153 152
-135.271722158906 265.111359755561 1961.38160268733 153 157 156
-147.482696652336 263.581332194752 1951.82683397737 148 152 153
-156.70651801449 262.413314139505 1942.06592049511 141 145 146
-161.949368849533 261.727781248033 1931.98053404891 136 140 141
-166.196395424157 261.162577486013 1921.8271229351 143 147 148
-172.432632624106 260.356017208925 1911.89496803648 156 160 161
-186.626174912754 258.58481427394 1902.81195006122 161 165 164
-205.791425442973 256.211157779423 1894.32994167065 154 158 157
-228.932530878569 253.355924767066 1886.38264288518 151 155 154
-238.146386063412 252.188096075536 1877.0207702494 146 150 149
-249.347822257531 250.779407873437 1867.93505372621 144 148 147
-252.59228647352 250.334313340935 1857.98605484181 143 147 146
-256.830590707482 249.768580809379 1848.17297526492 142 146 145
-253.114009207706 250.165856520268 1837.41444708229 140 144 143
-253.374804893283 250.081030400969 1827.13056848982 136 140 139
-255.623735516113 249.755197299709 1817.10103824229 136 140 139
-264.831187358253 248.586732617312 1807.98874754376 137 141 140
-264.097139509485 248.621401214026 1797.60694297068 134 139 135
-259.387192840584 249.136850898053 1786.68196627307 129 134 130
-248.714794383579 250.373274227012 1774.90609058827 122 127 123
-246.988019501435 250.526727154606 1764.33355229967 115 120 116
-243.274131816754 250.920134695173 1753.46558714781 114 119 115
-235.586105152234 251.793821658681 1741.99445535597 117 122 118
-228.892672078354 252.546609981596 1730.62951078449 106 111 107
-220.212995807145 253.539064520061 1718.92551771852 108 113 109
-212.527914772653 254.410679998751 1707.32771151183 36 41 37
-212.791207831327 254.32080761707 1696.94080863952 64 69 65
-228.947735434943 252.309408243176 1689.1052684581 114 119 115
-255.034575333119 249.097914012496 1682.97974677969 120 124 125
-275.158590201527 246.607645977205 1676.00886007232 131 135 138
-291.307349910087 244.597954523736 1668.47874997259 151 155 158
-299.509537863815 243.548607752061 1659.67539224396 132 136 139
-303.738458022684 242.979281594849 1650.22521627151 147 148 152
-302.009255938288 243.129449465032 1639.74401421358 147 148 152
-296.308955782959 243.75890712452 1628.53973366892 150 151 153
-284.652984745286 245.107113025511 1616.21714338283 157 159 158
-261.085834017043 247.892841685658 1601.62365304448 169 171 168
71.0391125933789 279.27589980391 2022.17187546071 145 147 142
55.8195313531504 277.421935070974 2012.02564904844 134 136 133
42.5936524391863 275.804193797305 2001.81888138557 99 103 102
12.4454342636451 272.180096545374 1992.9502533058 90 94 93
-77.4281917237958 261.476231505775 1988.88028531927 166 170 169
-120.504489572728 256.321084830028 1981.54632335178 152 156 155
-134.709650930917 254.588321750141 1972.05046564406 152 156 155
-144.931771721987 253.327524558287 1962.29041973053 157 161 160
-155.152466658023 252.066686836275 1952.58605765302 145 149 150
-157.410727370719 251.749080064585 1942.21003275964 138 142 143
-161.6586706775 251.195425985549 1932.0331937375 131 135 136
-170.88113256301 250.052194479426 1922.36135198767 142 146 147
-184.081973533659 248.437547885363 1913.13647671438 159 163 164
-196.285946371273 246.940957519757 1903.88193446553 159 163 162
-211.472844226319 245.091075702543 1895.00814709993 153 157 156
-225.662728390519 243.359168827318 1886.11029438304 151 155 154
-238.856051535058 241.745293301998 1877.1800697116 149 153 152
-247.07449864646 240.720280111135 1867.75805051294 148 152 151
-252.308471325606 240.048334399621 1858.03424202221 147 151 150
-252.569370932936 239.964620975329 1847.74749653385 142 146 145
-246.863944031598 240.58659071074 1836.73554702705 140 144 143
-247.125177213641 240.502038241251 1826.43486338126 137 141 140
-257.328716325353 239.240996373478 1817.40079115339 137 141 140
