ply
format ascii 1.0
comment KinectMotionCapture
element vertex 785
property float x
property float y
property float z
property uchar red
property uchar green
property uchar blue
end_header
-289.725571870804 -553.681194782257 1708.99999141693 13 16 7
-284.75034236908 -553.046822547913 1707.00001716614 13 16 7
-280.442118644714 -553.708434104919 1708.99999141693 14 17 8
-276.284247636795 -554.694056510925 1712.00001239777 15 18 11
-271.316438913345 -554.059624671936 1710.00003814697 16 19 12
-265.267670154572 -551.156997680664 1700.99997520447 18 21 12
-258.348077535629 -546.309947967529 1685.99998950958 18 21 10
-252.26241350174 -543.082892894745 1675.99999904633 19 22 13
-247.70875275135 -543.096005916595 1675.99999904633 19 22 13
-244.170382618904 -545.377314090729 1682.99996852875 18 21 12
-239.881917834282 -546.038329601288 1684.99994277954 18 21 12
-234.884142875671 -545.079112052917 1682.000041008 17 20 11
-229.628503322601 -543.47151517868 1677.00004577637 17 20 13
-224.802404642105 -542.835891246796 1674.99995231628 16 19 12
-219.197973608971 -540.255725383759 1667.00005531311 16 19 12
-214.924529194832 -540.91614484787 1669.0000295639 16 19 12
-210.261777043343 -540.604293346405 1667.99998283386 14 17 10
-206.590905785561 -542.885065078735 1674.99995231628 14 17 10
-202.157989144325 -543.221116065979 1675.99999904633 13 16 9
-199.487894773483 -548.418819904327 1692.00003147125 13 16 9
-195.924267172813 -551.347732543945 1700.99997520447 13 16 9
-191.861599683762 -552.980065345764 1705.9999704361 12 15 8
-187.442243099213 -553.639769554138 1707.99994468689 11 14 7
-182.904735207558 -553.975224494934 1708.99999141693 12 15 8
-178.778767585754 -555.607080459595 1713.99998664856 12 15 8
-175.742775201797 -560.804665088654 1730.00001907349 12 15 8
-173.410430550575 -568.595588207245 1753.99994850159 16 19 12
-169.985845685005 -573.144733905792 1768.00000667572 18 21 14
-171.887293457985 -614.337682723999 1894.99998092651 16 19 12
-165.940508246422 -611.430764198303 1886.0000371933 14 17 10
-159.019231796265 -604.633033275604 1865.00000953674 13 16 9
-153.119996190071 -601.401150226593 1855.00001907349 12 15 8
-147.753864526749 -600.114107131958 1850.99995136261 8 11 4
-142.1779692173 -597.85407781601 1843.99998188019 8 11 4
-138.201951980591 -602.402448654175 1858.00004005432 11 14 7
-133.647903800011 -604.680955410004 1865.00000953674 13 16 9
-128.848731517792 -605.986595153809 1868.99995803833 14 17 10
-123.299181461334 -603.725433349609 1861.99998855591 14 17 10
-117.978006601334 -602.436602115631 1858.00004005432 13 16 9
-112.86074668169 -602.120101451874 1856.99999332428 13 16 7
-108.039014041424 -603.424549102783 1860.99994182587 14 17 8
-103.306002914906 -605.37725687027 1866.99998378754 15 18 9
-98.0666503310204 -604.411423206329 1863.9999628067 14 17 8
-92.6439017057419 -602.148115634918 1856.99999332428 13 16 7
-87.3534455895424 -600.533008575439 1851.99999809265 12 15 6
-82.4011713266373 -601.187348365784 1853.99997234344 13 16 7
-77.2292613983154 -600.220084190369 1850.99995136261 14 17 8
-71.8785375356674 -597.631096839905 1843.00005435944 14 17 8
-66.9340416789055 -598.284482955933 1845.00002861023 13 16 7
-61.8443042039871 -597.64039516449 1843.00005435944 12 15 6
-56.9195188581944 -598.617315292358 1845.99995613098 12 14 9
-51.9501976668835 -599.26974773407 1848.00004959106 13 16 9
-46.9698943197727 -599.921762943268 1850.00002384186 15 18 11
-41.7746119201183 -597.654938697815 1843.00005435944 15 18 11
-36.6772077977657 -596.360504627228 1838.99998664856 16 19 10
-31.7909568548203 -598.63293170929 1845.99995613098 16 19 12
-27.0405150949955 -604.796409606934 1865.00000953674 13 16 9
-22.0923610031605 -608.36535692215 1876.00004673004 20 22 17
-17.256285995245 -618.095397949219 1906.00001811981 17 19 16
-313.326984643936 -567.396879196167 1736.99998855591 14 16 13
-307.188838720322 -564.797103404999 1728.99997234344 17 19 14
-301.093965768814 -562.197148799896 1720.99995613098 14 16 11
-295.042365789413 -559.597194194794 1713.00005912781 13 16 9
-290.051102638245 -558.957159519196 1710.99996566772 13 16 7
-286.071330308914 -560.277342796326 1715.0000333786 13 16 7
-281.577289104462 -560.617387294769 1715.99996089935 14 17 8
-276.754915714264 -560.30410528183 1715.0000333786 15 18 11
-270.985722541809 -558.030366897583 1707.99994468689 16 19 12
-264.630615711212 -554.449737071991 1697.00002670288 18 21 12
-258.641451597214 -551.522195339203 1687.99996376038 19 22 11
-252.399921417236 -547.941088676453 1677.00004577637 19 22 13
-246.365711092949 -544.686496257782 1667.00005531311 18 21 12
-242.416650056839 -546.006202697754 1671.0000038147 17 20 11
-238.872602581978 -548.306047916412 1677.99997329712 17 20 11
-234.871432185173 -549.625813961029 1682.000041008 17 20 11
-229.068234562874 -546.69725894928 1672.99997806549 17 20 13
-224.387377500534 -546.382904052734 1672.00005054474 15 18 11
-218.791261315346 -543.780863285065 1664.00003433228 15 18 11
-214.397326111794 -544.119656085968 1664.99996185303 16 19 12
-209.997683763504 -544.458389282227 1666.00000858307 14 17 10
-205.962359905243 -545.777440071106 1669.99995708466 14 17 10
-203.47298681736 -551.345109939575 1687.00003623962 13 16 9
-199.947759509087 -554.298162460327 1695.99997997284 13 16 9
-196.834057569504 -558.558523654938 1708.99999141693 12 15 8
-192.862257361412 -560.531079769135 1715.0000333786 12 15 8
-188.747808337212 -562.176644802094 1720.00002861023 11 14 7
-183.642774820328 -560.880422592163 1715.99996089935 12 15 8
-178.97641658783 -560.891330242157 1715.99996089935 12 15 8
-177.154049277306 -570.054352283478 1743.99995803833 12 15 8
-177.255198359489 -586.081802845001 1792.99998283386 13 16 9
-168.436974287033 -572.690606117249 1751.99997425079 17 20 13
-170.33451795578 -613.899230957031 1878.00002098084 17 20 13
-164.962142705917 -612.929046154022 1875 14 17 10
-158.667981624603 -608.36273431778 1860.99994182587 12 15 8
-152.614876627922 -604.449868202209 1848.99997711182 11 14 7
-146.706640720367 -600.863516330719 1838.00005912781 9 12 5
-142.399981617928 -603.815078735352 1847.00000286102 9 12 5
-137.821018695831 -605.785727500916 1853.00004482269 11 14 7
-133.710756897926 -610.044538974762 1866.00005626678 12 15 8
-128.495514392853 -609.399259090424 1863.9999628067 12 15 8
-123.489618301392 -609.73447561264 1865.00000953674 12 15 8
-118.033610284328 -607.780814170837 1858.99996757507 11 14 7
-112.853169441223 -607.134640216827 1856.99999332428 12 15 6
-107.567340135574 -605.834305286407 1853.00004482269 13 16 7
-102.911710739136 -608.129978179932 1860.00001430511 14 17 8
-98.0073809623718 -609.11762714386 1863.00003528595 14 17 8
-92.4380496144295 -605.854451656342 1853.00004482269 13 16 7
-87.0173200964928 -603.244841098785 1845.00002861023 12 15 6
-81.9955468177795 -603.250622749329 1845.00002861023 13 16 7
-77.3908346891403 -606.525719165802 1855.00001907349 13 16 7
-72.2635686397552 -605.876863002777 1853.00004482269 13 16 7
-67.4735605716705 -608.170509338379 1860.00001430511 13 16 7
-62.1755607426167 -605.886161327362 1853.00004482269 12 15 6
-56.7614138126373 -601.966500282288 1840.99996089935 12 14 9
-51.6654923558235 -600.98934173584 1838.00005912781 13 16 9
-46.8396805226803 -603.281557559967 1845.00002861023 14 17 10
-41.7490340769291 -602.303683757782 1842.00000762939 15 18 11
-36.654707044363 -600.998520851135 1838.00005912781 15 18 9
-31.6681899130344 -601.327836513519 1838.99998664856 17 20 13
-27.125608175993 -611.793398857117 1871.00005149841 13 16 9
-22.2321171313524 -617.353975772858 1888.00001144409 15 17 12
-17.3456072807312 -626.511037349701 1916.00000858307 15 17 14
-316.740840673447 -578.35453748703 1756.00004196167 25 27 24
-307.353228330612 -569.804251194 1730.00001907349 17 19 14
-301.780521869659 -568.170547485352 1725.00002384186 16 18 13
-294.168025255203 -562.584161758423 1707.99994468689 15 18 11
-289.529383182526 -562.597155570984 1707.99994468689 13 16 7
-285.891264677048 -564.586579799652 1713.99998664856 13 16 7
-282.056331634521 -566.246688365936 1718.99998188019 14 17 8
-276.741683483124 -564.942121505737 1715.0000333786 15 18 11
-270.813971757889 -562.319815158844 1707.00001716614 16 19 12
-265.397250652313 -560.685634613037 1702.00002193451 18 21 12
-259.701073169708 -558.392524719238 1695.00005245209 19 22 11
-254.343658685684 -556.758046150208 1690.00005722046 18 21 12
-246.944218873978 -550.511121749878 1671.0000038147 18 21 12
-242.404073476791 -550.523638725281 1671.0000038147 16 19 10
-238.290712237358 -551.52440071106 1674.00002479553 16 19 10
-234.719321131706 -553.843021392822 1680.99999427795 17 20 11
-228.782117366791 -550.560593605042 1671.0000038147 16 19 12
-224.241018295288 -550.572693347931 1671.0000038147 15 18 11
-218.253344297409 -546.960175037384 1659.9999666214 15 18 11
-213.741630315781 -546.97197675705 1659.9999666214 15 18 11
-208.473414182663 -545.006632804871 1654.00004386902 14 17 10
-206.44399523735 -551.608443260193 1674.00002479553 13 16 9
-204.064399003983 -557.551383972168 1692.00003147125 13 16 9
-200.997218489647 -561.846733093262 1705.00004291534 12 15 8
-196.246787905693 -561.528623104095 1703.9999961853 12 15 8
-192.2886967659 -563.517093658447 1710.00003814697 11 14 7
-190.272852778435 -571.437299251556 1733.99996757507 11 14 7
-185.23696064949 -570.459723472595 1730.99994659424 11 14 7
-179.695695638657 -567.834198474884 1723.00004959106 12 15 8
-176.127567887306 -571.469962596893 1733.99996757507 11 14 7
-174.674183130264 -582.356452941895 1766.99995994568 12 15 8
-172.848761081696 -592.583894729614 1797.99997806549 16 19 12
-173.843771219254 -613.358199596405 1860.99994182587 16 19 12
-168.237894773483 -611.391186714172 1855.00001907349 16 19 12
-163.984075188637 -614.3679022789 1863.9999628067 13 16 9
-158.998981118202 -614.707589149475 1865.00000953674 8 11 4
-153.513059020042 -613.069415092468 1860.00001430511 8 11 4
-147.575199604034 -609.453141689301 1848.99997711182 10 13 6
-142.390817403793 -608.80321264267 1847.00000286102 9 12 5
-137.737736105919 -610.46028137207 1851.99999809265 11 14 7
-133.057206869125 -612.117052078247 1856.99999332428 12 15 8
-128.142490983009 -612.784802913666 1858.99996757507 12 15 8
-123.547725379467 -615.10044336319 1866.00005626678 12 15 8
-118.089340627193 -613.130509853363 1860.00001430511 11 14 7
-112.967237830162 -612.808406352997 1858.99996757507 13 16 7
-106.921672821045 -607.211649417877 1842.00000762939 14 17 8
-102.79419273138 -612.492978572845 1858.00004005432 15 18 9
-97.9482159018517 -613.818228244781 1861.99998855591 14 17 8
-92.8308963775635 -613.494992256165 1860.99994182587 13 16 7
-87.0586261153221 -608.556091785431 1845.99995613098 13 16 7
-82.0344313979149 -608.56169462204 1845.99995613098 13 16 7
-77.5524526834488 -612.85275220871 1858.99996757507 14 17 8
-72.5706070661545 -613.517105579376 1860.99994182587 14 17 8
-67.3238560557365 -611.87356710434 1855.99994659424 13 16 7
-62.0035491883755 -609.240472316742 1848.00004959106 13 16 7
-56.8500123918056 -607.925832271576 1843.99998188019 13 15 10
-51.5495128929615 -604.632794857025 1833.99999141693 13 16 9
-46.9380058348179 -609.581351280212 1848.99997711182 15 18 11
-41.8594777584076 -608.924984931946 1847.00000286102 15 18 11
-36.7917641997337 -608.268320560455 1845.00002861023 15 18 9
-31.7693203687668 -608.270704746246 1845.00002861023 14 17 10
-26.9787665456533 -613.547682762146 1860.99994182587 11 14 7
-22.0539607107639 -617.505669593811 1873.00002574921 18 20 15
-314.743667840958 -579.453229904175 1745.00000476837 45 47 44
-305.741399526596 -571.496367454529 1720.99995613098 18 20 15
-299.143522977829 -567.856192588806 1710.00003814697 11 14 7
-295.18848657608 -569.197237491608 1713.99998664856 15 18 11
-291.38109087944 -570.870518684387 1718.99998188019 13 16 7
-286.879122257233 -571.215391159058 1720.00002861023 13 16 7
-282.371520996094 -571.560323238373 1720.99995613098 14 17 8
-276.728808879852 -569.580376148224 1715.0000333786 15 18 11
-270.959764719009 -567.268252372742 1707.99994468689 16 19 12
-265.696346759796 -565.952360630035 1703.9999961853 18 21 12
-259.075552225113 -561.647176742554 1690.99998474121 18 21 10
-253.428161144257 -559.334635734558 1684.00001525879 18 21 12
-246.931865811348 -555.028975009918 1671.0000038147 18 21 12
-242.681890726089 -555.705487728119 1672.99997806549 16 19 10
-237.993791699409 -555.385529994965 1672.00005054474 16 19 10
-233.590126037598 -555.729746818542 1672.99997806549 16 19 10
-228.359371423721 -554.080843925476 1667.99998283386 16 19 12
-222.752958536148 -551.435112953186 1659.9999666214 15 18 11
-217.584237456322 -549.785852432251 1654.99997138977 15 18 11
-212.699964642525 -548.800766468048 1651.99995040894 15 18 11
-209.596261382103 -552.466511726379 1662.99998760223 13 16 9
-207.66569674015 -559.454441070557 1684.00001525879 13 16 9
-206.223696470261 -568.103611469269 1710.00003814697 13 16 9
-201.811000704765 -568.779528141022 1712.00001239777 12 15 8
-196.581035852432 -567.129552364349 1707.00001716614 12 15 8
-191.265597939491 -565.147161483765 1700.99997520447 11 14 7
-190.810397267342 -577.783465385437 1738.9999628067 11 14 7
-186.296164989471 -578.458964824677 1741.00005626678 12 15 8
-180.310770869255 -574.482560157776 1728.99997234344 11 14 7
-174.695134162903 -571.50262594223 1720.00002861023 11 14 7
-172.192484140396 -578.822910785675 1741.99998378754 14 17 10
-171.396389603615 -592.456519603729 1782.99999237061 15 18 11
-171.778172254562 -611.07474565506 1838.99998664856 17 20 13
-167.50206053257 -613.743364810944 1847.00000286102 16 19 12
-163.182213902473 -616.411805152893 1855.00001907349 14 17 10
-158.733367919922 -618.747889995575 1861.99998855591 8 11 4
-154.081150889397 -620.419085025787 1866.99998378754 7 10 3
-148.603424429893 -618.766903877258 1861.99998855591 10 13 6
-143.538132309914 -618.776082992554 1861.99998855591 8 11 4
-138.249531388283 -617.788016796112 1858.99996757507 10 13 6
-133.120328187943 -617.464244365692 1858.00004005432 11 14 7
-127.789601683617 -616.143226623535 1853.99997234344 14 17 10
-123.010098934174 -617.480635643005 1858.00004005432 15 18 11
-117.764241993427 -616.491377353668 1855.00001907349 15 18 11
-112.230718135834 -613.840043544769 1847.00000286102 14 17 8
-107.437059283257 -615.176498889923 1850.99995136261 15 18 9
-102.898083627224 -618.17455291748 1860.00001430511 16 19 10
-97.6261422038078 -616.851627826691 1855.99994659424 15 18 9
-92.2261998057365 -614.531397819519 1848.99997711182 14 17 8
-87.2886180877686 -615.202009677887 1850.99995136261 15 18 9
-82.5622007250786 -617.534220218658 1858.00004005432 15 18 9
-77.9226943850517 -620.863199234009 1868.00003051758 14 17 8
-72.4097788333893 -617.212116718292 1856.99999332428 14 17 8
-67.2830641269684 -616.55205488205 1855.00001907349 15 18 9
-61.9658268988132 -613.897323608398 1847.00000286102 15 18 9
-57.1236275136471 -615.895628929138 1853.00004482269 15 17 12
-51.8270842730999 -612.907826900482 1843.99998188019 16 19 12
-46.8332916498184 -613.243579864502 1845.00002861023 16 19 12
-41.7433232069016 -612.249374389648 1842.00000762939 16 19 12
-36.8092022836208 -613.581478595734 1845.99995613098 16 19 10
-31.7155010998249 -612.254321575165 1842.00000762939 18 21 14
-26.7304982990026 -612.921118736267 1843.99998188019 14 17 10
-21.7816568911076 -614.917039871216 1850.00002384186 14 16 11
-308.057636022568 -571.788668632507 1707.99994468689 8 10 7
-305.906504392624 -576.48777961731 1722.00000286102 16 18 13
-301.405131816864 -576.835036277771 1723.00004959106 13 15 10
-295.864790678024 -575.173497200012 1718.00005435944 17 20 13
-293.402403593063 -579.538285732269 1730.99994659424 13 16 7
-287.033230066299 -576.202750205994 1720.99995613098 13 16 7
-281.866669654846 -575.210869312286 1718.00005435944 14 17 8
-276.393502950668 -573.549211025238 1713.00005912781 15 18 11
-272.692203521729 -575.570583343506 1718.99998188019 16 19 12
-267.243057489395 -573.908865451813 1713.99998664856 16 19 10
-258.910030126572 -565.884947776794 1690.00005722046 16 19 8
-252.512991428375 -561.87891960144 1677.99997329712 17 20 11
-246.033176779747 -557.537853717804 1664.99996185303 18 21 12
-243.540167808533 -562.237858772278 1679.00002002716 17 20 11
-239.262804389 -562.919497489929 1680.99999427795 17 20 11
-235.113993287086 -563.935995101929 1684.00001525879 16 19 10
-229.305863380432 -560.933828353882 1674.99995231628 16 19 12
-224.351555109024 -559.940814971924 1672.00005054474 14 17 10
-218.624457716942 -556.938230991364 1662.99998760223 14 17 10
-214.619815349579 -558.289289474487 1667.00005531311 15 18 11
-211.727440357208 -562.654376029968 1679.99994754791 13 16 9
-211.476996541023 -574.387907981873 1715.0000333786 13 16 9
-208.503603935242 -579.08821105957 1728.99997234344 13 16 9
-202.507019042969 -575.415253639221 1718.00005435944 12 15 8
-199.333712458611 -579.780459403992 1730.99994659424 11 14 7
-194.965168833733 -580.796360969543 1733.99996757507 11 14 7
-189.153730869293 -577.45772600174 1723.99997711182 11 14 7
-185.322433710098 -580.147981643677 1731.99999332428 12 15 8
-181.134536862373 -581.833362579346 1736.99998855591 11 14 7
-175.395831465721 -578.49395275116 1726.99999809265 11 14 7
-170.996204018593 -579.50896024704 1730.00001907349 13 16 9
-170.521080493927 -594.258069992065 1774.00004863739 15 18 11
-171.30084335804 -614.367246627808 1833.99999141693 15 18 11
-168.670833110809 -623.087227344513 1860.00001430511 15 18 11
-163.700073957443 -623.432099819183 1860.99994182587 14 17 10
-158.467903733253 -622.771859169006 1858.99996757507 8 11 4
-154.319226741791 -626.466453075409 1870.00000476837 7 10 3
-149.073049426079 -625.805795192719 1868.00003051758 9 12 5
-143.837541341782 -625.144779682159 1866.00005626678 8 11 4
-138.53831589222 -624.148428440094 1863.00003528595 9 12 5
-132.968664169312 -621.81168794632 1855.99994659424 10 13 6
-127.78152525425 -621.149837970734 1853.99997234344 13 16 9
-122.73745238781 -621.157705783844 1853.99997234344 14 17 10
-117.312356829643 -619.15510892868 1848.00004959106 14 17 10
-112.527303397655 -620.502531528473 1851.99999809265 13 16 7
-107.836402952671 -622.519910335541 1858.00004005432 14 17 8
-102.780774235725 -622.526586055756 1858.00004005432 15 18 9
-97.1464365720749 -618.84742975235 1847.00000286102 15 18 9
-91.6715562343597 -615.83811044693 1838.00005912781 14 17 8
-87.4243676662445 -621.204793453217 1853.99997234344 15 18 9
-83.0455422401428 -626.236319541931 1868.99995803833 15 18 9
-78.0844017863274 -627.246737480164 1871.99997901917 14 17 8
-72.4829733371735 -622.895836830139 1858.99996757507 14 17 8
-67.2786012291908 -621.560156345367 1855.00001907349 15 18 9
-62.1965415775776 -621.229290962219 1853.99997234344 15 18 9
-57.3356002569199 -623.243629932404 1860.00001430511 15 17 12
-51.7674200236797 -617.215931415558 1842.00000762939 15 18 11
-46.6524809598923 -615.878820419312 1838.00005912781 16 19 12
-41.5592417120934 -614.541411399841 1833.99999141693 16 19 12
-36.8665494024754 -619.570314884186 1848.99997711182 15 18 9
-31.83389082551 -619.572579860687 1848.99997711182 15 18 11
-26.6997124999762 -617.228925228119 1842.00000762939 12 14 9
-21.662462502718 -616.560339927673 1840.0000333786 14 16 11
-310.690551996231 -590.259552001953 1748.99995326996 22 24 19
-304.191648960114 -586.89683675766 1738.9999628067 14 16 11
-300.674349069595 -589.271605014801 1746.00005149841 11 14 7
-296.610444784164 -590.633928775787 1750 13 16 7
-288.855463266373 -584.571003913879 1731.99999332428 12 15 6
-281.690269708633 -579.520463943481 1717.00000762939 13 16 7
-276.703923940659 -578.857600688934 1715.0000333786 16 19 12
-272.679924964905 -580.219805240631 1718.99998188019 18 21 14
-267.074912786484 -578.206717967987 1713.00005912781 17 20 11
-259.51075553894 -571.805357933044 1694.00000572205 17 20 9
-252.50107049942 -566.416382789612 1677.99997329712 17 20 11
-246.907964348793 -564.065277576447 1671.0000038147 17 20 11
-243.528321385384 -566.777408123016 1679.00002002716 17 20 11
-239.820331335068 -568.814516067505 1684.99994277954 17 20 11
-235.381513834 -569.163739681244 1685.99998950958 14 17 8
-230.663225054741 -568.837761878967 1684.99994277954 14 17 10
-225.279301404953 -566.823601722717 1679.00002002716 14 17 10
-220.453575253487 -566.159725189209 1677.00004577637 14 17 10
-215.76726436615 -565.833389759064 1675.99999904633 13 16 9
-213.858604431152 -572.93438911438 1697.00002670288 13 16 9
-212.205499410629 -581.048429012299 1720.99995613098 13 16 9
-209.215849637985 -585.786402225494 1735.00001430511 12 15 8
-202.260240912437 -579.382479190826 1715.99996089935 11 14 7
-199.783354997635 -585.808455944061 1735.00001430511 11 14 7
-194.617033004761 -584.468722343445 1730.99994659424 12 15 8
-189.581975340843 -583.466410636902 1728.00004482269 10 13 6
-185.204923152924 -584.489762783051 1730.99994659424 10 13 6
-182.062670588493 -589.565098285675 1746.00005149841 10 13 6
-176.705941557884 -587.549269199371 1740.00000953674 10 13 6
-171.875804662704 -587.221562862396 1738.9999628067 12 15 8
-169.838294386864 -596.686542034149 1766.99995994568 12 15 8
-170.82379758358 -617.632985115051 1828.9999961853 16 19 12
-168.1167781353 -626.085221767426 1853.99997234344 17 20 13
-164.21802341938 -630.484938621521 1866.99998378754 15 18 11
-159.140288829803 -630.494594573975 1866.99998378754 6 9 2
-153.897300362587 -629.828572273254 1865.00000953674 7 10 3
-149.702355265617 -633.552551269531 1876.00004673004 7 10 3
-144.753664731979 -634.236872196198 1878.00002098084 7 10 3
-139.27336037159 -632.556915283203 1873.00002574921 9 12 5
-133.748441934586 -630.538940429688 1866.99998378754 10 13 6
-128.255978226662 -628.520548343658 1860.99994182587 15 18 11
-122.464992105961 -624.813258647919 1850.00002384186 14 17 10
-117.368437349796 -624.483048915863 1848.99997711182 11 14 7
-112.763211131096 -626.854419708252 1855.99994659424 11 14 5
-108.35187882185 -630.576610565186 1866.99998378754 12 15 6
-102.940171957016 -628.556728363037 1860.99994182587 13 16 7
-97.2454026341438 -624.509990215302 1848.99997711182 14 17 8
-92.0646414160728 -623.502731323242 1845.99995613098 15 18 9
-87.2301310300827 -624.859511852264 1850.00002384186 13 16 7
-83.040177822113 -631.282448768616 1868.99995803833 13 16 7
-78.246183693409 -633.652031421661 1876.00004673004 12 15 6
-72.7901607751846 -630.616962909698 1866.99998378754 12 15 6
-67.4555450677872 -628.257095813751 1860.00001430511 12 15 6
-62.3937472701073 -628.261268138886 1860.00001430511 13 16 7
-57.3626682162285 -628.602981567383 1860.99994182587 15 17 12
-51.7078153789043 -621.513247489929 1840.0000333786 15 18 11
-46.3956072926521 -617.462992668152 1827.99994945526 17 20 13
-41.4205491542816 -617.465794086456 1827.99994945526 18 21 14
-36.8840545415878 -624.899625778198 1850.00002384186 14 17 8
-31.8490006029606 -624.901950359344 1850.00002384186 15 18 11
-26.7559196799994 -623.552680015564 1845.99995613098 15 18 11
-21.7198897153139 -623.216450214386 1845.00002861023 19 21 16
-17.0241370797157 -635.378122329712 1881.00004196167 15 17 14
-323.904573917389 -610.969483852386 1796.0000038147 98 100 97
-312.277287244797 -598.0544090271 1758.00001621246 19 21 16
-304.704397916794 -592.623114585876 1741.99998378754 12 14 9
-300.49005150795 -593.655586242676 1745.00000476837 11 14 7
-296.089798212051 -594.347953796387 1746.99997901917 14 17 8
-288.676619529724 -588.91636133194 1730.99994659424 13 16 7
-283.482909202576 -587.907671928406 1728.00004482269 13 16 7
-277.982652187347 -586.218416690826 1723.00004959106 15 18 11
-273.302435874939 -586.230218410492 1723.00004959106 17 20 13
-267.062991857529 -582.839608192444 1713.00005912781 17 20 11
-259.345769882202 -576.046288013458 1692.999958992 17 20 9
-253.241807222366 -572.655379772186 1682.99996852875 17 20 11
-247.044146060944 -568.923890590668 1672.00005054474 17 20 11
-243.37175488472 -570.976912975311 1677.99997329712 17 20 11
-238.670259714127 -570.648014545441 1677.00004577637 17 20 11
-234.951227903366 -572.700977325439 1682.99996852875 15 18 9
-229.556784033775 -570.670545101166 1677.00004577637 15 18 11
-225.804716348648 -572.72344827652 1682.99996852875 15 18 11
-220.705330371857 -571.373343467712 1679.00002002716 14 17 10
-216.914787888527 -573.426187038422 1684.99994277954 14 17 10
-212.839394807816 -574.798405170441 1689.00001049042 13 16 9
-208.742097020149 -576.170563697815 1692.999958992 13 16 9
-208.601891994476 -588.773548603058 1730.00001907349 12 15 8
-204.724505543709 -591.166734695435 1736.99998855591 11 14 7
-199.887707829475 -590.837121009827 1735.99994182587 11 14 7
-195.280969142914 -591.188073158264 1736.99998855591 12 15 8
-191.326826810837 -593.581020832062 1743.99995803833 10 13 6
-187.441393733025 -596.314311027527 1751.99997425079 10 13 6
-182.052493095398 -594.282269477844 1746.00005149841 10 13 6
-176.899075508118 -592.930734157562 1741.99998378754 10 13 6
-172.45902121067 -593.961715698242 1745.00000476837 12 15 8
-170.116886496544 -602.481007575989 1769.99998092651 12 15 8
-168.759286403656 -615.085005760193 1807.000041008 16 19 12
-167.83495247364 -630.071878433228 1850.99995136261 17 20 13
-163.944557309151 -634.506702423096 1863.9999628067 15 18 11
-159.471824765205 -636.898994445801 1871.00005149841 7 10 3
-154.300719499588 -636.567771434784 1870.00000476837 7 10 3
-149.613589048386 -638.278722763062 1875 7 10 3
-144.590795040131 -638.627946376801 1876.00004673004 7 10 3
-139.41365480423 -638.296067714691 1875 10 13 6
-134.385019540787 -638.644695281982 1876.00004673004 10 13 6
-128.317043185234 -633.886575698853 1861.99998855591 15 18 11
-122.72223085165 -631.170749664307 1853.99997234344 14 17 10
-117.678552865982 -631.178140640259 1853.99997234344 12 15 8
-113.059967756271 -633.568286895752 1860.99994182587 12 15 6
-108.054958283901 -633.915543556213 1861.99998855591 13 16 7
-102.767787873745 -632.560253143311 1858.00004005432 13 16 7
-97.6074188947678 -631.885588169098 1855.99994659424 13 16 7
-92.2084376215935 -629.508316516876 1848.99997711182 13 16 7
-87.4131992459297 -631.216287612915 1853.99997234344 13 16 7
-82.5906172394753 -632.923901081085 1858.99996757507 13 16 7
-77.9909491539001 -636.674165725708 1870.00000476837 12 15 6
-72.668544948101 -634.636044502258 1863.9999628067 12 15 6
-67.4149617552757 -632.938265800476 1858.99996757507 12 15 6
-62.2555613517761 -631.92093372345 1855.99994659424 13 16 7
-57.4822574853897 -634.989023208618 1865.00000953674 14 16 11
-51.8168769776821 -627.842485904694 1843.99998188019 14 17 10
-46.5194992721081 -624.10032749176 1832.99994468689 17 20 13
-41.531153023243 -624.103128910065 1832.99994468689 17 20 13
-36.7819778621197 -628.191411495209 1845.00002861023 13 16 7
-31.760860234499 -628.19367647171 1845.00002861023 13 16 9
-26.8121529370546 -629.898071289063 1850.00002384186 14 17 10
-21.7537898570299 -629.218697547913 1848.00004959106 19 21 16
-17.0863755047321 -642.839312553406 1888.00001144409 14 16 13
-311.377465724945 -601.097643375397 1753.00002098084 14 16 11
-304.867684841156 -597.680151462555 1743.00003051758 17 19 14
-298.411995172501 -594.262540340424 1733.00004005432 15 18 11
-293.027430772781 -592.902362346649 1728.99997234344 15 18 9
-289.332002401352 -594.971358776093 1735.00001430511 13 16 7
-283.963352441788 -593.611180782318 1730.99994659424 12 15 6
-277.970969676971 -590.879261493683 1723.00004959106 14 17 10
-272.497653961182 -589.175999164581 1718.00005435944 15 18 11
-267.363160848618 -588.158667087555 1715.0000333786 17 20 11
-259.4875395298 -580.968022346497 1694.00000572205 17 20 9
-253.079980611801 -576.863825321198 1682.000041008 17 20 11
-247.032910585403 -573.44526052475 1672.00005054474 17 20 11
-242.055237293243 -572.427451610565 1669.0000295639 17 20 11
-236.808985471725 -570.723474025726 1664.00003433228 17 20 11
-232.84612596035 -572.10636138916 1667.99998283386 16 19 10
-229.271933436394 -574.518263339996 1674.99995231628 15 18 11
-225.525364279747 -576.58714056015 1680.99999427795 14 17 10
-221.614524722099 -578.312993049622 1685.99998950958 14 17 10
-216.9039696455 -577.980756759644 1684.99994277954 13 16 9
-212.072595953941 -577.305436134338 1682.99996852875 12 15 8
-209.224566817284 -582.118332386017 1697.00002670288 12 15 8
-204.853340983391 -582.814931869507 1699.00000095367 11 14 7
-204.595938324928 -595.517814159393 1735.99994182587 11 14 7
-199.64687526226 -594.842255115509 1733.99996757507 11 14 7
-194.9333101511 -594.852566719055 1733.99996757507 11 14 7
-190.768033266068 -596.578121185303 1738.9999628067 10 13 6
-187.217235565186 -600.361883640289 1750 10 13 6
-181.312635540962 -596.598088741302 1738.9999628067 10 13 6
-176.076918840408 -594.89244222641 1733.99996757507 10 13 6
-172.35055565834 -598.332822322845 1743.99995803833 12 15 8
-170.203432440758 -607.605576515198 1771.00002765656 12 15 8
-168.002635240555 -617.221593856812 1799.00002479553 15 18 11
-169.09471154213 -639.87523317337 1865.00000953674 16 19 12
-164.72664475441 -642.629504203796 1873.00002574921 14 17 10
-159.633040428162 -642.638802528381 1873.00002574921 7 10 3
-154.95178103447 -644.363403320313 1878.00002098084 8 11 4
-149.604812264442 -643.342852592468 1875 7 10 3
-144.582256674767 -643.694579601288 1876.00004673004 9 12 5
-139.554053544998 -644.046008586884 1876.99997425079 10 13 6
-134.448602795601 -644.054114818573 1876.99997425079 10 13 6
-128.378242254257 -639.258086681366 1863.00003528595 16 19 12
-122.847177088261 -636.863589286804 1855.99994659424 16 19 12
-117.861807346344 -637.214004993439 1856.99999332428 13 16 9
-112.931579351425 -637.907207012177 1858.99996757507 13 16 7
-107.874244451523 -637.913882732391 1858.99996757507 13 16 7
-102.982692420483 -638.949751853943 1861.99998855591 12 15 6
-97.3384454846382 -635.181128978729 1850.99995136261 11 14 5
-92.3024490475655 -635.187029838562 1850.99995136261 11 14 5
-87.0777368545532 -633.819878101349 1847.00000286102 12 15 6
-82.4521780014038 -636.913597583771 1855.99994659424 13 16 7
-77.4022042751312 -636.918544769287 1855.99994659424 13 16 7
-72.1572041511536 -635.207414627075 1850.99995136261 13 16 7
-66.7217373847961 -631.436884403229 1840.0000333786 13 16 7
-61.8155933916569 -632.470369338989 1843.00005435944 13 16 7
-56.9238588213921 -633.846819400787 1847.00000286102 13 15 10
-51.6730919480324 -631.104826927185 1838.99998664856 15 18 11
-46.7449352145195 -632.137477397919 1842.00000762939 17 20 13
-41.7097546160221 -631.797075271606 1840.99996089935 17 20 13
-36.8593707680702 -634.544968605042 1848.99997711182 13 16 7
-31.7071862518787 -632.144927978516 1842.00000762939 12 15 8
-26.6510210931301 -631.117224693298 1838.99998664856 14 16 11
-21.6699969023466 -631.805062294006 1840.99996089935 17 19 14
-310.300499200821 -603.768706321716 1746.99997901917 11 13 8
-302.582681179047 -597.9043841362 1730.00001907349 17 19 14
-297.712028026581 -597.569763660431 1728.99997234344 14 17 10
-292.338281869888 -596.198379993439 1725.00002384186 15 18 9
-287.819802761078 -596.555054187775 1725.99995136261 13 16 7
-283.623874187469 -597.60308265686 1728.99997234344 12 15 6
-277.959644794464 -595.540523529053 1723.00004959106 13 16 9
-272.803544998169 -594.514727592468 1720.00002861023 14 17 10
-267.040103673935 -592.106282711029 1713.00005912781 17 20 11
-260.54859161377 -587.969481945038 1700.99997520447 17 20 9
-251.865267753601 -578.647494316101 1674.00002479553 17 20 11
-246.283248066902 -576.238512992859 1667.00005531311 17 20 11
-240.884155035019 -574.175238609314 1661.00001335144 17 20 11
-236.371263861656 -574.185848236084 1661.00001335144 17 20 11
-233.393728733063 -577.999174594879 1672.00005054474 15 18 9
-229.124292731285 -578.701138496399 1674.00002479553 14 17 10
-226.319581270218 -583.205938339233 1687.00003623962 14 17 10
-221.866741776466 -583.562254905701 1687.99996376038 12 15 8
-217.408254742622 -583.918511867523 1689.00001049042 12 15 8
-212.692126631737 -583.583176136017 1687.99996376038 12 15 8
-210.816830396652 -591.199636459351 1710.00003814697 12 15 8
-208.09830725193 -596.741735935211 1725.99995136261 12 15 8
-203.642711043358 -597.443580627441 1728.00004482269 11 14 7
-198.715537786484 -596.762299537659 1725.99995136261 11 14 7
-194.81073319912 -599.19261932373 1733.00004005432 11 14 7
-189.990118145943 -598.856806755066 1731.99999332428 10 13 6
-186.030551791191 -601.287007331848 1738.9999628067 10 13 6
-180.677369236946 -599.22206401825 1733.00004005432 10 13 6
-176.981240510941 -602.689325809479 1743.00003051758 10 13 6
-173.131704330444 -605.810761451721 1751.99997425079 12 15 8
-170.578435063362 -613.773167133331 1774.99997615814 12 15 8
-170.794740319252 -632.455170154572 1828.9999961853 14 17 10
-168.087959289551 -641.10940694809 1853.99997234344 16 19 12
-164.013832807541 -644.922494888306 1865.00000953674 14 17 10
-159.709200263023 -648.043751716614 1873.99995326996 8 11 4
-156.015500426292 -653.931498527527 1891.00003242493 8 11 4
-150.074914097786 -650.481939315796 1881.00004196167 7 10 3
-144.419744610786 -648.069620132446 1873.99995326996 9 12 5
-139.025494456291 -646.694481372833 1870.00000476837 10 13 6
-134.082600474358 -647.394120693207 1871.99997901917 10 13 6
-128.095045685768 -642.905950546265 1858.99996757507 15 18 11
-122.707538306713 -641.184031963348 1853.99997234344 16 19 12
-117.537468671799 -640.499472618103 1851.99999809265 14 17 10
-112.621083855629 -641.197919845581 1853.99997234344 12 15 6
-107.57764428854 -641.204476356506 1853.99997234344 12 15 6
-102.589339017868 -641.556620597839 1855.00001907349 12 15 6
-97.2799584269524 -639.833271503448 1850.00002384186 12 15 6
-91.8480604887009 -637.072205543518 1842.00000762939 12 15 6
-86.9781300425529 -638.115167617798 1845.00002861023 11 14 5
-82.0029005408287 -638.466060161591 1845.99995613098 13 16 7
-76.9804194569588 -638.470947742462 1845.99995613098 13 16 7
-71.4900866150856 -634.32514667511 1833.99999141693 13 16 7
-66.7901188135147 -637.096285820007 1842.00000762939 13 16 7
-61.2415969371796 -631.566226482391 1825.99997520447 13 15 10
-56.3347786664963 -632.261633872986 1827.99994945526 14 16 11
-51.5855737030506 -635.031938552856 1835.99996566772 16 19 12
-46.8181408941746 -638.147950172424 1845.00002861023 17 20 13
-41.9110357761383 -639.880120754242 1850.00002384186 16 19 12
-36.8769951164722 -639.882564544678 1850.00002384186 15 18 9
-31.7740440368652 -638.501167297363 1845.99995613098 15 18 11
-26.7652738839388 -638.848900794983 1847.00000286102 13 15 10
-21.8216441571712 -641.271591186523 1853.99997234344 15 17 12
-310.644924640656 -609.194219112396 1748.99995326996 10 12 7
-303.0965924263 -603.631854057312 1733.00004005432 11 13 8
-297.873347997665 -602.597534656525 1730.00001907349 10 13 6
-292.157888412476 -600.518226623535 1723.99997711182 14 17 8
-286.975145339966 -599.483966827393 1720.99995613098 12 15 6
-282.300651073456 -599.494695663452 1720.99995613098 12 15 6
-277.787357568741 -599.853873252869 1722.00000286102 13 16 9
-273.268401622772 -600.21299123764 1723.00004959106 14 17 10
-267.964452505112 -598.83040189743 1718.99998188019 17 20 11
-260.231375694275 -591.873824596405 1699.00000095367 17 20 9
-253.359109163284 -586.658954620361 1684.00001525879 17 20 11
-246.272668242455 -580.747067928314 1667.00005531311 17 20 11
-241.453662514687 -580.060720443726 1664.99996185303 17 20 11
-236.503079533577 -579.025983810425 1661.99994087219 17 20 11
-233.801960945129 -583.565473556519 1674.99995231628 15 18 9
-230.208769440651 -586.014688014984 1682.000041008 15 18 11
-226.711541414261 -588.812291622162 1690.00005722046 14 17 10
-221.856296062469 -588.125765323639 1687.99996376038 12 15 8
-218.041509389877 -590.226531028748 1694.00000572205 11 14 7
-214.823842048645 -594.069480895996 1705.00004291534 11 14 7
-212.409168481827 -600.351393222809 1723.00004959106 11 14 7
-208.329170942307 -602.10382938385 1728.00004482269 11 14 7
-203.396841883659 -601.416945457459 1725.99995136261 11 14 7
-199.166014790535 -602.820754051209 1730.00001907349 11 14 7
-194.351181387901 -602.48214006424 1728.99997234344 9 12 5
-188.664093613625 -599.355697631836 1720.00002861023 10 13 6
-184.523299336433 -601.107537746429 1725.00002384186 10 13 6
-180.667906999588 -603.904783725739 1733.00004005432 10 13 6
-177.784144878387 -610.186696052551 1751.00004673004 10 13 6
-173.023641109467 -610.195875167847 1751.00004673004 12 15 8
-171.241924166679 -621.008098125458 1781.99994564056 12 15 8
-169.94509100914 -634.259939193726 1820.00005245209 13 16 9
-167.625471949577 -644.375443458557 1848.99997711182 15 18 11
-163.740947842598 -648.914933204651 1861.99998855591 14 17 10
-159.955978393555 -654.151380062103 1876.99997425079 9 12 5
-155.924245715141 -658.690750598907 1889.99998569489 9 12 5
-150.704696774483 -658.350825309753 1889.00005817413 7 10 3
-144.488602876663 -653.479754924774 1875 9 12 5
-139.091908931732 -652.093708515167 1871.00005149841 9 12 5
-133.931651711464 -651.752889156342 1870.00000476837 8 11 4
-127.880930900574 -646.880805492401 1855.99994659424 14 17 10
-122.303321957588 -644.099771976471 1848.00004959106 15 18 11
-117.276750504971 -644.106686115265 1848.00004959106 11 14 5
-111.946329474449 -642.370641231537 1843.00005435944 11 14 5
-107.339210808277 -644.816815853119 1850.00002384186 11 14 5
-102.417357265949 -645.520031452179 1851.99999809265 12 15 6
-97.2741693258286 -644.828796386719 1850.00002384186 12 15 6
-91.6929841041565 -641.000270843506 1838.99998664856 12 15 6
-86.6900682449341 -641.005516052246 1838.99998664856 11 14 5
-81.731453537941 -641.359090805054 1840.0000333786 12 15 6
-76.8089890480042 -642.060995101929 1842.00000762939 13 16 7
-71.6416612267494 -640.671193599701 1838.00005912781 14 17 8
-66.4959996938705 -639.281034469604 1833.99999141693 13 16 7
-61.0366426408291 -634.404838085175 1820.00005245209 14 16 11
-55.7150170207024 -630.225419998169 1807.99996852875 16 18 13
-51.1328987777233 -634.411692619324 1820.00005245209 17 20 13
-46.8152649700642 -643.129050731659 1845.00002861023 16 19 12
-41.9764220714569 -645.92045545578 1853.00004482269 15 18 11
-36.9145832955837 -645.574271678925 1851.99999809265 15 18 9
-31.8925641477108 -645.924866199493 1853.00004482269 16 19 12
-26.8650539219379 -646.275341510773 1853.99997234344 13 16 9
-21.9144485890865 -649.065434932709 1861.99998855591 13 15 10
-313.476234674454 -619.545340538025 1764.99998569489 13 15 12
-305.709570646286 -613.588273525238 1748.00002574921 10 12 7
-298.035055398941 -607.631027698517 1730.99994659424 12 15 8
-291.977971792221 -604.83306646347 1723.00004959106 14 17 8
-287.298142910004 -604.843437671661 1723.00004959106 12 15 6
-282.782137393951 -605.204820632935 1723.99997711182 12 15 6
-278.260618448257 -605.566263198853 1725.00002384186 13 16 9
-273.892134428024 -606.278896331787 1726.99999809265 15 18 11
-268.889099359512 -605.587244033813 1725.00002384186 17 20 11
-262.67147064209 -602.087080478668 1715.0000333786 17 20 9
-255.003571510315 -595.075905323029 1695.00005245209 17 20 11
-249.069198966026 -591.926515102386 1685.99998950958 17 20 11
-242.748528718948 -587.723672389984 1674.00002479553 17 20 11
-237.915828824043 -587.031662464142 1672.00005054474 17 20 11
-234.210431575775 -589.148283004761 1677.99997329712 16 19 10
-230.061680078506 -590.211689472198 1680.99999427795 15 18 11
-225.89647769928 -591.275095939636 1684.00001525879 13 16 9
-220.663338899612 -589.529454708099 1679.00002002716 12 15 8
-216.486901044846 -590.592741966248 1682.000041008 12 15 8
-216.325625777245 -602.892220020294 1717.00000762939 10 13 6
-214.987814426422 -612.382888793945 1743.99995803833 11 14 7
-208.198592066765 -606.423437595367 1726.99999809265 11 14 7
-203.50481569767 -606.433272361755 1726.99999809265 11 14 7
-198.465511202812 -605.389535427094 1723.99997711182 11 14 7
-194.678708910942 -608.208358287811 1731.99999332428 9 12 5
-189.093336462975 -605.408549308777 1723.99997711182 10 13 6
-184.834837913513 -606.822550296783 1728.00004482269 10 13 6
-181.179866194725 -610.343456268311 1738.00003528595 10 13 6
-177.876457571983 -615.269124507904 1751.99997425079 10 13 6
-173.212245106697 -615.629315376282 1753.00002098084 12 15 8
-170.079827308655 -621.608436107636 1769.99998092651 12 15 8
-167.508393526077 -630.045890808105 1794.0000295639 12 15 8
-166.438013315201 -644.805073738098 1835.99996566772 15 18 11
-163.995921611786 -654.99871969223 1865.00000953674 14 17 10
-159.26556289196 -656.412124633789 1868.99995803833 9 12 5
-155.008241534233 -659.932732582092 1878.99994850159 9 12 5
-149.579524993896 -658.536195755005 1875 7 10 3
-145.019993185997 -661.002814769745 1881.99996948242 8 11 4
-139.901831746101 -661.01062297821 1881.99996948242 9 12 5
-133.637666702271 -655.398666858673 1866.00005626678 8 11 4
-127.598121762276 -650.488615036011 1851.99999809265 14 17 10
-122.097834944725 -648.036956787109 1845.00002861023 15 18 11
-116.825841367245 -646.638631820679 1840.99996089935 11 14 5
-111.51472479105 -644.888937473297 1835.99996566772 11 14 5
-106.984905898571 -647.70519733429 1843.99998188019 11 14 5
-102.190233767033 -649.116218090057 1848.00004959106 11 14 5
-96.9004556536675 -647.365629673004 1843.00005435944 11 14 5
-91.6377678513527 -645.614802837372 1838.00005912781 11 14 5
-86.8735238909721 -647.376298904419 1843.00005435944 10 13 4
-81.5045535564423 -644.57106590271 1835.00003814697 12 15 6
-76.5125602483749 -644.575715065002 1835.00003814697 14 17 8
-71.3645666837692 -643.174946308136 1830.9999704361 14 17 8
-66.6370689868927 -645.637989044189 1838.00005912781 13 16 7
-61.1336044967175 -640.372574329376 1822.99995422363 16 19 12
-55.9890121221542 -638.268411159515 1817.00003147125 17 20 13
-51.1579215526581 -639.676690101624 1820.99997997284 15 18 9
-46.6855838894844 -646.353900432587 1840.0000333786 12 15 8
-41.951235383749 -650.571942329407 1851.99999809265 12 15 6
-36.6731807589531 -646.358907222748 1840.0000333786 15 18 9
-31.7185334861279 -647.414803504944 1843.00005435944 12 15 8
-27.0083211362362 -654.793441295624 1863.9999628067 12 15 8
-22.042578086257 -657.956540584564 1873.00002574921 11 13 8
-312.755763530731 -622.909069061279 1761.0000371933 14 16 15
-305.349707603455 -617.613017559052 1746.00005149841 18 20 15
-298.369348049164 -613.024294376373 1733.00004005432 10 13 6
-293.154031038284 -611.97292804718 1730.00001907349 16 17 9
-288.12164068222 -611.275494098663 1728.00004482269 15 16 8
-283.756047487259 -611.99289560318 1730.00001907349 14 15 7
-279.218226671219 -612.356781959534 1730.99994659424 15 16 8
-274.516135454178 -612.366855144501 1730.99994659424 15 16 10
-269.658148288727 -612.023293972015 1730.00001907349 15 18 9
-262.814342975616 -607.080519199371 1715.99996089935 15 18 7
-256.648272275925 -603.55281829834 1705.9999704361 15 18 7
-249.206826090813 -596.840918064117 1687.00003623962 16 20 6
-244.043588638306 -595.435678958893 1682.99996852875 16 20 6
-239.044159650803 -594.384074211121 1679.99994754791 16 20 6
-234.898328781128 -595.455348491669 1682.99996852875 16 19 8
-230.32546043396 -595.465123653412 1682.99996852875 15 18 9
-225.215911865234 -594.059705734253 1679.00002002716 13 16 9
-219.996437430382 -592.300176620483 1674.00002479553 12 15 8
-219.952091574669 -604.69377040863 1708.99999141693 11 13 8
-215.811848640442 -606.118857860565 1713.00005912781 11 14 7
-213.128864765167 -611.78994178772 1728.99997234344 11 14 7
-210.238188505173 -617.107331752777 1743.99995803833 11 14 7
-203.141689300537 -610.039949417114 1723.99997711182 11 14 7
-199.146702885628 -612.172544002533 1730.00001907349 11 14 7
-195.456072688103 -615.366578102112 1738.9999628067 11 13 8
-189.742147922516 -612.191081047058 1730.00001907349 11 13 8
-185.253530740738 -612.907946109772 1731.99999332428 11 13 8
-180.649623274803 -613.270819187164 1733.00004005432 11 13 8
-176.953792572021 -616.818487644196 1743.00003051758 11 13 8
-172.21537232399 -616.827189922333 1743.00003051758 10 12 7
-167.66893863678 -617.543578147888 1745.00000476837 10 12 7
-165.072157979012 -625.691592693329 1768.00000667572 14 17 10
-165.160238742828 -644.810736179352 1822.00002670288 14 17 10
-163.37177157402 -657.559871673584 1858.00004005432 14 17 10
-159.171894192696 -661.107420921326 1868.00003051758 10 13 6
-153.267666697502 -657.576501369476 1858.00004005432 8 11 4
-148.7737596035 -660.061955451965 1865.00000953674 8 11 4
-143.779277801514 -660.423696041107 1866.00005626678 7 10 3
-139.448195695877 -663.970589637756 1876.00004673004 10 13 6
-133.845135569572 -661.500453948975 1868.99995803833 11 14 7
-127.728849649429 -656.198501586914 1853.99997234344 16 19 12
-122.223392128944 -653.727889060974 1847.00000286102 15 18 11
-116.882756352425 -651.964664459229 1842.00000762939 12 15 8
-111.872851848602 -651.971042156219 1842.00000762939 10 13 6
-108.023107051849 -659.056186676025 1861.99998855591 9 12 5
-102.682061493397 -657.292246818542 1856.99999332428 11 14 7
-96.8949273228645 -652.342617511749 1843.00005435944 12 15 8
-91.9316336512566 -652.701854705811 1843.99998188019 11 14 7
-87.3869955539703 -656.246602535248 1853.99997234344 10 13 6
-82.1660533547401 -654.83558177948 1850.00002384186 14 17 10
-76.6332149505615 -650.592565536499 1838.00005912781 14 17 10
-71.5942531824112 -650.242745876312 1837.00001239777 13 16 9
-66.4518997073174 -648.830831050873 1832.99994468689 13 16 9
-61.2641572952271 -646.710693836212 1827.00002193451 19 20 14
-56.108970195055 -644.590318202972 1820.99997997284 19 20 12
-51.211092621088 -645.301342010498 1822.99995422363 16 18 7
-46.5306043624878 -649.197936058044 1833.99999141693 15 16 8
-41.9487580657005 -655.572235584259 1851.99999809265 15 17 6
-36.6909392178059 -651.680707931519 1840.99996089935 14 16 5
-31.7510701715946 -653.09864282608 1845.00002861023 15 18 9
-26.9342735409737 -658.056080341339 1858.99996757507 12 15 8
-22.0765713602304 -664.075314998627 1876.00004673004 17 19 14
-312.213361263275 -626.60813331604 1758.00001621246 9 11 10
-305.689811706543 -623.053133487701 1748.00002574921 14 16 11
-299.220532178879 -619.498252868652 1738.00003528595 12 15 8
-293.652713298798 -617.725551128387 1733.00004005432 15 16 8
-288.445353507996 -616.665720939636 1730.00001907349 14 15 7
-283.582210540771 -616.318821907043 1728.99997234344 14 15 7
-278.563112020493 -615.615546703339 1726.99999809265 14 15 7
-272.444665431976 -612.417042255402 1718.00005435944 15 16 10
-268.089532852173 -613.139748573303 1720.00002861023 14 17 8
-261.732399463654 -609.228074550629 1708.99999141693 14 17 8
-256.788849830627 -608.524858951569 1707.00001716614 15 18 7
-250.674247741699 -604.969620704651 1697.00002670288 15 19 5
-245.483845472336 -603.553235530853 1692.999958992 16 20 6
-241.02646112442 -603.919386863709 1694.00000572205 16 20 6
-236.982151865959 -605.354964733124 1697.99995422363 15 18 7
-231.958031654358 -604.295074939728 1695.00005245209 14 17 8
-225.072219967842 -598.243653774261 1677.99997329712 12 15 8
-219.724133610725 -596.113801002502 1672.00005054474 11 14 7
-217.625960707664 -602.897226810455 1690.99998474121 10 12 7
-215.424358844757 -609.680831432343 1710.00003814697 11 14 7
-212.749525904655 -615.394830703735 1725.99995136261 11 14 7
-208.299934864044 -616.117298603058 1728.00004482269 11 14 7
-205.371052026749 -621.474981307983 1743.00003051758 11 14 7
-199.597850441933 -618.275165557861 1733.99996757507 11 14 7
-195.896416902542 -621.493339538574 1743.00003051758 11 14 7
-191.707208752632 -623.285233974457 1748.00002574921 11 13 8
-185.886338353157 -619.728446006775 1738.00003528595 11 13 8
-180.849298834801 -618.667423725128 1735.00001430511 11 13 8
-177.858740091324 -624.737977981567 1751.99997425079 10 12 7
-172.700837254524 -623.32022190094 1748.00002574921 10 12 7
-166.987985372543 -619.762599468231 1738.00003528595 10 12 7
-165.063843131065 -630.468845367432 1768.00000667572 11 14 7
-165.151819586754 -649.733603000641 1822.00002670288 12 15 8
-162.923753261566 -660.796701908112 1853.00004482269 11 14 7
-159.674882888794 -668.29377412796 1873.99995326996 10 13 6
-155.239328742027 -671.154737472534 1881.99996948242 9 12 5
-148.446843028069 -663.673639297485 1860.99994182587 10 13 6
