ply
format ascii 1.0
comment KinectMotionCapture
element vertex 774
property float x
property float y
property float z
property uchar red
property uchar green
property uchar blue
end_header
-1171.09448671151 -21.7388288194228 2877.52766685784 182 184 181
-1302.57545744531 -17.6351235667118 2518.82244703575 62 63 58
-1174.64274424925 -20.7847536059066 2587.36964731122 12 13 8
-1175.77666676464 -21.0172006134515 2595.32924488047 8 9 4
-1162.51116282767 -21.3992732889826 2604.28525892143 10 11 6
-1147.16588576774 -21.8004316547187 2613.30007404413 18 19 14
-1133.85563407882 -22.1777262569169 2622.09203605524 17 18 13
-1126.70663349977 -22.4897385792297 2630.42188035083 12 13 8
-1132.95065346603 -22.6647964575098 2637.90796975133 14 15 10
-1125.78457279341 -22.9749200312742 2646.17559146403 11 12 7
-1125.83424778569 -23.2116637843264 2654.00319813084 10 11 6
-1120.71371554942 -23.4991117564277 2662.0862866679 12 13 8
-1127.99192586899 -23.6638235786887 2669.52233372835 5 6 1
-1142.52086898256 -23.7587964951711 2676.64593028483 9 10 5
-1142.56907938649 -23.9952913487291 2684.46918538671 10 11 6
-1131.21557036661 -24.3405131516546 2692.75375773477 13 14 9
-1134.36077442836 -24.5460037053643 2700.40429858795 19 20 15
-1132.31846336712 -24.800550469103 2708.2480299807 16 17 12
-1112.61793693344 -25.2192751318214 2716.66777790359 16 17 12
-1094.96522553058 -25.6156512393034 2724.91213061438 19 20 15
-1089.76297729853 -25.8947459098084 2732.69709751233 15 16 11
-1093.91523322622 -26.0875315522052 2740.19832539857 17 18 13
-1095.98754504788 -26.299505779611 2747.75858360007 17 18 13
-1074.09487016625 -26.726088376969 2755.82792268761 20 21 16
-1031.31598333099 -27.3345505553217 2764.16800295194 18 18 16
-1010.38633428665 -27.7439140751834 2771.92741906522 132 132 130
-1004.04251411639 -28.0226396936748 2779.37050648301 132 132 130
-999.776588223864 -28.2822645065074 2786.74782657804 127 127 125
-994.45647638706 -28.5500383181717 2794.1023364098 122 122 120
-992.264647303828 -28.7902675451388 2801.39997603484 118 118 118
-991.114086981868 -29.0212221810452 2808.67224857185 116 116 116
-992.054493850008 -29.2344075226664 2815.92552127843 112 112 112
-995.089900340592 -29.4302393116094 2823.17543233054 117 117 117
-1004.42135749637 -29.5748917454024 2830.45294810261 126 126 126
-1010.61302354185 -29.7462630534271 2837.74698516387 131 131 131
-1022.06288953139 -29.8761826771724 2845.1063984953 108 108 106
-1046.13982798273 -29.9071452742873 2852.65150164599 39 39 37
-1115.47909756157 -29.5843748335897 2860.91624380349 3 3 1
-1171.8435393919 -29.138406122014 2595.0824697762 13 14 9
-1168.95029776931 -29.6354475050737 2611.30272551735 9 10 5
-1163.88991237704 -29.9106444337393 2619.61686216521 12 13 8
-1142.32427479867 -30.3098033855117 2628.91774051635 16 17 12
-1103.18750675717 -30.8372660107393 2639.14154272816 17 18 13
-1172.39108831911 -30.5527394186268 2642.98110730238 15 16 11
-1113.58597234625 -31.2204975761305 2654.12727471792 10 11 6
-1110.52072676509 -31.4728860208019 2662.07073376186 12 13 8
-1106.4138403141 -31.7318633752238 2670.03801588128 15 16 11
-1161.30499637978 -31.5689853750428 2675.21467768662 11 14 7
-1154.11302183323 -31.8522277885397 2683.40313187783 13 14 8
-1128.24848627354 -32.264465859039 2692.32099767413 16 17 11
-1134.50305723442 -32.4505931829288 2699.83927218128 21 22 16
-1134.53481931977 -32.679806294471 2707.60512618827 21 22 16
-1109.63258676021 -33.0773411755289 2716.20879685762 26 27 21
-1083.65354943533 -33.4779251207862 2724.70889784608 23 26 19
-1078.43967754755 -33.7371684648516 2732.46417049929 11 12 4
-1075.29777032003 -33.9818099148244 2740.12696189995 17 18 10
-1081.52298681096 -34.1651776779778 2747.53799125567 19 20 12
-1063.77976733448 -34.5023601203121 2755.48367700956 27 24 17
-1026.19126234885 -34.9619089645335 2763.70518391151 9 4 0
-1008.37990054556 -35.2923079678916 2771.40215326971 125 118 112
-1005.16422644732 -35.5298909538594 2778.79551908199 136 131 125
-997.760259026095 -35.7922834985358 2786.21004879468 140 135 129
-992.435201670839 -36.0408845570434 2793.55830155836 132 127 123
-988.146586681964 -36.282461635036 2800.86277588056 129 125 122
-988.038528767043 -36.4986303875091 2808.11867017848 129 125 122
-990.023638318533 -36.7024832942082 2815.36029081876 131 130 128
-994.106320782943 -36.8946453998187 2822.60359974036 123 122 120
-1004.48829436665 -37.051614125796 2829.87830988985 111 111 109
-1009.63073181298 -37.2392462889475 2837.16282093724 113 113 111
-1020.03198684739 -37.3986111731413 2844.50667750277 125 126 121
-1048.32154484115 -37.4623762232134 2852.08549105234 17 18 13
-1139.78598541566 -37.192069758073 2860.63430246648 7 8 3
-1232.42431277678 -36.928902454329 2869.64069776666 20 22 17
-1049.59727526754 -37.4116759819967 2587.98842158243 16 17 9
-1038.31090876961 -37.6956611939529 2596.56094253266 12 15 8
-1193.94653189737 -37.7921439112227 2617.12990137667 15 18 11
-1088.85385845626 -38.5489114940446 2631.7106677426 13 16 9
-1114.68195579312 -38.6453845595659 2637.92255094617 17 20 13
-1122.98575302693 -38.8302019602119 2645.25645819321 11 14 7
-1110.6284209147 -39.1145033460366 2653.74881448975 9 12 5
-1106.52413289428 -39.3577581843328 2661.73659946866 14 17 10
-1123.10897069469 -39.5043337216474 2668.6681100911 13 16 9
-1084.82599808564 -39.9027593269263 2678.24703423921 8 13 6
-1083.79639489801 -40.3489232749755 2693.62516578415 19 20 14
-1090.02113614723 -40.5422296604157 2701.02815593474 25 24 20
-1111.82840988791 -40.6697320031448 2707.87812948401 23 24 18
-1107.68295704241 -40.908832470943 2715.7157003876 20 23 14
-1096.24942547405 -41.1769237520823 2723.75186087072 20 26 16
-1083.75661239081 -41.4474334946914 2731.74991019697 11 14 3
-1121.22674137501 -41.5175043969539 2738.34073278026 18 20 7
-1078.50879368425 -41.9052704788299 2747.04640410606 12 12 0
-1048.24231710339 -42.2389814836399 2755.25651408563 27 19 6
-1017.93119021385 -42.568257674209 2763.30457515232 27 11 0
-1001.15017504895 -42.8431477497998 2770.96481566072 119 100 86
-998.971323318131 -43.0627244598528 2778.3236765698 109 91 77
-993.650076404384 -43.2929343701309 2785.69768796418 112 94 82
-993.550333585825 -43.5041654956687 2792.98664292183 141 124 114
-989.259328755459 -43.7294360018964 2800.29253934672 144 131 123
-990.198400895747 -43.9366325696624 2807.54463746867 160 149 143
-990.087277145047 -44.1471611177554 2814.79270984901 141 136 132
-994.169993777211 -44.3442950850216 2822.03300665561 126 123 118
-1003.50469854055 -44.5256075540745 2829.30036395345 120 121 116
-1013.89975240932 -44.7050005154087 2836.60948114944 100 100 98
-1029.56269253878 -44.8702302403787 2844.00270951338 91 92 86
-1065.23223144321 -44.9798625185708 2851.67595782339 16 17 11
-1164.11026383683 -44.9165578157041 2860.34319182649 19 20 14
-1110.61354304648 -46.1030976873737 2622.0052425368 15 18 11
-1116.89209832408 -46.5275681916319 2637.25565849544 17 20 13
-1117.96686918376 -46.7445379386398 2645.00540909253 13 16 9
-1135.58189273465 -46.9250949700065 2651.84309395243 12 15 8
-1160.45985570231 -47.0924482675972 2658.37981380327 15 18 11
-1133.60426902183 -47.3687314729081 2667.60025619763 10 15 8
-1110.85240331365 -47.6326711038902 2676.47859278177 11 18 10
-1066.29463274532 -47.9345053982311 2686.20118498171 13 18 11
-1085.99166864159 -48.326779314602 2700.63623568144 20 19 15
-1088.06440785881 -48.5376765277339 2708.19876068933 17 18 12
-1154.59088891718 -48.6444750738848 2713.54160376035 14 17 10
-1115.09568195762 -48.9241986506079 2722.59100198744 15 21 11
-1092.19932426108 -49.1736221843791 2730.94203284231 14 20 8
-1073.43532166062 -49.4137249912959 2739.05536230877 18 18 6
-1059.85461075016 -49.6440406810534 2746.93688605229 29 27 14
-1036.86419765235 -49.8841170473092 2754.94460894884 53 41 27
-1014.88310997022 -50.1194921465894 2762.80640704101 119 98 81
-1004.35926564588 -50.3387782616097 2770.35455061 122 95 78
-1000.08990203997 -50.5498571953457 2777.74975647566 132 105 88
-995.812029849823 -50.7601471141372 2785.11294075592 122 96 81
-993.618461580173 -50.9677682478193 2792.42471016571 116 90 75
-990.371919300121 -51.1758151797386 2799.72211598721 77 55 42
-992.358640636636 -51.379247950278 2806.96998612136 71 53 41
-993.296465221089 -51.5836140946046 2814.2192392942 96 86 77
-996.331758814407 -51.7867402754033 2821.46412588374 130 121 114
-1004.61976350864 -51.987205524498 2828.72951929426 148 143 137
-1017.12006651309 -52.1866716164656 2836.04877099851 153 152 147
-1041.20311310169 -52.3830615259843 2843.5121103209 101 101 93
-1092.67852190689 -52.573112153062 2851.37016191666 19 19 11
-1186.34565367208 -52.7585581842506 2860.01582594776 36 37 29
-1210.58371659291 -52.9716922958352 2868.0441391167 10 13 6
-1156.14159122732 -53.9897695855516 2618.50887659759 15 18 11
-1148.9900815293 -54.2055706165477 2626.89014779881 14 17 10
-1150.15103079846 -54.6380091927427 2642.61739599195 18 21 14
-1182.27309514301 -54.8662462938468 2648.73457584637 13 16 9
-1159.58216981105 -55.0730844019185 2657.87522301566 15 18 11
-1152.39199915111 -55.2846740483252 2666.11561249036 10 15 8
-1128.60605696834 -55.4848368748334 2675.09214054021 14 21 13
-1119.30410110845 -55.6911583685627 2683.28785227049 14 19 12
-1124.51587379063 -55.9067100212221 2690.81216455519 17 20 13
-1108.96059294515 -56.105717669421 2699.1749041621 20 19 15
-1112.08749048564 -56.3188028739482 2706.75361064739 17 18 12
-1131.85525000491 -56.5478944044963 2713.76069932259 15 18 11
-1097.5312621277 -56.7242323029346 2722.5916328097 10 16 6
-1076.69512641027 -56.9102550233692 2730.83925126641 20 24 10
-1063.12218976339 -57.1016110328786 2738.77423642941 19 19 7
-1045.35661678768 -57.2856907017019 2746.7326600755 29 23 9
-1020.25875362831 -57.4576376972507 2754.75241705153 107 93 80
-1006.61029878867 -57.641530511229 2762.41172983694 125 98 81
-1000.25534059956 -57.8339069453209 2769.86798032832 126 99 82
-994.934372165327 -58.0267742054728 2777.26660185692 136 107 91
-995.881426264396 -58.2285756434314 2784.55267065244 124 97 80
-994.732841516257 -58.4269763350618 2791.85283096404 131 103 89
-995.675544363998 -58.6286139903815 2799.12191879748 109 86 72
-994.519564814319 -58.8266215674361 2806.39487185226 103 81 68
-994.408537384626 -59.0262362697897 2813.64926326197 76 62 51
-994.294359712891 -59.2258403663444 2820.89289415885 66 53 45
-1005.7346838917 -59.4481513425919 2828.15854955398 68 59 50
-1025.59866495382 -59.6892378711496 2835.5153169451 140 136 127
-1077.04950098753 -59.9999222041264 2843.20597284983 69 66 59
-1145.41209907621 -60.3545067096361 2851.31319911794 3 3 0
-1151.70714269897 -60.5785523224031 2858.95687204118 28 29 21
-1168.54985417487 -60.8279111955262 2866.78092506138 25 28 21
-1106.54123846547 -60.8020730128194 2582.01919969879 14 15 7
-1144.88685955958 -61.7405929682193 2610.79479056978 15 18 11
-1185.19466873059 -62.0604878986272 2616.07374752833 16 19 12
-1146.11204255974 -62.3755066443912 2634.42626362922 18 21 14
-1185.46077026179 -62.6997616841082 2640.03790670783 18 21 14
-1181.40442117144 -62.8998060616141 2648.23096036119 15 18 11
-1155.59625932807 -63.0326203779335 2657.53454424761 14 17 10
-1132.85755688015 -63.1711118691427 2666.54095482531 12 17 10
-1096.60577125412 -63.2632142409366 2676.06110480191 12 17 10
-1118.40200030475 -63.5387147122598 2682.77756233366 12 15 8
-1143.34004196647 -63.8272423203106 2689.45991046191 13 16 9
-1116.36172057369 -63.9431527800841 2698.32591388073 17 18 13
-1125.73130225429 -64.1806619936727 2705.68728265413 17 18 12
-1093.49557476965 -64.2727532745661 2714.53206582639 13 19 9
-1076.82873604984 -64.4160352107483 2722.7002406094 15 21 11
-1049.71821599169 -64.5187358247325 2731.08375629903 18 20 7
-1073.65062367514 -64.8074308600104 2737.92952626686 17 17 5
-1016.24108689776 -64.7910989650404 2746.89553456468 52 44 31
-1006.77114364696 -64.9516575387345 2754.49736337164 120 104 91
-995.196431650264 -65.1025533350869 2762.08241066631 126 97 81
-994.056376715238 -65.2932178165424 2769.41912474032 134 103 85
-990.819691767655 -65.4752328463342 2776.77049310801 133 102 84
-994.90343958488 -65.6867543749101 2784.00553494962 129 98 80
-992.704564631772 -65.8723881979304 2791.31148332071 135 103 88
-993.644743997475 -66.0709612129788 2798.57313681336 121 93 79
-992.485447930363 -66.2605268060999 2805.83910611565 114 88 75
-992.371521966052 -66.4543762373003 2813.08637572481 119 100 86
-994.355230581151 -66.6575761043488 2820.32320725789 119 102 92
-1006.84943506682 -66.9083843942013 2827.58740158125 105 93 81
-1035.13439841908 -67.2333864707303 2834.98422474493 83 74 65
-1119.23706550225 -67.821680278302 2842.93423952501 17 14 5
-1153.95003896422 -68.188092225598 2850.79107999514 44 44 36
-1149.71260321851 -68.372731463717 2858.32059136523 14 15 7
-1192.92433035656 -68.7870247032241 2866.52898766383 19 22 15
-1106.69145989366 -68.6885972338183 2581.49412427493 13 16 7
-1130.41843256742 -69.0120211591316 2587.55522831284 15 18 11
-1162.4157730314 -69.3802140115028 2593.12097210934 13 16 9
-1152.19197976879 -69.5345266157829 2601.82416733542 12 15 8
-1154.32877595282 -69.7516481260053 2609.62059361089 15 18 11
-1187.52343272363 -70.3403835849794 2623.38881951499 19 22 15
-1177.27553830694 -70.4919087703983 2632.00429170999 19 22 15
-1202.17834866297 -70.8346191114813 2638.52162476419 18 21 14
-1192.95480487969 -70.9906037531883 2647.04117424228 15 18 11
-1118.46129901873 -70.7780643353797 2658.94372050298 13 16 9
-1136.10993591514 -71.0795436346685 2665.82986113711 14 19 12
-1116.43991432128 -71.1682025394651 2674.57218281439 11 16 9
-1121.64998894992 -71.3988658984689 2682.0806498188 11 14 7
-1100.89804164791 -71.4770419323289 2690.70893211357 12 15 8
-1137.27875390647 -71.8922688978319 2696.93337082951 17 18 13
-1098.8220162101 -71.8616911375183 2706.13706050934 17 18 12
-1108.18483090632 -72.116700779631 2713.46225594162 11 17 7
-1063.39991508091 -72.0397740470386 2722.58063220531 13 19 9
-1048.7745070003 -72.144133911867 2730.55924240937 15 17 4
-1038.29767408233 -72.2724739005331 2738.33934873934 23 21 9
-1022.58552322382 -72.3660826082222 2746.18620410691 66 56 44
-994.317010773017 -72.3769482669063 2754.22462117038 113 95 83
-986.907720015909 -72.5189465208189 2761.69539703275 126 94 79
-984.71440557033 -72.6940096265904 2769.02773525344 136 103 86
-989.84029770362 -72.9169369371868 2776.22946231045 132 99 82
-992.876294592736 -73.1264916240676 2783.47197245474 131 95 79
-991.721811682738 -73.30815110596 2790.76080357078 132 96 80
-991.611397212603 -73.4965793901493 2798.0254623205 135 99 83
-992.547525904197 -73.6921422031157 2805.27397693811 132 100 85
-995.582048748162 -73.9023133927047 2812.51155403662 128 100 86
-999.668794859057 -74.1201605108204 2819.7537343089 127 104 88
-1013.22128265115 -74.4052320851315 2827.02917470276 128 106 92
-1053.09391051458 -74.8795300584395 2834.49122714553 46 32 19
-1145.66212089367 -75.7375286345793 2842.52944639121 28 24 13
-1164.60073438547 -76.0737262283666 2850.28677759763 12 12 4
-1152.98695258106 -76.1889166899628 2857.75023785543 25 26 18
-1242.66776986342 -77.2553410385574 2874.41907426889 25 28 21
-1286.01308014485 -75.7923978324537 2482.95789911806 107 82 62
-1345.53225167526 -76.4217988539711 2485.33381181333 109 84 64
-1115.07284554201 -76.6308448241297 2580.32214639889 12 18 8
-1169.88399216289 -77.6508848880626 2600.04112683743 17 20 13
-1199.89334028493 -78.0865358127325 2605.97682499986 12 15 8
-1222.938401233 -78.8780817596024 2628.69310765714 21 24 17
-1210.62954322066 -78.9818372087945 2637.47942603856 18 21 14
-1117.53387859657 -78.4264619794998 2650.67159237116 11 14 7
-1100.98410077098 -78.4864012110949 2659.32608050924 18 21 14
-1108.25666203249 -78.7407196840204 2666.68458077604 17 20 13
-1122.79953822396 -79.0561520186481 2673.72072158451 12 17 10
-1129.05258545262 -79.3036243261475 2681.19460876138 10 13 6
-1141.54532411523 -79.6044043172454 2688.4218112549 13 16 9
-1133.25709793948 -79.7293868989015 2696.53633536345 17 18 13
-1097.90235544353 -79.6208269398227 2705.61739797303 17 20 13
-1077.07242560005 -79.6331706535726 2713.99770945601 20 26 16
-1073.92315390455 -79.7965495439656 2721.68446295646 14 20 10
-1043.6586838857 -79.7215425601734 2730.16099507134 21 23 10
-1042.56265472611 -79.9001133399149 2737.66880355085 25 23 11
-1019.53771330346 -79.8833239380851 2745.71050114352 69 57 45
-995.433675137285 -79.8537215950318 2753.65013382928 114 96 84
-986.975198689442 -79.9621404046753 2761.14393856673 130 98 83
-981.641050950131 -80.0976810746305 2768.52982092662 132 99 82
-987.812626417481 -80.3378032191299 2775.7049309074 130 97 80
-987.703848906438 -80.520615303101 2782.9792131402 136 100 84
-988.640600676135 -80.7131019096258 2790.23198328039 133 96 78
-991.673638023783 -80.9251520011737 2797.46285878189 131 95 79
-995.757900540708 -81.1474198404467 2804.69302694462 134 101 84
-997.743904044055 -81.350307458833 2811.93857608544 124 95 79
-999.729792016025 -81.553355014624 2819.1835953048 120 92 78
-1011.18221372333 -81.8474606200412 2826.44976810433 124 98 83
-1063.69806256796 -82.5393734074608 2833.95667074385 26 10 0
-1156.28638497569 -83.8213039901431 2849.59548332519 34 34 26
-1218.49111168714 -84.6276433605965 2857.93337703566 14 15 7
-1185.78861668769 -84.5018096173 2865.18273036113 14 17 10
-1126.63551748834 -84.1082331449457 2871.81065499907 20 25 18
-1287.86612737731 -83.7879553028391 2465.30646392453 106 87 72
-1289.10212491476 -84.010061521088 2473.65250370007 85 57 43
-1314.87133640443 -84.4648655280791 2479.41952389676 88 62 45
-1305.89116939348 -84.5899823995125 2488.86124290165 105 84 67
-1136.76972759279 -84.5494943429535 2570.15344460928 12 18 8
-1135.81290983768 -84.7346919282121 2578.17393393086 10 16 6
-1240.06461913027 -86.1936904446673 2586.34894354488 11 14 7
-1170.05174077412 -85.6704792827675 2599.4971128676 16 19 12
-1177.36046690463 -85.9418045431721 2606.97914900957 12 15 8
-1174.34616712369 -86.1056876973658 2615.16670840923 13 16 9
-1149.61608867546 -86.0403504137491 2624.70178680577 20 23 16
-1194.15580618545 -86.7046176889043 2629.88936076553 20 23 16
-1132.13346345298 -86.2396491007356 2641.49470130296 13 16 9
-1093.84696238584 -86.0208081714265 2651.45023475335 13 16 9
-1157.08935035091 -86.890411988201 2655.80817869447 16 19 12
-1086.60465335711 -86.3188785517411 2667.23601506648 16 19 12
-1146.80878205543 -87.1621517583914 2672.02001177688 11 16 9
-1156.19525715107 -87.4557996584826 2679.40865946155 10 13 6
-1164.55210421472 -87.7389765868296 2686.87743127269 13 16 9
-1127.15088113161 -87.5158976287285 2696.22525463079 20 21 16
-1092.81757177822 -87.3221528566193 2705.25615915042 19 22 15
-1074.05780202598 -87.2984061892969 2713.5517850981 17 23 13
-1045.88865100091 -87.1661877567951 2722.05037648812 16 22 12
-1056.26906727896 -87.4668942090927 2729.22762716881 27 27 15
-1031.17432314061 -87.3646960251727 2737.43204537322 26 19 9
-1006.04230571741 -87.258851313214 2745.50037740323 103 89 78
-992.369456896938 -87.2816429186996 2753.1708309882 113 93 82
-988.087744452148 -87.4113160734262 2760.57158338263 112 80 65
-984.844056036236 -87.5524241018179 2767.92184676173 112 79 62
-986.829318968282 -87.7540996247281 2775.16541156009 116 80 64
-985.670473928043 -87.9190222474264 2782.44861371821 117 80 64
-985.555820519161 -88.0960713116863 2789.70471836293 116 79 61
-989.63604510315 -88.3228400538289 2796.91705283763 128 93 74
-993.718990736468 -88.5500679149068 2804.13920017152 124 91 72
-996.753629188879 -88.7651337355817 2811.37411628771 122 93 77
-999.789617436149 -88.9806156155528 2818.61378124959 119 92 75
-1011.24518974882 -89.2985605067954 2825.87567172978 127 101 86
-1043.77298132841 -89.874598258564 2833.27965416427 35 17 3
-1120.59663080253 -90.9970075438343 2841.14392041667 27 20 10
-1155.34572582527 -91.6110753486374 2848.97758719632 23 23 15
-1137.38315375003 -91.5775899400968 2856.34288001927 19 20 12
-1143.67739632311 -91.8433440314284 2863.95817527466 19 22 15
-1132.01629315767 -91.8857925740679 2871.29186603321 18 23 16
-1314.6558703689 -92.5167487819943 2461.84611299672 97 79 65
-1322.04136297581 -92.8116757625721 2469.59733810671 63 37 24
-1335.56952113976 -93.1812474001494 2476.72909844343 63 41 27
-1305.1069717867 -93.0166211959747 2488.42310208125 82 64 50
-1314.53871190253 -93.3356069272786 2495.963812934 57 43 30
-1122.52212142945 -92.3172731770505 2570.80015734865 14 17 8
-1130.82189621433 -92.6111793298172 2578.05025710395 12 15 6
-1081.41912249742 -92.1674353850492 2589.73755222049 12 15 8
-1169.1862999732 -93.6703596929212 2599.02676489464 14 17 10
-1167.20147654128 -93.8340094928597 2607.14039514974 13 16 9
-1102.22500801629 -93.5447120271283 2634.94376581949 19 22 15
-1081.53536244917 -93.4550902736834 2643.90930098365 15 18 11
-1113.6636146046 -94.0640303734289 2649.80909902377 15 18 11
-1105.39085655092 -94.1376857203141 2658.01345856692 17 20 13
-1236.15423174556 -96.0731825105799 2659.11123988738 14 17 10
-1182.31889959064 -95.7264730659802 2677.65983212837 11 14 7
-1123.10606160291 -95.1092000537721 2688.10350902239 14 17 10
-1104.39016871006 -95.0370940488836 2696.59257270339 20 21 16
-1079.39786492649 -94.8764419007916 2705.21423664021 18 21 14
-1065.82982944962 -94.8697638885138 2713.29244720101 17 23 13
-1055.36853523917 -94.904232718869 2721.18858201909 18 24 14
-1037.58593590515 -94.8357308359319 2729.24418592532 24 24 12
-1006.20253575293 -94.5752037704686 2737.57979781108 29 22 12
-995.670061243107 -94.6027977539249 2745.21599454698 109 92 82
-990.347586394017 -94.7022051985388 2752.66895770983 109 87 76
-989.200121006923 -94.8597789756926 2759.99904996609 106 74 59
-985.954442424985 -94.9873416773562 2767.35047605899 114 81 66
-983.749116376269 -95.1292440638824 2774.65915349359 112 76 60
-983.634541167737 -95.3007277152698 2781.91906219122 109 73 57
-984.566245973356 -95.4870850412522 2789.15696364982 114 78 62
-990.745346101119 -95.7491982048076 2796.34705626423 121 85 69
-991.677523150317 -95.936014512885 2803.58642129342 113 80 63
-993.659324494762 -96.1381850650228 2810.81682135993 110 81 65
-997.744756509825 -96.3712243163664 2818.04546015684 106 80 65
-1008.14925976745 -96.6974187414717 2825.29604930002 110 88 74
-1042.79239693302 -97.3814118249902 2832.69309718535 29 13 0
-1085.9124523882 -98.1947749139121 2840.30825365877 26 19 9
-1126.97834098993 -98.9828816454356 2848.10620654398 22 22 14
-1134.32070406608 -99.2736869762651 2855.69990235328 18 19 11
-1135.33283825001 -99.4708771710857 2863.22958302354 18 21 14
-1344.53054037889 -101.422574459853 2458.0369033987 100 82 70
-1345.80346325148 -101.642712506883 2466.52128230669 66 42 30
-1330.70551618847 -101.621666874361 2476.72094273446 63 44 30
-1276.6783940317 -101.022913641149 2490.82026315762 68 54 41
-1274.82251461355 -101.191020742863 2499.40982315651 55 43 31
-1138.11845007211 -100.459433559419 2569.0135335139 14 17 8
-1127.88646132601 -100.486109473436 2577.76595461788 12 15 6
-1092.89403542004 -100.130303546844 2588.3483258743 12 15 8
-1171.41647755152 -101.706519011746 2598.33611743762 13 16 9
-1139.47070167235 -101.393242710777 2608.51429098444 15 18 11
-1103.34257165853 -101.010596170335 2618.79328162311 15 18 11
-1098.19689120345 -101.10892565049 2626.90239926795 20 23 16
-1074.40735344283 -101.08964212097 2643.79676535142 16 19 12
-1088.91818206493 -101.495902699806 2650.65657561755 18 21 14
-1176.12325274336 -103.241721265429 2661.60176558867 11 14 7
-1125.31665639523 -102.964892333544 2687.45502098242 16 19 12
-1092.02031590478 -102.603211275688 2696.54476442228 19 21 16
-1078.46652585926 -102.558322006039 2704.69999006513 17 20 13
-1083.65388179701 -102.817465038754 2712.106126448 14 22 11
-1074.24219249479 -102.837969425419 2720.01173460785 22 28 18
-1053.33272841806 -102.668335319857 2728.2116423395 22 22 10
-996.878453664835 -101.909929076198 2737.29653781818 26 17 8
-990.514899820156 -101.973763179259 2744.80202922367 114 96 86
-988.323156213424 -102.105950249851 2752.16819836765 109 85 75
-990.312364340212 -102.307562156684 2759.42645106471 90 61 47
-986.017430553075 -102.404071958712 2766.79812378859 114 85 71
-982.761569735096 -102.517553381654 2774.12156443945 124 92 77
-980.547349302771 -102.648058020354 2781.40441471227 94 62 47
-983.574699711529 -102.866844487592 2788.60992272933 112 79 64
-988.703875781769 -103.121511617418 2795.80287451783 117 88 72
-992.78634302112 -103.358966568184 2803.01678881965 118 90 76
-994.768185400036 -103.560997450175 2810.24742941953 103 79 67
-999.907010147612 -103.817329278487 2817.47515385242 103 81 68
-1018.73983934299 -104.309594782291 2824.74119559125 109 91 79
-1059.7244629297 -105.185899133522 2832.18174404333 29 17 5
-1096.54388266209 -105.994881664324 2839.78642097469 23 19 10
-1122.85828450099 -106.625904026695 2847.46637103921 20 20 12
-1159.76449173906 -107.444375185301 2855.38728234642 16 17 9
-1123.81085714284 -106.994499525175 2862.4602648329 17 20 13
-1349.89790947878 -110.05473909501 2456.92878548017 109 95 84
-1356.28716060299 -110.360624546232 2464.87149202501 61 41 32
-1354.49402040859 -110.524954371093 2473.69637523995 57 40 30
-1308.65433981112 -109.9231089953 2487.02266355323 66 53 44
-1278.12056401289 -109.582144887013 2498.56354788139 50 41 32
-1187.60703446476 -109.099014327812 2556.36673468925 15 20 13
-1144.45667744468 -108.509975897201 2567.97997854226 13 16 7
-1137.31506387907 -108.560034349709 2576.50263333087 11 14 5
-1101.43378534283 -108.962334777342 2626.16855161091 20 23 16
-1080.74181028069 -108.756448684668 2635.19884103391 16 19 12
-1060.01810945667 -108.547297713921 2644.11340019422 17 20 13
-1054.81879442657 -108.62145873866 2652.03864187164 17 20 13
-1142.00737840464 -110.575517543588 2662.79021894753 11 14 7
-1124.39144471459 -110.594251453669 2679.20311340236 14 17 10
-1087.98410100746 -110.085615361895 2688.52498152924 16 19 12
-1125.45890714728 -110.958515779836 2694.6263049471 18 20 15
-1119.2158303063 -111.012888260145 2702.58507742778 15 20 13
-1105.6615181769 -110.928426394594 2710.76334874091 13 21 10
-1060.78144055103 -110.249449715219 2719.90758168688 20 26 16
-1062.82557024533 -110.455940532605 2727.36666711109 25 23 11
-1010.53425161208 -109.628094155891 2736.36543305122 24 15 6
-993.719616581293 -109.471660622078 2744.17409375632 115 95 86
-992.574244448385 -109.613244137493 2751.52205326927 113 89 79
-990.377452434381 -109.734442246378 2758.87548749915 81 53 39
-986.079210957876 -109.814835291984 2766.24598371948 113 84 70
-983.86930615492 -109.934950089289 2773.55141668024 128 96 81
-980.604447899364 -110.034386337659 2780.84938997428 87 55 40
-984.681320441413 -110.275995981592 2788.04083822828 110 78 63
-988.761190451179 -110.518147342964 2795.24214445789 118 90 76
-997.049013954614 -110.842933802033 2802.42837523881 113 87 74
-1000.08497074531 -111.06563284329 2809.66336687079 101 81 70
-1005.22793589606 -111.33021311006 2816.90125617691 105 87 75
-1031.4441839889 -112.010653749114 2824.18558050713 109 92 82
-1112.51006856321 -113.778083576134 2831.80606244618 35 25 15
-1072.37097668799 -113.152491721377 2839.03733997152 23 19 10
-1085.93348487522 -113.758276680286 2853.9401432556 16 17 9
-1364.47036466883 -118.889360117522 2454.79985717646 100 86 77
-1366.77779069592 -119.125262675913 2463.21794124607 62 43 36
-1355.77439708807 -119.095781109895 2473.0389915894 55 38 30
-1339.62892542155 -118.961746053599 2483.31798348743 75 62 54
-1308.07781220452 -118.516706724329 2495.04372140266 51 42 33
-1154.91961640042 -116.670243671105 2566.60611282424 14 17 10
-1146.74982318899 -116.675627659841 2575.2358636076 11 14 7
-1121.23692009043 -117.170216418373 2624.37327081051 18 21 14
-1130.5939565959 -117.533880686714 2631.60841411015 15 18 11
-1091.23370160584 -116.878666100367 2641.74913356169 16 19 12
-1071.5278656117 -116.631250047184 2650.56973450235 14 17 10
-1060.09708772317 -116.555516505949 2658.8331918524 9 12 5
-1087.08622751819 -117.288596673327 2665.05755736339 12 15 8
-1082.92137767183 -117.365585282459 2672.92545994536 16 17 9
-1067.30437473014 -117.199071746302 2681.28980844678 17 18 10
-1129.73993263204 -118.68973959227 2686.15636356708 18 19 13
-1121.41960682333 -118.679215660457 2694.23725974855 17 20 13
-1110.99975829855 -118.622650578869 2702.34567734322 16 21 14
-1110.99422355671 -118.787826810497 2710.01441409697 19 25 15
-1082.80117748141 -118.347542260562 2718.6178556454 15 21 11
-1053.52180391038 -117.880704844531 2727.10198961294 27 25 13
-1015.83686122743 -117.229061861232 2735.66791961678 20 11 2
-994.833913864222 -116.934238484188 2743.59978018025 99 79 70
-992.64072028568 -117.045021571016 2750.97315019542 96 74 63
-991.488973459678 -117.178040474786 2758.30284896974 71 45 30
-988.236705677295 -117.265184472222 2765.65532890674 118 90 76
-986.02570040507 -117.374578998304 2772.96437328133 118 90 76
-980.660325513344 -117.414659523781 2780.29458388249 76 48 36
-980.536477562697 -117.569235606889 2787.52981023704 110 84 71
-983.562418283594 -117.793086895448 2794.72688669632 117 91 78
-992.900066569934 -118.156530643228 2801.89018456348 94 70 58
-1001.19521188773 -118.497934132583 2809.09310868307 92 74 62
-1009.49886379539 -118.840523633931 2816.32686731768 99 82 72
-1047.31880041688 -119.840163008024 2823.62957622819 99 86 77
-1078.85996161351 -120.704069318797 2831.08496867128 32 23 14
-1074.56118077038 -120.770767114699 2838.46210879275 23 20 11
-1064.97374711913 -120.718674338944 2845.76197569994 18 19 11
-1068.0514495225 -120.950006913858 2853.14558082616 15 16 8
-1061.61344395146 -120.967573750271 2860.40478731638 18 21 14
-1364.73286221247 -127.471126779292 2454.25363030559 92 79 71
-1370.1101766387 -127.775692616526 2462.33636774443 59 42 35
-1376.51587167368 -128.103575456629 2470.32531028474 59 42 35
-1347.05178153187 -127.62186145029 2482.03026953551 84 69 62
-1357.54592718185 -128.040480630192 2489.5553311604 58 48 39
-1150.95976907891 -124.545357405793 2566.41457222759 16 17 12
-1152.06531953844 -124.737639200039 2574.29418812721 15 16 10
-1143.12572760897 -125.521606761551 2622.43751055508 19 22 15
-1127.62550801805 -125.322097855163 2631.25628429841 17 20 13
-1135.95511487207 -125.680628848226 2638.57634393851 14 17 10
-1077.86994360307 -124.475845535396 2649.6814292055 11 14 7
-1114.22566047752 -125.654501435931 2663.1237166641 17 18 10
-1063.27620693266 -124.607714570852 2673.34647185741 15 15 5
-1090.30747645198 -125.407990054621 2679.68390415 15 15 5
-1095.50238296256 -125.69094674474 2687.10396865578 15 16 8
-1114.24944677551 -126.297692985637 2693.97930319496 17 20 13
-1094.43361210647 -125.983890055122 2702.43341381381 18 21 14
-1078.76184852852 -125.767256250303 2710.62609011942 17 20 11
-1058.88827159321 -125.447764304032 2718.87033579001 18 19 11
-1065.10972774695 -125.754338997202 2726.18868832261 29 25 14
-1007.54835984856 -124.522668007937 2735.35920792906 30 21 12
-993.855394255417 -124.345449266857 2743.08031891951 94 77 67
-993.75328059724 -124.49604744706 2750.39968090434 77 59 47
-986.313307026676 -124.468332044632 2757.86368581201 79 56 42
-986.200467545186 -124.618144723893 2765.14279181875 108 82 69
-986.084388169664 -124.767763129469 2772.4109204107 109 83 70
-988.065395277263 -124.968570963455 2779.63923198037 68 44 32
-983.742072978165 -125.015216031624 2786.93791472834 98 76 63
-985.718582474262 -125.216023591929 2794.14952772081 107 87 76
-990.851340457591 -125.494615910729 2801.34067333875 66 49 39
-1006.51661084931 -126.03345935413 2808.50667336686 80 70 58
-1013.77205588677 -126.366201935257 2815.75118254957 85 77 66
-1052.66196871925 -127.482820904224 2823.05632824537 87 81 69
-1059.95292815849 -127.819786436111 2830.43002929123 29 27 15
-1059.86094680681 -127.973924890375 2837.7847754005 21 21 11
-1074.55580868433 -128.496668853725 2845.25432356341 18 19 11
-1091.38179675132 -129.074199646248 2852.80909527415 16 17 9
-1372.42028432733 -136.409966884204 2461.5648666541 84 71 65
-1363.45764878042 -136.362259615917 2471.18171768574 59 44 37
-1378.06321407525 -136.906274201577 2478.30629598141 49 34 27
-1301.36194914659 -135.148509443751 2494.67733009412 41 32 23
-1153.18223331217 -132.551055380465 2565.71544735265 14 15 10
-1171.82908687239 -133.190345330965 2572.19817446955 12 13 8
-1153.57825130911 -133.522529400447 2613.3310783973 12 15 8
-1156.7414597253 -133.763700543532 2621.02686805602 15 18 11
-1204.48946954273 -135.164300904759 2625.97143020678 14 17 10
-1153.73365386959 -134.002880200422 2636.98456964825 13 16 9
-1130.98778592074 -133.880474484305 2661.71623254594 17 18 10
-1118.52357240407 -133.709432900473 2670.0992388495 16 16 6
-1110.2035690304 -133.645974475515 2678.21475223689 16 16 6
-1084.13711327453 -133.266853157792 2694.67612060057 16 19 10
-1088.28628431937 -133.529785903377 2702.12160771269 17 20 13
-1039.19584518884 -132.381358931608 2711.51711952091 18 19 11
-1107.03908948135 -134.334206365529 2716.68702739161 18 18 10
-1027.57198369691 -132.372916784084 2726.81478082266 26 19 9
-997.16050332086 -131.711727889495 2735.11464784345 24 15 6
-994.968607437098 -131.8012297286 2742.50627181072 87 73 62
-992.770600987913 -131.890320819324 2749.87639679375 76 60 47
-989.518779151348 -131.950828318054 2757.24734933101 72 49 35
-990.455461803149 -132.12346417401 2764.5123955747 101 78 64
-991.390358523593 -132.296189447116 2771.77168357449 104 80 68
-991.273665307035 -132.440588512682 2779.03989929053 72 50 37
-984.847120907597 -132.414423102612 2786.36926911557 98 78 67
-991.031073518136 -132.729022332236 2793.54331207053 100 83 73
-997.220381208981 -133.044479106286 2800.73762500294 62 48 37
-1006.57503817751 -133.446571654054 2807.93967194441 61 53 40
-1010.66973161564 -133.706445847483 2815.18575441238 68 62 50
-1044.29790868682 -134.772302489766 2822.46875709559 72 68 56
-1109.62949445803 -136.707877980612 2830.01416392426 24 22 10
-1059.9339842779 -135.501429163276 2837.19979747187 21 21 11
-1082.03049422107 -136.258907797316 2844.72591430158 18 19 11
-1128.47640000835 -137.687727114205 2852.61177321356 16 17 9
-1183.44827071257 -139.356225611733 2860.827268767 13 16 7
-1234.2554496723 -140.915530251062 2869.23615899834 15 18 9
-1280.88944924431 -142.364890459431 2877.80740482407 20 25 18
-1370.63332038161 -144.93495390106 2461.23787942061 81 68 62
-1377.04027597736 -145.283496738655 2469.21938755764 81 68 62
-1399.86536621547 -146.088027934266 2475.52455331622 54 41 33
-1430.93090508659 -147.123485949083 2481.10574451903 45 36 27
-1155.40555611755 -140.561120229474 2565.01582414936 15 16 11
-1170.96272432361 -141.155625461402 2571.7453200102 13 14 9
-1214.42753316183 -142.540128707055 2576.38356984539 16 19 12
-1181.61963562464 -142.079947108093 2602.93613390548 12 15 8
-1163.05107089831 -141.706414205051 2612.16250335685 12 15 8
-1069.79261738633 -139.646822033065 2649.07973063577 11 14 7
-1129.04030237401 -141.647024618178 2661.27210483811 17 18 10
-1139.46595590605 -142.098101052725 2668.52237684175 16 16 6
-1126.9993338291 -142.039278876297 2684.61916096498 15 17 6
-1110.31912759051 -141.706146140693 2693.03848805385 15 18 9
-1105.0933023767 -141.703531210028 2700.91377493396 16 19 12
-1078.97008742415 -141.093049566049 2709.51690653204 16 17 9
-1113.42261152575 -142.243087315459 2715.9110802432 20 20 12
-1030.79066838954 -139.982583066477 2726.16721153065 24 20 11
-1013.9725328781 -139.63598207647 2734.08293741362 25 16 7
-1003.41215622191 -139.470788611582 2741.73725485107 84 71 62
-998.074007354279 -139.457493545076 2749.20224889807 84 70 59
-988.530973375006 -139.320189171132 2756.72076122742 66 47 33
-989.465876257323 -139.489961933678 2763.98100714314 95 73 60
-994.599429314934 -139.783434403953 2771.16571016741 77 58 44
-997.635485368549 -140.015560847875 2778.39511837464 46 28 14
-991.209636902747 -139.968441821106 2785.73937205902 68 50 38
-1003.71180458409 -140.480870835703 2792.86795853761 77 63 52
-1017.28100455501 -141.026235459358 2800.04111257111 48 36 24
-1026.65132328787 -141.448220250094 2807.28874965312 47 39 28
-1020.2165673553 -141.401168591806 2814.59988912625 58 52 40
-1069.68809551007 -143.018993073103 2821.90914371882 50 46 34
-1147.72907722148 -145.494295351776 2829.54265978213 24 22 10
-1060.96559274611 -143.198100220568 2843.96425213578 16 17 9
-1082.02402600893 -143.976075571005 2851.51957353939 14 15 7
-1178.26959906894 -147.014661448724 2860.14452083353 13 16 7
-1242.86221597642 -149.110519574677 2868.7414074245 15 18 9
-1290.57827640526 -150.704418067528 2877.34162982058 19 24 17
-1387.55582352499 -154.174347950122 2467.57866607184 76 65 59
-1382.68812756221 -154.191836656468 2476.77092428565 61 50 44
-1154.3810109546 -148.174985393924 2548.61225212232 17 22 15
-1142.08449928603 -147.948069753636 2557.6531784734 18 20 15
-1147.31010463885 -148.258196236773 2565.16913915614 16 17 12
-1197.97513191735 -149.967475478066 2569.0592415594 15 16 11
-1197.39894754914 -150.703572718721 2609.31755996083 13 16 9
-1167.41023144645 -149.921452559429 2619.26434656127 13 16 9
-1065.74784134991 -147.190932180508 2648.78184470295 11 14 7
-1151.02132517718 -150.146217541785 2659.58540704907 16 17 9
-1089.62203498079 -148.366558178862 2670.43772608398 16 16 6
-1077.07914467268 -148.257843293556 2686.28284085751 15 17 6
-1097.91710121941 -149.056532526576 2693.0064977655 15 18 9
-1126.08853022925 -150.088317489032 2699.53556445426 16 19 10
-1123.99758421029 -150.166388126204 2707.30921254637 15 16 8
-1077.99081760358 -148.854322502125 2716.56721875536 20 20 12
-1083.18143319623 -149.160517777506 2723.95575127518 26 22 13
-1036.03121010848 -147.805637909753 2732.89167873778 28 19 10
-1008.71829759007 -147.076988275773 2741.04955093768 74 64 54
-1002.33198666792 -147.011855302918 2748.551972835 78 66 54
-991.737794798404 -146.811968588129 2756.10357353727 56 38 26
-994.773097704695 -147.046203049816 2763.32885456404 91 71 60
-996.759337296802 -147.247153915612 2770.57650302035 78 60 48
-995.591921564494 -147.347340077893 2777.86875509074 41 23 11
-994.420099129176 -147.447305414935 2785.14478535404 60 42 32
-1004.82270239917 -147.918880295997 2792.29653460641 69 55 46
-1037.35607539492 -149.103352693167 2799.33710596202 38 25 16
-1042.52600538262 -149.409466230814 2806.64888848989 44 36 25
-1032.9336651218 -149.240060096521 2814.00460363056 51 44 34
-1102.48467425929 -151.626551121363 2821.34407838925 34 30 19
-1121.31822111041 -152.667011895862 2843.85382242963 14 15 7
-1128.66597212217 -153.050173403882 2851.40921373245 14 15 7
-1368.5758450932 -162.299740193439 2477.7053304477 69 60 55
-1173.18769522496 -156.8929155125 2554.4842892443 17 19 14
-1143.33649553878 -156.043747270247 2564.9839779963 14 15 10
-1233.84516685435 -159.940160463002 2606.31954772612 13 16 9
-1187.27162128008 -158.519344587029 2617.43819431433 13 16 9
-1147.89680035177 -157.336424582777 2627.85799886709 11 14 7
-1146.89780083881 -157.444073511913 2635.77083575093 12 15 8
-1156.28878299998 -157.902299238919 2643.07231146242 13 16 9
-1122.00252374098 -156.883892946712 2652.79855187314 12 15 8
-1134.50565118498 -157.446747492845 2659.89886572159 14 17 10
-1222.01743803374 -160.554328950668 2663.32951712645 13 14 6
-1054.28137556063 -155.001986056167 2679.20959591035 13 14 6
-1082.37308359728 -156.230045618437 2693.11139751181 15 18 9
-1132.47658264089 -158.075187134482 2698.72719969189 16 19 10
-1114.71013996073 -157.60759730042 2707.09475332708 17 18 10
-1095.8706123242 -157.101577225351 2715.39873606481 21 22 14
-1077.00238427828 -156.592815468522 2723.59789076192 23 20 11
-1059.15267947467 -156.117213413032 2731.66136694883 23 19 10
-1012.97955344431 -154.667890745276 2740.38837013524 48 39 30
-1003.44602761494 -154.473450372979 2747.97732801739 52 42 32
-995.995432940963 -154.349827465208 2755.46244982781 45 31 20
-994.832796275084 -154.442190223096 2762.77738492315 85 71 60
-995.767566498107 -154.606748667368 2770.0404303485 76 62 51
-999.855326223902 -154.880435840306 2777.25204850939 41 27 18
-1009.20737913947 -155.336585394194 2784.41029834888 46 32 23
-1023.83443329042 -155.9763780016 2791.55419132672 62 52 42
-1061.65996652995 -157.422101325654 2798.59604532989 38 30 19
-1078.44566627425 -158.14065228396 2805.91127262209 24 17 7
-1056.21103612155 -157.50392110773 2813.38231946101 23 19 8
-1069.84238291091 -158.114181950149 2820.74524037577 19 17 5
-1161.64576545982 -161.591820717958 2835.97979028833 16 17 9
-1227.20887658232 -164.024507261653 2844.07095547395 15 16 8
-1175.34209384944 -162.353108393622 2851.28126548112 14 17 10
-1282.35479827462 -166.392348729434 2868.07827927467 11 16 9
-1143.66155129473 -164.368533963884 2588.21111253336 9 12 5
-1070.18748577968 -161.855844548678 2601.45451490324 12 15 8
-1133.43521727826 -164.40874161144 2612.56312489398 13 16 9
-1109.60257445764 -163.68171777117 2621.95071072858 14 17 10
-1117.92492595768 -164.117625345359 2629.19498113877 11 14 7
-1165.74257193408 -165.987024244068 2634.10211384482 12 15 8
-1196.98516534357 -167.258204226128 2640.19278035945 13 16 9
-1187.68578290168 -167.057512496185 2648.6550135284 12 15 8
-1196.07208720071 -167.499776735924 2656.13271488098 14 17 10
-1094.0158373174 -163.9159105426 2669.14043614335 12 13 5
-1125.28244033322 -165.18957852359 2675.31867482827 13 14 6
-1049.11700695961 -162.539695918167 2686.44974222226 14 17 8
-1124.24044360051 -165.551903248381 2698.49729305689 17 20 11
-1110.64222307258 -165.186355321103 2706.69000411647 19 20 12
-1083.42115393278 -164.319283396051 2715.27533634587 22 23 15
-1082.33438445669 -164.410600286235 2722.87261175347 20 20 10
-1076.00457101095 -164.308741635824 2730.60891340019 24 21 12
-1027.72716399965 -162.660432613686 2739.44140406783 45 38 28
-1020.29665988157 -162.514986925884 2747.01489593556 51 42 33
-1011.80340380015 -162.329591038761 2754.5641409058 35 25 13
-1005.39703920241 -162.220720252816 2762.01972120154 72 62 52
-1004.23528565399 -162.305444450696 2769.34275772582 62 52 42
-1011.48476378417 -162.701855830465 2776.52584482745 38 28 18
-1036.63720127686 -163.763456387115 2783.51612486678 44 34 24
-1048.12668797377 -164.319537495508 2790.75358606769 50 42 31
-1053.30424281149 -164.642014279051 2798.08334727238 35 29 17
-1026.84108144404 -163.786517137942 2805.57994344025 26 24 12
-1054.07449897313 -165.061527692296 2820.1617585933 18 18 6
-1165.98419721469 -169.510230635224 2835.39837742158 17 18 10
-1158.54485700751 -169.367286759684 2842.937483109 16 17 9
-1151.09301819537 -169.223525651334 2850.42977086133 14 17 10
-1219.93441691454 -171.943997232155 2858.8209927845 12 17 10
-1083.76457277606 -169.935169245757 2592.21051375874 12 15 8
-1149.03839040227 -172.584913439799 2595.19330064857 12 15 8
-1082.74096249848 -170.152809247769 2607.75517386025 13 16 9
-1086.89144090291 -170.441664145325 2615.1900780751 14 17 10
-1103.50211656569 -171.21339378257 2621.82190102246 12 15 8
-1144.02513514885 -172.913927167873 2627.0282255053 13 16 9
-1208.50996340256 -175.548169511401 2630.98868595642 14 17 10
-1211.70561054193 -175.804876699475 2638.79510559101 15 18 11
-1101.42535454651 -171.900529835702 2668.2305994395 13 14 8
-1133.75068141265 -173.289984415575 2674.36932127259 13 16 9
-1053.335545981 -170.400414608964 2693.25225512313 16 19 10
-1111.81610978834 -172.816128830525 2698.43780605538 17 20 11
-1086.69724733635 -171.958387347743 2707.02968817402 18 20 9
-1077.24124266336 -171.713355531002 2714.9384077056 19 21 10
-1084.52723287392 -172.1253696951 2722.24720622428 21 21 11
-1096.01278165017 -172.703119892647 2729.45636596909 21 21 11
-1072.90040289527 -171.919362617102 2737.65764924858 25 22 13
-1059.19919427088 -171.504759809924 2745.49895637419 25 22 13
-1043.3760682405 -171.005125829204 2753.30832505598 28 24 13
-1023.32491419919 -170.33720700756 2761.11231120239 42 38 27
-1016.91500508496 -170.207137515377 2768.56904417901 53 49 38
-1034.69837063422 -171.034362775283 2775.62347741871 38 34 23
-1056.71502647048 -172.030835220055 2782.70315244231 33 26 16
-1056.62933258599 -172.152420270633 2790.10086617734 32 28 17
-1058.64960863358 -172.357769753687 2797.47210826523 23 21 9
-1012.12961811734 -170.633510079114 2805.08485243215 18 18 8
-1050.01864601729 -172.264901739696 2812.24522839703 20 17 8
-1151.27979842441 -176.68372756127 2834.72337812922 17 18 10
-1169.23702194921 -177.53129856715 2842.41139574046 20 21 15
-1225.35779757067 -179.907612758023 2850.54935191399 11 14 7
-1186.1323655369 -178.47016960591 2857.78818035961 9 14 7
-1219.54477654935 -182.063548048722 2508.0841024353 25 26 20
-1258.81104292065 -183.797882321896 2512.50026156794 27 28 22
-1203.83489699155 -182.334492510562 2566.4842402933 12 13 7
-1140.79964655486 -179.872616789115 2579.48684508075 14 17 10
-1164.66859752111 -180.980516066245 2585.57888099984 14 17 10
-1130.53078071824 -179.701305992058 2596.020917011 14 17 10
-1144.08996172636 -180.510332689044 2610.78305093754 14 17 10
-1171.12951800718 -181.752100244771 2616.87344439209 11 14 7
-1175.3404894752 -182.052045744307 2624.52501644771 11 14 7
-1226.35075940942 -184.288802398511 2629.36391554119 12 15 8
-1204.58283706088 -183.51478377676 2638.65443309074 13 16 9
-1042.15144930507 -177.026108904091 2663.13191925253 13 16 9
-1103.62599667947 -179.699723697075 2667.57990024715 12 14 9
-1118.22002290519 -180.551134145562 2682.26113237635 13 16 9
-1103.58396974581 -180.06371699607 2690.57383651625 16 19 10
-1064.87521293353 -178.571074787863 2699.76582858798 17 20 9
-1059.59398807958 -178.470666174929 2707.49716927373 19 21 10
-1068.96141098763 -178.981796195172 2714.67777309467 19 21 10
-1083.5776871686 -179.713288406334 2721.72375525315 19 21 10
-1101.35614984154 -180.578252881156 2728.73708753186 20 21 13
-1101.31969606377 -180.698080931067 2736.31872941061 21 21 13
-1089.73099924576 -180.333389949043 2744.17829732777 21 21 11
-1066.56651444171 -179.481687910071 2752.2299468484 19 16 7
-1047.57327937922 -178.803423462708 2760.07199011896 36 33 24
-1044.33234936845 -178.786397292491 2767.53233257025 44 41 32
-1051.61165650428 -179.212137890801 2774.80765199036 31 28 19
-1088.39558828401 -180.882038947026 2781.73703022168 24 20 11
-1071.46267458308 -180.288837678922 2789.38136866634 22 19 10
-1043.95480251159 -179.247883760601 2797.01256683247 18 15 6
-1079.74424895966 -180.880184420533 2804.16967524722 18 15 6
-1174.73383095082 -185.020117295334 2811.33236141685 20 20 10
-1181.03925336655 -185.53786846118 2826.62363726715 16 18 7
-1210.46735296966 -189.77911788719 2508.47619183986 23 24 19
-1225.01298292648 -190.536066688679 2515.2447354784 22 23 18
-1241.63760346239 -191.383934906981 2521.88119211486 21 22 17
-1231.94129080564 -191.589063777934 2563.68315783546 14 15 9
-1218.5954861522 -191.130641477375 2572.87074655957 13 16 9
-1137.88471907956 -187.727185555835 2587.08510749829 15 18 11
-1177.32367283601 -189.572062558279 2592.07170113139 15 18 11
-1161.82770234113 -189.014951197439 2601.13202240457 16 19 12
-1167.07090542961 -189.365065468234 2608.68807383502 15 18 11
-1164.00704650552 -189.351073002366 2616.80393120408 14 17 10
-1238.90672095606 -192.758498477298 2619.97853606701 14 17 10
-1212.99429916439 -191.742845200881 2629.62010551476 13 16 9
-1176.63242828897 -190.26559175019 2639.72326866851 12 15 8
-1128.75851323121 -188.278646732264 2650.26764291732 13 16 9
-1111.04728959149 -187.616473967277 2658.96306350305 13 16 9
-1106.87014803371 -187.549415748918 2666.87627299557 10 15 9
-1095.37697077548 -187.15914818659 2675.1066340307 13 15 10
-1137.14030300067 -189.119743424561 2680.85656112541 13 16 9
-1089.0595960957 -187.1122972509 2690.6470301546 16 19 10
-1077.52159165019 -186.717653929974 2698.71371925419 17 20 9
-1060.73128213241 -186.089591222692 2706.90952876892 20 22 11
-1071.14891912684 -186.665793915932 2714.05196779284 20 22 11
-1082.62618363484 -187.289838907719 2721.20114156378 20 22 11
-1104.60498927781 -188.380938252823 2728.07961474455 20 21 13
-1098.27128775377 -188.215780088795 2735.84144471774 20 21 13
-1090.87609355028 -188.002954001116 2743.58764681231 20 21 13
-1069.80423769376 -187.180841120061 2751.59656663473 20 21 13
-1059.2183486111 -186.824212405242 2759.27795265056 25 27 16
