ply
format ascii 1.0
comment KinectMotionCapture
element vertex 752
property float x
property float y
property float z
property uchar red
property uchar green
property uchar blue
end_header
-480.776007928365 312.797024045297 2477.91753116679 148 152 153
-486.485091730935 313.193671384225 2483.77845218119 144 148 149
-499.114483280723 314.637662833543 2488.71732800237 171 175 176
-521.644407191387 317.576045771488 2492.39335869381 168 172 173
-725.253548226532 364.250112978201 2132.21995067078 130 134 135
-682.239101782029 356.944498489919 2151.04435248822 155 159 160
-656.411770334479 352.354380937191 2165.25622526174 156 160 161
-648.769856097959 350.625570866021 2174.75780621149 126 130 131
-641.113421744094 348.89848163855 2184.20656326202 154 158 159
-631.521035046791 346.872790901297 2194.07162810495 152 156 157
-619.988129836476 344.54896546153 2204.33727118776 160 164 165
-611.321365722501 342.677503752771 2213.84097203834 155 159 160
-603.601716738217 340.957870029069 2223.05973257064 155 159 160
-596.831114397708 339.389786828917 2232.00147796573 164 168 169
-586.189866791355 337.224244917418 2241.78128252116 166 170 171
-581.320461660971 335.95895424207 2250.17939809067 155 159 160
-575.475044845306 334.545303892914 2258.75642741877 157 161 162
-564.785012405683 332.385510697867 2268.35873288845 150 154 157
-554.076063440149 330.227932371531 2277.89220335711 153 157 158
-545.284291918416 328.371262272154 2286.94018582878 153 157 158
-542.288670619625 327.411968998312 2294.69584348498 154 158 159
-536.377520665769 326.006085288127 2303.03372200358 140 144 143
-532.394869610515 324.899740934245 2310.92821165715 128 132 131
-530.345257699278 324.092473932856 2318.39494877952 102 107 103
-534.119232262776 324.179417838233 2324.6692277166 93 98 94
-536.923873475967 324.117296395654 2331.14584121289 102 107 103
-538.756552839083 323.906283797342 2337.81699818478 105 110 104
-538.64137834451 323.397972229368 2344.86202633743 117 122 118
-539.497771904679 323.038669569521 2351.71112327228 126 131 127
-540.352291300568 322.679554866678 2358.5543094912 126 131 127
-542.181272152466 322.469107214851 2365.21209129346 119 124 120
-535.220138550896 320.923698863797 2373.45981814953 100 105 101
-519.448952727268 318.045498688341 2383.22669239135 90 95 91
-490.936272620395 313.244131613528 2395.12766078617 149 153 152
-475.103291445225 310.373101846759 2404.66962801995 147 151 150
-470.019419416092 309.133214665917 2412.28750846533 137 141 140
-469.826493047818 308.634148218506 2419.04969603501 149 153 152
-470.611602784923 308.283337201256 2425.63949128467 156 160 159
-467.468175006114 307.341730506969 2432.85660980777 156 160 161
-466.282030708717 306.696335893395 2439.73511031256 153 157 158
-465.091312715772 306.051499133756 2446.59698178198 154 158 159
-469.799345794428 306.29228293244 2452.5391139636 154 158 159
-476.480518175229 306.827461253764 2458.20035017061 151 155 156
-481.198105734777 307.0672068214 2464.17730078243 154 158 159
-483.947556666392 307.011981171073 2470.45428624496 143 147 148
-481.764457418195 306.220770025354 2477.43554787475 150 154 155
-485.500269690992 306.312865833278 2483.57046132512 143 147 148
-496.156104224744 307.433779593598 2488.77150220394 157 161 162
-517.702700294319 310.169496541915 2492.56499703655 167 171 172
-738.825666958077 358.699131078964 2128.45008699905 109 113 114
-693.88512132761 351.223453850368 2147.80853210136 142 146 147
-658.463828047861 345.233293180054 2164.48198193617 142 146 147
-647.939324481835 343.088463189864 2174.70831065495 118 122 123
-641.237764602257 341.536097158237 2183.91632017293 159 163 164
-632.600890734399 339.690354049423 2193.54630600412 147 151 152
-618.176545527204 336.962137863641 2204.51117811372 155 159 160
-607.578007695486 334.826054436481 2214.46815423631 152 156 157
-598.887151293639 332.986626969114 2223.90262988698 157 161 162
-591.144534861054 331.296265412109 2233.05459769887 165 169 170
-580.492933293858 329.166449045414 2242.81851526574 157 161 162
-575.615599199106 327.920730329641 2251.19954885526 154 158 159
-570.728027479597 326.676235360708 2259.54334476027 157 161 162
-561.96239283557 324.845734287621 2268.7048900894 149 153 156
-551.245249226895 322.723664263808 2278.23035353752 157 161 162
-543.414440796311 321.043751669491 2287.06147867404 150 154 155
-542.352951080397 320.391484061057 2294.3984579591 150 154 155
-539.347162859005 319.446817186676 2302.12560216726 134 138 137
-533.4224642817 318.063893865881 2310.42767329032 126 130 129
-533.313659228515 317.560203473347 2317.49926749871 110 115 111
-536.118122246065 317.495631321391 2323.97367213991 104 109 105
-538.923618074051 317.430918141092 2330.45275138842 106 111 107
-541.730368281841 317.366114041498 2336.9364305016 110 115 109
-542.590126056132 317.009269093644 2343.79956977481 114 119 115
-542.473163382428 316.506738794653 2350.8416087594 127 132 128
-541.377550719561 315.858800377855 2358.0546294553 129 134 130
-544.182991431842 315.794378709798 2364.53275909306 116 121 117
-539.17290542423 314.564659677423 2372.43101221131 99 104 100
-522.418818666344 311.589384433591 2382.38360019561 87 92 88
-490.959171732702 306.435088387982 2394.81105667413 147 151 150
-474.139200329727 303.467519598317 2404.52296431347 145 149 148
-469.050759397907 302.246902502466 2412.13697646402 139 143 142
-466.894296576718 301.463246958419 2419.22190413804 153 157 156
-467.676067146336 301.115768218722 2425.80140553888 160 164 163
-466.491785749088 300.478380836752 2432.69187797366 155 159 160
-466.285717693968 299.986520670596 2439.40982270451 152 156 157
-467.060222639898 299.639994158962 2445.96294945557 154 158 159
-468.817252619574 299.438503415267 2452.35924669416 154 158 159
-474.513999572712 299.816014540978 2458.16228180133 153 157 158
-477.259251394214 299.75901253956 2464.42162627343 156 160 161
-481.978443721157 299.991024967261 2470.39965277234 141 145 146
-480.778607448111 299.355671260359 2477.23365695793 149 153 154
-485.50153726792 299.587323636335 2483.2253327175 142 146 147
-494.182907122063 300.395837738999 2488.691910227 153 157 158
-513.756613066706 302.789911012177 2492.7383245615 166 170 171
-755.281997844577 353.513860120812 2123.93066735866 119 123 124
-705.539785452021 345.443283875898 2144.56840772269 142 146 147
-664.354061543361 338.687077999796 2162.73579594065 135 139 140
-652.867813703779 336.431959855837 2173.2180468861 114 118 119
-642.322055771212 334.32410346042 2183.38880549979 155 159 160
-630.795907182882 332.073719180558 2193.72590149944 147 151 152
-612.513047629344 328.812796524597 2205.61568269364 158 162 163
-601.904387705408 326.712446040532 2215.55670835882 153 157 158
-595.131594303593 325.192417939565 2224.52065824663 158 162 163
-588.345696944118 323.673955922355 2233.43694445125 164 168 169
-578.65103900449 321.723970445543 2242.97102157678 155 159 160
-572.802813684317 320.3532115264 2251.56470288161 152 156 157
-568.876061274587 319.272235109072 2259.68274923728 155 159 160
-562.038372394222 317.759972443146 2268.41065762157 148 152 155
-545.50682357051 314.808981579669 2279.20388820314 154 158 159
-542.510842911257 313.876484734621 2286.97512948671 151 155 156
-537.568542738975 312.657180112656 2295.13163323941 149 153 154
-540.377968342037 312.589384063259 2301.6233566104 128 132 131
-532.507928206583 310.940776314943 2310.32858635688 120 124 123
-534.340332856166 310.730095151797 2316.99893262207 109 114 110
-536.172563493644 310.519488270017 2323.6686797118 106 111 107
-540.924086534884 310.739313153817 2329.75904923905 107 112 108
-543.731912650601 310.671969262699 2336.24511949608 110 115 109
-546.541225369516 310.604565277145 2342.73574225645 121 126 122
-543.499595902282 309.67779563433 2350.34111431857 127 132 128
-541.426746167618 308.89508800467 2357.73707945866 135 140 136
-542.278207937566 308.542231656505 2364.57193548675 116 121 117
-541.172950346309 307.903694591161 2371.75508197503 92 97 93
-523.433709660191 304.836890474118 2381.88852035404 89 94 90
-492.939340182999 299.917198736248 2394.15073031057 148 152 151
-474.152732560028 296.715511868783 2404.20759203074 144 148 147
-467.100321691058 295.228920402418 2412.15355818469 152 156 155
-464.939785605958 294.456545572126 2419.23141370277 158 162 161
-464.737191823917 293.969868793524 2425.96460122567 163 167 166
-466.496376857209 293.768330989496 2432.36887004452 156 160 161
-465.305520942898 293.139986240174 2439.24064163088 157 161 162
-464.110090228094 292.512206693377 2446.09578471894 156 160 161
-463.894699500969 292.027114730731 2452.7833892852 154 158 159
-467.617981654417 292.110642655586 2458.86637154544 150 154 155
-472.329960402873 292.335860595112 2464.81332575711 149 153 154
-477.045962954131 292.560670928139 2470.77496221853 145 149 150
-480.778277542608 292.643226498499 2476.89179526849 150 154 155
-485.501637099986 292.86727621701 2482.88026663952 151 155 156
-494.185047542431 293.657422888161 2488.34282421873 135 139 140
-505.847456143465 294.871164653696 2493.44336368483 149 153 154
-768.876316217433 347.815104056714 2120.14992973248 170 174 175
-706.653261257066 338.037386816275 2144.02682945165 129 133 134
-665.449288574908 331.402431081615 2162.20301454206 113 117 118
-651.075676582707 328.758304064966 2173.40933863476 111 115 116
-641.483889972708 326.827975814634 2183.33683836618 150 154 155
-632.836376209308 325.04178213295 2192.96584576393 148 152 153
-616.471233599348 322.121448587976 2204.39719445091 157 161 162
-605.859216141269 320.055918885167 2214.34866729079 150 154 155
-596.192634507681 318.134497391311 2224.00409101882 159 163 164
-587.473190514663 316.35687191757 2233.37144508988 163 167 168
-579.703503034368 314.722854943607 2242.45847642747 154 158 159
-571.919249112445 313.090576807376 2251.49252323335 151 155 156
-566.05461321643 311.743078588317 2260.03996087479 154 158 161
-560.178059114215 310.39695524268 2268.54494559811 149 153 156
-549.447656894701 308.345582986712 2278.06488826984 152 156 157
-540.636396101303 306.578919572554 2287.09826542725 151 155 156
-536.658922588642 305.520063323584 2295.0419597851 144 148 149
-540.438097731379 305.591039811138 2301.3245374394 119 123 122
-539.362943106248 304.956704117946 2308.62210286731 116 120 119
-541.199629061503 304.745733593197 2315.30816209359 108 113 109
-541.090383721487 304.253145555508 2322.38513104891 107 112 108
-542.925271321565 304.042505773108 2329.06472214828 103 108 104
-542.811556268414 303.550611505915 2336.12460492264 105 110 104
-545.61954246316 303.480887899455 2342.60976709405 126 131 127
-544.525930878477 302.849037054604 2349.84037425177 131 136 132
-545.380759979673 302.498643473521 2356.68928738302 138 143 139
-546.233935381014 302.148495307083 2363.53221559278 110 115 111
-544.151521122046 301.377772080466 2370.90116487592 87 92 88
-524.448500269489 298.084574203006 2381.39317998745 89 94 90
-493.94072656419 293.253977702949 2393.66187274114 145 149 148
-475.145565889541 290.109096817964 2403.72284298028 143 147 146
-467.108530856764 288.507054160624 2411.83745216384 156 160 159
-462.001327197535 287.326310388227 2419.40604689144 162 166 165
-460.81259464906 286.705865122757 2426.29068943954 164 168 167
-463.551214781395 286.644774121724 2432.52283016924 157 161 162
-463.339792689883 286.164747078082 2439.22836722642 157 161 162
-462.140920924154 285.545618879724 2446.07619637531 158 162 163
-459.952437719644 284.787635935119 2453.0584469772 156 160 161
-461.701136849257 284.587812723789 2459.42486619494 149 153 154
-467.395672710434 284.945166373439 2465.20696557591 147 151 152
-473.095709773746 285.301930716777 2471.00911778504 147 151 152
-478.801205818492 285.658128688839 2476.83118054512 151 155 156
-483.523553700554 285.874724404488 2482.8111896968 153 157 158
-492.20756679031 286.646680780382 2488.26450038721 134 138 139
-503.872018991837 287.834198452545 2493.3551417992 142 146 147
-756.593966890905 338.271557210415 2123.07487955999 182 186 187
-705.847585782716 330.352237535847 2143.97708318149 113 117 118
-671.345735396319 324.816255781121 2160.45373965739 109 113 114
-653.124830332184 321.659266998485 2172.63916413459 116 120 121
-641.605432290025 319.482274035632 2183.04765902458 151 155 156
-631.028049023997 317.447088058231 2193.14687927112 150 154 155
-617.542399032822 314.996214483901 2203.87572196008 153 157 158
-607.889089910942 313.105047527106 2213.5995250536 148 152 153
-598.218107346999 311.21593550711 2223.25993652266 160 164 165
-587.564455919385 309.189848324352 2233.081732536 163 167 168
-578.824015826464 307.444000009849 2242.39026561553 157 161 162
-572.000895499215 305.977843278783 2251.20137305577 155 159 160
-566.132257097788 304.652116548485 2259.74769555733 155 159 162
-563.156264916692 303.74397795866 2267.60852866984 155 159 162
-555.328506030206 302.143524165057 2276.50114229295 156 160 161
-546.516592121074 300.406270700801 2285.54973343988 149 153 154
-537.688403805003 298.670895926343 2294.54001603244 128 132 133
-540.497335515257 298.598290095583 2301.02594000957 110 114 113
-542.335595145992 298.387271152192 2307.71781141547 116 120 119
-544.17368305304 298.176337056697 2314.40909881351 101 106 102
-544.06501963959 297.689187575834 2321.49166196818 98 103 99
-542.979404007964 297.064394552802 2328.75641247166 94 99 95
-541.88925650608 296.440190650398 2336.00470896901 103 108 102
-542.745486494123 296.092393395122 2342.86046250275 133 138 134
-541.647710430353 295.469208969195 2350.08107928906 141 146 142
-543.475973914766 295.25981909242 2356.73686547023 133 138 134
-545.304021166373 295.050526432042 2363.39191019873 108 113 109
-541.262041929876 294.015886457254 2371.11139633454 88 93 89
-518.610122420964 290.370026275795 2382.12196636209 98 103 99
-486.124330614878 285.354270819978 2394.72333570812 152 156 155
-469.275141185155 282.541591748121 2404.42548082247 147 151 150
-463.191385525023 281.241841964865 2412.18951558876 158 162 161
-461.02340636901 280.492127472538 2419.25311397194 154 158 157
-459.831957067118 279.880235345283 2426.13306975078 143 147 146
-457.652424299139 279.13190771523 2433.15557645192 150 154 155
-457.435318988054 278.658195376907 2439.84307058056 148 152 153
-456.23012681752 278.048044317846 2446.67310100097 147 151 152
-457.976882067286 277.848720316308 2453.03261814876 150 154 155
-459.723351164179 277.649494396973 2459.39113479099 153 157 158
-466.404142412242 278.133263186908 2465.01849864005 153 157 158
-472.104519181422 278.479828493075 2470.81454394984 149 153 154
-478.798446503534 278.962204394418 2476.48980007032 145 149 150
-482.532171453926 279.034866738451 2482.60469442996 148 152 153
-490.227758749231 279.65229569251 2488.18693373148 143 147 148
-500.903081870698 280.677323478286 2493.4007235547 139 143 144
-749.096067922498 329.489245937801 2124.76162918666 176 180 181
-706.960153208373 322.952207732755 2143.43583655445 109 113 114
-675.324814146339 317.929479522277 2159.18943900015 111 115 116
-655.174965419628 314.555130389643 2171.86848454337 125 129 130
-642.688348757559 312.279010417783 2182.52055206997 153 157 158
-629.217231377051 309.868802452492 2193.3290256307 153 157 158
-619.577190190042 308.007868899695 2203.12117775449 150 154 155
-609.919481795223 306.149000393873 2212.84996778342 148 152 153
-599.279421425547 304.155780940091 2222.74297569454 162 166 167
-583.792107551272 301.482970864808 2233.69255438135 164 168 169
-578.90895555777 300.312404037196 2242.10036324353 157 161 162
-574.015799977384 299.143131285827 2250.47091873774 156 160 161
-569.112396749215 297.975123154906 2258.80422513938 153 157 160
-560.324450417703 296.264219204537 2267.95843890815 155 159 162
-557.336135191959 295.370954575256 2275.78290961115 156 160 161
-550.460601006606 293.935161285326 2284.41765553377 151 155 156
-546.483964547228 292.908308290677 2292.38466288579 127 131 132
-545.412941910456 292.289683744636 2299.70748877246 114 118 117
-546.281913984371 291.942907589672 2306.61119584294 108 112 111
-547.149029570351 291.596382334548 2313.50909756511 95 100 96
-547.041186462581 291.11468708183 2320.59722084561 93 98 94
-545.955742744907 290.498033679408 2327.86774856223 92 97 93
-543.890754750241 289.746690163144 2335.31270446134 106 111 105
-539.868086657074 288.725673633639 2343.11249021761 138 143 139
-540.719079559816 288.381374087338 2349.95193677291 144 149 145
-542.545840466787 288.172410719129 2356.60241345372 131 136 132
-545.350515911683 288.098535271666 2363.07173318227 106 111 107
-536.41174474538 286.405970429714 2371.67847127582 90 95 91
-508.848128178569 282.154151555807 2383.55376216408 103 108 104
-477.320482446175 277.368521510613 2395.96057982049 152 156 155
-464.379722874308 275.146615101887 2404.96073133825 148 152 151
-462.214627326799 274.407376642528 2412.04165001343 160 164 163
-462.008217431705 273.937853756665 2418.77149912636 154 158 157
-461.798441373138 273.468720268163 2425.49002520168 147 151 150
-457.650604866031 272.462790248526 2432.83461000188 143 147 148
-455.462879009885 271.726407383785 2439.83330964945 140 144 145
-454.254253680094 271.124906760451 2446.65605485469 139 143 144
-455.998772662888 270.926169940732 2453.00763989736 144 148 149
-458.729575325867 270.861499036396 2459.2094247545 154 158 159
-463.436332899273 271.064557260802 2465.12300328248 156 160 161
-470.123359915618 271.534860058311 2470.76408857183 149 153 154
-475.828360675192 271.870680450287 2476.57144709787 145 149 150
-480.549385907659 272.072297951834 2482.53708905056 146 150 151
-487.254760603761 272.540634079456 2488.2459830489 144 148 149
-496.94013398245 273.408740007308 2493.58060261768 139 143 144
-748.308186028357 321.696744960408 2124.70924172833 138 142 143
-698.469496841946 314.209001120935 2145.35768155736 132 136 137
-674.500954250964 310.355489094251 2159.14235741893 119 123 124
-657.225623514018 307.445849933401 2171.09742824098 136 140 141
-644.733848617617 305.210149162035 2181.7549337992 154 158 159
-624.514505601706 301.904932574776 2194.21960733716 159 163 164
-613.901137802147 299.942953672252 2204.23144317812 154 158 159
-608.092042052459 298.652459543467 2213.02200891819 155 159 160
-599.375354912655 296.962146763608 2222.45379428645 168 172 173
-582.913729461058 294.204305454963 2233.629510184 166 170 171
-577.059730087954 292.919329506762 2242.25591243904 153 157 158
-573.12900743044 291.902792161468 2250.39990149949 150 154 155
-569.189483273305 290.887352182365 2258.51190513646 148 152 155
-560.396313947622 289.206310976514 2267.66558072511 148 152 155
-554.496038882586 287.926961517362 2276.12465169893 155 159 160
-549.554658528991 286.78224968352 2284.33166453957 159 163 164
-547.516503784597 286.038106848561 2291.88079317098 138 142 141
-545.472409138207 285.294737642533 2299.40835653928 128 133 129
-545.367436571817 284.817981664665 2306.51118499938 119 123 122
-545.259395565642 284.341674437579 2313.60290426171 116 121 117
-547.096472621393 284.131351876845 2320.29082465803 119 124 120
-545.034345982049 283.390400317648 2327.7529651463 116 121 117
-542.966237141479 282.650220058699 2335.19338185251 127 132 128
-536.987353684571 281.38073459453 2343.36589386168 148 153 149
-536.858127647195 280.907289107691 2350.38076400829 147 152 148
-538.681217977911 280.698988546341 2357.01803102044 119 124 120
-542.460940945174 280.755362595669 2363.29342342478 96 101 97
-532.535736062465 278.960827592088 2372.06966822748 86 91 87
-502.996585888465 274.526201620506 2384.28834498593 108 113 109
-472.430562382086 269.964929981344 2396.5108052627 161 165 164
-457.516951446999 267.5203073124 2405.83817571835 157 161 160
-458.290382984415 267.188371817413 2412.39652911803 164 168 167
-458.079266678782 266.724902805119 2419.11365537242 154 158 157
-458.848607962469 266.393584784395 2425.6572123026 153 157 158
-453.711321034289 265.272844709996 2433.15199694243 151 155 156
-451.518076634045 264.547916933682 2440.13836848303 146 150 151
-451.290309744426 264.08670571763 2446.79417081435 140 144 145
-454.018115740701 264.019994918568 2452.9835417526 143 147 148
-457.734280621916 264.084535728367 2459.02811150552 147 151 152
-463.428432469167 264.411230952115 2464.78942899292 146 150 151
-469.12804787469 264.737380937649 2470.57068736648 148 152 153
-475.822509116252 265.194032283746 2476.23075566524 156 160 161
-482.523634030434 265.649941909757 2481.91602561366 154 158 159
-490.222476242865 266.236028018183 2487.49056155262 152 156 157
-500.903713592043 267.213627865351 2492.69543720411 151 155 156
-753.278436966809 314.705728026844 2123.16283665305 152 156 157
-693.813756227806 306.046591336382 2146.29736225505 143 147 148
-671.752659921001 302.529462420342 2159.58374623813 115 119 120
-656.390499853537 299.937030186731 2171.04967186405 151 155 156
-642.928350625519 297.610557110972 2181.94337922043 162 166 167
-622.697486147325 294.367609364479 2194.40458911332 165 169 170
-610.147884196742 292.178484360393 2204.87772867685 149 153 154
-602.401912324087 290.647761997068 2214.11802622709 152 156 157
-593.675671480232 288.987762284361 2223.53347864837 170 174 175
-579.134121039605 286.543737114389 2234.24354305014 166 170 171
-576.174930293967 285.673561018746 2242.18979510847 158 162 163
-575.144156503439 285.065950627274 2249.66901083327 155 159 160
-571.202878889031 284.066736398122 2257.78474831615 151 155 158
-562.405937137113 282.415361288163 2266.94314724547 148 152 155
-553.592951938267 280.765942774175 2276.04321529304 157 161 162
-549.618010752442 279.770903516392 2284.03660239148 154 158 157
-549.520446329662 279.298590816467 2291.16974108994 140 144 143
-549.420065419661 278.826755410404 2298.29179503921 125 130 124
-547.370285873141 278.094838870311 2305.80641112375 128 133 129
-545.314784600632 277.363742850255 2313.29937257202 116 121 117
-546.176709010062 277.023637861203 2320.18112487049 114 119 115
-546.061654749717 276.553824521118 2327.25090519494 130 134 133
-543.016051958861 275.694739971662 2334.88332888729 141 145 144
-538.986243309221 274.706746827687 2342.67745239371 153 158 154
-537.879606106831 274.109101850654 2349.88129378008 141 146 140
-541.658846971349 274.160404890001 2356.15169466119 115 120 114
-543.4830984767 273.952323852175 2362.79341148283 93 98 94
-533.552977859644 272.190352739949 2371.57196426363 92 97 93
-502.040517997558 267.583298617107 2384.14790756894 117 121 120
-473.421396660522 263.369927538632 2396.0258394507 154 158 157
-459.482454393378 261.100569321523 2405.18629605597 157 161 162
-455.344069326185 260.12566792176 2412.58556204635 163 167 168
-453.163112140819 259.410049091829 2419.62250176648 166 170 171
-453.927655403382 259.08222485157 2426.1504503747 158 162 163
-452.721306333741 258.496812467611 2432.99180415985 157 161 162
-449.539725619438 257.654306582314 2440.13076439654 148 152 151
-449.308933294757 257.199034171673 2446.77908333128 147 151 150
-450.061616322685 256.872884900369 2453.26405470056 150 154 153
-453.774690851935 256.932757532171 2459.29513236162 146 150 149
-459.466778237013 257.249459648538 2465.04247578074 142 146 145
-467.142187328649 257.822492909356 2470.52176825029 150 154 153
-473.836422591091 258.266310147344 2476.17289474888 151 155 154
-479.547085538078 258.581131076764 2481.9880179057 147 151 150
-489.22733133726 259.408144443628 2487.27858510747 154 158 157
-498.91901079175 260.234001445786 2492.60994413982 151 155 154
-744.806263376099 305.886890493437 2125.10555517511 148 152 153
-690.113924319996 298.045751674403 2146.99276018167 148 152 153
-669.962843523438 294.854180715919 2159.78262786163 121 125 126
-654.591418947736 292.310556590028 2171.24404204583 155 159 160
-636.303757355598 289.383898557895 2183.32703139638 161 165 166
-615.093808858845 286.075007243018 2196.00778129099 157 161 162
-602.531588787587 283.927099309092 2206.4600945459 147 151 152
-595.740646516993 282.552632974112 2215.4476322973 160 164 165
-587.003891739318 280.922999701273 2224.84414934591 168 172 173
-579.218205902072 279.423630738894 2233.95679162534 164 168 169
-574.320865939251 278.310680373983 2242.34737033398 155 159 160
-570.381574573077 277.327136625571 2250.48037588844 149 153 154
-566.433480128399 276.344726529951 2258.58141306679 140 144 147
-564.416272072863 275.619368593618 2266.22017245008 140 144 147
-559.481550298235 274.511160428338 2274.47495379471 153 157 158
-553.565391861131 273.276438333986 2282.90229928047 153 157 156
-547.637286333607 272.043141388857 2291.28711634817 143 147 146
-548.506485243518 271.704758451271 2298.19696465431 126 131 127
-548.400514056162 271.239079142389 2305.30307865941 124 129 123
-547.317395958895 270.64641143552 2312.5973842613 127 132 128
-545.254981577128 269.926996695773 2320.07205363869 130 135 131
-544.162112216345 269.335644512024 2327.33098526278 140 144 143
-541.112253085986 268.490504578767 2334.95640990143 146 150 151
-540.008882753227 267.900554625666 2342.17723876972 145 150 146
-535.967718693488 266.930063823838 2349.94025192662 143 148 142
-540.723926612755 267.103465918731 2356.01870656912 105 110 104
-540.588210769798 266.642006574186 2363.01704876234 88 93 89
-530.650527287912 264.912955969034 2371.78737737055 91 95 94
-500.101918970811 260.524716795192 2384.18374047206 134 138 137
-472.449315578712 256.521916624706 2395.88678711451 169 173 172
-458.502630828804 254.296085380297 2405.04504902816 169 173 174
-450.429189020757 252.831867020398 2413.11150203689 160 164 167
-447.258540115782 252.001390308433 2420.29864452935 160 164 167
-447.033165762362 251.550798653648 2426.97096353619 162 166 167
-447.789775958779 251.226895764665 2433.47193396057 156 160 161
-447.559064518277 250.777145131701 2440.12403936376 157 161 160
-450.284207622105 250.706019906647 2446.3007364668 152 156 155
-451.036429731481 250.382884470628 2452.78589931365 145 149 148
-452.774695024808 250.185925158046 2459.11538785798 143 147 146
-459.455366236821 250.61819825826 2464.70979435407 143 147 146
-467.132406930558 251.175532539043 2470.1852331283 146 150 149
-471.847779708594 251.355022153087 2476.11591823578 146 150 149
-476.567190967822 251.534109683803 2482.06134357805 145 149 148
-489.222024604892 252.716836419194 2486.93066104231 153 157 156
-500.900313782647 253.77246175538 2491.99033554128 154 158 157
-759.385275269021 300.154746175911 2121.06339161468 148 152 153
-695.063823117619 291.208645926108 2145.46796306143 147 151 152
-669.132710907218 287.321604963987 2159.73840395575 128 132 133
-651.826465018165 284.57446386881 2171.681285649 159 163 164
-630.636478080611 281.326713064189 2184.47474981798 163 167 168
-613.269358110282 278.586836205373 2196.19620423701 154 158 159
-601.664153181073 276.605547574888 2206.40967244328 150 154 155
-591.004417491091 274.752477613847 2216.31811279916 164 168 169
-586.125379998538 273.655823515283 2224.78693360217 167 171 172
-575.432186868387 271.806846919106 2234.57373737647 163 167 168
-570.528351068384 270.713284713453 2242.95243898359 155 159 160
-564.64535636559 269.495566378364 2251.51457922086 148 152 153
-564.567604683665 269.031439615913 2258.7264469153 143 147 150
-564.487059952555 268.567801878197 2265.92732428764 143 147 150
-566.345187638676 268.35500860291 2272.69184166889 148 152 153
-558.486680625262 266.891284187038 2281.55661729442 154 158 157
-551.585864203926 265.554357759303 2290.16084361356 144 148 147
-545.645141674734 264.344016269502 2298.5123800772 125 130 126
-547.483133684529 264.13397781293 2305.20387688705 125 130 124
-546.39729851972 263.549762189414 2312.49343075265 129 134 130
-548.232756353452 263.340255109342 2319.17585414677 131 136 132
-547.140051014952 262.757043458914 2326.44053426002 140 144 143
-544.089324966309 261.925376793309 2334.07217553936 146 150 151
-543.963712638655 261.468048909766 2341.10970947035 148 153 149
-541.878601649055 260.762451385153 2348.50883425756 140 145 139
-544.681737526313 260.679034884132 2354.96734317399 95 100 94
-540.628991248175 259.726188188753 2362.69849338915 91 96 92
-525.78398888156 257.409172221608 2372.36115820384 95 99 98
-494.236452806069 252.986427737118 2384.92416288296 139 143 142
-465.585154050273 248.941289526751 2396.78791071878 161 165 164
-456.538432120616 247.378800364242 2405.07504273773 155 159 160
-446.492225509157 245.694433642177 2413.47158632284 140 144 147
-445.283812046671 245.125535697401 2420.31570177433 134 138 141
-441.116888319519 244.186363546306 2427.63156689087 129 133 134
-443.838785195633 244.113158608167 2433.79396934217 142 146 147
-444.589367165655 243.79293518757 2440.27581018966 153 157 156
-447.312191310007 243.719803526212 2446.44170166932 154 158 157
-449.048512566424 243.523292895991 2452.76425566018 150 154 153
-451.772714384902 243.45012473707 2458.9361681537 145 149 148
-460.431901478415 244.115766655778 2464.23018340319 146 150 149
-467.121676606091 244.534270931193 2469.84876901613 144 148 147
-472.827802314818 244.829087882199 2475.63441683181 142 146 145
-473.583896339998 244.50892729869 2482.13583350931 143 147 146
-484.256454665706 245.417120987109 2487.26559525504 147 151 150
-494.941886402194 246.324020679109 2492.44140746776 155 159 158
-810.360982137391 299.53220709081 2099.51606752945 148 152 153
-747.06167802795 290.885154037648 2124.00815668081 152 156 157
-698.093153099886 284.103264965477 2144.43573619487 144 148 149
-667.338294001118 279.676713336858 2159.93939149659 141 145 146
-649.058430732348 276.860310291831 2172.12001469781 162 166 167
-624.963452272161 273.307610368252 2185.62517597197 165 169 170
-607.583134336662 270.622231704403 2197.33203624034 148 152 153
-597.89811751623 268.925610206703 2207.06186970447 157 161 162
-592.060940229615 267.723453664277 2215.80301690676 168 172 173
-585.244931346081 266.399760392033 2224.73047171355 167 171 172
-572.609454859164 264.340223073826 2234.96659083549 165 169 170
-566.731468646848 263.143154548277 2243.55943480248 156 160 161
-560.841800870124 261.947552586795 2252.10983332212 150 154 155
-562.699437222757 261.73470060389 2258.87248941351 140 144 147
-563.586168054039 261.399402421735 2265.85030688313 141 145 148
-566.414288112312 261.309442567142 2272.39651701349 150 154 155
-560.494919590571 260.117701756089 2280.84000923882 152 156 155
-551.645723157672 258.560442251242 2289.86381644535 147 151 150
-544.727319471232 257.249638465353 2298.4192371647 127 132 128
-546.563795804077 257.039984707574 2305.10534944178 123 128 124
-546.450115077246 256.586280972516 2312.19040018823 119 124 120
-549.260616975689 256.499080826054 2318.67293987945 122 127 123
-546.213770583131 255.680316716926 2326.32713156015 142 146 145
-544.136778064503 254.984365942506 2333.76248909196 151 155 154
-541.07604917042 254.167474499863 2341.36539104647 149 154 150
-541.921819778633 253.838206095204 2348.19493812167 139 144 138
-543.745368126455 253.630856253003 2354.83450589586 93 98 94
-540.668837740573 252.816117267792 2362.38009895726 91 96 92
-522.874000084096 250.180903886516 2372.57960047854 98 102 101
-485.421104960821 245.122155303936 2386.19540509042 144 148 147
-458.714406906306 241.404048466961 2397.69197489655 155 159 158
-450.640199108612 239.993273184327 2405.78932509705 150 154 155
-444.518388603482 238.826447726174 2413.49692016511 144 148 149
-443.30652888223 238.266158407352 2420.333675369 139 143 144
-442.090101304272 237.706491254368 2427.15386381916 129 133 134
-442.840707903331 237.389174883716 2433.63670244608 132 136 137
-444.576026758096 237.192910160642 2439.95568996897 142 146 145
-445.323954764118 236.876105765037 2446.42890673918 145 149 148
-447.058024522699 236.680180467761 2452.74347090843 144 148 147
-451.75779239497 236.845971810804 2458.6075696881 142 146 145
-461.408304608974 237.613646385373 2463.7502785087 142 146 145
-468.100017179506 238.01905912132 2469.36779215457 144 148 147
-471.825969712068 238.062906878527 2475.436566051 143 147 146
-473.571602334902 237.866149734198 2481.79353568429 146 150 149
-482.262638103275 238.51038113205 2487.19228133934 148 152 151
-492.949467179882 239.393702162244 2492.35839526935 154 158 157
-803.828851304928 290.880453117644 2100.97463161932 151 155 156
-752.035698485688 283.868796603232 2122.45974842619 154 158 159
-701.123796636305 276.987514738343 2143.4027687079 144 148 149
-667.46759397818 272.289999110971 2159.65219269071 144 148 149
-641.468025399793 268.564541301707 2173.7704836515 159 163 164
-621.213561752195 265.567866039062 2186.29955800748 162 166 167
-606.717200138649 263.298499026316 2197.28674066193 145 149 150
-603.787725373321 262.477735159888 2205.37451862574 159 163 164
-595.050582885846 260.935619491505 2214.82485021771 165 169 170
-587.264995191525 259.515805166949 2223.98808351616 164 168 169
-569.783618857269 256.895598872853 2235.36088017929 162 166 167
-563.899452750082 255.720510337236 2243.94465642283 151 155 156
-561.881828395813 255.02712370206 2251.60205517635 146 150 151
-564.709628438595 254.934377610034 2258.14624708996 138 142 143
-563.654727744649 254.36208731674 2265.55818361209 139 143 144
-563.56701187315 253.910232993656 2272.74080439931 147 151 152
-557.641694101048 252.740539283997 2281.17519858721 151 155 154
-555.597330003587 252.050895105638 2288.73568070642 148 152 151
-547.703556915052 250.644704965443 2297.50584443669 129 133 132
-547.592074883068 250.196104773495 2304.60228061611 123 128 124
-546.502240130805 249.628612962486 2311.88754333711 120 125 121
-550.288356533573 249.65832490923 2318.16984025861 125 130 126
-544.309026782533 248.495542352023 2326.40899091713 146 151 147
-543.205634139134 247.929979618819 2333.64513376434 152 156 155
-540.141369257225 247.126935038507 2341.24364947307 139 144 140
-546.858997764302 247.514677886304 2346.94715709211 124 129 125
-545.746547109604 246.950567038379 2354.14965694055 97 102 98
-545.609629901001 246.505890580379 2361.15413453455 84 89 85
-521.92276586087 243.211988611175 2372.44161575803 109 113 112
-481.50686814905 237.905365171234 2386.58883843562 156 160 159
-454.784539580374 234.265938795408 2398.07797895287 164 168 167
-446.702613797947 232.882744210828 2406.16408679763 160 164 165
-443.526164898509 232.093396352469 2413.35473262995 160 164 165
-441.326689043574 231.423294724891 2420.35258236074 155 159 160
-441.092416945569 230.990520413568 2427.00218570126 148 152 153
-441.840874863876 230.676326510478 2433.47994708274 159 163 162
-443.574670464149 230.48054845377 2439.79358631591 154 158 157
-443.333142919789 230.048916544635 2446.41697285909 149 153 152
-446.053240985406 229.971478940028 2452.57095341805 146 150 149
-452.730885910769 230.365398476908 2458.12898045038 146 150 149
-461.394852910386 230.994145292239 2463.41744891761 147 151 150
-468.087555399483 231.386525612781 2469.03133897477 147 151 150
-470.822618005333 231.307862656561 2475.23917729328 146 150 149
-474.550440463587 231.346648991127 2481.31169834003 147 151 150
-480.266266445512 231.620118597975 2487.11988377334 149 153 152
-491.947777246632 232.597227846266 2492.14194858092 149 153 152
-817.477619814487 284.757788300589 2097.12842288407 147 151 152
-757.012880267027 276.831349851685 2120.90976285571 143 147 148
-703.193532230272 269.743287834945 2142.61641627764 142 146 147
-667.595999860214 264.90912160636 2159.36535928549 150 154 155
-639.65544873129 261.025816102705 2173.9710754786 162 166 167
-617.459766075524 257.855514079555 2186.97580604724 157 161 162
-606.81536607226 256.103819589108 2197.00518796725 142 146 147
-601.950279451492 255.061137716283 2205.55988086076 168 172 173
-594.173707743069 253.666687111311 2214.7726020725 163 167 168
-582.511167540744 251.803605467571 2224.84875437282 164 168 169
-569.860060521606 249.825499569691 2235.07732290543 161 165 166
-565.910236356075 248.907041962794 2243.21231422269 150 154 155
-564.86156775161 248.34180769817 2250.65184407871 146 150 151
-564.779274848221 247.894553956756 2257.85657482758 140 144 145
-563.722376176403 247.330574814107 2265.26634047488 140 144 145
-560.716625091561 246.53300215959 2273.08649015371 146 150 151
-556.730698112784 245.61940599933 2281.09050806426 150 154 153
-553.709696584025 244.823907545464 2288.85441635304 148 152 151
-550.681067705196 244.029392407667 2296.59155562272 129 133 132
-550.570389012081 243.586230354162 2303.69347877534 126 130 129
-549.480718756043 243.026850138463 2310.9844734752 124 129 125
-551.315977236992 242.817972661685 2317.66655421008 130 135 131
-545.333355387723 241.676929976697 2325.90720737033 148 153 149
-544.228666808026 241.119676628316 2333.14378477064 150 154 153
-540.18374538463 240.213964844038 2340.93281663066 136 141 137
-542.985214179967 240.123404817183 2347.3806259504 113 118 114
-541.867628399358 239.568018576081 2354.5704973653 93 98 94
-538.783796812382 238.78099991034 2362.10741267908 86 91 87
-514.099119213642 235.441935758459 2373.55801507198 118 122 121
-475.623870996285 230.483928727748 2387.33701732501 157 161 160
-453.799655572545 227.502794311512 2397.94404306028 152 156 155
-443.744704793385 225.915338332897 2406.36930563461 153 157 158
-441.547617948826 225.255755415691 2413.38173723326 161 165 166
-436.389108450782 224.250063762487 2420.87036218098 161 165 166
-437.135177202468 223.938969511015 2427.34121001282 167 171 172
-439.853016132627 223.859179173587 2433.48438842977 166 170 169
-442.571800747996 223.779337313076 2439.63197448408 166 170 169
-441.339771560354 223.238234039583 2446.40595747699 161 165 164
-442.080705878809 222.92823176238 2452.85750255745 149 153 152
-446.777694853143 223.079137495324 2458.70188583878 148 152 151
-453.458936471525 223.459809779904 2464.26583208826 149 153 152
-459.156265334109 223.724840199887 2470.000013282 151 155 154
-464.859075905249 223.989359386483 2475.75422421924 148 152 151
-471.55985228752 224.36821998386 2481.38862639137 145 149 148
-479.260511632113 224.861149802051 2486.91109498103 147 151 150
-494.919586386429 226.270554550595 2491.38779335384 145 149 148
-814.787870113026 276.599347036797 2097.57730726453 148 152 153
-751.406577252768 268.50149504306 2122.11172505134 143 147 148
-702.374281903568 262.147672332241 2142.57279618139 141 145 146
-668.687310315756 257.6495361441 2158.83385889911 155 159 160
-633.982017734227 253.042394913873 2175.14252468232 165 169 170
-615.632334451077 250.401040667506 2187.17443650206 156 160 161
-606.912624375971 248.915021763349 2196.72397876221 143 147 148
-601.07700104302 247.776250279241 2205.51184251996 166 170 171
-590.392394394387 246.063988478863 2215.41684078219 164 168 169
-580.657268294893 244.468960631438 2225.0238402041 165 169 170
-568.966494766397 242.646410858584 2235.02075739933 162 166 167
-566.952140789693 241.973911242126 2242.70348539394 147 151 152
-564.931889604256 241.302223641706 2250.36483087277 141 145 146
-565.819034357561 240.975159760567 2257.34845483781 133 137 136
-561.845371422401 240.075872103485 2265.40704037847 131 135 134
-560.780547733253 239.52103401919 2272.79315317539 141 145 146
-557.76460766758 238.73815710767 2280.58475128818 145 149 150
-553.767587332822 237.842076222745 2288.55771094762 144 148 149
-549.761511099023 236.947093327116 2296.49867006429 128 132 133
-547.697318645398 236.281455424719 2304.00161871172 119 123 122
-547.579801262691 235.844709302556 2311.08220183339 124 128 127
-548.436019577607 235.522363104806 2317.95398049244 140 144 143
-545.380011606703 234.744957859406 2325.60026884975 155 160 156
-542.316826528065 233.968563118611 2333.21961896992 153 158 154
-541.20416202923 233.42049281963 2340.43238104237 121 126 122
-544.005954261674 233.327498080258 2346.87985407067 98 103 99
-539.945605274545 232.439860777968 2354.62394671449 89 93 92
-527.045671745767 230.532449649371 2363.97330416189 95 99 98
-492.521121040578 226.133739916797 2377.18830145936 152 156 155
-465.80429282929 222.647465982696 2388.79455615961 171 175 174
-450.845951988599 220.524410317899 2398.15887381475 157 161 160
-443.735735824224 219.309189945352 2406.06154973858 154 158 157
-439.5665116411 218.434671721694 2413.40969281808 141 145 144
-437.359563832406 217.78719044773 2420.39315293361 137 141 140
-435.146360561869 217.140490499313 2427.3548100559 148 152 153
-439.836177869795 217.28411671358 2433.16797043846 140 144 143
-439.591695989873 216.863881531985 2439.78758340986 142 146 145
-439.343834056153 216.444102341432 2446.39586381536 142 146 145
-440.082121464019 216.137366720413 2452.83964383129 141 145 144
-445.767865360551 216.39321629487 2458.52501601143 141 145 144
-453.440343329729 216.873368034443 2463.93478526768 141 145 144
-456.164577957446 216.791162860925 2470.10111407755 143 147 146
-463.850164772492 217.27005122497 2475.55875628008 142 146 145
-470.55119604326 217.635971637641 2481.18686407055 141 145 144
-480.239768556449 218.337419780321 2486.4281423978 149 153 152
-500.87540377503 220.269484713101 2490.22835470751 153 157 156
-808.246179705156 268.011028616664 2099.04042841183 149 153 154
-750.608802214236 260.774280618267 2122.06382479842 141 145 146
-704.444014394256 254.901748983635 2141.78629020508 136 140 141
-668.814322985124 250.277737458747 2158.54758465952 157 161 162
-634.092874270612 245.773036059989 2174.86094103428 165 169 170
-612.836729595215 242.850651901639 2187.61419395651 153 157 158
-603.143006247333 241.282188413891 2197.39261404897 146 150 151
-592.464753091904 239.603476155817 2207.34238301088 165 169 170
-578.863908819833 237.590179833596 2217.91979528187 164 168 169
-572.020329065419 236.365365220145 2226.80638263512 165 169 170
-564.193905299231 235.030005941956 2235.87224911989 161 165 166
-565.083740521696 234.705071524815 2242.8672067017 148 152 153
-562.088923545054 233.932575678521 2250.74285574267 142 146 147
-562.972479153978 233.608634783373 2257.71605463046 133 137 136
-559.965827353652 232.837825408728 2265.54882804057 131 135 134
-560.84354435779 232.514927954417 2272.50007908453 139 143 142
-558.798394736202 231.857413396508 2280.07885868947 143 147 148
-552.850007299485 230.754494065836 2288.46975758139 142 146 147
-547.864940492921 229.764536401578 2296.61227486566 127 131 132
-544.821130001684 228.998710674838 2304.31116077622 115 119 120
-547.629546441272 228.90183756454 2310.77985056447 133 137 136
-549.461771832376 228.69371524452 2317.45114679766 146 150 149
-548.359773749621 228.152296434178 2324.70771058417 157 162 158
-542.359510212259 227.056149542956 2332.91120846807 153 158 152
-541.244833371284 226.516485926311 2340.12180664769 119 124 120
-543.066131791897 226.310226691361 2346.75370943546 101 105 104
-539.001841302634 225.439133184536 2354.49361294074 87 91 90
-510.38851335562 221.800503050077 2366.75498686565 89 93 92
-471.906900668698 217.06042652709 2380.64794900436 153 157 156
-454.009964158653 214.649500631259 2390.60998086988 151 155 154
-444.937766901492 213.23650402511 2398.89783878739 143 147 146
-440.772059159376 212.377587619745 2406.26888789445 150 154 153
-436.597687835051 211.519846416383 2413.60758375731 141 145 144
-438.329872264787 211.324752934753 2419.91567323493 128 132 131
-436.11497164654 210.689109375368 2426.87800886308 124 128 127
-437.843770231072 210.494667432428 2433.17393870848 130 134 133
-435.619939132974 209.860323813484 2440.1030089071 135 139 138
-436.3565701944 209.556610310567 2446.54254724049 139 143 142
-439.070440262423 209.472888829579 2452.66943715446 141 145 144
-443.766080940616 209.60872905458 2458.49930290345 140 144 143
-448.465772725571 209.744237944036 2464.34400042993 139 143 142
-451.186004734507 209.660185037568 2470.49430173891 142 146 145
-457.877256583976 210.014253408107 2476.07768867337 140 144 143
-464.575193728245 210.367642545042 2481.6863969871 138 142 141
-479.23105027536 211.595372763392 2486.21996337868 141 145 144
-505.840345698983 214.13265249016 2489.20152581108 150 154 153
-814.072859365095 261.358831139541 2089.19686899361 215 219 220
-806.510833226799 260.017811849929 2099.23988959279 151 155 156
-758.478277659177 254.050205186322 2119.76031479745 144 148 149
-711.334373712634 248.201582103638 2139.75892892007 144 148 149
-672.798883268875 243.351963209697 2157.27994359573 162 166 167
-628.410355588974 237.849847579122 2176.0366772249 165 169 170
-605.207029140989 234.772997172354 2189.25647375094 155 159 160
-594.535112472 233.127850865102 2199.25096062924 156 160 161
-587.71455139584 231.9238778123 2208.23709911614 169 173 174
-575.071299980333 230.063869369461 2218.569394516 165 169 170
-570.158304752436 229.082833977671 2226.98513250197 161 165 166
-562.325840901884 227.774767385845 2236.04487548818 158 162 163
-561.272015357302 227.234160367494 2243.48080699033 147 151 152
-559.242385257619 226.58491669371 2251.1224293416 142 146 147
-561.094654002992 226.373364256541 2257.86597702441 138 142 141
-560.02909366993 225.83467034291 2265.25861836854 136 141 137
-560.905383135809 225.51468919884 2272.20733947086 140 144 143
-559.832061528538 224.977160168659 2279.57282919396 142 146 147
-556.804784721851 224.222571230669 2287.3392667324 145 149 152
-549.867855253081 223.033789755617 2295.90294335203 133 137 140
-544.870324058713 222.064119946495 2304.01199149699 127 131 132
-544.747204952515 221.638917961664 2311.07999390372 143 147 146
-545.598859271233 221.322789602797 2317.93875295737 151 155 154
-547.427205902007 221.115476920755 2324.5961592767 152 157 153
-541.422417480451 220.041277383059 2332.79578454 140 145 139
-542.264573961214 219.726659165903 2339.62116242977 96 100 99
-544.085798670234 219.520632300849 2346.25293824703 93 97 96
-538.056556961981 218.449679714275 2354.36382320449 91 95 94
-502.554865073566 214.13843144265 2367.90242577514 103 107 106
-459.136327584092 208.969717909709 2382.67839473059 173 177 176
-446.138547045089 207.153470876333 2391.72202164374 158 162 161
-440.992240053407 206.202336358431 2399.29039662508 137 141 140
-440.759975684792 205.791172845088 2405.96202722033 125 129 128
-439.539032976738 205.272854289237 2412.79155721698 128 132 131
-443.245347540016 205.293057742917 2418.77156238445 134 138 137
-441.031879144556 204.668159083958 2425.74507032021 143 147 146
-438.812148026587 204.044064252676 2432.69676251198 143 147 146
-435.598195039475 203.313455432047 2439.78524777077 140 144 143
-437.322782305926 203.120049329833 2446.06619579314 140 144 143
-440.036959710843 203.033974427192 2452.19274096153 141 145 144
-446.71515689229 203.376259143612 2457.72021888994 139 143 142
-450.425864997868 203.396842704243 2463.71770542099 138 142 141
-453.147374438051 203.310381862518 2469.87030031505 143 147 146
-458.848299368457 203.544430735452 2475.59827287691 135 139 138
-467.535338129467 204.098279529973 2480.92511558287 142 146 145
-483.191986453053 205.397934366159 2485.32351474476 135 139 138
-518.768112128763 208.827583521829 2487.09181429014 131 135 134
-574.307117011111 214.382431116744 2486.38719990806 160 162 159
-825.81171842994 254.862621106735 2085.81727371935 212 216 217
-818.253540378521 253.54761377564 2095.89100409977 146 150 151
-772.135213496907 247.934083745939 2115.94856089643 138 142 143
-722.086895639742 241.899414631427 2136.73608586898 142 146 147
-678.716264094438 236.625344817001 2155.51972414939 168 172 173
-628.516971946926 230.608475927153 2175.75702027953 169 173 174
-603.369187966696 227.387386567082 2189.45993195858 159 163 164
-592.689781934505 225.777564096811 2199.44891392062 159 163 164
-581.023583511756 224.063083485197 2209.60437385532 169 173 174
-572.243171675704 222.671918846764 2218.988428392 167 171 172
-566.354809164208 221.603280961142 2227.62476059896 161 165 166
-563.365458738717 220.856508798695 2235.53694646027 157 161 162
-560.368531391025 220.110706899282 2243.42254229027 148 152 153
-559.307517595129 219.579162949414 2250.83750717113 143 147 148
-560.186748614759 219.26133269201 2257.79757862074 137 141 140
-562.037362788174 219.050289329527 2264.53530460525 135 140 136
-560.966523463323 218.520387207121 2271.91482578676 138 142 141
-558.916788348211 217.884913662103 2279.48956687214 140 144 145
-555.885742068297 217.144097582747 2287.25163357971 145 149 152
-551.871447980187 216.298198971792 2295.19307066173 135 139 142
