ply
format ascii 1.0
comment KinectMotionCapture
element vertex 753
property float x
property float y
property float z
property uchar red
property uchar green
property uchar blue
end_header
-1354.2673195753 224.417968958346 2818.02864464617 141 144 149
-1361.49071491552 224.28825970807 2815.1121750003 146 150 153
-1369.0013413563 224.678463117201 2809.13494960762 154 160 160
-1376.25240471092 224.546722505746 2806.21503250664 158 164 164
-1383.904758524 225.10698386175 2799.21198543604 162 168 168
-1391.78932986416 226.011100489972 2790.16343899518 175 179 180
-1399.50960407398 226.566676593729 2783.15192819905 173 177 178
-1407.36725048447 227.29279712146 2775.11513794356 156 160 161
-1415.36998707853 228.188731504588 2766.05210699399 157 161 162
-1424.08221512593 230.11541629842 2750.85121813435 167 168 170
-1432.75492662554 231.865083812792 2736.66341397316 152 153 155
-1440.91355928441 232.750606440421 2727.58071526659 151 152 154
-1448.5178958128 232.77472792395 2723.60837393784 161 162 164
-1456.25954551261 232.969397591954 2718.61076050631 165 169 168
-1463.52339744751 232.477324937385 2717.70557058411 159 163 162
-1471.67778354697 233.183585888754 2709.63180126922 166 170 169
-1480.51884611837 234.742456263539 2696.43117744522 160 164 163
-1490.61771171411 237.834317253444 2673.9998857424 145 147 146
-1499.47488168156 239.21245012161 2661.80565514332 152 154 153
-1508.94244377292 241.268636898017 2645.5022366547 146 148 145
-1518.63059446295 243.489827847465 2628.16316838225 117 119 116
-1526.68308107422 243.664516253625 2623.12681696177 135 137 134
-1135.12095424597 236.983635829541 2817.12656332353 180 185 179
-1142.20090352822 234.564387148022 2827.33467740096 179 184 180
-1149.16713595284 231.090080315609 2843.60636425467 170 174 173
-1156.12220606469 228.855485060195 2852.82188913787 174 178 177
-1163.10827988257 227.680532956829 2855.98439155144 174 178 179
-1170.13997252293 227.21041684484 2855.10811591491 166 170 173
-1177.17069470899 226.739944501013 2854.23196232346 156 160 163
-1184.1558036209 225.918205783597 2855.37780024284 154 158 161
-1191.17940888566 225.447649328774 2854.5025350226 151 155 158
-1198.17432296567 224.801655400039 2854.63899939914 147 151 152
-1205.22375241619 224.50570378615 2852.75236455936 135 139 138
-1212.27774178457 224.209222790553 2850.8651620629 135 139 138
-1219.40784750839 224.261345777005 2846.95192819397 123 127 126
-1226.82288314278 225.533391872466 2835.94563390778 103 108 104
-1234.20841677689 226.45308549153 2826.9593234009 110 115 111
-1241.76782385938 227.891975259254 2814.92688593643 92 97 91
-1248.96582642014 227.761345481599 2812.01358758349 53 58 52
-1256.27230449467 227.977434884573 2807.06998432124 68 73 67
-1263.39137176773 227.497661536837 2806.18283027909 97 102 98
-1270.29074851851 226.324231147351 2809.3561479667 97 101 100
-1276.93809783413 224.45937792186 2816.59348641845 122 126 125
-1283.42135864513 222.251226434167 2825.86782067437 147 151 150
-1290.47740086929 221.774811199655 2824.98852294225 132 137 133
-1297.79415506006 221.988904709609 2820.0438828063 117 122 118
-1305.06336750043 222.028910940355 2816.11332115058 105 109 108
-1312.20617790216 221.723158342526 2814.2150587307 113 117 116
-1319.42681186787 221.589083617157 2811.29870491562 122 126 125
-1326.65732209655 221.454200550575 2808.38112073005 135 139 140
-1333.73986437528 220.975081833225 2807.49852306731 145 149 150
-1340.41370371878 219.638067398765 2811.70810438094 155 159 162
-1346.97548066568 218.131523937009 2816.93980396601 146 149 154
-1353.93885661964 217.483000281303 2817.08021077617 146 149 154
-1361.3438773701 217.68985820562 2812.12457455006 156 160 163
-1368.86175369027 218.066132401474 2806.14648109738 155 161 161
-1376.12075074382 217.928571092752 2803.22558924627 161 167 167
-1383.5849260374 218.131299696122 2798.26234148857 166 172 172
-1391.67161250347 219.354167504183 2787.17235865861 170 174 175
-1399.60508298452 220.233223574718 2778.11801615888 169 173 174
-1407.15779827143 220.429776676506 2773.14397566516 159 163 164
-1415.1647139434 221.303882613098 2764.08024040707 160 164 165
-1423.76908008613 223.022936775403 2749.90104596153 168 169 171
-1432.66985401508 225.075996234344 2733.66860778918 149 150 152
-1440.60240193528 225.601028459643 2726.63068692516 150 151 153
-1448.32797678221 225.785972193431 2721.63510515315 154 155 157
-1455.83073661648 225.631953598666 2718.68359621905 158 162 161
-1462.97008583159 224.971383325557 2718.8020743309 156 160 159
-1470.73910620903 225.153559329702 2713.80107810224 157 161 160
-1479.82704408363 227.017191215283 2698.55346892493 163 167 166
-1490.04968957448 230.220857285289 2675.09850842135 153 155 152
-1499.44303626895 232.241163421588 2658.80468633463 141 143 140
-1509.19196942284 234.5917321906 2640.45000495996 140 142 139
-1518.04737641478 235.763448229176 2629.26422505937 123 125 122
-1526.3828208955 236.262216409276 2622.17609425193 143 145 142
-1134.68301327493 229.274468418968 2820.22481914894 176 181 175
-1141.75096539681 226.711774991778 2831.44249525588 173 178 174
-1148.75328795142 224.152966437622 2842.66859158289 170 174 173
-1155.72448354179 222.118945957065 2850.87388879699 167 171 170
-1162.73113142724 221.128008426627 2853.0254117258 175 179 180
-1169.75439586969 220.484269526165 2853.15833220617 167 171 174
-1176.81038444016 220.18658617046 2851.27088338748 156 160 163
-1183.78200552047 219.19704393785 2853.42677378002 152 156 159
-1190.91101105778 219.416824780515 2848.50530831993 148 152 155
-1197.89486011427 218.600066046771 2849.65153061595 144 148 149
-1204.98830404867 218.472959334734 2846.75103101483 133 137 136
-1212.02555027157 218.000667900799 2845.87406805266 125 129 128
-1219.16891421661 218.043973349801 2841.95920285678 119 123 122
-1226.59610496114 219.288101358608 2830.95146520599 110 115 111
-1234.1583672783 220.871615487061 2817.91060346382 97 102 98
-1241.69665256602 222.107740441875 2806.88902294658 87 92 86
-1248.86970041741 221.799342374764 2804.98675376975 53 58 52
-1255.89976845961 220.977250338673 2806.12722225466 75 80 74
-1262.96992460389 220.326612364083 2806.25430909632 99 104 100
-1269.76113650292 218.822831737008 2811.45736927995 101 105 104
-1276.51902267609 217.321114427747 2816.66458288347 149 153 152
-1283.24366609878 215.821365567002 2821.87593980188 159 163 162
-1290.43583517193 215.684625054241 2818.96314525736 124 129 125
-1297.76829619431 215.886878370982 2814.01657618241 109 114 110
-1304.91742366262 215.578364313162 2812.11753270217 104 108 107
-1312.00032586929 215.099790027163 2811.23488868882 122 126 125
-1319.15553872574 214.790497597055 2809.33484756919 126 130 129
-1326.31519345104 214.480685809527 2807.43449376704 143 147 148
-1333.2430978253 213.663459825152 2808.58769885915 151 155 156
-1339.99660786335 212.509203501378 2811.77892908719 152 156 159
-1346.81165943426 211.524977314132 2813.95434442926 142 145 150
-1353.87004946755 211.047247927954 2813.07475716522 149 152 157
-1361.10651201892 210.906132889416 2810.15644657664 160 164 167
-1368.35261286958 210.764197312109 2807.23717561489 159 165 165
-1375.4189570028 210.285722315346 2806.35659768973 165 171 171
-1382.97198547761 210.645991151885 2800.37415960552 166 172 172
-1391.3524515555 212.345088217209 2786.2229591207 165 169 170
-1399.5959053456 213.704566968315 2774.10536579725 163 167 168
-1407.05317555611 213.722469928185 2770.15139385179 159 163 164
-1415.06689154877 214.574493350631 2761.08686810739 161 165 166
-1423.56629396538 216.091050029798 2747.92923315118 168 169 171
-1432.81084179621 218.603325631397 2728.62914286681 150 151 153
-1440.52323051136 218.778299680663 2723.6352329009 153 154 156
-1448.13731174959 218.785735100532 2719.66171943212 157 158 160
-1455.15847640786 217.961522762446 2720.80330459045 155 159 158
-1462.41679258607 217.470011795024 2719.89880401877 156 160 159
-1470.3094601678 217.807449227294 2713.87404110763 157 161 160
-1479.78421448001 220.130095896028 2695.55364916333 165 169 168
-1490.2759066285 223.604442995145 2670.04902620223 163 165 162
-1500.35536498759 226.409430681553 2648.62859897664 148 150 147
-1509.99048135574 228.547164154165 2631.29636885632 134 136 133
-1518.30679410442 229.030906699109 2624.21066514541 129 131 128
-1526.94066903485 229.841961748076 2615.06909538942 147 149 146
-1127.11452944628 222.912985781585 2819.17045945931 177 182 176
-1134.22981700804 220.723456643987 2828.36587147195 175 180 176
-1141.30799953086 219.050765171838 2834.54125133717 175 179 178
-1148.31316708562 216.696244100461 2844.75876754297 171 175 174
-1155.2920024307 214.857871899593 2851.95466876114 166 170 171
-1162.29680701475 213.875383043851 2854.10639947377 172 176 177
-1169.30121196354 213.064182833898 2855.25004187779 168 172 173
-1176.31330613145 212.423783320493 2855.38434754822 156 160 163
-1183.29701370885 211.613301926078 2856.53033070011 152 156 157
-1190.44231899626 211.992769104796 2850.59896376984 148 152 153
-1197.55874075267 212.03074370716 2846.68747483841 144 148 149
-1204.69034026791 212.067393066022 2842.77409530239 133 137 136
-1211.70584829989 211.425193431787 2842.90797968333 133 137 136
-1218.78602421568 211.121460177851 2841.01752835913 128 132 131
-1226.2527936312 212.507514720571 2828.99679066752 113 118 114
-1233.98246623462 214.733728969113 2811.9021156532 101 106 102
-1241.62283549886 216.279208499457 2798.85136651982 60 65 59
-1248.67858532974 215.461243577582 2799.98861920072 62 67 61
-1255.47774976555 213.80226604989 2806.19878275848 90 95 91
-1262.39326665967 212.650051453362 2809.36979011184 101 106 102
-1269.17756743697 211.163254151658 2814.57366803762 114 118 117
-1275.98558202902 209.846209330582 2818.7664524842 159 163 162
-1283.06455730206 209.368810906773 2817.88429543235 143 148 144
-1290.32976082016 209.3934850367 2813.95427444298 99 104 98
-1297.67518937285 209.584159748843 2809.00587732001 110 115 109
-1304.7021570827 208.938037433959 2809.13858219988 111 116 112
-1311.86374232267 208.625920297662 2807.23775328322 120 125 121
-1318.95656144392 208.146714247288 2806.35387336128 123 127 126
-1325.97249049945 207.500817380501 2806.48795520624 150 154 153
-1332.66796729867 206.190013664856 2810.69452699958 155 159 158
-1339.41685519559 205.047160125758 2813.88630401469 149 153 154
-1346.14321416102 203.905595007305 2817.08112938298 142 146 147
-1353.28031859839 203.594350633427 2815.18335322737 151 155 158
-1360.42175427073 203.282713394526 2813.28527786258 159 163 164
-1367.65964987851 203.136072342574 2810.3668029896 174 180 180
-1374.81270317681 202.823515827645 2808.46728023465 169 175 175
-1382.55422847797 203.5008353536 2800.4451097228 163 169 169
-1390.83258370572 204.999938185976 2787.31486584429 163 167 168
-1399.07177227302 206.330006726709 2775.19788224618 159 163 164
-1406.63129344911 206.504566542895 2770.22305033626 161 165 166
-1414.75178937261 207.499401362936 2760.13713590084 161 165 166
-1423.36275256181 209.147533207573 2745.95730495431 165 166 168
-1432.26951249258 211.118929420197 2729.72433482157 143 144 146
-1440.09463988964 211.447202195517 2723.70802466098 148 149 151
-1447.47064259784 211.11942724632 2721.78071921495 151 152 154
-1454.72967455173 210.627990124263 2720.87612912423 152 156 157
-1462.11214466601 210.299860382484 2718.94777724974 154 158 157
-1469.87970869331 210.460599314187 2713.94701921873 158 162 161
-1479.2221711671 212.574454318639 2696.65137345738 151 155 154
-1489.17844977229 215.333389983844 2675.2464396132 153 155 154
-1499.91568270394 218.897753084372 2648.70325046185 163 165 162
-1509.82315558905 221.316943108545 2629.32067618744 124 126 123
-1518.00345440474 221.621994708005 2623.26034415444 134 136 133
-1126.68257154726 214.037805454548 2829.32532951105 179 185 185
-1133.80025975193 213.39527760376 2829.44646327486 175 181 181
-1140.87150847938 211.573386604924 2836.63102871533 171 177 177
-1147.8987378958 209.754088357282 2843.82084040891 169 173 172
-1154.84856597671 207.433013546318 2854.04517457435 155 159 158
-1161.86263554318 206.627107637895 2855.18735668012 177 181 180
-1168.88150452301 205.989384587972 2855.32105011445 179 183 182
-1175.89407017242 205.351791842621 2855.45528955526 163 164 166
-1182.90033064473 204.714302162277 2855.59031557347 150 152 151
-1189.99868279425 204.745723739508 2851.68109887932 145 147 146
-1197.08490831338 204.608837029871 2848.78176611776 142 144 143
-1204.2709863342 204.971669532396 2842.84511452949 135 137 134
-1211.35229031075 204.66559497121 2840.95452859573 126 128 125
-1218.61479583819 205.191507207977 2834.0002227436 129 131 128
-1226.13703542638 206.71297895917 2820.96427871905 104 106 103
-1233.88590531329 208.894492474619 2803.86732571503 103 105 102
-1241.50276321113 210.240228590595 2791.82796404529 45 47 44
-1248.39335445322 208.763412051169 2797.01855126546 71 73 70
-1255.15313198792 206.957508969671 2804.24170409703 111 113 112
-1261.76582212844 204.823379410662 2813.49969140369 121 123 122
-1268.59474397892 203.518947809118 2817.68983353156 135 137 136
-1275.50948809924 202.546287291975 2819.85277737506 152 154 153
-1282.82429685 202.728732531349 2814.90846336311 130 132 129
-1290.22184569962 203.074270908067 2808.94546700908 112 117 111
-1297.51530811 203.088813538549 2805.01194615795 105 110 104
-1304.48573281054 202.280584315031 2806.15982127207 114 119 113
-1311.58505814278 201.801172809348 2805.27512995452 126 131 125
-1318.61038879303 201.157780057127 2805.4077916728 134 139 135
-1325.47793123273 200.187051558487 2807.57662091909 161 166 162
-1332.17163507345 198.890099398578 2811.78361775833 155 160 156
-1338.83750661169 197.594917812189 2815.9938429729 149 153 152
-1345.81057595492 196.954525933116 2816.13301869064 144 148 147
-1353.03661580588 196.803566278465 2813.21627498764 153 157 158
-1360.09431419357 196.326149703947 2812.33677321309 167 171 172
-1367.15100165931 195.848678086575 2811.45739774058 167 171 172
-1374.49032553546 195.858806023667 2807.5181652756 157 161 162
-1382.42784385036 196.841767023807 2797.45511663327 159 163 164
-1390.31297219951 197.659372936877 2788.4069687726 172 176 177
-1398.34261104889 198.636077136008 2778.33244050924 164 168 169
-1406.31442181656 199.447653242881 2769.27349107448 160 164 165
-1414.65205401238 200.741258287406 2757.1440780501 163 167 168
-1423.37964505147 202.515270002191 2741.94167403905 166 170 171
-1431.95482695723 203.961720232962 2728.7745266047 143 147 148
-1440.01373183536 204.598545174039 2720.71285563902 141 145 146
-1447.3975382945 204.267615443563 2718.78458463901 151 155 156
-1454.66460008301 203.775696636051 2717.8789937409 155 159 160
-1462.17888478552 203.6050278768 2714.926090419 164 168 169
-1469.95646303378 203.754348989452 2709.92411274084 154 158 159
-1478.91893515992 205.343836326673 2695.7005699953 156 160 161
-1488.47855084741 207.568597024061 2677.36984563228 144 146 145
-1499.61049228501 211.545125212623 2647.75277193874 149 151 150
-1509.92985114072 214.394382686654 2625.29460286834 125 127 126
-1517.69976555347 214.207010792362 2622.30984245698 141 143 140
-1126.25469187836 206.212454699918 2833.43032280832 176 182 182
-1133.3621747038 205.573535742764 2833.55296090798 173 179 179
-1140.42987772779 203.939943105546 2839.72954558731 170 176 176
-1147.45068327297 202.143061723214 2846.92009990803 167 171 170
-1154.42746395762 200.348688870099 2854.11638193369 154 158 157
-1161.42852290964 199.383101124251 2856.26853557059 170 174 173
-1168.44518309893 198.748442670495 2856.40225630968 182 186 185
-1175.4174595375 197.784121175121 2858.55799849947 147 149 148
-1182.39439968681 196.985328537954 2859.70479540444 153 155 154
-1189.45738793069 196.845024956353 2856.80837151567 144 146 143
-1196.63868188099 197.361120566434 2849.86422623999 140 142 139
-1203.85132389323 197.874801069705 2842.91617527161 129 131 128
-1211.09534719435 198.386124071612 2835.96421431229 122 124 121
-1218.40591153861 199.058797605633 2827.9958374151 119 121 118
-1226.05635713736 201.03766578808 2811.91962820658 114 116 113
-1233.70538484773 202.68401180861 2797.8598458238 52 54 51
-1241.16370814224 203.345988222324 2789.87305765365 63 65 62
-1247.96900383637 201.559133278475 2797.09047992543 64 66 65
-1254.77897067536 199.937928667508 2803.2991959335 111 113 112
-1261.39616866065 197.830924419155 2812.55654925425 132 134 133
-1268.12067766222 196.214954935232 2818.77591610869 150 152 151
-1275.09023045212 195.413171531995 2819.92388305726 119 121 120
-1282.58281039562 196.071382962463 2811.93282977479 108 110 109
-1289.92570912807 196.240990103219 2806.98504410787 103 108 104
-1297.09470441227 195.923682851388 2805.08330412949 103 108 104
-1304.13309463377 195.282536326314 2805.21457044386 124 129 125
-1311.23532910487 194.803208241654 2804.3295158633 127 132 128
-1318.26361046527 194.162464316393 2804.46180237481 152 157 153
-1325.13453740484 193.199911173698 2806.63018772601 156 160 159
-1331.7535353696 191.755595982737 2811.8545825904 153 157 156
-1338.50131759655 190.634910092293 2815.04643920887 141 145 144
-1345.31013276841 189.676104798009 2817.22256587166 149 153 152
-1352.70591558212 189.840817499478 2812.26795320464 169 173 172
-1359.8552942342 189.523508277551 2810.3689015399 165 169 168
-1367.19241437949 189.525863414474 2806.42996455689 156 160 161
-1374.45039427391 189.367255109668 2803.50925506774 156 160 161
-1382.49436473179 190.484926171227 2792.42487997496 160 164 165
-1390.39169642499 191.280132723761 2783.37502792828 169 173 174
-1398.33094985062 192.072372514262 2774.32019237883 164 168 169
-1406.20721308518 192.702707090935 2766.28133110265 161 165 166
-1414.44332525116 193.807211928936 2755.17301253341 162 166 167
-1423.06360640098 195.384337701346 2740.99220575244 164 168 169
-1431.30028803252 196.32264932183 2730.89194087938 141 145 146
-1439.35270904064 196.941044970986 2722.83112759523 141 145 146
-1446.96788778843 196.924282707531 2718.85754088749 152 156 157
-1454.59841599827 196.906572456343 2714.88204115412 148 152 155
-1462.12039642653 196.730068298987 2711.92819281845 149 153 156
-1469.90527540626 196.868174318539 2706.92533358672 149 153 154
-1478.48605159034 197.949647080973 2695.7740636398 162 166 167
-1488.04286410778 200.128540546161 2677.44380988556 153 155 154
-1499.30477750188 204.186471447258 2646.80261499089 143 145 144
-1509.34902452034 206.66501141267 2626.39512871909 123 125 124
-1517.95524874442 207.412850225166 2617.25717608548 151 153 150
-1125.82816524318 200.041833526692 2827.45343806413 172 178 178
-1132.94147116416 198.75174153527 2831.60781270967 171 177 177
-1140.00523875317 196.81081322074 2839.80131233071 171 177 177
-1147.01958400781 194.872794503795 2848.00097190458 167 171 170
-1153.99531432994 193.100523549851 2855.19708653596 154 158 157
-1160.99446909516 192.143358496354 2857.34945562326 162 166 165
-1167.99280974004 191.349413632787 2858.49356910647 182 186 185
-1174.97938315521 190.555892441119 2859.63939022339 143 145 144
-1182.01895940273 190.248773399843 2857.75401441412 152 154 153
-1189.11162939312 190.26464099899 2853.84554778067 143 145 142
-1196.273423281 190.602533747898 2847.91199238659 141 143 140
-1203.49081461601 191.099729481841 2840.96363241159 129 131 128
-1210.83660936429 192.07837210705 2830.97443874443 121 123 120
-1218.40510927505 193.858917668501 2815.91666524706 117 119 116
-1226.08575478256 195.795128904433 2799.83655933527 104 106 103
-1233.56310175869 196.60061007272 2790.83933210927 38 40 37
-1240.73753531094 196.118683185653 2789.94527435406 63 65 62
-1247.59020250701 194.514108307155 2796.1486178162 57 59 58
-1254.40422763208 192.911875705975 2802.35677741205 127 129 128
-1261.07715735048 190.99196406447 2810.59899594207 138 140 139
-1267.86229252057 189.55462080064 2815.80239923637 144 146 145
-1274.89699302909 188.917501690667 2815.93411539906 110 112 111
-1282.22168646151 189.07790430928 2810.988385617 113 115 114
-1289.62877847827 189.395932387761 2805.02451104826 109 114 110
-1296.80316289198 189.075716267071 2803.12234646752 107 112 108
-1303.84725424291 188.437130430864 2803.25265430243 123 128 124
-1310.74495054748 187.481412199469 2805.41768099564 130 135 131
-1317.84358237796 187.002283762597 2804.53307547756 157 162 158
-1324.56438944882 185.73128370359 2808.73638138124 154 158 157
-1331.41339757235 184.778368577806 2810.90747668972 147 151 150
-1338.08378253334 183.5104040339 2815.11730724944 145 149 148
-1345.22697517774 183.191306532261 2813.21879200252 159 163 162
-1352.28847742389 182.714065685473 2812.33881506616 158 162 161
-1359.61545255708 182.709126570211 2808.40140359857 144 148 147
-1366.77455896982 182.388627075944 2806.50090609954 154 158 159
-1374.314836768 182.696050317922 2800.52043866013 160 164 165
-1382.07473892976 183.315522771944 2792.49612716292 165 169 170
-1389.9707857921 184.089191741985 2783.446492174 169 173 174
-1397.80663261674 184.703408029761 2775.41271707377 164 168 169
-1405.88895840295 185.62790301537 2765.33175128328 161 165 166
-1414.23383935096 186.861505750997 2753.20183194017 161 165 166
-1422.74715028884 188.247188522225 2740.04256566577 162 166 167
-1431.21094548389 189.472737960284 2727.89782773571 142 146 147
-1439.03906049732 189.760567649721 2721.88125124369 143 147 148
-1446.77475292534 189.891116862505 2716.8845501034 156 160 161
-1454.28905196833 189.709759421159 2713.93191340889 151 155 158
-1461.93702762022 189.682934894014 2709.95426034003 148 152 155
-1470.10572518765 190.274752235277 2701.87900642172 149 153 154
-1478.82722706034 191.483165108702 2689.70191308163 162 166 167
-1489.0558966409 194.387838952281 2666.2472284614 155 157 156
-1500.20819442665 198.210987762082 2636.62801833508 141 143 142
-1509.45365490127 199.711258264176 2622.36939526602 119 121 120
-1516.39202992868 198.588672874429 2625.53747203203 153 155 152
-1118.2380548192 195.277387069668 2816.31997971967 175 180 176
-1125.39970103553 193.516115944757 2823.49286417893 172 178 178
-1132.51987016258 191.917940618419 2829.66280812854 171 177 177
-1139.58560970512 189.840889446924 2838.86410723433 170 176 176
-1146.56468760207 187.126385664933 2852.10912884016 160 164 163
-1153.56319216002 185.856596756036 2856.27777654966 147 151 150
-1160.54722551212 184.748183215939 2859.44011810562 138 142 141
-1167.60492510287 184.598631140041 2856.54437856507 169 173 172
-1174.59754564583 183.810365954906 2857.68919092595 161 163 162
-1181.66414733294 183.659589820262 2854.79234367991 148 150 149
-1188.76470388249 183.666982087661 2850.88291517 142 144 141
-1195.9340390837 183.990867335085 2844.94845555285 135 137 134
-1203.15886927534 184.471464179259 2837.99921096511 119 121 118
-1210.57599382619 185.742428940255 2825.98473147521 110 112 109
-1218.29561157461 188.117802572719 2806.87554424504 105 107 104
-1225.92319947619 189.69552002281 2792.81861815455 50 52 49
-1233.37809939207 190.32020898866 2784.83235539698 33 35 32
-1240.3541290384 189.048298390186 2789.00381342998 53 55 52
-1247.2108212936 187.46263791603 2795.20660477812 98 100 99
-1253.93225125235 185.564451101732 2803.44271355332 140 142 141
-1260.7062047281 183.983912257215 2809.65581672436 133 135 134
-1267.65645726849 183.034192415045 2811.81426891351 130 132 131
-1274.81501739421 182.713013559977 2809.91408164568 114 116 115
-1282.15539000926 182.861610111759 2804.96666655392 109 111 110
-1289.45449536566 182.852143266065 2801.0325047246 113 117 116
-1296.5106446372 182.215894825106 2801.16130164685 118 122 121
-1303.56052752708 181.579896283145 2801.29087991839 136 140 139
-1310.46425907942 180.63209495655 2803.45513259947 153 157 156
-1317.56842128206 180.152793369807 2802.56983737962 157 161 160
-1324.3707108204 179.050851706305 2805.75484244562 154 158 159
-1331.07259507848 177.794765886085 2809.96071079709 154 158 159
-1337.90783227912 176.850999570752 2812.13350054227 155 159 160
-1344.89247837924 176.218529903696 2812.27121068633 145 149 150
-1352.04273134992 175.896237901796 2810.37206303377 139 143 144
-1359.19734320455 175.57351890849 2808.47237254273 151 155 156
-1366.26504166615 175.095853466119 2807.59162347347 169 173 174
-1373.70793249983 175.235766516177 2802.63119731306 165 169 170
-1381.36467549125 175.682607067009 2795.62814145735 161 165 166
-1389.74848643918 177.205489744368 2781.47698760684 161 165 166
-1397.69063782417 177.954422991536 2772.4216641867 162 166 167
-1405.46543170432 178.393143297408 2765.40365739362 169 173 174
-1413.80858383126 179.597144378217 2753.27403175206 167 171 172
-1422.54019854279 181.257099124653 2738.07142597544 165 169 170
-1431.12042129686 182.605791467807 2724.90390691493 142 146 147
-1438.7248118551 182.57380050971 2720.93170661369 142 146 147
-1446.46255697952 182.693558542636 2715.93477772722 150 154 155
-1454.09999463887 182.659312989048 2711.95845928053 150 154 157
-1461.75278547258 182.624178933425 2707.98022718828 147 151 154
-1469.9256816087 183.196856589015 2699.90449971711 147 151 152
-1478.65073221952 184.375244517412 2687.72728285384 156 160 161
-1489.40751579136 187.82755489882 2660.17402161809 156 158 157
-1500.30281503469 191.270622981615 2632.6034987847 140 142 141
-1508.73522381866 191.82614110908 2624.49543085831 116 118 117
-1117.80759893875 188.074990292111 2816.39266532428 174 179 175
-1124.96910326256 187.28358082036 2817.51641026811 174 180 180
-1132.09018721535 184.59867069597 2830.74363242386 171 177 177
-1139.15520865756 182.549047896732 2839.94494891268 167 173 173
-1146.13422385326 179.872946974896 2853.18963694195 155 159 158
-1153.15217492055 178.931605313869 2855.33961869153 149 153 152
-1160.12669851809 177.676871206328 2859.51121943683 136 140 139
-1167.1844274563 177.522091569007 2856.61549000049 168 172 171
-1174.21478302553 177.052866885718 2855.73937887499 174 176 175
-1181.28678571267 176.896518480665 2852.84163202172 145 147 146
-1188.39260016345 176.895573015818 2848.93156931393 145 147 144
-1195.56682593956 177.205711716185 2842.99677585173 135 137 134
-1202.85504388101 177.981941089636 2834.02298757595 120 122 119
-1210.34556560567 179.534199486809 2819.98323357952 114 116 113
-1218.1481654145 182.171142537755 2798.84738737992 107 109 106
-1225.68322675332 183.245924346595 2787.82663408388 39 41 38
-1232.99030052388 183.229768620287 2783.8914954585 33 35 32
-1239.88444139824 181.66110480943 2790.089808949 72 74 71
-1246.83086207127 180.404756854517 2794.26492102315 122 124 123
-1253.60479982005 178.685683586519 2801.48607808049 137 139 138
-1260.4872437449 177.433115210577 2805.66940438994 134 136 135
-1267.50253597873 176.645379044844 2806.81162633342 130 132 131
-1274.73095357891 176.475064725227 2803.89439660245 116 118 117
-1282.02809688995 176.457899265898 2799.96049989881 108 110 109
-1289.15542658627 175.978047470821 2799.07231496167 112 116 115
-1296.08873696164 175.036991660215 2801.23285861643 117 121 120
-1303.07182836986 174.25035131681 2802.37909614677 144 148 149
-1309.97351373076 173.311071312365 2804.54358173985 157 161 162
-1317.00284626328 172.67909930586 2804.67571397076 158 162 163
-1323.87562195535 171.741422124474 2806.84380309862 156 160 161
-1330.80901981957 170.957616569085 2807.99599435541 156 160 161
-1337.56975143513 169.869224187753 2811.18639019167 143 147 150
-1344.64049379954 169.391902331034 2810.30526035651 135 139 142
-1351.36701424095 168.305627171765 2813.49967970068 149 153 156
-1358.5135934756 167.980968788684 2811.6007564717 163 167 170
-1365.48208505109 167.352218260104 2811.74071307945 169 173 174
-1373.19526773301 167.937191337498 2803.72232275 161 165 166
-1380.94497652967 168.519628464075 2795.69938085572 157 161 162
-1389.22758949049 169.856194858088 2782.56903367122 162 166 167
-1397.16586246979 170.583815470558 2773.51425037924 162 166 167
-1404.8324080218 170.855722523487 2767.51811900126 167 171 172
-1413.06118228379 171.879681674308 2756.41092827325 165 169 170
-1422.00248753866 173.803615026375 2739.16584471311 164 168 169
-1431.02877635683 175.721835826747 2721.9101707505 142 146 147
-1438.6406384133 175.68136611757 2717.93706037893 141 145 146
-1446.14979600842 175.489795249031 2714.98509220343 148 152 153
-1453.66878753323 175.297684982131 2712.03165796338 148 152 155
-1461.32101631822 175.254494375187 2708.05351722813 148 152 153
-1469.61872530381 175.957905466779 2698.95418247119 151 155 156
-1478.60213177974 177.405174514264 2684.72840176936 154 158 159
-1489.75700629373 181.234111330281 2654.10116774189 160 162 161
-1501.20045707664 185.201653764506 2622.42986899095 140 142 141
-1509.24816596461 185.290288249074 2617.39434042203 131 133 132
-1117.37372259698 181.026814890742 2815.45768454755 174 179 175
-1124.54185307644 179.153768853147 2823.63774126255 166 172 172
-1131.65382444032 176.818293674919 2834.8495659259 173 179 179
-1138.71007771377 174.796731527883 2844.05190273362 154 160 160
-1145.71911675622 172.933225809876 2852.25202826407 153 157 156
-1152.75088942963 172.154590014348 2853.39192931188 156 160 159
-1159.71893064665 170.758839423838 2858.57263774876 141 145 144
-1166.77937476334 170.598661122242 2855.67658369139 133 137 136
-1173.7575632812 169.667345195064 2857.83126090091 176 178 177
-1180.88746611476 169.967616555404 2851.90202466519 171 173 172
-1187.9957973188 169.958567707362 2847.99166922145 132 134 131
-1195.19872089248 170.408636113188 2841.04499857694 132 134 131
-1202.6080234331 171.776114909516 2828.02379423195 118 120 117
-1210.20853073496 173.751632164618 2810.94589848526 110 112 109
-1217.99791107716 176.17996184279 2790.81993847102 112 114 111
-1225.32961555589 176.309790475415 2785.87365453608 41 43 40
-1232.56193496506 175.980147728661 2783.96404456635 50 52 49
-1239.41481814562 174.278264342965 2791.17554470033 97 99 96
-1246.45031554974 173.34031390509 2793.32332784014 124 126 125
-1253.27648601841 171.794999213525 2799.52982187762 136 138 137
-1260.16536760048 170.555843905487 2803.71206921392 130 132 131
-1267.07972206196 169.469997499869 2806.88328712249 114 116 115
-1274.42022857884 169.597471222491 2801.93567067805 110 112 111
-1281.72251730108 169.572064780465 2798.00115355984 106 108 107
-1288.79394270067 168.940817885587 2798.12827120897 111 115 114
-1295.79475621965 168.158958535157 2799.27204426534 117 121 120
-1302.71691876159 167.226824706956 2801.43395560809 149 153 154
-1309.69150288378 166.446310351472 2802.58123866485 156 160 161
-1316.43758676551 165.21520693815 2806.78128510558 158 162 163
-1323.45543550905 164.586775961836 2806.91508138902 151 155 156
-1330.31166590332 163.658424334505 2809.08521071371 153 157 158
-1337.23106490479 162.881064750897 2810.23913197058 131 135 138
-1343.97274357342 161.805021836602 2813.43163271135 133 137 140
-1351.12026450977 161.47788721682 2811.53283875339 160 164 167
-1358.18380901758 161.001083627069 2810.65260580334 164 168 171
-1365.42833328586 160.822489477783 2807.7336281288 162 166 167
-1372.87007219646 160.941095367128 2802.77340183322 158 162 163
-1381.00699970753 162.099736252263 2790.669631259 158 162 163
-1389.20205432776 163.254405357066 2778.55861722473 166 170 171
-1397.14990942731 163.959885683177 2769.50269644645 164 168 169
-1404.5130323786 163.772929867505 2766.56894037757 163 167 168
-1412.8501627937 164.91794820294 2754.43998127027 161 165 166
-1422.12361044792 167.241972201184 2734.12933338324 161 165 166
-1431.04836345779 168.968463519865 2717.89452250018 142 146 147
-1438.55533493771 168.771773862605 2714.94260035033 142 146 147
-1445.60077198984 167.985133269643 2716.08105751355 149 153 154
-1452.99618386788 167.640743380428 2714.15137367272 147 151 154
-1460.51939581712 167.443138556447 2711.19742721837 147 151 152
-1468.68186432729 167.978825669449 2703.12309846655 151 155 156
-1478.038080051 169.831594921336 2685.82642394095 152 156 157
-1490.10429983798 174.607363292928 2648.02867573921 156 158 157
-1503.16607998529 180.247725973803 2604.05780748521 131 133 132
-1513.17371412112 182.367391274697 2584.66376273529 143 145 144
-1116.95920403265 173.055537951637 2820.56908184757 173 178 174
-1124.11759807465 170.750281060167 2831.77503365636 167 173 173
-1131.20614586198 168.144184189401 2845.00586831257 169 175 175
-1138.2517407909 166.608361721913 2851.1849544772 151 157 157
-1145.28096295922 165.530812433486 2854.34157545614 152 156 155
-1152.33852496883 165.213708711486 2852.45398142439 157 161 160
-1159.32341145369 163.985908585253 2856.62445828167 146 150 149
-1166.34262655602 163.365599861587 2856.75782239321 119 123 122
-1173.28241264168 162.140162747108 2860.93368102204 143 145 144
-1180.40378616631 162.427689285607 2855.00554275669 171 173 172
-1187.57474118543 162.864057474181 2848.06289767782 122 124 121
-1194.9086871574 164.051904986313 2836.05925753788 125 127 124
-1202.38788969579 165.687368124685 2821.01276962533 112 114 111
-1210.10010655642 168.069613311214 2800.89680078801 107 109 106
-1217.776009692 169.843891328223 2784.81771314157 83 85 82
-1225.0493008792 169.661879419114 2781.89491425743 35 37 34
-1232.1731322747 168.879322429766 2783.02357751603 57 59 56
-1238.94532388776 166.899864962114 2792.26125265843 121 123 120
-1245.84326559203 165.521838439571 2797.45066242439 127 129 128
-1252.75580300512 164.295180973409 2801.62992474021 135 137 136
-1259.79196278226 163.51752236412 2802.76951599877 127 129 128
-1266.70993524244 162.442640878378 2805.94001325801 110 112 111
-1273.94082803408 162.261660272912 2803.02274299581 109 111 110
-1281.18147902071 162.079876343954 2800.10401681535 108 110 109
-1288.37050625119 161.748813507883 2798.20005346208 115 119 118
-1295.37187904303 160.972592136825 2799.34374187709 126 130 129
-1302.29474210995 160.048834510269 2801.50554374003 154 158 159
-1309.13098635424 158.978176668664 2804.68646934337 155 159 160
-1315.94473858734 157.908919332278 2807.86995785981 152 156 157
-1322.81071026316 156.98851726399 2810.03885059528 143 147 148
-1329.96928358999 156.658526040692 2808.13844461835 131 135 136
-1336.811750486 155.739442195205 2810.31026713989 145 149 152
-1343.63697898385 154.821426673521 2812.48423809821 159 163 166
-1350.35962866118 153.757644620751 2815.67908125606 157 161 164
-1357.41256089651 153.281726121338 2814.80017032403 160 164 167
-1364.64607975417 153.098667110242 2811.88257781772 161 165 166
-1372.26367890017 153.499922480044 2804.88428666071 160 164 165
-1380.68230865518 155.067568304221 2789.72098264858 160 164 165
-1388.77937733241 156.046556077927 2778.63034642944 163 167 168
-1396.42121811257 156.293428226079 2772.63712372072 168 172 173
-1403.67182864009 155.956322042712 2770.72549105099 169 173 174
-1412.42427094533 157.653836395621 2754.51225983499 164 168 169
-1422.35267854632 160.797652243259 2728.0711147994 162 166 167
-1430.95405899105 162.047589824536 2714.90121545134 139 143 144
-1438.00869753318 161.265947068824 2716.03851116138 143 147 148
-1445.16948058769 160.629751601986 2716.1542502666 149 153 154
-1452.32407113907 159.994040216427 2716.27076088479 151 155 158
-1460.08756278402 160.080027508799 2711.27070791881 152 156 157
-1468.2489209424 160.596972867025 2703.19656708806 150 154 155
-1477.98785471836 162.838336778213 2682.82780669863 150 154 155
-1490.84277671426 168.378554650784 2638.88301684678 152 154 153
-1506.59714511555 176.774432693552 2574.41392963793 143 145 144
-1109.42594865349 165.132645381071 2829.59226983009 179 184 178
-1116.55301537546 164.810125889921 2827.69577601464 173 179 175
-1123.69249886694 162.988476753327 2835.87951262121 161 167 167
-1130.78436569901 161.319382876092 2843.06086238959 155 161 161
-1137.83681910072 159.802296812122 2849.23928358445 151 157 157
-1144.86516033709 158.586118913257 2853.40406667019 157 161 160
-1151.91559197278 158.117138185213 2852.52544952784 164 168 167
-1158.90160349153 156.903092075368 2856.69574976683 165 169 168
-1165.92126798538 156.2857109714 2856.82905008718 157 161 160
-1172.89843365099 155.371244645689 2858.98405083853 129 131 130
-1180.04541672323 155.793373326111 2852.04443481616 126 128 127
-1187.27077338604 156.509587637597 2843.07888957259 140 142 139
-1194.61668160192 157.666899069415 2831.07359676227 125 127 124
-1202.13629695628 159.411599927702 2815.0143310661 106 108 105
-1209.86192495327 161.741418130983 2794.89658639411 100 102 99
-1217.4833197343 163.179063522236 2780.84080204323 74 76 73
-1224.7673208515 162.991083915104 2777.91668233885 42 44 41
-1231.74405281312 161.624909520271 2783.09622833434 63 65 62
-1238.43344671099 159.378764642851 2794.36055291903 125 127 124
-1245.23717729256 157.723995450516 2801.57782266448 132 134 133
-1252.23539859256 156.805052344955 2803.73020758657 133 135 134
-1259.46836112767 156.619249188972 2800.8124514639 122 124 123
-1266.604918317 156.140063715667 2799.92311323545 106 108 107
-1273.79605687172 155.8067462383 2798.01889233892 108 110 109
-1280.99161333964 155.472998009024 2796.1141212473 111 113 112
-1288.06913208707 154.847272926061 2796.24022367241 123 127 126
-1295.14024059203 154.221866629046 2796.36712521837 139 143 142
-1302.07180079161 153.305945913233 2798.52782109235 156 160 159
-1308.84779366816 152.100650726372 2802.72430737103 152 156 155
-1315.59571626907 150.897111412191 2806.92405176139 144 148 147
-1322.68886431534 150.41937746221 2806.04012691483 142 146 147
-1329.62635463854 149.652244939086 2807.19200381784 143 147 148
-1336.631925639 149.030297090945 2807.3270749492 156 160 161
-1343.3005829151 147.831511325813 2811.53693893393 159 163 164
-1350.45328173707 147.499030180851 2809.63751288633 148 152 153
-1357.43439977734 146.878401237849 2809.77563212928 155 159 160
-1364.6811981842 146.689238186448 2806.85615821977 160 164 165
-1371.84432662241 146.35579400411 2804.95543315386 158 162 163
-1380.26083888307 147.885710854947 2789.79249275041 164 168 169
-1388.35640853524 148.837829555354 2778.70211435948 166 170 171
-1396.20033007768 149.357319678997 2770.66758104019 168 172 173
-1403.45625416498 149.017513460894 2768.75505211133 162 166 167
-1412.31854680889 150.816823490399 2751.52015704901 160 164 165
-1422.36051495364 154.034992690819 2724.05671715508 162 166 167
-1430.74637154456 154.967364281126 2712.93016467366 139 143 144
-1437.80673441922 154.191030460841 2714.06673203995 141 145 146
-1444.97307289567 153.557437330258 2714.1817710082 146 150 151
-1452.1330638807 152.924221214099 2714.29784138173 150 154 157
-1459.77838632688 152.857731009159 2710.3206238754 151 155 156
-1467.81575406574 153.214387774907 2703.27006552849 152 156 157
-1477.93620791798 155.827999060473 2679.82941182553 152 156 157
-1491.83985183658 162.382153792193 2627.68910018806 151 153 152
-1508.54905584848 171.59413550565 2556.0441754664 140 142 141
-1519.90320728157 174.873995132601 2527.4091332979 147 149 148
-1526.67653474553 173.368417658799 2533.62211718341 156 158 155
-1108.97698842084 158.400422849067 2826.642724918 177 182 176
-1116.13061632909 157.338239855972 2829.78378032948 170 176 172
-1123.26365285393 155.982921147369 2834.94379185147 161 167 167
-1130.36165485666 154.482519751262 2841.11624464299 155 161 161
-1137.42094276602 152.98425619304 2847.29352309456 155 161 161
-1144.44874090112 151.634865385366 2852.46665213451 159 163 162
-1151.51201205015 151.312378790383 2850.57811954278 159 163 162
-1158.51716228216 150.257925237745 2853.737924004 162 166 165
-1165.57584734315 149.935073858776 2851.84996468959 160 164 163
-1172.58518402673 149.17393513817 2852.9928598071 147 149 148
-1179.72710965527 149.433245038199 2847.06199079946 122 124 123
-1186.94160713493 149.981515731707 2839.10593008948 149 151 148
-1194.32286295512 151.253792424892 2826.08847652074 126 128 125
-1201.82506322446 152.811913430563 2811.03932230507 108 110 107
-1209.62150202808 155.379682419403 2788.89674003174 89 91 88
-1217.12095990747 156.201977561463 2778.88878184979 58 60 57
-1224.44708613071 156.153044905968 2774.95135190783 42 44 41
-1231.35413751341 154.513853022816 2782.15592707458 62 64 61
-1238.00622971403 152.156094873233 2794.43288771833 138 140 137
-1244.766668467 150.379194714396 2802.6635687538 139 141 140
-1251.85801453387 149.75662250369 2802.78817757695 124 126 125
-1259.24429214151 149.996573421016 2796.8268658681 117 119 118
-1266.60354483733 150.091113063156 2791.87723701082 111 113 112
-1273.87185811948 149.897234947952 2788.95509058903 112 114 113
-1280.91674360744 149.129770455407 2790.09356608461 114 116 115
-1287.82779583226 148.076949261969 2793.26486885333 133 138 134
-1294.71623242838 147.025449369493 2796.4389904392 147 152 148
-1301.64849315295 146.117904855325 2798.59957683337 150 155 151
-1308.28733409424 144.641501605097 2804.8295072813 147 152 148
-1315.1744004912 143.736714280712 2806.99548613067 148 153 149
-1322.26762241601 143.259214513014 2806.11155144779 148 152 151
-1329.4369519024 142.923523900357 2804.21005844361 158 162 161
-1336.21151531629 141.878711022324 2807.3983731194 138 142 141
-1343.12851355887 141.118438126226 2808.55278924834 131 135 134
-1350.11896674946 140.500200590183 2808.68973722203 160 164 163
-1357.19087521753 140.023521112275 2807.80846017234 161 165 164
-1364.17113473443 139.405756309062 2807.94691928006 164 168 169
-1371.70450656944 139.633380231361 2801.96728354394 168 172 173
-1379.83908287761 140.703065390785 2789.86404064767 172 176 177
-1388.2289651782 142.049739154166 2775.71259316815 165 169 170
-1395.97863329919 142.40967404434 2768.69792939986 159 163 164
-1403.55160197555 142.487284170257 2763.72167463497 159 163 164
-1412.42483894444 144.242598394069 2746.48552964698 158 162 163
-1421.71085572465 146.411437296007 2726.17348161302 160 164 165
-1430.20175414453 147.456869914854 2714.02583569197 137 141 142
-1437.37440799857 146.825711262603 2714.14008012732 139 143 144
-1444.77561293737 146.473487048138 2712.20969397817 148 152 153
-1451.82119675032 145.703915148763 2713.34784760797 149 153 156
-1459.71416126161 145.906991097349 2707.3236417467 147 151 152
-1467.88385938429 146.38569058758 2699.24856085685 150 154 155
-1478.52388396573 149.493137974746 2671.71077863725 153 157 158
-1493.22558666536 156.740405203388 2613.42244556826 151 153 152
-1510.09468256409 165.901179036482 2540.74977477159 142 144 143
-1520.39563962459 168.001899034187 2520.31148784837 137 139 138
-1529.1317947203 168.442809881652 2512.1658159922 160 162 159
-1101.19428144125 155.022882307097 2804.44437023136 127 130 121
-1108.55930929728 150.926770431349 2828.72990459735 170 175 169
-1115.70858440834 149.876032786366 2831.87147307127 165 171 167
-1122.8375745864 148.537544761625 2837.03194523041 164 170 170
-1129.93798565748 147.633621431446 2839.17153791917 160 166 166
-1137.0170469599 146.586431115078 2842.32185931954 157 163 163
-1144.08751657902 145.828176344434 2843.45711781334 155 159 158
-1151.15592696205 145.214139844317 2843.58432612701 146 150 149
-1158.16850488867 144.025992954633 2847.75124283069 148 152 151
-1165.22851392876 143.556163202192 2846.87143272076 122 126 125
-1172.2874713953 143.086101830059 2845.99175445095 126 128 127
-1179.4887207709 143.616762346428 2838.03739340182 111 113 112
-1186.70344021272 144.001818208897 2831.08942191092 138 140 137
-1194.00122739915 144.669758853904 2822.11472462445 140 142 139
-1201.51231542707 146.189392570156 2807.06480289271 111 113 110
-1209.22266178949 148.272807684408 2787.95754153906 90 92 89
-1216.79150923204 149.354910388579 2775.92462529077 58 60 57
-1224.05226593508 149.013723809545 2774.0117371839 51 53 50
-1230.88495184665 147.112858994273 2783.24165602454 76 78 75
-1237.49473616761 144.649211353477 2796.53186239595 133 135 132
-1244.38556188656 143.321446468372 2801.72202783257 138 140 139
-1251.527369335 142.842822356313 2800.8320329245 120 122 121
-1259.01865561952 143.351153775555 2792.84153578669 115 117 116
-1266.49370002198 143.715922668011 2785.86113070474 113 115 114
-1273.72269101024 143.375206970325 2783.95220553123 116 118 117
-1280.78150404079 142.612498960549 2785.08893042582 120 122 121
-1287.46354770567 141.008720790398 2792.32125169602 135 140 136
-1294.29195455289 139.828034014865 2796.51089194691 146 151 147
-1301.1586449654 138.788940727452 2799.68793492433 149 154 150
-1307.93394571838 137.611487809437 2803.88419398557 151 156 152
-1314.82433759543 136.714882104782 2806.04997655742 157 162 158
-1321.84614031947 136.09805158849 2806.18300858934 166 170 169
-1328.86149772742 135.481455013136 2806.31708461126 145 149 148
-1335.7110799726 134.587120644195 2808.48795400242 139 143 142
-1342.70816224865 133.971596212455 2808.62406756057 145 149 148
-1349.95397724162 133.772372898577 2805.70474286864 166 170 169
-1357.03404102746 133.295323185601 2804.82244905852 167 171 170
-1364.20342101483 132.95664324613 2802.92095762441 167 171 172
-1371.37721891539 132.617532554752 2801.01891599522 164 168 169
-1379.22559888779 133.243708393707 2791.97561797026 164 168 169
-1387.41120367815 134.280192066534 2779.86609445603 162 166 167
-1395.8570911287 135.587942442619 2765.70776036824 163 167 168
-1404.1640819701 136.616095905393 2753.58311052977 161 165 166
-1412.84868290062 138.052128726186 2738.38672121676 159 163 164
-1421.3889860548 139.208911222905 2725.22492954281 159 163 164
-1429.65721226901 139.95090711996 2715.12124508279 135 139 140
-1437.2854931371 139.86964631931 2711.1461931625 138 142 143
-1444.8116779798 139.650832397171 2708.19217183077 145 149 150
-1451.86823601652 138.886175262829 2709.32894299946 147 151 154
-1459.52603151131 138.803034211063 2705.35021277981 142 146 147
-1467.57473520823 139.126718827409 2698.29832660333 147 151 152
-1478.46909393331 142.435282467324 2668.71290115734 150 154 155
-1493.82291579437 150.208380922417 2605.30288668603 146 148 147
-1510.56894981645 159.042841541162 2533.6543599852 137 139 138
-1520.61359809722 160.82058850411 2515.26428361678 132 134 133
-1531.02564671535 162.862449687436 2494.81204785779 159 161 160
-1100.5624419657 150.76230927173 2783.37132918674 127 130 123
-1108.09535354367 144.457315030733 2823.76616485335 170 175 169
-1115.2750335801 142.849217192741 2830.93639542208 168 173 169
-1122.40803119214 141.52698705761 2836.09632466257 161 167 167
-1129.51061821043 140.489734817933 2839.24368402112 162 168 168
-1136.59063378 139.453562175932 2842.39385731994 150 156 156
-1143.65496439877 138.559790845924 2844.53792590091 138 142 141
-1150.72116229793 137.948764462844 2844.66564266119 123 127 126
-1157.76884121443 137.197095195406 2845.80348768851 123 127 126
-1164.86436624944 137.008374412287 2842.90313090553 152 156 155
-1171.91681366751 136.397325677 2843.03232343469 130 132 131
-1179.12527210373 136.908654722082 2835.07711364615 119 121 118
-1186.30151245896 136.99693664302 2830.1503401265 96 98 93
-1193.72940061934 138.342783874436 2816.11894600507 104 106 103
-1201.28301780191 139.963303678473 2800.0555238394 145 147 144
-1209.00972045186 141.996853911175 2780.94635263516 138 140 137
-1216.52834964526 142.769284004917 2770.93613330439 48 50 47
-1223.72975275227 142.146297327451 2771.04676848233 67 69 66
-1230.45495985638 139.855219497519 2783.31442921813 123 125 122
-1237.06722159964 137.429845261413 2796.60422563024 136 138 135
-1244.04834500229 136.395884151742 2799.7669745316 129 131 130
-1251.29023901475 136.194133544888 2796.8481458104 117 119 118
-1258.74146275578 136.544713013632 2789.87075077351 111 113 112
-1266.17124187277 136.75478126375 2783.90432929715 108 110 109
-1273.35038514005 136.273300868208 2783.00968262154 121 123 122
-1280.3544615732 135.378381272593 2785.16127359257 136 138 137
-1286.97723149828 133.658954856002 2793.40898352882 148 153 149
-1293.80396135551 132.492232966844 2797.59903655085 155 160 156
-1300.60279802486 131.32725566886 2801.79232561478 157 162 158
-1307.51110487891 130.438048950841 2803.95585301844 158 163 159
-1314.40213639553 129.549793465485 2806.12153377705 153 158 154
-1321.2760789433 128.662626645525 2808.28934427098 145 149 148
-1328.28634255193 128.049397902339 2808.42380683114 146 150 149
-1335.13125737237 127.163841426442 2810.59523557304 158 162 161
-1342.04105660442 126.415463948447 2811.75051876977 165 169 168
-1349.19371015955 126.0756099965 2809.85111778724 160 164 163
