ply
format ascii 1.0
comment KinectMotionCapture
element vertex 751
property float x
property float y
property float z
property uchar red
property uchar green
property uchar blue
end_header
-276.797347917075 198.905273241329 1804.54341977114 173 177 176
-245.453810661661 194.91818733806 1825.93152487616 187 191 190
-232.446622227174 193.03406721461 1838.79462000814 184 188 187
-212.975965330631 190.419602055128 1854.475122659 185 190 186
-204.522541728573 189.065109360614 1865.09637316613 180 185 181
-198.81824754163 188.026299008972 1874.4340175067 176 181 177
-200.480750972971 187.82480844249 1880.4793563099 173 178 174
-198.451395357248 187.205817055931 1888.14109747675 170 175 171
-198.264293374089 186.796224975603 1894.98047025564 166 171 167
-195.301057420271 186.074427667057 1903.00631086979 163 168 164
-196.956720346078 185.874233695168 1909.02707081859 163 165 164
-193.983422720056 185.153910479906 1917.0155560587 166 168 167
-191.002961773492 184.434553017377 1924.97898404183 181 183 182
-188.943012250169 183.820016926838 1932.52901984417 197 199 198
-189.661641322942 183.517670584693 1938.90258347573 183 185 184
-188.521508860194 183.008187893184 1946.03772457701 147 149 146
-188.306685430701 182.602921244248 1952.77783293237 137 139 136
-189.019552632446 182.301660097634 1959.13068900174 127 129 126
-190.662069284848 182.104113002639 1965.1043105135 117 119 114
-195.099713047029 182.216740646575 1969.96162907087 111 113 108
-197.677115111996 182.122432012438 1975.57515586224 101 103 98
-201.1894059573 182.131238612329 1980.82759361565 102 106 105
-202.837127787498 181.933652734873 1986.82051644716 126 130 129
-204.485048485527 181.736188273347 1992.81425429161 139 143 142
-203.327461052955 181.230081846577 1999.88672010782 165 169 168
-202.165743434372 180.724626395636 2006.94426234493 173 177 176
-199.126448647983 180.014326249983 2014.69497012763 176 180 179
-197.955012434749 179.51035584303 2021.71736670662 163 167 166
-190.212608554586 178.289007559228 2031.16623411155 147 151 150
-170.250984070627 175.737174101247 2045.06341271489 134 138 137
-137.102474573864 171.75582686927 2063.64995313364 195 199 198
-118.94533635359 169.418027955707 2076.58839597983 190 194 193
-113.932104956847 168.515204472774 2084.68135562143 189 194 190
-113.617452671122 168.124444057483 2091.05997747604 182 187 183
-111.41528371193 167.530067846013 2098.09470827951 162 167 163
-112.980130523792 167.344391975815 2103.78745176609 153 158 154
-115.488950637682 167.260744649076 2109.15307820618 146 151 147
-116.11023608488 166.973498048763 2115.17475722132 142 147 143
-117.675469423154 166.788268489213 2120.86921758189 147 152 148
-118.294600389291 166.501552760315 2126.88416161804 155 160 156
-121.753006875916 166.519840715181 2131.94252333989 151 156 152
-122.371860416353 166.233554132176 2137.95577926654 143 148 144
-123.93753465199 166.048937894188 2143.65226381173 142 147 143
-130.247951969429 166.370944538829 2147.80237369754 134 136 135
-138.465123367606 166.894695812832 2151.36568897797 131 133 132
-144.791838445983 167.215171275439 2155.57441352518 134 136 135
-154.93029058993 167.939102630219 2158.6038810863 137 139 138
-188.877807437327 171.18542510409 2154.20973238123 142 146 145
-264.787637325106 178.864297099749 2136.96080410401 158 162 161
-368.038267160527 207.59055034925 1673.40103876232 198 200 197
-371.671880558223 207.575346245155 1679.08876427266 191 193 190
-370.752692017431 207.043862918705 1687.03033680317 186 188 185
-374.389087068284 207.028467076917 1692.72826899334 191 193 190
-377.115920501029 206.909741808846 1698.88118978109 189 191 188
-381.671260467368 206.996741888655 1704.15931137429 179 181 178
-383.489044816675 206.774736145357 1710.76822558301 175 177 174
-385.307147356715 206.552780251305 1717.37835264375 166 168 165
-387.125591762492 206.330871468365 1723.98977872847 157 159 156
-387.111841382074 205.903837201569 1731.46268897143 143 145 142
-382.511046058191 204.964751172832 1741.06404864322 125 127 124
-344.865481016082 200.340296813246 1765.92765939827 135 139 138
-274.097493499083 192.039859416782 1805.77113715388 186 190 189
-245.49381352346 188.456062285112 1825.89652058401 186 190 189
-230.639778942372 186.410261842931 1839.59413124751 185 189 188
-215.760362751595 184.367721762929 1853.1986343684 189 193 192
-206.382566959707 182.940221365941 1864.23902827213 180 185 181
-201.597655835984 182.024306657002 1873.17143122313 177 182 178
-199.570984705257 181.415106610957 1880.84839207394 176 181 177
-196.615275633912 180.704930763809 1888.90951570981 175 180 176
-195.501189572515 180.199013740385 1896.14268414801 171 176 172
-194.382811495724 179.693687064113 1903.36121891105 165 170 166
-196.037059608575 179.493310124039 1909.37661042012 162 164 163
-192.133888908586 178.684888509947 1917.7542878765 188 190 189
-189.149253705225 177.978852402394 1925.71062806843 196 198 197
-187.085554851706 177.375017917362 1933.25349977608 179 181 180
-189.658358972919 177.277457359504 1938.84790220907 168 170 169
-189.445609608916 176.876810348786 1945.59769873832 137 139 136
-189.229988729761 176.476589397272 1952.33803190859 130 132 129
-189.942458471433 176.177713757906 1958.690918371 123 125 122
-191.584976391347 175.979848801143 1964.6643439075 114 116 111
-196.955808080242 176.184776755987 1969.14835953697 109 111 106
-199.534341855541 176.087376706144 1974.76413638896 106 108 105
-202.114763839756 175.989953153351 1980.38597992954 117 121 120
-202.828134432386 175.691659385755 1986.74350746088 142 146 145
-203.540485154273 175.393678449148 1993.09651689464 154 158 157
-202.380240637991 174.895547816339 2000.16415297858 171 175 174
-199.343274065307 174.197795236328 2007.93049781602 174 178 177
-197.236082410247 173.60106336422 2015.31730251638 173 177 176
-197.936954690011 173.305132046721 2021.62898876647 161 165 164
-190.189781002376 172.11050359199 2031.07701631238 141 145 144
-169.278930188156 169.520561098608 2045.32216392911 134 138 137
-135.173857336331 165.538887867449 2064.25421567977 167 171 170
-117.946653918622 163.357236331541 2076.8475870812 156 160 159
-112.929131543435 162.473177744171 2084.93646233355 155 160 156
-111.670147711562 161.988315331083 2091.64587555041 152 157 153
-110.406968350448 161.504125892695 2098.34013647051 149 154 150
-110.08333799798 161.119855455473 2104.68859293284 154 159 155
-113.533883478785 161.132893316786 2109.71538266908 163 168 164
-114.15257742239 160.848415950202 2115.7291882885 155 160 156
-116.66130587275 160.762309711415 2121.09292197153 159 164 160
-116.332392037542 160.379372415304 2127.4226035735 162 167 163
-120.736313301891 160.491214019499 2132.15514986402 157 162 158
-122.301138240841 160.306392733341 2137.84835168039 146 151 147
-125.763422771294 160.319105405496 2142.91759187726 144 149 145
-131.12726956254 160.528855963108 2147.37871868968 140 142 141
-139.347250283997 161.033652662399 2150.94049751065 136 138 137
-147.577656500174 161.537409595793 2154.53939867392 136 138 137
-162.478681466717 162.728599084936 2156.0638370674 131 133 132
-295.262676310638 175.707311005106 2127.32120204759 151 155 154
-363.599780470522 200.20879037225 1675.64113114317 186 188 185
-366.319145487117 200.087701082743 1681.76390162363 175 177 174
-368.128535322565 199.865929685368 1688.34179660141 161 163 160
-371.762701329219 199.845036750298 1694.02891123294 146 148 145
-373.574166039596 199.623184240859 1700.61445860476 147 149 146
-377.213497507276 199.601874330663 1706.31955930191 160 162 159
-379.941413090458 199.480077820336 1712.47455888055 165 167 164
-383.586396568562 199.458258642889 1718.20032285994 165 167 164
-387.234370778832 199.436144201664 1723.93793345013 165 167 164
-388.135898075142 199.114031159829 1730.97808267921 157 159 156
-380.780311020826 197.893826537233 1741.86384719227 141 143 140
-335.770964716144 192.586820748503 1770.12867526 132 136 135
-277.825761621612 185.893917064307 1804.04334953965 179 183 182
-248.291269878121 182.29845394806 1824.60269542465 192 196 195
-230.671016195437 180.002050152793 1839.56062004303 190 194 193
-217.625329031518 178.206259405495 1852.33654348218 185 189 188
-207.321852108225 176.711209895479 1863.79373818411 185 190 186
-202.534126855672 175.813701536284 1872.72731363196 182 187 183
-197.736624454711 174.917526135525 1881.62543000422 179 184 180
-194.776962617405 174.220696488686 1889.67937486449 175 180 176
-192.734627103921 173.62377112882 1897.30685554902 170 175 171
-193.462741586957 173.324198100072 1903.71738757468 165 170 166
-196.967568054883 173.321173827155 1908.93464216412 168 170 169
-193.061983215654 172.528498372632 1917.3132976955 197 199 198
-188.220690880302 171.638412850041 1926.05267545422 195 197 196
-185.225666885902 170.946647904972 1933.97945416605 164 166 165
-190.583254322156 171.141568786357 1938.40797853896 147 149 148
-192.228683016567 170.942601779248 1944.39151543378 133 135 132
-192.944130093935 170.645533594356 1950.75659729222 128 130 127
-193.658377004009 170.348763072393 1957.11741109353 120 122 119
-194.371190892395 170.052237799081 1963.47398822582 104 106 103
-197.880348287904 170.050012376646 1968.70782705291 105 107 104
-199.526190809935 169.851748471443 1974.69334431031 125 127 124
-201.172261556583 169.653617028509 1980.67979255072 146 150 149
-201.884007584957 169.357930033941 1987.0320051509 162 166 165
-202.594286815081 169.06250663605 1993.37986726031 167 171 170
-202.367582358946 168.669885671309 2000.08291849286 171 175 174
-199.327642588943 167.985380608682 2007.84751724284 169 173 172
-198.155750637644 167.496612147244 2014.87781946829 166 170 169
-198.856209200059 167.203097100425 2021.18949517376 138 142 141
-191.104973745185 166.035121027974 2030.63926909289 117 121 120
-161.727460299752 162.63545739946 2048.00781277125 144 148 147
-130.42163714553 159.04757553912 2065.89165909211 184 188 187
-118.828615027411 157.501627957132 2076.42521123581 163 167 166
-115.691967628083 156.829903327839 2083.83789338634 157 162 158
-113.490498927424 156.255931619599 2090.88903547015 148 153 149
-112.226812014253 155.779527137495 2097.58632696278 134 139 135
-111.903070153482 155.400381922738 2103.9376052138 134 139 135
-111.576349292158 155.021732964804 2110.27906535273 140 145 141
-111.247094621842 154.643615257176 2116.61052433659 146 151 147
-112.807229474149 154.458643206224 2122.28621759549 147 152 148
-114.367485065674 154.273873815161 2127.96248708429 152 157 153
-118.770657900558 154.377750703896 2132.686297076 152 157 153
-122.229786192977 154.385189050157 2137.74141786891 145 150 146
-128.539273621874 154.680492329156 2141.87028713118 142 147 143
-134.855852766473 154.975069369942 2146.02595705763 137 139 138
-142.130385749859 155.364822871971 2149.90116186196 137 139 138
-150.364809452397 155.8494783635 2153.50384853676 140 142 141
-171.936635394344 157.672291269542 2152.91740771267 139 141 140
-246.887284816652 164.843691049573 2135.68408837774 143 147 146
-319.089141548143 171.715760757512 2119.74594936842 159 163 162
-366.441010044305 193.643769196874 1674.25167920681 196 198 195
-365.517020933777 193.127658160654 1682.18513342208 191 193 190
-367.325021527035 192.905585304916 1688.75768009086 188 190 187
-365.48258174989 192.292610083481 1697.11627240104 195 197 194
-369.115042610579 192.26629657513 1702.7936338936 187 189 186
-372.750935923101 192.239694314829 1708.4826280817 163 165 162
-380.96417540134 192.700169559546 1711.9913957417 114 116 113
-384.610010319785 192.67253303565 1717.7166481842 105 107 104
-388.258832498505 192.644572766319 1723.4537163652 117 119 116
-386.408942661628 192.033080170255 1731.78558411581 124 126 123
-378.129527480291 190.742440429642 1743.0932071967 136 138 135
-329.422726938686 185.184023888247 1773.0585243584 153 157 156
-271.445496531932 178.665856177183 1806.96460665084 194 198 199
-248.330910930149 175.840024464714 1824.56868099292 191 195 196
-229.780709269571 173.502899377668 1839.94543114914 186 190 189
-218.569869909131 171.943222224106 1851.88928483357 184 188 187
-206.417210757348 170.289499174128 1864.17329095304 174 178 177
-203.470628802771 169.603612736213 1872.28363684603 170 174 173
-196.823251948635 168.532994283802 1881.9969675196 165 170 166
-194.784299806706 167.945750551531 1889.64219344991 163 168 164
-193.664703343697 167.455540725658 1896.86574857169 159 164 160
-195.31801204494 167.254449262098 1902.87720111685 157 162 158
-195.118986468101 166.861342117277 1909.68271165466 175 177 176
-191.208836536159 166.084690474033 1918.05453448711 194 196 195
-187.290290497711 165.30921206483 1926.39592494025 181 183 182
-187.077392415014 164.918164338711 1933.15215881441 140 142 141
-189.649816772241 164.814777108806 1938.74054357995 129 131 128
-191.293810450586 164.615658353299 1944.71865673537 123 125 122
-192.938034563436 164.416657362879 1950.69769979966 120 122 119
-193.650942170926 164.122345256699 1957.05602217049 115 117 114
-195.294912482888 163.923691334793 1963.03434204272 106 108 105
-198.804882174526 163.915754184323 1968.26759068006 113 115 112
-199.51723030634 163.622019377315 1974.62327128133 145 147 144
-198.359692880423 163.138349411547 1981.71008796937 155 159 158
-197.198050679448 162.655341924304 1988.78208268638 168 172 171
-198.839480177427 162.457805031358 1994.75167424788 171 175 174
-199.544731952749 162.165598591767 2001.08197239953 172 176 175
-198.374309631858 161.684126466807 2008.12233759952 170 174 173
-198.13757599493 161.298045006214 2014.79321017252 167 171 170
-199.775450285464 161.101641370708 2020.750317425 135 139 138
-190.141389538929 159.771279328584 2030.90057785071 114 118 117
-158.8690790549 156.271420590702 2048.96349431664 156 160 159
-132.250193105487 153.249436149679 2065.12283790337 160 164 163
-122.535074656164 151.929315331713 2074.97861273831 147 151 150
-118.456173335202 151.176383134813 2082.7388699544 143 148 144
-114.368755322826 150.424652559799 2090.46826500566 139 144 140
-113.103830878306 149.956117459731 2097.16593010279 135 140 136
-112.779267259113 149.582179611412 2103.51744498441 137 142 138
-112.451713275805 149.208710450972 2109.85908215766 141 146 142
-111.175636317253 148.742042858812 2116.51651920275 141 146 142
-110.842046988555 148.369726542836 2122.83554714461 145 150 146
-112.400109330131 148.185051954498 2128.50373337968 151 156 152
-115.854141032259 148.187461964956 2133.53675690376 149 154 150
-121.208926992991 148.376532983755 2137.95025762763 144 149 145
-128.468113563467 148.751691906607 2141.76019897789 143 148 144
-136.686613798056 149.219277669387 2145.29205898149 140 142 141
-142.062394378121 149.406389991289 2149.78320101594 137 139 138
-154.10530360182 150.244389602968 2152.16292040807 142 144 143
-184.258620407442 152.847057092991 2148.86149108938 145 147 146
-335.304811334539 166.853386899719 2114.53593353443 155 159 158
-365.652321620807 187.100731091873 1667.192501942 196 197 192
-367.461906554583 186.877868452091 1673.7704323283 177 179 176
-364.713337765169 186.178857764881 1682.60767633007 165 167 164
-367.432493272205 186.051683909913 1688.72582746651 138 140 137
-365.58775907542 185.449068727125 1697.0824418323 137 139 136
-369.220357654437 185.416991534643 1702.75667575759 155 157 154
-372.856376373845 185.384655897287 1708.44251580276 171 173 170
-379.241169971861 185.636423809909 1712.82442518264 169 171 168
-382.885713268846 185.603246678562 1718.54138403832 158 160 157
-386.533428068487 185.569760513486 1724.26992295405 146 148 145
-385.597158133924 185.06333041042 1732.16389291105 121 123 120
-375.475538330245 183.613044140194 1744.3245486213 98 100 97
-318.473884762883 177.352959506661 1778.11937627061 166 170 171
-262.300266625584 171.198499060497 1811.15797335687 186 190 191
-241.927770790653 168.728257269317 1827.47750025393 183 187 188
-226.125978430917 166.732748271794 1841.58434381042 162 166 167
-215.827569453074 165.304713752514 1853.10266455739 167 171 170
-206.433119548409 163.972966554209 1864.14167856141 166 170 169
-204.407151575726 163.394055866683 1871.84037321552 153 157 156
-198.680185884487 162.440993430407 1881.14797944893 156 160 159
-195.715592101704 161.770360888495 1889.2010814654 156 161 157
-192.744285871717 161.100742877272 1897.22897298006 150 155 151
-193.469976702855 160.805992122534 1903.63448001512 167 172 168
-193.267982205644 160.418138491773 1910.43228432723 188 190 187
-191.208317741949 159.844150325269 1918.00897833662 182 184 181
-188.214774466272 159.177761315946 1925.95727570424 147 149 146
-187.072219118662 158.698626251858 1933.10258101214 111 113 110
-188.714537244883 158.499253592762 1939.07431286949 114 116 113
-191.287394215877 158.392935313696 1944.66338235666 116 118 115
-194.793169419738 158.379475571593 1949.87757100774 109 111 108
-197.370099433799 158.272989498325 1955.48165696905 105 107 106
-196.218626804459 157.795708933544 1962.59502499141 123 125 124
-197.862819978888 157.596913703691 1968.57408309385 141 143 142
-195.771395315473 157.028172897202 1976.03617061492 162 164 163
-196.478509022979 156.7375851989 1982.37440374434 165 169 168
-195.313472341276 156.26260990607 1989.43886652678 167 171 170
-196.016673985835 155.97282125576 1995.76307941028 166 170 169
-194.844838152701 155.499022241924 2002.80304091704 166 170 169
-195.543874202863 155.210040383128 2009.11322615342 160 164 163
-197.180115871506 155.013406762134 2015.0641266 138 142 141
-199.755715848049 154.908857968058 2020.66356846685 115 119 118
-187.296821682308 153.335126605576 2031.8620155863 113 117 116
-156.007431591206 149.929467259452 2049.92099138323 159 163 162
-133.138184506094 147.354831221903 2064.69823096731 191 195 194
-123.418191524969 146.066742411656 2074.55613095382 177 181 180
-116.508938855321 145.055308844625 2083.33453428893 160 165 161
-112.416905556583 144.319781185223 2091.05702335917 156 161 157
-111.14880670035 143.859389938935 2097.74711506822 152 157 153
-114.600147282963 143.85574244574 2102.76632260228 149 154 150
-112.381590162647 143.305171126661 2109.76786349133 153 158 154
-111.103545693456 142.846457342288 2116.42301717289 152 157 153
-108.874389583565 142.297501772465 2123.38622619049 161 166 162
-112.325488511412 142.294662074186 2128.4050465072 158 163 159
-115.779804920294 142.291674019194 2133.43479001321 146 151 147
-122.084517432192 142.560624842647 2137.52929338366 134 139 135
-128.396316766077 142.828907760264 2141.65061607689 130 135 131
-137.567403165057 143.368122850808 2144.86814443051 145 147 146
-143.895993990034 143.634824788573 2149.05081249121 141 143 142
-157.848167141644 144.623762040678 2150.82097897557 137 139 138
-193.732241796328 147.687066219564 2145.7077718926 157 159 158
-344.854085266086 161.274822741322 2111.39883214151 151 155 154
-365.76264641332 180.243120393575 1667.16890026333 200 201 196
-368.482843145945 180.112526294083 1673.28968692546 192 194 191
-367.556528291666 179.611573530099 1681.22407624957 185 187 184
-368.451910728659 179.29613555224 1688.24562510631 166 168 165
-367.519049890081 178.79617092962 1696.15633433442 149 151 148
-371.153229414791 178.758220902947 1701.83273020115 138 140 137
-375.705686590622 178.812150973873 1707.07926988584 117 119 116
-381.178609933626 178.957794679178 1711.9039738235 135 137 134
-382.991850285819 178.734653687984 1718.49530032544 145 147 144
-386.639496148407 178.695435044043 1724.22089312685 156 158 155
-383.865805970668 178.013013101995 1732.97441058018 144 146 143
-370.062695032256 176.23042369187 1746.84282301311 123 125 122
-305.676173750054 169.408892999999 1784.03703770186 183 187 188
-256.826009061146 164.157073425313 1813.66364115747 177 181 182
-232.755835944129 161.38543542114 1831.65127082265 167 171 172
-218.78138866002 159.62436602392 1844.89713159458 180 184 185
-210.315620309251 158.414272889295 1855.56371479195 186 190 189
-204.602665282331 157.479887800547 1864.93606079793 184 188 187
-201.649436466689 156.820468846625 1873.03750935983 176 180 179
-198.689057903953 156.162028517198 1881.11395918686 175 179 178
-197.572059674279 155.686515709266 1888.355510945 174 179 175
-194.599256148706 155.029844545628 1896.38694627891 172 177 173
-194.398869060311 154.646563600552 1903.19453456177 190 195 191
-190.487463775614 153.900954861998 1911.58036635789 199 201 198
-188.423083202201 153.337700768829 1919.1472563307 146 148 145
-187.281958974539 152.865808728751 1926.30244797266 115 117 114
-186.136973401712 152.39458703357 1933.44279739499 109 111 108
-185.917657976784 152.014347299494 1940.18202853557 123 125 122
-190.349678456387 152.085932408438 1944.99255683887 128 130 127
-194.786256214447 152.157120419753 1949.81975471723 122 124 121
-199.22739251297 152.227954512278 1954.66365411709 117 119 118
-198.075420383056 151.758327998199 1961.77999995862 137 139 138
-198.786529561054 151.469220682554 1968.1349311455 152 154 153
-194.824859057543 150.731302775487 1976.33899362426 164 166 165
-193.659839939335 150.263791757926 1983.40823416916 160 164 163
-190.618984626262 149.617633936027 1991.19364412746 164 168 167
-191.317439553796 149.330791572652 1997.50209351232 162 166 165
-189.202854095956 148.775835017204 2004.88689219758 167 171 170
-192.710397517754 148.758091103946 2010.10587011641 163 167 166
-197.159872129571 148.82947719676 2014.98107654334 141 145 144
-199.734920945208 148.722067807182 2020.57759505003 113 117 116
-187.269439370665 147.188487688397 2031.77600478252 114 118 117
-156.905945356137 143.965784294959 2049.49183966746 152 156 155
-134.967669367575 141.549789711869 2063.92942999276 156 160 159
-121.474325475603 139.93814439585 2075.15955152417 154 158 157
-114.559244291499 138.950982498057 2083.93163858878 147 152 148
-110.462819881061 138.231638964405 2091.64711310916 145 150 146
-109.191091320003 137.779372188307 2098.32978682325 147 152 148
-113.586406962911 137.858971652249 2103.00909710605 149 154 150
-112.310609767551 137.4075653572 2109.6772080411 161 166 162
-112.923756771915 137.133571555165 2115.67796675863 164 169 165
-110.693672443325 136.595121289601 2122.64436198128 164 169 165
-115.094519186613 136.67486090049 2127.34429663717 145 150 146
-117.602089936812 136.578042914816 2132.69696917018 135 140 136
-122.010360287331 136.657313871614 2137.42417034107 131 136 132
-127.373245661078 136.824168540761 2141.8546453804 131 136 132
-138.448130809526 137.517610601094 2144.44440640021 140 142 141
-149.537323656185 138.209549625187 2147.08726918334 136 138 137
-168.260331753837 139.601333070717 2147.34241581759 130 132 131
-218.463444182361 143.880724015054 2137.71131217813 135 137 136
-344.864671703244 154.774392507517 2111.23042654424 153 157 156
-358.602222416342 173.074184103321 1663.33365902724 193 194 189
-358.58367070582 172.670984991588 1670.80379114168 190 190 188
-364.94489073375 172.897895851654 1675.08248303442 185 187 184
-367.663929855111 172.764482244993 1681.1962626011 172 174 171
-368.558002980061 172.451354798373 1688.21533800981 177 179 176
-369.451179503002 172.138468159701 1695.23030752203 176 178 175
-372.172364314299 172.005015880204 1701.35295822139 169 171 168
-375.810807528073 171.960990974918 1707.04041994712 151 153 150
-379.452422244504 171.916657035903 1712.7394617329 143 145 142
-383.096998336318 171.87201678677 1718.45023415939 118 120 117
-384.90989272263 171.648598093086 1725.04010083101 117 119 116
-383.050214545126 171.068579366571 1733.35549734489 102 104 101
-364.643983656402 168.88595072787 1749.36432372899 98 100 97
-301.143127859198 162.346787324292 1786.12786329477 174 178 179
-253.186731346923 157.331592944627 1815.3259251928 182 186 187
-230.943952584675 154.812787438239 1832.46436734982 184 188 189
-215.116981022758 152.919758060352 1846.54149670805 191 195 196
-208.488127694621 151.916504684613 1856.36613238595 184 188 189
-201.846607919706 150.914976195494 1866.14482903263 167 171 170
-199.81240357549 150.357424064571 1873.82642832802 170 174 173
-195.923223635828 149.623924822756 1882.30335279901 171 175 174
-194.801937380805 149.156453765484 1889.53499012233 176 180 179
-191.824458527708 148.513241253208 1897.55663494688 184 188 187
-189.766823810176 147.959121041939 1905.15340859279 188 192 191
-186.775963630401 147.317795608248 1913.12749159918 164 166 163
-187.491508119308 147.029207817314 1919.49828920438 116 118 115
-186.347737857375 146.565218085281 1926.6486457433 114 116 113
-186.129551183532 146.189642416302 1933.39501236197 129 131 128
-187.76971741941 145.989883203727 1939.35851062261 128 130 127
-191.272566880857 145.965454066495 1944.5549110637 125 127 126
-194.77830795468 145.940770012382 1949.76281557613 128 130 129
-197.354825690202 145.828518793932 1955.36080199467 136 138 137
-197.132754408929 145.454230011937 1962.09355830039 161 163 162
-196.908232181176 145.080462896784 1968.81661505283 168 170 169
-192.006814412794 144.271481653601 1977.38489288163 165 167 166
-189.902260064236 143.725055263045 1984.81232060916 169 173 172
-189.664676800801 143.353419710661 1991.48823005315 172 176 175
-191.298151982382 143.156051811003 1997.42839549038 169 173 172
-190.118813779907 142.698471903172 2004.45074206465 177 181 180
-191.750519012464 142.501684188529 2010.3847023265 163 167 166
-196.199754631152 142.564938418775 2015.25388738646 125 129 128
-199.713501140885 142.541292553445 2020.49216997146 118 122 121
-190.062887022182 141.307227976662 2030.64083912656 125 129 128
-161.569455582969 138.348214260183 2047.67368892054 159 163 162
-133.029999456509 135.394913451857 2064.5392649025 190 194 193
-117.642693907013 133.653948796906 2076.44847331378 192 196 195
-111.663704342883 132.777294396238 2084.86953335867 179 184 180
-107.561712702015 132.074242296627 2092.5755524247 179 184 180
-108.175715975025 131.802034007747 2098.57968855692 176 181 177
-112.570771947753 131.873561766921 2103.25293868341 176 181 177
-111.292292571859 131.430220817999 2109.91618324514 182 187 183
-110.009597463614 130.987584063564 2116.56422021046 168 173 169
-108.722680941237 130.545637719143 2123.19701978121 148 153 149
-115.968041232 130.873907968627 2126.92509478856 140 145 141
-119.425361059646 130.85971247096 2131.9589136072 138 143 139
-121.935566640457 130.760004707781 2137.31954429563 139 144 140
-126.348719133781 130.830825907435 2142.05953717157 138 143 139
-138.377262048353 131.582566601085 2144.3314579085 140 142 141
-154.230372766998 132.672945532665 2145.42990818049 132 134 133
-177.72775859664 134.440831091591 2144.16537479992 124 126 125
-231.771900360296 138.921797659953 2133.33724301987 127 129 128
-302.118419255236 144.835509024925 2117.69818174123 141 143 142
-337.234273237247 147.602162335025 2113.44175242336 153 157 156
-357.798344309738 166.157365511227 1663.77566980524 215 215 213
-357.777602429966 165.759243197504 1671.240875475 199 199 199
-364.139679277378 165.972515879509 1675.51320911639 184 186 183
-366.857511127198 165.836144260633 1681.62156780889 169 171 168
-365.92272007615 165.351234398686 1689.53461532417 152 154 151
-366.812658772292 165.040902912275 1696.53917660945 140 142 139
-370.446609505164 164.991635386929 1702.20664871824 133 135 132
-374.99921856167 165.028875150032 1707.44414394201 134 136 133
-377.7238424985 164.892201702184 1713.57660074085 138 140 137
-383.201596930123 165.015357183933 1718.40597269911 132 134 131
-386.84970057599 164.964741635477 1724.12514072873 130 132 129
-383.151820786118 164.221970598672 1733.3064714361 106 108 105
-362.897206678399 161.925222296974 1750.17413381138 93 95 92
-289.244793651096 154.62705741817 1791.63004853007 186 190 191
-251.3850927935 150.705972525466 1816.14361465373 193 197 198
-226.365318406109 147.998435856499 1834.54142250786 191 195 196
-210.526148199414 146.156518158798 1848.60645895054 188 192 193
-203.889364334992 145.177591820837 1858.41700891967 182 186 187
-200.934734517245 144.543838763273 1866.52945993868 165 169 170
-198.897262658329 143.996824285238 1874.2065095373 168 172 173
-195.004451576799 143.279276858878 1882.6790944089 171 175 174
-193.880525917165 142.819664018102 1889.90589340673 179 183 182
-190.899380821787 142.189692527727 1897.9232149028 187 191 190
-187.91150749587 141.560737393463 1905.91526844913 173 177 176
-186.772509373094 141.103430980693 1913.08756250333 137 139 136
-187.486713297411 140.817258426702 1919.45583673161 112 114 109
-188.19994643694 140.531407468263 1925.81978064234 107 109 104
-188.911978461296 140.245912048775 1932.17948951652 114 116 113
-190.553590139931 140.045667948351 1938.14804829001 112 114 111
-194.990201927777 140.100229743743 1942.96487559195 109 111 110
-195.701984675138 139.815203706889 1949.32488431563 120 122 121
-195.479825142323 139.445784645878 1956.05945842506 153 155 154
-195.254777363138 139.076851345515 1962.78454474814 163 165 164
-195.961678524769 138.792989131044 1969.1262348548 168 170 169
-191.991312929574 138.087162479904 1977.31920392382 169 170 172
-188.948571167189 137.4669360182 1985.11305254636 173 177 176
-187.771943168635 137.016292344341 1992.14984075161 176 180 179
-189.403244515312 136.81891591077 1998.08192977804 175 179 178
-189.158520421573 136.453485810371 2004.73617353871 176 180 179
-190.788767751126 136.256621202314 2010.66467234597 153 157 156
-194.298311138036 136.227821921065 2015.88316694018 115 119 118
-197.810696103487 136.198816834395 2021.11301084632 115 119 118
-190.97592114607 135.248341866348 2030.20549237537 126 130 129
-162.469514836135 132.375052162633 2047.24429067131 166 170 169
-133.917077209291 129.507519458621 2064.1158183777 186 190 189
-116.636134926957 127.647733115634 2076.71287674026 179 183 182
-110.652659628353 126.792559409471 2085.12991489569 177 182 178
-107.491273487075 126.188921503944 2092.49466236153 167 172 168
-108.104119804122 125.919302094595 2098.49613742603 149 154 150
-110.607537112027 125.816379106222 2103.82953466275 150 155 151
-110.27230832762 125.464246878755 2110.15614782622 159 164 160
-108.987150793729 125.029686074953 2116.79921199768 159 164 160
-111.490192922269 124.927427466695 2122.13163572178 144 149 145
-117.790338460699 125.156405103373 2126.18487485984 142 147 143
-120.299603214146 125.053867202483 2131.53929661737 143 148 144
-121.859904425238 124.86871705372 2137.2154950922 140 145 141
-127.224508220358 125.013970529443 2141.63871243059 138 143 139
-142.112842052894 125.983432902305 2142.97604423724 143 145 144
-162.736581122883 127.445025936468 2142.53873676729 135 137 136
-191.015287230206 129.561768101314 2139.76309829625 131 133 132
-265.124223904013 135.620141498459 2122.59827829113 136 138 137
-311.657368989701 139.28410490612 2114.53989605518 147 149 148
-333.41806685605 140.807210332835 2114.46640907844 149 153 152
-362.475829904169 160.154492673528 1653.97257704923 166 167 162
-358.815249080363 159.421416175807 1663.29851213167 175 175 175
-357.881951654357 158.94353992646 1671.22154583876 164 164 166
-361.507641480542 158.889234552739 1676.85516618639 161 163 160
-361.483165502728 158.496555340888 1684.30994437156 166 168 165
-360.542168961012 158.019858364708 1692.20513730235 178 180 177
-363.256050601095 157.881084170759 1698.2973127802 169 171 168
-366.887241862257 157.826445802177 1703.95114864212 160 162 159
-374.186245434951 158.108133227922 1707.84898068521 139 141 138
-378.743504596662 158.136625050476 1713.097288824 128 130 127
-386.058205011143 158.41659814925 1717.05231782785 116 118 115
-390.626837642581 158.443918989205 1722.34211413348 119 121 118
-387.847679641147 157.800334761624 1731.10077975134 106 108 105
-353.79007075494 154.311527387955 1754.41654598846 106 108 105
-284.698835686718 147.652011561105 1793.72789913654 194 198 199
-248.659900056499 144.013510146658 1817.38644831288 191 195 198
-227.313133014048 141.717545717308 1834.09504715538 195 199 202
-210.543739971983 139.842874091262 1848.58198979765 198 202 203
-204.825894321821 138.971081294331 1857.97569537437 186 190 191
-203.717241773321 138.51674954217 1865.26253464327 175 179 180
-199.830175384884 137.813752021426 1873.76656350561 175 179 180
-195.00929052453 137.028939508204 1882.64817408625 176 180 179
-191.104743138077 136.328382558567 1891.08884027797 180 184 183
-189.045799357387 135.794675310096 1898.69364130502 159 163 162
-186.981350030567 135.26179254632 1906.27852185482 141 146 142
-187.696566789379 134.977705113035 1912.65094395262 130 132 129
-189.339638123478 134.776469025035 1918.62429585174 105 107 102
-190.982941154088 134.575393880959 1924.59860960617 112 114 109
-192.626500504093 134.374419066655 1930.57393836723 134 136 133
-195.2014634701 134.255899574946 1936.1631237942 145 147 144
-197.778106727637 134.137344606715 1941.75852541628 165 167 166
-197.558514439371 133.772408800247 1948.50546169377 171 173 172
-193.602375400125 133.079854948399 1956.75963092734 182 184 183
-193.374345441244 132.716263345196 1963.47701746966 180 181 183
-192.208850111949 132.271336297941 1970.55874827268 177 178 180
-191.974984309266 131.908860024248 1977.25424260891 178 179 181
-188.929265877669 131.301852598271 1985.04631427172 176 180 179
-189.624834874132 131.022290416259 1991.34864508553 180 184 183
-190.319159825188 130.743059855097 1997.64656637062 177 181 180
-191.950647573944 130.545604096799 2003.57929738995 146 150 149
-191.703840631035 130.185671630271 2010.22927885809 126 130 129
-193.334254633496 129.988729979264 2016.15834784831 117 121 120
-194.964842406964 129.791999296353 2022.08819521044 135 139 138
-187.182000636976 128.784716597386 2031.52207445984 166 170 169
-162.427290166117 126.321552463232 2047.16290534861 187 191 190
-132.918420472046 123.458985779759 2064.38284391463 176 180 179
-115.627906688466 121.652902731501 2076.97827061791 167 171 170
-108.695551036146 120.738495241786 2085.73122526975 156 161 157
-106.474843078177 120.22899194055 2092.75163773918 156 161 157
-108.977286967009 120.123184817465 2098.0786709475 158 163 159
-109.588163116467 119.85642894336 2104.07556807463 162 167 163
-110.197941266568 119.590067144201 2110.06770832113 164 169 165
-108.910592047375 119.163478938048 2116.70859769791 151 156 152
-111.413509265463 119.058469126398 2122.03789166569 139 144 140
-116.765683776974 119.193852339003 2126.4087299427 138 143 139
-119.273646239233 119.088627364173 2131.75754909298 138 143 139
-121.7831440222 118.983441445816 2137.11209324634 135 140 136
-129.051631088008 119.277640932468 2140.90452294068 134 139 135
-144.898664306146 120.289062898406 2141.93055934979 143 145 144
-171.249427214633 122.174768427099 2139.64455100194 139 141 140
-228.154053581502 126.603737355472 2127.71411915082 139 141 140
-294.686375040666 131.818267931945 2113.05847476778 146 148 147
-325.02379741124 134.002816442133 2110.17661489299 155 157 156
-338.200255865115 134.754096982019 2112.81298111826 153 157 156
-338.002553481783 134.393857602637 2119.64508442317 154 158 159
-352.565118532893 152.417209862475 1659.05069356038 188 189 184
-355.274354873708 152.275550261677 1665.12380025767 206 206 206
-358.897718007918 152.215780666785 1670.74533223082 181 181 181
-360.698209563294 151.991817923419 1677.28880613757 132 134 131
-360.671533314674 151.604231119472 1684.73863022824 121 123 120
-358.813587380834 151.053588444651 1693.07900472452 120 122 119
-361.525984379372 150.912003683021 1699.16296455148 137 139 136
-365.155650216793 150.851830168734 1704.8085712353 160 162 159
-372.454963074267 151.117278350304 1708.69729898353 160 162 159
-379.763202670262 151.381737434771 1712.61854549815 149 151 148
-388.916227221 151.807761489674 1715.69847987751 115 117 114
-394.406221331742 151.907636810822 1720.55859749075 118 120 117
-389.788462406964 151.11458209681 1730.18917116448 107 109 106
-360.3167070764 148.13502532594 1751.36936705554 118 120 117
-279.227205133218 140.628853995029 1796.25485401636 189 193 194
-250.539568082938 137.747414879672 1816.51195336602 183 187 190
-227.338480586508 135.356495567604 1834.07037307135 183 187 188
-213.329412684577 133.777249623694 1847.30248808461 188 192 193
-204.838720067432 132.684647632989 1857.95071012348 184 188 189
-203.728158567552 132.238060733562 1865.23535152463 175 179 180
-201.688427063801 131.711749594087 1872.91615348647 175 179 178
-197.791276463074 131.025587497556 1881.39337065054 177 181 180
-193.885756902739 130.340624378589 1889.84027247951 177 181 180
-190.899357351757 129.736988216759 1897.85378293705 152 156 155
-190.690021756955 129.374541643091 1904.6413009009 137 142 138
-191.407006530496 129.092517061082 1911.02158966717 109 111 108
-193.05224144914 128.890713028547 1917.00261596121 105 107 102
-192.83716008077 128.529450879851 1923.76954877786 138 140 135
-193.550541194665 128.248391859835 1930.13706746746 166 168 165
-195.194315515468 128.047276650293 1936.11310573476 164 166 163
-196.838325952555 127.84629299031 1942.09010370905 179 181 180
-195.683209638223 127.407169733543 1949.21403396989 182 184 183
-191.72246730993 126.730687435366 1957.46125883108 186 188 187
-192.426169436319 126.451700984125 1963.79414984852 185 187 186
-191.258005659753 126.014722161886 1970.87099132302 185 187 186
-191.95758243815 125.736610055455 1977.19004676996 189 191 190
-187.972681383574 125.063867675632 1985.3490071816 183 187 186
-187.728807391276 124.707971803148 1992.01242661468 185 189 188
-187.482232866882 124.352604884674 1998.66615345525 178 182 181
-190.04985522653 124.234017245494 2004.22711260228 134 138 137
-190.73958587057 123.958083688798 2010.5109867044 119 123 122
-193.30901888858 123.839676561101 2016.07878243655 124 128 127
-193.056685485606 123.485813298431 2022.71207701922 158 162 161
-184.325917344557 122.427057154394 2032.4903141871 175 179 178
-158.614535967652 119.960958225945 2048.47368101291 181 185 184
-132.861459745407 117.5001147626 2064.30556107547 200 204 203
-115.56210443987 115.747650583321 2076.90201308751 189 193 192
-109.569938514214 114.935319303288 2085.31383311306 184 189 185
-106.402277152638 114.358459802555 2092.67218839875 178 183 179
-107.012086996196 114.09413060332 2098.66572959403 167 172 168
-106.673614741915 113.752352644111 2104.98683753249 164 169 165
-106.332595419318 113.411194118308 2111.29795076082 148 153 149
-106.936767078826 113.148130854912 2117.2722867519 139 144 140
-111.335726472958 113.195580708279 2121.94482798777 140 145 141
-115.739123822647 113.242705030701 2126.63364095962 141 146 142
-120.146952498231 113.289547913729 2131.33872888989 137 142 138
-123.608122836859 113.258833585778 2136.37641477646 128 133 129
-132.783333732193 113.691014404772 2139.54260976342 131 136 132
-149.591084028652 114.738826520532 2140.2622548402 145 147 146
-183.581665904272 117.170254565338 2135.51351646216 146 148 147
-255.78330949993 122.672960338345 2118.70911239735 147 149 148
-309.951147657882 126.703383426115 2108.0557915181 149 151 150
-329.801219075385 127.96164174296 2108.51395317765 153 155 154
-339.160577580353 128.373600786406 2112.35015615427 155 159 158
-342.789692957588 128.324914240232 2118.00097135763 155 159 160
-346.289849615802 145.062895266916 1662.28114187716 200 201 196
-350.817771920254 145.077681190587 1667.41187482778 170 172 169
-355.35028275571 145.091965310925 1672.55932728232 161 163 160
-358.973879360263 145.026514911836 1678.17906854523 162 167 163
-360.772559309397 144.802429533009 1684.71573888746 158 163 159
-360.742045633178 144.420304918572 1692.15383487957 151 156 152
-361.624224614814 144.117535763488 1699.13528934837 142 147 143
-365.254256605187 144.051680373714 1704.7777392251 125 130 126
-371.638174210163 144.221911241338 1709.10491799282 97 102 98
-378.947435550945 144.470034240472 1713.01964429651 84 88 87
-389.939211071787 145.031640188769 1715.21853016113 116 120 119
-395.430835136935 145.120365824065 1720.07766014766 119 123 122
-390.810281024431 144.34564306117 1729.70942967145 105 109 108
-342.913518787698 139.88988611332 1759.48117243159 123 127 126
-279.27743681321 134.113447944262 1796.22511751115 182 186 187
-251.497891625051 131.398386960948 1816.0615769995 150 154 153
-230.131440240177 129.235706171306 1832.78216907173 163 167 166
-217.040302072545 127.779480630052 1845.60372553689 177 181 180
-206.698933116962 126.559954540163 1857.0941856132 182 186 185
-204.663083845605 126.043202429082 1864.79543661314 189 193 192
-201.695983131371 125.4495302743 1872.88781964398 180 184 183
-199.648432720746 124.934478056797 1880.54669983099 178 183 179
-195.741196959848 124.265209260501 1888.99713831737 173 178 174
-194.608881476559 123.829471120424 1896.20786078049 146 151 147
-193.472716011668 123.394430894188 1903.40380062026 112 117 113
-193.261385009797 123.037312983689 1910.18727426772 98 103 99
-193.047434602401 122.680700202907 1916.96134148831 148 153 149
-192.83104335008 122.324593479073 1923.72573680544 162 167 163
-194.474585031996 122.123014161022 1929.70061831634 161 166 162
-193.322112316347 121.690805958257 1936.83872954404 171 176 172
-194.031218945788 121.412956324293 1943.19240414898 182 187 183
-192.872000110496 120.981932708729 1950.306216243 180 185 181
-190.774281175449 120.47495736723 1957.78485887078 179 184 180
-192.411022118793 120.275132175685 1963.73559803591 180 185 181
-190.305297131242 119.769523159173 1971.18444936345 179 184 180
-188.194016089785 119.264816676827 1978.61324196462 178 183 179
-184.202845132202 118.608345907446 1986.76012552077 179 184 180
-184.892539498337 118.334228883378 1993.04408277124 177 182 178
-185.580975297736 118.06048848442 1999.32360499147 167 172 168
-189.085808829394 118.015229022622 2004.51514974244 126 131 127
-192.593942230661 117.969840558659 2009.7179357948 122 127 123
-194.223596114486 117.772539129606 2015.64395546848 153 158 154
-191.146067058484 117.196462058163 2023.33744832421 179 184 180
-180.524218495314 116.015859113814 2033.81111662651 174 179 175
-151.968995731687 113.401065925521 2050.83094114253 184 189 185
-128.085470123246 111.169643669714 2065.95629998376 191 196 192
-112.662416219127 109.622128409105 2077.8549155812 182 187 183
-109.499064303674 109.057479106338 2085.23697987551 170 175 171
-107.274563975823 108.569203009343 2092.25578474185 169 174 170
-105.990845960217 108.157040799914 2098.91926388497 158 163 159
-105.650307324048 107.820679057518 2105.23519024572 154 159 155
-105.306775165997 107.484858576206 2111.54127299286 156 161 157
-106.857890811676 107.29942771528 2117.18319003667 145 150 146
-108.409114885131 107.11422982132 2122.8256567347 149 154 150
-112.810795604011 107.153508710143 2127.50314299674 145 150 146
-118.167672452622 107.267133365349 2131.8777029157 139 144 140
-123.53041864665 107.380324708617 2136.27378099337 135 140 136
-132.708324447649 107.791000718342 2139.43547560359 135 140 136
-151.427648565212 108.944577256139 2139.52655297056 145 149 150
-197.831309427168 112.250612334143 2130.76051495805 143 147 148
-274.845066354105 117.924324991326 2112.44797839426 144 148 149
-313.766100166537 120.6188148558 2106.68859423297 152 156 157
-330.758276935978 121.603445375405 2108.0530891051 153 157 158
-341.077355716994 122.067810054104 2111.58931115699 150 154 155
-350.452000888951 122.456967013253 2115.46880351222 157 161 162
-346.420189384379 138.667546747567 1654.83105925337 193 194 189
-347.301119455065 138.366691047384 1661.80815579335 205 206 201
-346.35612623577 137.912551953081 1669.70275170931 181 183 180
-351.798616318324 137.995565757454 1674.37585069745 146 148 145
-356.333399132898 138.001340959148 1679.52636647938 146 151 147
-359.958360974471 137.930165343503 1685.14663297525 145 150 146
-361.755966714381 137.705900928764 1691.67920195526 152 157 153
-364.469726331047 137.557984873799 1697.76515269162 150 155 151
-368.10182581651 137.486164357709 1703.41244172642 138 143 139
-374.489467126341 137.642411036059 1707.74368797291 113 118 114
-380.884377400279 137.797809885342 1712.10231620606 105 109 108
-389.124693806745 138.104303744135 1715.61347038508 101 105 104
-393.697074098319 138.106236065763 1720.90115203692 118 122 121
-388.151160781143 137.27440442107 1730.95843804771 131 135 134
-331.019990986285 132.206729672749 1765.0242934844 130 134 133
-276.562005771232 127.377311626622 1797.47662099206 177 181 182
-248.766432694338 124.748060667019 1817.30867705019 155 159 160
-226.463920172208 122.577014283025 1834.44489636871 175 179 180
-213.362958973358 121.163841481152 1847.25623406752 182 186 185
-203.012742940478 119.979276357106 1858.73591920341 182 186 185
-200.046249692007 119.398170344816 1866.8384912401 192 196 195
-199.851074660126 119.043249142004 1873.68240670137 176 180 179
-200.579710108724 118.763725871045 1880.10846036001 168 173 169
-198.525029890354 118.259939527349 1887.74798165122 158 163 159
-197.392940939948 117.831771468576 1894.96432453957 122 127 123
-193.470136885747 117.180174540241 1903.36811809652 105 110 106
-191.398210837765 116.679018193233 1910.94526944469 110 114 113
-191.181274778781 116.327718627955 1917.71160601223 155 159 158
-191.892897560784 116.051339863431 1924.07555122844 161 165 164
-192.603309126058 115.775332247752 1930.43523375828 164 168 167
-190.515023953418 115.276891086361 1937.95336110895 167 171 170
-189.354361461035 114.85345741873 1945.06660508293 163 167 166
-188.189597191545 114.430743649291 1952.16507446847 165 169 168
-188.889875634085 114.15668068915 1958.48929147584 171 175 174
-190.524435324796 113.956818938393 1964.43190899589 171 175 174
-188.414922810716 113.46195926978 1971.87348455529 166 170 169
-184.426147845356 112.820548369847 1980.03877197414 163 167 166
-183.241747403601 112.401253645181 1987.06556568401 167 172 168
-182.991173704969 112.056212863158 1993.71096375643 158 163 159
-184.615927507729 111.858597215432 1999.61859200828 133 138 134
-186.240869128885 111.661176469552 2005.52704064385 118 123 119
-190.687245273732 111.683805038058 2010.35996012185 147 152 148
-191.373640399158 111.413347830584 2016.6339785548 179 184 180
-188.291173170694 110.850824880767 2024.31769430687 182 187 183
-178.603662265664 109.778289475413 2034.43228301109 171 176 172
-151.919750707337 107.395313361239 2050.75363566167 154 159 155
-126.136640887856 105.090634457463 2066.57260099172 175 180 176
-113.538347917919 103.809791199318 2077.43747286631 191 196 192
-110.37294176072 103.258391360382 2084.82027518148 176 181 177
-110.03925223275 102.925858796023 2091.16404848113 168 173 169
-105.914986266561 102.303901806031 2098.83856654973 172 177 173
-105.572654672674 101.972809292269 2105.1520917475 178 183 179
-103.330990744141 101.497652724098 2112.11545451217 180 185 181
-106.778136899663 101.45681934316 2117.09468271521 177 182 178
-107.378643904505 101.199407774144 2123.05898074573 157 162 158
-113.681177537427 101.374754645288 2127.08629773033 142 147 143
-117.137291300619 101.333562870871 2132.09859463217 129 134 130
-125.356071548568 101.65171077215 2135.53807605042 122 127 123
-135.490276261753 102.112480398916 2138.38655621771 124 129 125
-160.892319522941 103.719450139122 2136.29847896285 151 155 156
-228.312113398132 108.47422363151 2120.75125878209 147 151 152
-284.373384693808 112.35887853945 2109.24228385169 144 148 149
-313.761141689422 114.233101329932 2106.53489953962 150 154 155
-325.021198751306 114.746464792114 2109.69940440416 152 156 157
-338.209879143356 115.401002810176 2112.32007012669 153 157 158
-350.458051832829 115.98253631217 2115.29997326121 155 159 160
-346.520571282814 131.895453814777 1654.82453299798 196 197 192
-347.400216978468 131.596949086539 1661.7992742083 193 195 192
-346.453335010904 131.150523625181 1669.69172755616 199 201 198
-350.069953237588 131.074550792358 1675.27798713345 177 179 176
-352.775377092499 130.92436389175 1681.33155512712 155 160 156
-357.31244545964 130.921643046561 1686.48519275854 148 153 149
-360.938543155729 130.844718281738 1692.10604674778 139 144 140
-366.400370514055 130.914751084072 1696.84274572573 137 142 138
-370.951248666447 130.910591925823 1702.04674830759 133 138 134
-376.424444760599 130.979382085063 1706.82487263365 130 135 131
-381.903688396456 131.04755946549 1711.62506342032 122 126 125
-387.389205484626 131.115119518069 1716.44722753487 112 116 115
