ply
format ascii 1.0
comment KinectMotionCapture
element vertex 782
property float x
property float y
property float z
property uchar red
property uchar green
property uchar blue
end_header
-564.655184745789 -552.532613277435 2009.99999046326 19 22 11
-556.979715824127 -550.348341464996 2002.00009346008 19 22 11
-550.449669361115 -549.263834953308 1998.00002574921 18 21 10
-551.306784152985 -555.602371692657 2020.99990844727 17 20 9
-552.039086818695 -561.941742897034 2043.99991035461 16 19 8
-548.369169235229 -563.883006572723 2051.00011825562 17 20 9
-540.161907672882 -561.150670051575 2040.99988937378 17 20 9
-537.247896194458 -563.917517662048 2051.00011825562 16 19 8
-530.391037464142 -562.560558319092 2046.0000038147 14 17 8
-528.691709041595 -566.703081130981 2061.00010871887 13 16 7
-525.895655155182 -569.746255874634 2072.00002670288 15 18 9
-521.282255649567 -570.865094661713 2075.99997520447 15 18 9
-521.863102912903 -577.759146690369 2101.0000705719 16 19 10
-531.889677047729 -595.378875732422 2164.99996185303 18 21 12
-546.09602689743 -625.122547149658 2273.00000190735 20 23 14
-540.169775485992 -625.419616699219 2273.9999294281 16 17 11
-537.525594234467 -629.567623138428 2289.00003433228 19 20 15
-651.329755783081 -571.718573570251 2059.99994277954 11 16 12
-643.858253955841 -570.060908794403 2053.99990081787 14 19 13
-632.690966129303 -565.073370933533 2036.00001335144 14 20 10
-624.702334403992 -562.861859798431 2028.00011634827 19 22 13
-614.31497335434 -558.430373668671 2012.00008392334 17 19 8
-612.487971782684 -561.770915985107 2023.9999294281 18 20 9
-604.29847240448 -559.283375740051 2015.00010490417 19 21 10
-600.021600723267 -560.404658317566 2019.00005340576 19 21 10
-590.717256069183 -556.80775642395 2006.00004196167 19 21 10
-585.860133171082 -557.374894618988 2007.99989700317 20 22 11
-578.102111816406 -555.166780948639 2000 20 22 11
-571.246743202209 -553.79182100296 1995.00000476837 20 23 12
-567.254960536957 -555.193245410919 2000 19 22 11
-564.359843730927 -557.705640792847 2009.0000629425 18 21 10
-558.355867862701 -557.164788246155 2006.99996948242 18 21 10
-551.260948181152 -555.513799190521 2000.99992752075 18 21 10
-550.745487213135 -560.526311397552 2019.00005340576 18 21 10
-548.782110214233 -564.151346683502 2032.00006484985 16 19 10
-544.341921806335 -565.277993679047 2036.00001335144 16 19 10
-539.086282253265 -565.572321414948 2036.99994087219 16 19 10
-535.396814346313 -567.532777786255 2043.99991035461 16 19 10
-534.520864486694 -572.54821062088 2062.00003623962 16 19 10
-533.547282218933 -577.564179897308 2079.99992370605 16 19 10
-530.191779136658 -580.081701278687 2088.99998664856 15 18 9
-521.012246608734 -576.212644577026 2075.00004768372 15 18 7
-517.869710922241 -579.008519649506 2085.00003814697 16 19 8
-524.990797042847 -593.46866607666 2137.00008392334 19 22 11
-547.378838062286 -625.704228878021 2253.00002098084 19 22 11
-547.755897045136 -633.224189281464 2279.99997138977 21 24 15
-538.010001182556 -629.079937934875 2265.00010490417 15 16 10
-538.912177085876 -637.434303760529 2295.00007629395 17 18 13
-654.800772666931 -580.394268035889 2071.00009918213 78 83 79
-643.537223339081 -575.356841087341 2052.99997329712 13 18 12
-633.925795555115 -571.721136569977 2039.99996185303 14 20 10
-622.537314891815 -566.404461860657 2020.99990844727 18 21 12
-616.748213768005 -566.132962703705 2019.99998092651 17 19 8
-613.083183765411 -567.823946475983 2026.00002288818 18 20 9
-608.786344528198 -568.955063819885 2029.99997138977 20 22 11
-602.090775966644 -567.844569683075 2026.00002288818 20 22 11
-594.828248023987 -566.17397069931 2019.99998092651 20 22 11
-589.932799339294 -566.746175289154 2022.0000743866 19 21 10
-580.40189743042 -562.834084033966 2007.99989700317 19 21 10
-570.374727249146 -558.361828327179 1991.99998378754 19 22 11
-562.987208366394 -556.412637233734 1985.00001430511 19 22 11
-559.008538722992 -557.827591896057 1990.00000953674 18 21 10
-556.950509548187 -561.205267906189 2002.00009346008 17 20 9
-552.348256111145 -562.060713768005 2005.00011444092 18 21 10
-551.821231842041 -567.121505737305 2023.00000190735 18 21 10
-550.386607646942 -571.342051029205 2038.00010681152 17 20 11
-547.801315784454 -574.44167137146 2049.00002479553 16 19 10
-538.275837898254 -570.252597332001 2033.99991989136 16 19 10
-536.689519882202 -574.474692344666 2049.00002479553 15 18 9
-536.577045917511 -580.379545688629 2069.9999332428 15 18 9
-537.889838218689 -587.96751499176 2096.99988365173 15 18 9
-532.457530498505 -588.266015052795 2098.00004959106 15 18 7
-527.019619941711 -588.564813137054 2098.99997711182 15 18 7
-518.099129199982 -584.938168525696 2085.99996566772 16 19 8
-521.286249160767 -595.052182674408 2121.99997901917 18 21 10
-529.622733592987 -611.336529254913 2180.0000667572 19 22 11
-544.611394405365 -635.755002498627 2266.99995994568 20 23 14
-536.800801753998 -633.813142776489 2259.99999046326 20 21 15
-651.632606983185 -583.187937736511 2061.00010871887 49 54 50
-645.097494125366 -582.345485687256 2058.00008773804 17 22 16
-631.74295425415 -575.278341770172 2032.99999237061 12 17 10
-626.533448696136 -575.568914413452 2033.99991989136 15 18 9
-620.097875595093 -574.728310108185 2030.99989891052 17 19 8
-617.310166358948 -577.284038066864 2039.99996185303 19 21 10
-605.777442455292 -571.633875370026 2019.99998092651 20 22 11
-598.811328411102 -570.228934288025 2015.00010490417 20 22 11
-591.872572898865 -568.824410438538 2009.99999046326 19 21 10
-588.170647621155 -570.533514022827 2016.00003242493 19 21 10
-578.366577625275 -566.299974918365 2000.99992752075 18 20 9
-569.216966629028 -562.632858753204 1988.00003528595 18 21 10
-561.839818954468 -560.664176940918 1980.99994659424 18 21 10
-558.714330196381 -562.941253185272 1988.9999628067 17 20 9
-555.545687675476 -565.218925476074 1996.99997901917 17 20 9
-555.914998054504 -571.176648139954 2017.99988746643 18 21 10
-551.533639431 -572.323322296143 2022.0000743866 18 21 10
-546.050310134888 -572.338223457336 2022.0000743866 18 21 12
-540.03244638443 -571.787357330322 2019.99998092651 17 20 11
-538.25968503952 -575.766026973724 2033.99991989136 17 20 11
-537.720620632172 -581.160664558411 2052.99997329712 16 19 10
-537.3375415802 -586.839020252228 2072.99995422363 15 18 9
-532.485723495483 -587.705492973328 2075.99997520447 15 18 9
-530.155420303345 -591.403305530548 2088.99998664856 15 18 7
-524.741649627686 -591.704368591309 2089.99991416931 15 18 7
-520.812511444092 -593.704342842102 2096.99988365173 16 19 8
-521.758437156677 -601.36753320694 2124.00007247925 18 21 10
-526.930510997772 -614.12787437439 2168.99991035461 19 22 11
-532.579123973846 -627.738773822784 2217.00000762939 19 22 13
-536.779582500458 -639.93501663208 2259.99999046326 20 21 15
-660.163462162018 -596.49795293808 2088.00005912781 120 124 123
-644.464135169983 -587.361991405487 2055.99999427795 24 29 23
-634.532570838928 -583.368837833405 2042.00005531311 15 20 13
-624.369561672211 -579.090595245361 2026.99995040894 17 20 11
-624.364018440247 -584.240853786469 2045.00007629395 14 17 8
-617.301225662231 -582.820653915405 2039.99996185303 14 16 5
-606.367766857147 -577.687084674835 2022.0000743866 18 20 9
-596.720933914185 -573.696613311768 2007.99989700317 18 20 9
-591.862082481384 -574.278116226196 2009.99999046326 18 20 9
-587.867796421051 -575.717210769653 2015.00010490417 17 19 8
-576.909959316254 -570.299625396729 1996.00005149841 17 19 8
-569.777607917786 -568.59678030014 1990.00000953674 17 20 9
-562.394678592682 -566.608667373657 1983.00004005432 17 20 9
-558.139622211456 -567.763984203339 1986.99998855591 17 20 9
-556.366741657257 -571.491599082947 2000 17 20 9
-554.248154163361 -574.934065341949 2012.00008392334 18 21 10
-550.973653793335 -577.234148979187 2019.99998092651 18 21 10
-544.955193996429 -576.676964759827 2017.99988746643 18 21 14
-540.017247200012 -577.263414859772 2019.99998092651 17 20 13
-541.419446468353 -584.70892906189 2046.0000038147 17 20 13
-542.942523956299 -592.441022396088 2072.99995422363 17 20 11
-534.987986087799 -589.885294437408 2063.99989128113 16 19 10
-526.31288766861 -586.47233247757 2052.00004577637 16 19 10
-523.793458938599 -589.918911457062 2063.99989128113 15 18 7
-521.710932254791 -593.937814235687 2078.00006866455 15 18 7
-518.0624127388 -596.242189407349 2085.99996566772 15 18 7
-520.265817642212 -605.407178401947 2118.00003051758 17 20 9
-525.696456432343 -618.574857711792 2164.00003433228 17 21 7
-532.078504562378 -633.172810077667 2214.99991416931 18 21 10
-648.53310585022 -596.693992614746 2069.00000572205 34 39 33
-636.079728603363 -590.355098247528 2046.99993133545 13 18 11
-626.518666744232 -586.612284183502 2033.99991989136 14 17 8
-625.577330589294 -590.945601463318 2049.00002479553 12 15 6
-618.805885314941 -589.799761772156 2045.00007629395 13 15 4
-607.258498668671 -584.039926528931 2025.00009536743 18 20 9
-597.305953502655 -579.722583293915 2009.99999046326 18 20 9
-588.907539844513 -576.847791671753 2000 18 20 9
-582.022368907928 -575.41561126709 1995.00000476837 18 20 9
-575.16473531723 -573.983907699585 1990.00000953674 18 20 9
-568.907260894775 -573.129594326019 1986.99998855591 17 20 9
-562.382698059082 -571.987271308899 1983.00004005432 17 20 9
-559.812486171722 -574.883759021759 1993.00003051758 16 19 8
-555.241107940674 -575.761556625366 1996.00005149841 17 20 9
-552.306413650513 -578.370690345764 2005.00011444092 18 21 10
-546.322822570801 -577.807188034058 2003.00002098084 18 21 10
-545.480906963348 -582.725167274475 2019.99998092651 17 20 13
-540.537118911743 -583.316564559937 2022.0000743866 17 20 13
-540.610134601593 -589.389622211456 2042.99998283386 17 20 13
-536.117017269135 -590.559005737305 2046.99993133545 17 20 11
-528.751075267792 -588.555157184601 2039.99996185303 17 20 11
-521.679699420929 -586.840152740479 2033.99991989136 15 18 7
-522.507667541504 -594.06965970993 2059.00001525879 15 18 7
-520.689368247986 -598.414361476898 2073.99988174438 15 18 7
-516.306281089783 -599.874496459961 2078.9999961853 16 20 6
-514.84352350235 -604.79748249054 2095.99995613098 16 20 6
-524.219930171967 -622.706115245819 2157.99999237061 17 21 7
-533.740222454071 -641.193211078644 2221.99988365173 18 21 10
-649.154901504517 -602.894902229309 2071.00009918213 67 73 71
-636.073887348175 -595.913350582123 2046.99993133545 10 15 9
-629.900515079498 -595.33703327179 2045.00007629395 11 16 9
-626.791417598724 -597.672581672668 2052.99997329712 20 26 16
-620.00834941864 -596.515238285065 2049.00002479553 17 20 9
-611.448407173157 -593.611896038055 2039.00003433228 15 18 9
-601.160168647766 -588.962137699127 2023.00000190735 17 20 11
-593.903660774231 -587.224245071411 2016.99995994568 18 21 12
-584.054529666901 -582.866668701172 2002.00009346008 18 21 12
-576.021373271942 -580.256283283234 1993.00003051758 17 20 11
-570.900440216064 -580.557882785797 1993.99995803833 18 21 12
-564.923584461212 -579.986572265625 1991.99998378754 17 20 11
-559.519588947296 -579.998075962067 1991.99998378754 17 20 11
-553.559601306915 -579.427719116211 1990.00000953674 17 20 11
-548.712491989136 -580.02245426178 1991.99998378754 18 21 12
-546.582102775574 -583.529531955719 2003.99994850159 19 22 13
-547.0871925354 -589.949071407318 2026.00002288818 18 19 11
-546.938359737396 -595.786988735199 2046.0000038147 19 19 11
-540.595233440399 -594.927906990051 2042.99998283386 18 20 9
-532.697081565857 -592.321872711182 2033.99991989136 18 20 9
-525.366067886353 -590.298593044281 2026.99995040894 19 19 9
-523.971974849701 -594.973683357239 2042.99998283386 18 20 9
-525.028765201569 -602.561771869659 2069.00000572205 18 19 11
-522.429764270782 -606.073200702667 2081.00008964539 18 18 10
-516.785621643066 -606.090128421783 2081.00008964539 18 18 10
-513.843297958374 -609.311282634735 2092.00000762939 17 19 8
-515.942394733429 -618.649423122406 2124.00007247925 19 19 11
-534.201204776764 -647.795021533966 2223.99997711182 18 19 11
-638.554573059082 -603.822827339172 2055.0000667572 9 14 8
-630.202531814575 -601.183533668518 2046.0000038147 13 18 11
-627.090096473694 -603.540122509003 2053.99990081787 17 23 13
-618.790745735168 -600.902199745178 2045.00007629395 17 20 9
-610.840797424316 -598.558664321899 2036.99994087219 15 18 9
-601.448893547058 -594.746470451355 2023.9999294281 17 20 11
-594.189167022705 -592.991769313812 2017.99988746643 18 21 12
-582.003057003021 -586.242079734802 1995.00000476837 18 21 12
-575.433373451233 -585.076034069061 1991.00005626678 17 20 11
-571.176290512085 -586.261391639709 1995.00000476837 17 20 11
-566.33061170578 -586.859583854675 1996.99997901917 17 20 11
-559.227287769318 -585.107266902924 1991.00005626678 18 21 12
-554.938554763794 -586.294293403625 1995.00000476837 18 21 12
-551.179111003876 -588.069498538971 2000.99992752075 18 21 12
-549.296617507935 -591.902613639832 2013.99993896484 18 21 12
-558.144688606262 -607.49226808548 2066.99991226196 17 19 8
-552.270591259003 -607.212126255035 2065.99998474121 18 18 8
-540.316164493561 -600.172400474548 2042.00005531311 18 18 8
-530.587136745453 -595.484137535095 2026.00002288818 18 18 8
-526.387631893158 -596.968352794647 2030.99989891052 18 18 8
-519.852936267853 -595.807731151581 2026.99995040894 19 19 11
-522.982597351074 -605.817258358002 2061.00010871887 18 18 10
-518.396556377411 -607.00911283493 2065.00005722046 18 18 10
-515.278816223145 -609.965085983276 2075.00004768372 18 18 10
-512.106776237488 -612.921595573425 2085.00003814697 18 18 10
-514.952898025513 -623.227894306183 2119.99988555908 18 18 10
-526.736378669739 -644.706428050995 2193.00007820129 18 19 11
-634.821236133575 -605.845332145691 2042.99998283386 12 17 11
-629.581212997437 -606.146395206451 2043.99991035461 16 21 15
-625.862896442413 -607.930958271027 2049.99995231628 10 15 8
-619.389295578003 -607.047319412231 2046.99993133545 17 20 11
-609.334230422974 -602.605581283569 2032.00006484985 14 17 8
-599.361002445221 -598.164319992065 2016.99995994568 16 19 10
-593.5919880867 -597.875535488129 2016.00003242493 16 19 10
-581.99417591095 -591.655910015106 1995.00000476837 17 20 11
-577.158033847809 -592.257857322693 1996.99997901917 17 20 11
-571.166396141052 -591.674149036407 1995.00000476837 16 19 10
-564.902186393738 -590.794205665588 1991.99998378754 17 20 11
-558.092892169952 -589.321792125702 1986.99998855591 19 22 13
-554.648876190186 -591.408789157867 1993.99995803833 19 22 13
-551.718056201935 -594.089567661285 2003.00002098084 17 20 11
-549.556851387024 -597.660839557648 2015.00010490417 17 20 11
-557.321310043335 -612.207233905792 2063.99989128113 18 20 9
-557.603061199188 -618.746161460876 2085.99996566772 18 20 9
-542.948186397552 -608.674705028534 2052.00004577637 18 20 9
-541.833817958832 -613.731384277344 2069.00000572205 18 20 9
-529.742121696472 -606.329917907715 2043.99991035461 18 20 9
-524.454236030579 -606.641411781311 2045.00007629395 18 20 9
-521.44455909729 -609.62301492691 2055.0000667572 16 17 9
-519.635677337646 -614.088416099548 2069.9999332428 16 17 9
-512.282490730286 -612.027704715729 2062.99996376038 16 17 9
-510.370671749115 -616.494178771973 2078.00006866455 16 17 9
-510.320544242859 -623.334586620331 2101.0000705719 16 17 9
-517.831325531006 -639.669895172119 2155.99989891052 17 18 10
-640.721201896667 -617.080330848694 2062.00003623962 77 81 80
-625.880539417267 -608.106315135956 2032.00006484985 18 23 17
-626.773536205292 -614.395499229431 2052.99997329712 9 14 7
-620.593726634979 -613.802313804626 2051.00011825562 17 20 11
-611.726522445679 -610.51619052887 2039.99996185303 14 17 8
-603.811264038086 -608.128666877747 2032.00006484985 15 18 9
-594.467580318451 -604.245245456696 2019.00005340576 16 19 10
-585.778295993805 -600.960791110992 2007.99989700317 16 19 10
-577.727258205414 -598.275542259216 1998.99995326996 16 19 10
-569.725513458252 -595.590710639954 1990.00000953674 16 19 10
-562.340080738068 -593.504965305328 1983.00004005432 17 20 11
-558.925032615662 -595.609903335571 1990.00000953674 19 22 13
-554.916143417358 -597.116827964783 1995.00000476837 19 22 13
-552.532970905304 -600.42017698288 2006.00004196167 17 20 11
-550.363004207611 -604.023337364197 2017.99988746643 17 20 11
-548.668265342712 -608.22594165802 2032.00006484985 17 20 9
-545.293807983398 -610.633075237274 2039.99996185303 17 20 9
-550.872266292572 -623.218178749084 2082.00001716614 17 20 9
-539.201021194458 -616.346955299377 2059.00001525879 17 20 9
-533.356189727783 -616.061568260193 2058.00008773804 17 20 9
-526.747465133667 -614.878475666046 2053.99990081787 17 20 9
-525.489151477814 -619.982361793518 2071.00009918213 15 18 9
-522.381365299225 -622.99120426178 2081.00008964539 15 18 9
-515.494704246521 -621.509909629822 2075.99997520447 15 18 9
-509.617626667023 -621.226489543915 2075.00004768372 15 18 9
-508.603513240814 -626.931130886078 2094.00010108948 15 18 9
-514.931738376617 -641.917884349823 2144.00005340576 17 19 14
-644.757449626923 -626.607298851013 2075.00004768372 98 102 101
-632.652819156647 -620.268940925598 2053.99990081787 20 25 19
-625.547707080841 -618.762910366058 2049.00002479553 13 18 11
-624.219357967377 -622.995316982269 2062.99996376038 14 17 10
-618.617475032806 -623.000681400299 2062.99996376038 14 17 8
-610.341906547546 -620.288789272308 2053.99990081787 14 17 8
-602.704524993896 -618.181467056274 2046.99993133545 14 17 8
-586.06231212616 -606.712818145752 2009.0000629425 15 18 9
-580.031096935272 -606.116473674774 2006.99996948242 16 19 10
-570.289373397827 -601.594686508179 1991.99998378754 17 20 11
-562.614440917969 -599.18737411499 1983.99996757507 17 20 11
-558.915197849274 -601.008653640747 1990.00000953674 18 21 12
-554.905772209167 -602.528631687164 1995.00000476837 18 21 12
-552.52206325531 -605.861246585846 2006.00004196167 18 21 12
-547.078967094421 -605.87215423584 2006.00004196167 17 20 11
-546.226143836975 -611.018002033234 2023.00000190735 16 19 8
-549.023449420929 -620.393216609955 2053.99990081787 16 19 8
-545.831978321075 -623.124241828918 2062.99996376038 16 19 8
-540.234982967377 -623.137295246124 2062.99996376038 16 19 8
-532.305657863617 -620.432198047638 2053.99990081787 16 19 8
-527.759075164795 -621.654331684113 2058.00008773804 16 19 8
-526.235580444336 -626.501739025116 2073.99988174438 16 19 10
-523.370206356049 -629.839301109314 2085.00003814697 15 18 9
-516.96902513504 -628.948211669922 2082.00001716614 15 18 9
-510.338544845581 -627.755343914032 2078.00006866455 15 18 9
-506.887078285217 -630.490005016327 2086.99989318848 16 19 10
-514.914751052856 -647.726535797119 2144.00005340576 17 19 14
-644.754946231842 -632.244527339935 2075.00004768372 104 108 109
-633.573591709137 -626.762390136719 2056.99992179871 21 26 22
-626.764953136444 -625.546872615814 2052.99997329712 15 20 14
-622.399210929871 -626.769542694092 2056.99992179871 12 15 8
-616.513133049011 -626.469552516937 2055.99999427795 14 17 8
-611.227333545685 -626.779556274414 2056.99992179871 14 17 8
-598.870277404785 -619.777202606201 2033.99991989136 14 17 8
-591.014385223389 -617.346167564392 2026.00002288818 15 18 9
-580.601394176483 -612.173080444336 2009.0000629425 15 18 9
-575.147986412048 -612.180709838867 2009.0000629425 18 21 12
-567.142844200134 -609.446465969086 2000 17 20 11
-560.871958732605 -608.540952205658 1996.99997901917 17 20 11
-556.564807891846 -609.7691655159 2000.99992752075 17 20 11
-554.164290428162 -613.131105899811 2012.00008392334 18 21 12
-547.068119049072 -611.313045024872 2006.00004196167 19 22 13
-546.214640140533 -616.504490375519 2023.00000190735 15 21 9
-550.347924232483 -627.487063407898 2059.00001525879 15 21 9
-546.348571777344 -629.327654838562 2065.00005722046 15 21 9
-537.341475486755 -625.3781914711 2052.00004577637 15 21 9
-527.886688709259 -620.819449424744 2036.99994087219 15 21 9
-525.693774223328 -624.794721603394 2049.99995231628 15 21 9
-525.967597961426 -631.818473339081 2072.99995422363 15 21 11
-525.614619255066 -638.233304023743 2094.00010108948 14 20 10
-517.947137355804 -635.809600353241 2085.99996566772 14 20 10
-511.059939861298 -634.300589561462 2081.00008964539 14 20 10
-504.685461521149 -633.40151309967 2078.00006866455 15 21 11
-509.134411811829 -646.219551563263 2119.99988555908 13 15 10
-637.575209140778 -636.347115039825 2069.9999332428 45 50 46
-628.288209438324 -632.660686969757 2058.00008773804 15 20 14
-618.764460086823 -628.66747379303 2045.00007629395 17 20 13
-610.511302947998 -625.904619693756 2036.00001335144 17 18 10
-604.684889316559 -625.601768493652 2035.00008583069 16 17 9
-598.570048809052 -624.99213218689 2032.99999237061 16 17 9
-590.716242790222 -622.538685798645 2025.00009536743 16 17 9
-584.062278270721 -621.31541967392 2020.99990844727 16 17 9
-577.430605888367 -620.092749595642 2016.99995994568 16 17 9
-568.836092948914 -616.718590259552 2006.00004196167 17 18 10
-560.863256454468 -613.959729671478 1996.99997901917 19 20 12
-555.72110414505 -614.275813102722 1998.00002574921 19 20 12
-550.849318504334 -614.899933338165 2000 20 21 13
-549.512207508087 -619.521498680115 2015.00010490417 19 22 13
-547.013819217682 -622.913777828217 2026.00002288818 15 21 9
-546.861588954926 -629.073917865753 2046.0000038147 15 21 9
-541.045188903809 -628.777921199799 2045.00007629395 15 21 9
-532.877564430237 -625.715017318726 2035.00008583069 16 22 10
-526.060044765472 -624.189794063568 2029.99997138977 16 22 10
-524.654805660248 -629.122197628021 2046.0000038147 17 23 13
-527.729868888855 -639.590203762054 2079.99992370605 16 22 12
-523.843288421631 -641.756474971771 2086.99989318848 15 21 11
-516.939401626587 -640.232980251312 2082.00001716614 13 19 9
-510.799407958984 -639.632523059845 2079.99992370605 14 20 10
-504.427373409271 -638.724625110626 2076.99990272522 16 22 12
-500.233054161072 -640.585064888 2082.99994468689 17 19 14
-640.961527824402 -645.382881164551 2081.00008964539 63 67 66
-627.675175666809 -637.631297111511 2055.99999427795 14 19 15
-617.248356342316 -632.671713829041 2039.99996185303 12 14 9
-610.507488250732 -631.434381008148 2036.00001335144 15 16 10
-608.543157577515 -635.1597905159 2048.00009727478 16 17 9
-599.153637886047 -631.13260269165 2035.00008583069 16 17 9
-592.168927192688 -629.587054252625 2029.99997138977 17 18 10
-583.766877651215 -626.49142742157 2019.99998092651 17 18 10
-578.854978084564 -627.118170261383 2022.0000743866 16 17 9
-569.395661354065 -622.783064842224 2007.99989700317 17 18 10
-558.889269828796 -617.207884788513 1990.00000953674 19 20 12
-553.765594959259 -617.526054382324 1991.00005626678 19 20 12
-550.289332866669 -619.705736637115 1998.00002574921 19 20 12
-549.229741096497 -624.67747926712 2013.99993896484 20 21 13
-546.463549137115 -627.788960933685 2023.9999294281 19 22 11
-544.979810714722 -632.451832294464 2039.00003433228 19 22 11
-537.065267562866 -629.670917987823 2029.99997138977 19 22 11
-527.105093002319 -624.408960342407 2013.00001144409 18 21 10
-523.197412490845 -626.281678676605 2019.00005340576 18 21 10
-527.975738048553 -638.701736927032 2059.00001525879 18 21 10
-527.209162712097 -644.60825920105 2078.00006866455 17 20 11
-521.821618080139 -644.931674003601 2078.9999961853 16 19 10
-515.932261943817 -644.635021686554 2078.00006866455 15 18 9
-511.521697044373 -646.200060844421 2082.99994468689 16 19 10
-502.955615520477 -642.491638660431 2071.00009918213 17 20 11
-502.619385719299 -649.331510066986 2092.99993515015 21 23 18
-643.116593360901 -653.227686882019 2088.00005912781 83 87 86
-628.894507884979 -644.468903541565 2059.99994277954 26 30 29
-622.389554977417 -643.532037734985 2056.99992179871 8 10 5
-620.099723339081 -646.975994110107 2068.00007820129 15 16 10
-610.916376113892 -643.224835395813 2055.99999427795 15 16 8
-601.504445075989 -639.161586761475 2042.99998283386 16 17 9
-593.038856983185 -636.037588119507 2032.99999237061 17 18 10
-585.206151008606 -633.539915084839 2025.00009536743 17 18 10
-579.134941101074 -632.91996717453 2023.00000190735 16 17 9
-569.10514831543 -627.92044878006 2006.99996948242 18 19 11
-561.971068382263 -626.050114631653 2000.99992752075 19 20 12
-555.704534053802 -625.118970870972 1998.00002574921 18 19 11
-552.484095096588 -627.629935741425 2006.00004196167 18 19 11
-547.857105731964 -628.577172756195 2009.0000629425 19 20 12
-542.404055595398 -628.586173057556 2009.0000629425 19 22 11
-540.425896644592 -632.663369178772 2022.0000743866 19 22 11
-534.144520759583 -631.734728813171 2019.00005340576 19 22 11
-526.308536529541 -628.929257392883 2009.99999046326 19 22 11
-524.740695953369 -633.63379240036 2025.00009536743 18 21 10
-526.168584823608 -642.0938372612 2052.00004577637 18 21 10
-519.077897071838 -640.22833108902 2046.0000038147 19 22 13
-516.286730766296 -643.682956695557 2056.99992179871 18 21 12
-513.684213161469 -647.451043128967 2069.00000572205 17 20 11
-509.543359279633 -649.342000484467 2075.00004768372 17 20 11
-505.612730979919 -651.546359062195 2082.00001716614 18 21 12
-507.167339324951 -660.948932170868 2111.99998855591 20 22 17
-632.862269878387 -654.169201850891 2072.99995422363 51 55 54
-628.741860389709 -655.748009681702 2078.00006866455 17 19 14
-621.896266937256 -654.487431049347 2073.99988174438 15 16 10
-607.34760761261 -645.022869110107 2043.99991035461 16 17 9
-595.317959785461 -638.083457946777 2022.0000743866 16 17 9
-589.825630187988 -638.087153434753 2022.0000743866 17 18 10
-584.912002086639 -638.722717761993 2023.9999294281 17 18 10
-578.270316123962 -637.465476989746 2019.99998092651 16 17 9
-570.516705513 -634.946525096893 2012.00008392334 18 19 11
-560.56010723114 -629.903495311737 1996.00005149841 19 20 12
-556.531548500061 -631.488144397736 2000.99992752075 18 19 11
-550.272881984711 -630.548715591431 1998.00002574921 17 18 10
-544.030904769897 -629.609823226929 1995.00000476837 18 19 11
-536.995351314545 -627.724528312683 1988.9999628067 19 21 10
-533.467352390289 -629.942715167999 1996.00005149841 19 21 10
-525.933265686035 -627.427220344543 1988.00003528595 20 22 11
-520.275712013245 -627.121388912201 1986.99998855591 20 22 11
-526.025295257568 -640.703201293945 2029.99997138977 20 22 11
-522.823631763458 -643.554747104645 2039.00003433228 19 20 12
-517.036497592926 -643.250584602356 2038.00010681152 19 20 12
-507.991790771484 -638.843476772308 2023.9999294281 19 20 12
-510.19561290741 -648.640513420105 2055.0000667572 19 20 12
-508.056700229645 -653.07229757309 2069.00000572205 19 20 12
-503.656208515167 -654.663681983948 2073.99988174438 18 19 11
-506.432712078094 -665.725350379944 2108.99996757507 16 18 13
-641.715407371521 -669.033348560333 2101.99999809265 72 76 75
-629.648685455322 -662.34964132309 2081.00008964539 15 17 14
-614.698112010956 -652.483701705933 2049.99995231628 16 17 11
-596.945405006409 -639.435708522797 2009.0000629425 16 17 9
-586.776614189148 -634.345412254334 1993.00003051758 16 17 9
-586.613178253174 -640.077531337738 2010.99991798401 16 17 9
-585.196673870087 -644.537389278412 2025.00009536743 16 17 9
-580.269277095795 -645.178258419037 2026.99995040894 16 17 9
-568.809747695923 -638.499081134796 2006.00004196167 18 19 11
-559.99231338501 -634.685039520264 1993.99995803833 18 19 11
-555.968523025513 -636.282682418823 1998.99995326996 17 18 10
-551.09179019928 -636.925935745239 2000.99992752075 17 18 10
-543.204963207245 -634.068369865417 1991.99998378754 17 18 10
-535.097241401672 -630.893051624298 1981.99999332428 19 19 9
-530.785918235779 -632.174491882324 1985.99994182587 19 19 9
-525.394916534424 -632.183253765106 1985.99994182587 20 20 10
-521.836996078491 -634.42075252533 1993.00003051758 21 21 11
-523.682713508606 -643.34362745285 2020.99990844727 21 21 11
-521.274328231812 -647.174000740051 2032.99999237061 20 20 12
-514.995515346527 -646.229803562164 2029.99997138977 21 21 13
-512.999713420868 -650.697767734528 2043.99991035461 21 21 13
-512.417674064636 -657.076478004456 2063.99989128113 20 20 12
-509.762823581696 -660.908997058868 2075.99997520447 20 20 12
-507.042944431305 -664.742052555084 2088.00005912781 20 20 12
-506.419003009796 -671.440899372101 2108.99996757507 17 19 14
-641.716063022614 -674.746990203857 2101.99999809265 119 120 122
-629.043221473694 -667.363286018372 2078.9999961853 18 20 17
-615.296900272369 -658.696413040161 2052.00004577637 14 16 11
-597.835242748261 -645.857214927673 2012.00008392334 15 18 11
-587.363183498383 -640.401661396027 1995.00000476837 15 18 9
-585.735082626343 -644.577026367188 2007.99989700317 15 18 9
-584.903955459595 -649.716079235077 2023.9999294281 14 17 8
-577.688455581665 -647.793591022491 2017.99988746643 16 17 9
-566.819965839386 -641.698658466339 1998.99995326996 17 18 10
-558.863461017609 -638.814449310303 1990.00000953674 19 20 12
-555.684387683868 -641.38799905777 1998.00002574921 18 20 9
-550.534307956696 -641.714990139008 1998.99995326996 15 17 6
-546.197414398193 -643.005669116974 2003.00002098084 15 16 8
-539.409220218658 -641.407668590546 1998.00002574921 15 18 9
-536.122918128967 -643.983602523804 2006.00004196167 16 17 11
-525.650799274445 -637.892067432404 1986.99998855591 18 19 13
-525.755226612091 -644.642412662506 2007.99989700317 18 21 12
-522.895693778992 -647.862076759338 2017.99988746643 20 21 15
-522.033214569092 -653.650641441345 2036.00001335144 21 22 16
-522.341787815094 -661.045014858246 2059.00001525879 21 22 16
-518.00799369812 -662.660956382751 2063.99989128113 21 22 16
-514.640271663666 -665.561735630035 2072.99995422363 21 22 16
-513.433873653412 -671.352744102478 2091.00008010864 20 21 15
-512.615382671356 -677.786350250244 2111.00006103516 20 21 15
-507.126212120056 -678.120076656342 2111.99998855591 16 19 12
-509.228527545929 -688.728988170624 2144.99998092651 20 22 17
-633.279919624329 -677.546560764313 2092.99993515015 13 15 12
-617.995500564575 -667.186975479126 2061.00010871887 15 17 12
-606.748461723328 -661.036312580109 2042.00005531311 15 18 11
-599.727153778076 -659.41846370697 2036.99994087219 15 18 11
-590.983510017395 -655.859112739563 2026.00002288818 14 17 8
-586.345970630646 -656.832456588745 2029.00004386902 14 17 8
-577.112376689911 -652.626931667328 2016.00003242493 15 16 8
-565.114498138428 -645.184814929962 1993.00003051758 17 18 10
-560.262858867645 -645.836353302002 1995.00000476837 19 20 12
-555.957078933716 -647.135972976685 1998.99995326996 17 19 8
-553.557813167572 -650.702297687531 2009.99999046326 15 17 6
-547.827005386353 -650.384604930878 2009.0000629425 15 17 6
-543.451726436615 -651.686012744904 2013.00001144409 14 17 10
-534.778952598572 -647.808074951172 2000.99992752075 14 17 10
-530.404508113861 -649.110674858093 2005.00011444092 15 18 11
-525.222957134247 -649.442434310913 2006.00004196167 16 19 12
-521.072745323181 -651.069700717926 2010.99991798401 17 20 13
-520.998001098633 -657.877743244171 2032.00006484985 20 21 15
-522.331535816193 -666.628897190094 2059.00001525879 20 21 15
-518.499255180359 -668.905377388 2065.99998474121 20 21 15
-512.643158435822 -668.592393398285 2065.00005722046 21 22 16
-514.64980840683 -678.640425205231 2095.99995613098 21 22 16
-511.631906032562 -682.213723659515 2107.00011253357 21 22 16
-505.913138389587 -682.225823402405 2107.00011253357 21 24 15
-510.40244102478 -696.161508560181 2150.00009536743 26 29 20
-637.820065021515 -688.133478164673 2108.00004005432 11 13 10
-621.594369411469 -676.706492900848 2072.99995422363 17 19 14
-612.691104412079 -673.115015029907 2062.00003623962 15 18 11
-603.553771972656 -669.197738170624 2049.99995231628 15 18 11
-596.815884113312 -667.892634868622 2046.0000038147 13 16 9
-585.476815700531 -661.365389823914 2026.00002288818 13 16 7
-578.254580497742 -659.408867359161 2019.99998092651 14 15 7
-568.230092525482 -654.188573360443 2003.99994850159 16 17 9
-560.258805751801 -651.253998279572 1995.00000476837 18 19 11
-555.674314498901 -652.237355709076 1998.00002574921 16 18 7
-551.073908805847 -653.221249580383 2000.99992752075 14 16 5
-547.548353672028 -655.511617660522 2007.99989700317 14 16 5
-543.175339698792 -656.82327747345 2012.00008392334 12 15 8
-536.910116672516 -655.850291252136 2009.0000629425 12 15 8
-530.132532119751 -654.224812984467 2003.99994850159 13 16 9
-524.691343307495 -654.232144355774 2003.99994850159 14 17 10
-521.841585636139 -657.504737377167 2013.99993896484 15 18 11
-519.194185733795 -661.104321479797 2025.00009536743 18 19 13
-519.785106182098 -668.948650360107 2049.00002479553 19 20 14
-514.975607395172 -669.937610626221 2052.00004577637 19 20 14
-507.419347763062 -667.335629463196 2043.99991035461 21 22 16
-506.04510307312 -672.896385192871 2061.00010871887 21 22 16
-503.607273101807 -677.151560783386 2073.99988174438 22 23 17
-504.460513591766 -685.978472232819 2101.0000705719 23 26 19
-647.504687309265 -704.398453235626 2140.00010490417 73 75 74
-624.294698238373 -685.304880142212 2082.00001716614 16 21 15
-617.446064949036 -683.986663818359 2078.00006866455 16 19 12
-610.031008720398 -682.010889053345 2072.00002670288 14 17 10
-600.607395172119 -677.731812000275 2059.00001525879 13 16 9
-593.56689453125 -676.086604595184 2053.99990081787 13 16 9
-580.256402492523 -667.200744152069 2026.99995040894 13 16 7
-569.928646087646 -661.607027053833 2009.99999046326 15 18 9
-563.625395298004 -660.622179508209 2006.99996948242 18 19 11
-555.392265319824 -657.333970069885 1996.99997901917 16 17 9
-550.794005393982 -658.325374126434 2000 14 15 7
-544.271051883698 -657.013118267059 1996.00005149841 14 15 7
-542.899489402771 -661.955654621124 2010.99991798401 13 16 9
-536.903917789459 -661.303043365479 2009.0000629425 12 15 8
-531.448364257813 -661.309242248535 2009.0000629425 12 15 8
-527.040481567383 -662.632703781128 2013.00001144409 12 15 8
-524.942994117737 -666.91929101944 2026.00002288818 13 16 9
-521.236956119537 -669.231355190277 2032.99999237061 16 17 11
-516.985833644867 -670.885622501373 2038.00010681152 16 17 11
-512.20566034317 -671.881973743439 2040.99988937378 15 16 10
-506.168365478516 -671.232879161835 2039.00003433228 15 16 10
-500.878632068634 -671.571671962738 2039.99996185303 15 16 10
-501.411199569702 -679.812073707581 2065.00005722046 16 17 11
-502.288341522217 -688.71134519577 2092.00000762939 13 15 10
-632.692992687225 -700.258731842041 2109.99989509583 17 22 16
-618.636190891266 -690.963685512543 2082.00001716614 16 19 12
-609.737515449524 -687.311470508575 2071.00009918213 14 17 10
-603.232741355896 -686.314880847931 2068.00007820129 12 15 8
-594.144225120544 -682.332158088684 2055.99999427795 12 15 8
-583.690285682678 -676.690936088562 2039.00003433228 14 17 8
-571.344435214996 -668.727159500122 2015.00010490417 15 18 9
-561.37615442276 -663.419008255005 1998.99995326996 18 19 11
-556.501507759094 -664.085328578949 2000.99992752075 17 18 10
-552.167117595673 -665.416061878204 2005.00011444092 14 15 7
-548.356831073761 -667.411029338837 2010.99991798401 14 15 7
-545.594155788422 -670.734226703644 2020.99990844727 13 16 9
-543.312132358551 -674.721777439117 2032.99999237061 13 16 9
-537.791013717651 -674.727439880371 2032.99999237061 12 15 8
-532.793760299683 -675.397276878357 2035.00008583069 12 15 8
-526.749491691589 -674.740135669708 2032.99999237061 12 15 8
-524.305820465088 -678.730070590973 2045.00007629395 14 15 9
-521.543562412262 -682.388663291931 2055.99999427795 14 15 9
-512.698888778687 -678.08210849762 2042.99998283386 13 14 8
-506.40743970871 -677.09493637085 2039.99996185303 11 12 6
-502.833306789398 -679.759442806244 2048.00009727478 12 13 7
-503.100693225861 -687.73490190506 2072.00002670288 13 14 8
-509.240388870239 -704.009175300598 2121.00005149841 22 24 19
-518.200039863586 -724.599480628967 2183.00008773804 13 18 12
-648.888647556305 -724.06542301178 2164.00003433228 18 23 19
-619.827270507813 -697.96359539032 2085.99996566772 14 19 12
-607.972681522369 -690.934598445892 2065.00005722046 12 17 10
-600.316762924194 -688.590705394745 2058.00008773804 10 15 8
-592.699527740479 -686.24746799469 2051.00011825562 12 15 8
-584.8348736763 -683.570504188538 2042.99998283386 15 18 11
-576.163530349731 -679.890394210815 2032.00006484985 16 19 12
-560.25105714798 -667.511582374573 1995.00000476837 18 21 12
-556.499004364014 -669.520854949951 2000.99992752075 18 19 11
-556.01954460144 -675.545990467072 2019.00005340576 15 16 8
-552.443265914917 -677.891135215759 2026.00002288818 15 16 8
-545.859813690186 -676.556468009949 2022.0000743866 13 16 9
-541.436553001404 -677.899062633514 2026.00002288818 12 15 8
-538.314521312714 -680.915355682373 2035.00008583069 11 14 7
-532.78774023056 -680.920779705048 2035.00008583069 10 13 6
-530.111134052277 -684.607326984406 2046.0000038147 10 13 6
-524.811446666718 -684.9485039711 2046.99993133545 10 11 5
-523.05793762207 -689.974725246429 2062.00003623962 10 11 5
-512.941777706146 -683.959126472473 2043.99991035461 9 10 4
-506.150662899017 -682.293951511383 2039.00003433228 9 10 4
-502.333223819733 -684.64469909668 2046.0000038147 11 12 6
-506.004869937897 -697.369575500488 2084.00011062622 13 14 8
-514.272153377533 -716.787874698639 2141.99995994568 16 18 15
-526.022553443909 -741.561353206635 2216.00008010864 15 17 14
-619.236528873444 -702.962577342987 2084.00011062622 17 22 16
-609.152972698212 -697.899341583252 2069.00000572205 12 17 11
-598.568379878998 -692.162454128265 2052.00004577637 10 15 9
-593.278646469116 -692.497849464417 2052.99997329712 11 16 9
-585.693955421448 -690.135478973389 2046.0000038147 15 18 11
-578.148066997528 -687.774002552032 2039.00003433228 15 18 11
-564.743280410767 -678.329586982727 2010.99991798401 16 19 12
-557.331621646881 -675.969362258911 2003.99994850159 16 19 10
-558.495759963989 -684.066534042358 2028.00011634827 13 16 7
-552.16771364212 -683.056771755219 2025.00009536743 12 15 6
-546.666145324707 -683.059692382813 2025.00009536743 13 16 9
-540.630638599396 -682.388544082642 2023.00000190735 13 16 9
-537.516236305237 -685.428500175476 2032.00006484985 12 15 8
-534.615099430084 -688.806295394897 2042.00005531311 10 13 6
-534.5099568367 -695.895314216614 2062.99996376038 9 12 5
-526.086926460266 -692.190587520599 2052.00004577637 10 11 5
-519.753396511078 -691.184937953949 2049.00002479553 8 9 3
-514.189124107361 -691.191732883453 2049.00002479553 7 8 2
-506.887555122375 -688.837647438049 2042.00005531311 11 12 6
-503.061473369598 -691.206753253937 2049.00002479553 15 16 10
-508.423984050751 -706.395447254181 2094.00010108948 17 18 12
-518.82416009903 -729.006469249725 2161.00001335144 14 14 12
-531.234323978424 -754.992067813873 2237.99991607666 21 21 19
-620.726466178894 -710.331797599792 2088.99998664856 14 19 13
-605.623483657837 -699.446320533752 2056.99992179871 15 20 14
-597.69594669342 -696.722567081451 2049.00002479553 7 12 6
-588.945865631104 -692.979514598846 2038.00010681152 8 13 7
-583.118796348572 -692.63744354248 2036.99994087219 15 20 13
-575.596630573273 -690.255999565125 2029.99997138977 15 20 13
-570.921242237091 -691.275537014008 2032.99999237061 16 19 12
-567.342698574066 -693.655848503113 2039.99996185303 15 18 11
-560.972690582275 -692.636609077454 2036.99994087219 12 15 8
-550.256669521332 -686.177551746368 2017.99988746643 11 14 7
-545.043587684631 -686.519742012024 2019.00005340576 10 13 6
-545.170366764069 -693.663120269775 2039.99996185303 9 12 5
-539.363920688629 -693.326413631439 2039.00003433228 8 11 4
-538.013935089111 -698.770880699158 2055.0000667572 8 11 4
-533.468306064606 -700.13552904129 2059.00001525879 9 12 5
-524.799406528473 -696.060121059418 2046.99993133545 12 13 7
-517.464220523834 -693.685472011566 2039.99996185303 12 13 7
-512.425899505615 -694.371700286865 2042.00005531311 15 16 10
-510.107398033142 -698.798894882202 2055.0000667572 17 18 12
-509.437143802643 -705.606997013092 2075.00004768372 19 20 14
-531.936645507813 -762.081623077393 2240.9999370575 77 76 72
-618.354678153992 -713.273704051971 2081.00008964539 12 17 11
-608.27761888504 -708.127021789551 2065.99998474121 13 18 12
-595.949292182922 -700.239300727844 2042.99998283386 9 14 8
-586.347818374634 -695.43719291687 2029.00004386902 9 14 8
-578.254342079163 -692.349553108215 2019.99998092651 15 20 13
-571.628272533417 -690.976440906525 2016.00003242493 15 20 13
-567.551910877228 -692.688763141632 2020.99990844727 16 19 12
-563.727200031281 -694.74458694458 2026.99995040894 14 17 10
-552.710235118866 -687.889695167542 2006.99996948242 11 14 7
-544.256508350372 -684.120178222656 1996.00005149841 10 13 6
-539.912402629852 -685.49245595932 2000 10 13 6
-544.633269309998 -698.518812656403 2038.00010681152 9 12 5
-542.270362377167 -702.634274959564 2049.99995231628 8 11 4
-536.962926387787 -702.980279922485 2051.00011825562 10 13 6
-531.391263008118 -702.983975410461 2051.00011825562 11 14 7
-520.436108112335 -695.790469646454 2029.99997138977 14 15 9
-515.429556369781 -696.480751037598 2032.00006484985 14 15 9
-512.670755386353 -700.256407260895 2042.99998283386 16 17 11
-513.327836990356 -708.831369876862 2068.00007820129 17 18 12
-522.687554359436 -729.746401309967 2128.99994850159 16 17 11
-525.889158248901 -742.435932159424 2165.99988937378 13 14 8
-532.251179218292 -759.925007820129 2217.00000762939 11 12 6
-531.452894210815 -767.474472522736 2239.00008201599 117 116 112
-625.49239397049 -727.228403091431 2105.00001907349 17 24 17
-612.404942512512 -718.585193157196 2079.99992370605 8 15 8
-599.162578582764 -709.597527980804 2053.99990081787 11 16 10
-585.195541381836 -699.574410915375 2025.00009536743 11 16 10
-575.967073440552 -695.079505443573 2012.00008392334 14 19 12
-567.377209663391 -691.276371479034 2000.99992752075 14 19 12
-560.532689094543 -689.546883106232 1996.00005149841 11 16 9
-555.940866470337 -690.581679344177 1998.99995326996 12 15 8
-548.579454421997 -688.162684440613 1991.99998378754 9 12 5
-537.984430789948 -681.598722934723 1973.00004959106 8 11 4
-539.911210536957 -690.926671028137 2000 8 11 4
-539.553821086884 -697.491645812988 2019.00005340576 8 11 4
-538.300096988678 -703.020811080933 2035.00008583069 9 12 5
-533.032715320587 -703.368544578552 2036.00001335144 12 15 8
-528.278529644012 -704.40798997879 2039.00003433228 14 17 10
-522.995591163635 -704.756915569305 2039.99996185303 19 20 14
-515.932083129883 -702.688157558441 2033.99991989136 19 20 14
-512.414634227753 -705.456614494324 2042.00005531311 20 21 15
-511.832654476166 -712.371289730072 2062.00003623962 21 22 16
-516.543447971344 -726.887106895447 2104.00009155273 21 22 16
-522.482991218567 -743.476450443268 2151.99995040894 20 21 15
-531.763255596161 -765.248894691467 2214.99991416931 13 12 7
-530.73251247406 -772.511839866638 2236.00006103516 135 132 127
-642.140090465546 -752.457559108734 2161.00001335144 56 62 58
-618.005454540253 -730.861902236938 2098.99997711182 13 20 13
-597.126126289368 -712.749361991882 2046.99993133545 11 18 11
-587.222993373871 -707.521021366119 2032.00006484985 13 18 12
-576.829731464386 -701.597213745117 2015.00010490417 13 18 12
-563.977718353271 -692.540466785431 1988.9999628067 11 16 9
-558.850049972534 -692.885637283325 1990.00000953674 10 15 8
-556.220591068268 -696.365058422089 2000 10 13 6
-548.580288887024 -693.577885627747 1991.99998378754 8 11 4
-540.984153747559 -690.791428089142 1983.99996757507 8 11 4
-539.10094499588 -695.317447185516 1996.99997901917 8 11 4
-537.414908409119 -700.192272663116 2010.99991798401 9 12 5
-533.00803899765 -701.586008071899 2015.00010490417 11 14 7
-529.626965522766 -704.372882843018 2023.00000190735 15 18 11
-526.721119880676 -707.856893539429 2032.99999237061 16 19 12
-522.47953414917 -709.600627422333 2038.00010681152 20 21 15
-514.913558959961 -706.818401813507 2029.99997138977 19 20 14
-510.15168428421 -707.866787910461 2032.99999237061 18 19 13
-507.856011390686 -712.397634983063 2046.0000038147 19 20 14
-511.627733707428 -725.633919239044 2084.00011062622 21 22 16
-518.592119216919 -743.745565414429 2135.99991798401 21 22 16
-530.555903911591 -769.518315792084 2210.00003814697 22 21 16
-529.538214206696 -776.837408542633 2230.99994659424 107 102 96
-647.794544696808 -765.008807182312 2180.0000667572 79 83 82
-614.774107933044 -732.715666294098 2088.00005912781 37 42 38
-592.465102672577 -712.70614862442 2030.99989891052 16 21 17
-581.448793411255 -706.032454967499 2012.00008392334 18 20 15
-573.399186134338 -702.868700027466 2003.00002098084 14 17 10
-566.249966621399 -700.758457183838 1996.99997901917 13 16 9
-556.606590747833 -695.491015911102 1981.99999332428 8 11 4
-561.22899055481 -708.120107650757 2017.99988746643 8 11 4
-559.046924114227 -712.328374385834 2029.99997138977 10 11 6
-548.074722290039 -705.308496952057 2009.99999046326 11 12 6
-543.420672416687 -706.360101699829 2013.00001144409 9 12 3
-541.690409183502 -711.272060871124 2026.99995040894 11 14 7
-533.271729946136 -707.412362098694 2016.00003242493 14 17 8
-526.222169399261 -705.307602882385 2009.99999046326 17 20 11
-525.682747364044 -711.976051330566 2029.00004386902 18 21 14
-521.964132785797 -714.434266090393 2036.00001335144 20 21 15
-516.178667545319 -714.085936546326 2035.00008583069 18 19 13
-508.642315864563 -711.281716823578 2026.99995040894 14 15 9
-506.610691547394 -716.197967529297 2040.99988937378 15 16 10
-507.449269294739 -725.325703620911 2066.99991226196 16 17 11
-516.158759593964 -746.03408575058 2125.99992752075 17 18 12
-527.428805828094 -770.954191684723 2197.00002670288 18 17 12
-528.107285499573 -780.785858631134 2224.99990463257 52 45 39
-615.371346473694 -739.108324050903 2089.99991416931 59 63 62
-589.847028255463 -715.052604675293 2022.0000743866 12 17 13
-581.455230712891 -711.508929729462 2012.00008392334 11 13 8
-577.412605285645 -713.270425796509 2016.99995994568 13 16 9
-569.657444953918 -710.435748100281 2009.0000629425 12 15 8
-563.350558280945 -709.369897842407 2006.00004196167 8 11 4
-560.95427274704 -713.255524635315 2016.99995994568 8 11 4
-558.223485946655 -716.788291931152 2026.99995040894 11 12 7
-553.257524967194 -717.492759227753 2029.00004386902 11 12 6
-546.121537685394 -715.369045734406 2023.00000190735 14 16 5
-536.880850791931 -710.416972637177 2009.0000629425 15 17 6
-531.684517860413 -710.769772529602 2009.99999046326 18 20 9
-525.697886943817 -710.062444210052 2007.99989700317 17 19 8
-523.60874414444 -714.659929275513 2020.99990844727 17 19 8
-522.731423377991 -721.026301383972 2039.00003433228 15 17 6
-519.220054149628 -723.856925964355 2046.99993133545 14 16 5
-511.399745941162 -720.676720142365 2038.00010681152 13 14 6
-507.84832239151 -723.508477210999 2046.0000038147 13 14 6
-507.936239242554 -731.645107269287 2069.00000572205 15 16 8
-513.483464717865 -747.915804386139 2115.00000953674 16 17 9
-523.582398891449 -771.259725093842 2180.99999427795 18 18 10
-526.20255947113 -783.995568752289 2217.00000762939 33 30 25
-588.980138301849 -719.489455223084 2019.00005340576 21 26 22
-582.618534564972 -718.412041664124 2016.00003242493 11 13 8
-577.991843223572 -719.473600387573 2019.00005340576 11 14 7
-570.797443389893 -717.328786849976 2013.00001144409 11 14 7
-567.28732585907 -719.817399978638 2019.99998092651 9 12 5
-561.792969703674 -719.812214374542 2019.99998092651 9 12 5
-551.624298095703 -720.873117446899 2023.00000190735 13 14 8
-545.583784580231 -720.157504081726 2020.99990844727 16 18 7
-534.744381904602 -713.028490543365 2000.99992752075 17 19 8
-530.891835689545 -715.16489982605 2006.99996948242 17 19 8
-526.7453789711 -716.945707798004 2012.00008392334 16 18 7
-523.608386516571 -720.152318477631 2020.99990844727 15 17 6
-518.115758895874 -720.15255689621 2020.99990844727 14 16 5
-518.964827060699 -729.061901569366 2046.0000038147 14 16 5
-511.146605014801 -725.856363773346 2036.99994087219 14 16 5
-507.597386837006 -728.709042072296 2045.00007629395 15 16 8
-506.705462932587 -735.482096672058 2063.99989128113 17 18 10
-513.722360134125 -754.014909267426 2115.9999370575 19 20 12
-517.816364765167 -768.628656864166 2157.00006484985 19 18 13
-523.111939430237 -785.381138324738 2203.9999961853 24 23 18
-595.369040966034 -726.076185703278 2022.0000743866 67 72 68
