ply
format ascii 1.0
comment KinectMotionCapture
element vertex 753
property float x
property float y
property float z
property uchar red
property uchar green
property uchar blue
end_header
-1170.26778866288 454.995473971363 2906.57776447169 205 206 208
-1188.88530589081 457.44117589372 2914.90020292621 189 190 192
-1202.37587129402 459.041652130484 2923.13524478236 155 159 158
-1404.29516559342 507.622170282033 2612.4445308449 203 209 207
-1392.61026701706 504.979376616054 2621.94447250964 185 191 189
-1379.89930826713 502.170154196479 2631.42702885665 193 197 196
-1349.05643698755 496.326925298358 2641.81224691023 189 193 192
-1326.22040851939 491.83816582896 2651.60802299491 157 161 160
-1312.41640648026 488.87046360261 2660.82765934804 145 149 148
-1295.56399694557 485.40010023024 2670.10262140665 140 144 143
-1272.63004842246 480.922770405923 2679.54205559867 130 135 131
-1252.68925687933 476.954549492136 2688.72510053064 126 131 127
-1247.87235464076 475.512934670672 2697.20775623452 118 123 119
-1242.03421745299 473.904470062017 2705.68881786943 118 123 119
-1240.23154847269 472.969490470221 2713.99177465112 118 123 117
-1232.3473873015 471.027542624508 2722.45937617862 116 121 115
-1224.44852908213 469.087312617831 2730.87349500041 124 129 123
-1217.54892196352 467.316565116484 2739.20831930848 125 130 124
-1209.62142724791 465.379683167641 2747.51823022078 131 136 132
-1201.67929806499 463.444515430442 2755.77488848772 132 138 134
-1192.70618099283 461.343510516978 2763.99623928541 133 139 135
-1179.64992574741 458.57466735737 2772.22134174929 137 143 139
-1172.67702113049 456.812498169033 2780.28944270985 128 134 130
-1156.52665857836 453.546430827895 2788.40270002954 116 122 118
-1140.34998870533 450.283380870772 2796.42111746366 125 130 126
-1129.24589941585 447.85894116888 2804.31902705276 132 137 133
-1129.34769596396 447.274008107766 2812.12032233964 115 120 116
-1129.4460912315 446.689414349487 2819.91013257893 157 162 158
-1124.43220653438 445.27093526876 2827.67510869474 123 128 124
-1119.40807458489 443.853666606756 2835.40280296591 128 132 131
-1117.44348917015 442.937691460193 2843.11659417311 129 133 132
-1117.52074060628 442.355608078829 2850.82948643103 130 134 133
-1116.57024318061 441.607395866948 2858.51798393602 132 136 135
-1117.66614798595 441.192626756302 2866.22132056792 174 178 179
-1120.81241430103 441.110752660276 2873.95477934198 172 176 177
-1124.98694935177 441.195059107407 2881.71366668489 169 173 174
-1128.13633524265 441.112860320852 2889.45850283992 181 182 186
-1138.48473859226 442.193267216927 2897.3897874801 190 191 195
-1149.87348824441 443.438436162821 2905.39044676539 208 209 211
-1166.42318341086 445.511825913254 2913.59304954171 195 196 198
-1185.05356994873 447.914642508953 2921.93526464907 173 177 178
-1406.89209895477 500.259494893682 2594.05824728076 200 205 201
-1397.23388552209 497.984730648816 2603.52258740588 196 201 197
-1388.56253296747 495.878307601703 2612.85998096447 178 182 181
-1377.86473052715 493.441379775714 2622.25846964666 161 165 164
-1366.14211283417 490.84057609964 2631.64487790556 192 196 195
-1338.29441472224 485.585872125091 2641.83318956695 180 184 183
-1324.50502084879 482.659332225423 2651.13305091432 148 152 151
-1302.62830585173 478.408661361569 2660.74456619403 141 145 144
-1285.76026625217 474.990882345628 2669.99469589504 131 135 134
-1266.84598569724 471.244984883934 2679.23301794012 129 133 132
-1248.91123413665 467.668226127112 2688.31860409823 123 127 126
-1240.04485912912 465.584484764852 2696.94623754096 120 124 123
-1236.21987824593 464.32974654846 2705.33243752461 119 124 120
-1236.43482089332 463.737428480637 2713.55008861792 122 127 123
-1226.5171733422 461.492900069346 2722.06936100895 121 126 122
-1213.54070503995 458.754832463598 2730.61105585112 125 130 126
-1205.61444416945 456.844813604144 2738.94250773682 129 134 130
-1199.70385316615 455.266546286554 2747.17362754396 136 141 137
-1194.79693732268 453.854534872931 2755.34077041697 141 146 142
-1185.81382852368 451.784399058361 2763.54358400173 138 143 139
-1170.71109861908 448.727565275195 2771.78227474204 137 142 138
-1160.67342426939 446.496983633659 2779.86564543738 121 126 122
-1146.54362316233 443.610069953095 2787.92758838718 116 121 117
-1134.4294603558 441.054911465239 2795.88908436251 118 123 119
-1129.43574047443 439.65311980845 2803.73946405289 126 131 127
-1129.53568052506 439.074239560597 2811.5386169804 104 109 105
-1130.65412925233 438.660025842902 2819.32600542199 151 156 152
-1125.6373906374 437.260939742431 2827.09262921282 118 123 119
-1120.61029483922 435.863073164338 2834.82156875477 125 130 126
-1118.64400339153 434.958444243275 2842.5361892088 130 134 133
-1115.64715616204 433.890570983139 2850.21874350551 128 132 131
-1114.69322415255 433.151276541322 2857.90011928706 126 130 129
-1114.76072046061 432.576312763806 2865.58035858908 157 161 160
-1118.93092849107 432.656388307384 2873.32143840524 169 173 172
-1122.07658461333 432.572590037372 2881.05141683025 161 165 166
-1124.19554256993 432.325164373966 2888.76248080762 174 175 179
-1130.42917347482 432.731519047439 2896.57614208479 181 182 186
-1137.69732211175 433.300549890937 2904.43807879688 203 204 206
-1150.12297353695 434.685115535188 2912.48023853188 210 211 213
-1171.83999172541 437.53668118712 2920.87593848099 195 199 200
-1210.088243743 442.994650042586 2929.948644879 173 177 178
-1399.83435686986 490.619463588046 2585.14780344559 189 194 190
-1387.1658971156 487.885814392993 2594.83586321161 187 192 188
-1373.47149249457 484.991057390349 2604.50939611566 191 196 192
-1366.78733736171 483.244119466396 2613.65825451759 154 156 153
-1347.01822240429 479.373204462242 2623.54106384445 184 186 183
-1334.2605505389 476.649903781876 2632.90443003734 161 163 160
-1321.48118141122 473.929186427728 2642.18794050237 149 151 148
-1315.73312287582 472.35370447147 2651.02519906117 142 147 143
-1293.83969705711 468.168996652516 2660.61538692617 141 146 142
-1278.97495083829 465.129902448315 2669.74886428971 132 137 133
-1262.06578887634 461.767670541953 2678.88138425594 130 135 131
-1245.12900359024 458.408649657812 2687.91337150499 123 128 124
-1230.18717988332 455.378518590527 2696.76633411741 120 125 121
-1226.35178419337 454.141473593982 2705.12503653756 119 124 120
-1222.50766569581 452.905507752762 2713.45110518236 127 129 126
-1219.6676256625 451.833115579558 2721.71300085994 124 126 123
-1206.67951919164 449.136660690236 2730.23682853125 129 134 130
-1202.80254632734 447.90444957439 2738.44421491116 137 142 138
-1194.8546301499 446.023962711496 2746.71390984313 142 147 143
-1186.89204931966 444.145184525351 2754.93023656248 144 149 145
-1173.83003050038 441.457269026075 2763.18596251687 145 150 146
-1157.69348578038 438.285685345588 2771.41017477611 138 143 139
-1147.64088313843 436.089096377721 2779.45958084278 112 117 113
-1135.53278774254 433.570737385177 2787.46683719954 115 117 114
-1127.48344954322 431.702072550935 2795.36743585241 118 123 119
-1124.52195650097 430.643831726494 2803.18733473273 124 129 125
-1126.65923799519 430.394808557189 2810.96542183234 97 102 98
-1127.77436041338 429.984254176281 2818.74277065394 141 146 142
-1124.7969536249 428.927880934083 2826.50476400715 112 117 113
-1122.83564855497 428.033822422591 2834.24457150773 124 129 125
-1117.79610174197 426.656464192562 2841.94023076935 131 135 134
-1115.82066699524 425.76406331637 2849.62862409348 129 133 132
-1111.78816935722 424.550018132275 2857.27004648892 124 128 127
-1113.90418158205 424.303514431815 2864.97075562068 153 157 156
-1113.96603504941 423.735030545868 2872.63506424793 173 177 176
-1116.08014968284 423.488769778929 2880.32888137029 161 165 164
-1120.2508351618 423.564228279444 2888.06788987736 169 170 174
-1127.51116642489 424.121609881527 2895.89344749137 176 177 181
-1135.80832513659 424.838894738503 2903.77224734676 199 200 202
-1143.08343387445 425.394644791664 2911.6507117312 208 209 211
-1163.77092658044 428.036094074372 2919.98857827639 200 204 205
-1192.73941089721 431.957966866717 2928.70718587353 175 179 180
-1400.79833934045 482.29908402906 2575.6811885788 183 188 184
-1388.13658997898 479.604974188047 2585.41819677377 172 177 173
-1371.4377167186 476.26912038066 2595.34813122427 194 199 195
-1358.72918416803 473.58043027516 2604.91486434461 154 159 155
-1352.02959045794 471.859633739885 2614.02383566201 174 176 173
-1330.22838999776 467.728187139778 2623.99006455288 192 194 191
-1321.47806665638 465.690247097807 2633.07842066491 155 157 154
-1307.67500901435 462.8509677654 2642.38357189411 152 154 151
-1299.89693284058 460.977787886234 2651.28846271896 140 145 141
-1287.06044008897 458.303927705574 2660.38946753056 137 142 138
-1272.1830028219 455.311795931091 2669.50547513896 130 135 131
-1256.27045004507 452.162196694014 2678.5761344311 128 133 129
-1240.331985579 449.015670007885 2687.55159952501 120 125 121
-1227.40199667381 446.352592519767 2696.31320809322 118 123 119
-1218.49964726377 444.332346890694 2704.8473635121 119 124 120
-1211.60715711724 442.633913947855 2713.25426736917 127 129 126
-1208.75642745062 441.576607577382 2721.48599891946 125 127 124
-1202.85493590359 440.040760684982 2729.77768526005 140 142 139
-1194.91111035508 438.18680651016 2738.07931924572 143 145 142
-1186.95265213479 436.334554605521 2746.32769971328 149 151 148
-1175.92959893525 434.005301655482 2754.58657635373 145 147 144
-1163.87037770528 431.518775998975 2762.79539081131 145 147 144
-1147.71835867311 428.396985055512 2770.9945155323 129 131 128
-1137.65318649059 426.234175447755 2779.0176508555 109 110 105
-1129.60938059036 424.39184136383 2786.95541370795 109 110 105
-1124.611301272 423.028632867061 2794.81489607307 112 114 109
-1121.64509670432 421.984813441571 2802.6254778767 105 110 104
-1122.75785670187 421.577799698136 2810.39629086665 103 108 104
-1124.89118816965 421.329879630667 2818.16040873302 133 138 134
-1122.93176890899 420.446690637125 2825.91500934094 116 121 117
-1121.99054955605 419.723003922504 2833.65250960404 125 130 126
-1117.97107422241 418.523845663685 2841.35168008863 125 130 126
-1114.96786164638 417.484278502368 2849.02847209011 132 136 135
-1110.9314167404 416.287099106156 2856.66588722882 116 120 119
-1113.04592894694 416.041391684253 2864.36152981525 148 152 151
-1113.10567374111 415.479095213654 2872.02098673989 172 176 175
-1115.21827423034 415.233621527806 2879.70967906336 162 166 165
-1119.38802403448 415.304470437723 2887.44323236154 157 158 160
-1121.50156972833 415.058899168037 2895.1353724352 162 163 165
-1129.79611070923 415.761309560927 2902.99506221126 185 186 188
-1135.00622924979 415.989035520933 2910.79309527109 192 193 195
-1151.56808450938 417.952363014343 2918.97135854266 199 203 204
-1180.53767528495 421.806331610871 2927.65120305009 186 190 193
-1376.07029748969 469.251281678497 2576.94394955664 146 151 147
-1369.40413751436 467.551033241445 2586.19002677184 183 188 184
-1351.67908853946 464.110170088972 2596.13999490038 166 171 167
-1341.9637300891 461.939031355036 2605.45759049772 113 118 114
-1328.20847117285 459.13708742904 2614.96378064849 180 182 177
-1310.40469360581 455.705338206215 2624.62719900288 173 175 170
-1300.62806955321 453.541355915569 2633.72091660797 147 149 144
-1288.81802239336 451.063434361076 2642.86122675318 153 155 150
-1284.04684229805 449.693080961203 2651.5577015222 140 142 139
-1273.21020445342 447.37714144616 2660.51710724489 133 135 132
-1265.38420625583 445.536552651668 2669.26464929243 128 133 129
-1245.41624360284 441.806073555573 2678.49783997917 126 131 127
-1233.50700217219 439.33970365905 2687.27622532807 118 123 119
-1222.58925183016 437.033157845907 2695.94040693713 119 124 120
-1214.69077475807 435.200963329099 2704.42414883666 129 131 128
-1204.7508212915 433.055893466048 2712.92339665609 129 131 128
-1200.87815058062 431.856131487112 2721.16724277476 129 131 128
-1199.02636494041 430.971693052531 2729.31974806561 140 140 138
-1193.10591373276 429.459722181316 2737.55704399465 135 135 133
-1178.02697921304 426.536428029022 2745.96839226727 148 148 146
-1159.87229636818 423.145329095531 2754.35463256528 145 145 143
-1149.83051466592 421.011995643339 2762.48415088129 134 135 130
-1140.78984244793 419.037437859877 2770.53358573875 115 116 111
-1135.80974817814 417.691285239659 2778.46968222931 111 112 107
-1125.71979380073 415.563535834382 2786.42387031897 105 106 101
-1119.69496924725 414.063729597335 2794.28039956223 119 121 116
-1115.70085671498 412.878044562672 2802.08224344573 102 107 101
-1118.85205138141 412.787529429668 2809.82854472406 115 120 114
-1122.00433509803 412.696888342571 2817.57880991145 128 133 129
-1122.08763203229 412.137724920233 2825.32768935879 117 122 118
-1119.09500061162 411.110713988488 2833.05169446234 124 129 125
-1115.07015557614 409.928598665537 2840.74168831391 123 128 124
-1113.08774027934 409.059312430664 2848.41875759823 131 135 134
-1111.09937404333 408.190718513337 2856.07416930468 108 112 111
-1113.21305009851 407.945724272263 2863.76715769006 143 147 146
-1110.18797123727 406.922551261056 2871.37218584589 167 171 170
-1112.29762150588 406.678029391808 2879.05052550562 163 167 166
-1115.43613835526 406.589005333174 2886.75069792029 156 158 157
-1118.57585432381 406.499845298217 2894.45523658113 157 159 158
-1123.77804521307 406.721193769406 2902.21980941289 174 175 177
-1131.04702028812 407.25254965091 2910.06009950655 187 188 190
-1145.54671873998 408.86911231705 2918.15661935522 201 205 206
-1173.4890385389 412.499623237649 2926.77764897181 196 200 203
-1365.01282636422 459.10945524901 2568.4526991071 139 144 140
-1353.32695535897 456.654763132301 2578.06871682743 137 142 138
-1344.63232810172 454.669816440195 2587.39638978807 160 165 161
-1337.93043976615 452.998111884033 2596.52783571641 118 122 121
-1330.21001428295 451.172350007197 2605.67670950042 180 185 181
-1314.42704573387 448.104082656051 2615.27890930486 126 131 127
-1297.61096586389 444.88337831824 2624.84637793272 122 127 123
-1290.8414144877 443.219498540945 2633.73154440859 138 143 139
-1277.00162540967 440.470203657045 2642.95713048513 158 163 159
-1266.16508490612 438.189201440271 2651.93895519727 128 133 129
-1257.32869194927 436.220649192752 2660.75063049471 123 128 124
-1246.45551847822 433.943882746235 2669.599118422 131 136 132
-1236.57423990088 431.824254817318 2678.333206333 122 127 123
-1226.67562172951 429.706696638394 2687.00329343909 120 125 121
-1222.83378003704 428.519844962852 2695.36975255051 129 134 130
-1212.90404682533 426.405819700542 2703.92747513133 136 141 137
-1204.98457820966 424.603074771497 2712.35187247176 134 139 135
-1191.97770532643 422.029365814792 2720.88351948811 125 130 126
-1187.07116048747 420.693794454579 2729.09937105368 134 139 135
-1177.07412742452 418.58755083822 2737.41213540113 124 126 123
-1164.00938691908 416.020467739611 2745.73404352036 137 139 136
-1148.88812730737 413.147517196801 2754.02003134143 142 144 141
-1143.92367370209 411.818641356656 2762.02510620833 110 112 109
-1139.96765592666 410.64499099222 2769.97598651838 98 100 97
-1132.94422104923 409.010532244009 2777.93617918898 129 131 128
-1122.84647514074 406.915932509624 2785.88236781763 89 89 87
-1118.85732838474 405.746112097729 2793.71266474743 120 122 119
-1117.92443042109 405.038456079739 2801.49211066315 99 101 98
-1120.05428400148 404.792212267111 2809.24437411488 123 125 122
-1121.1607550882 404.392470619682 2816.9964288322 124 126 123
-1119.19389989934 403.532539110466 2824.73717583165 119 121 118
-1115.17179788305 402.366527882545 2832.4475212584 119 124 120
-1110.11565969033 401.048250520149 2840.11888054586 123 127 126
-1107.10112550674 400.037564592019 2847.77187173613 110 114 113
-1107.15956082244 399.487174466438 2855.43398386679 109 113 112
-1106.18731558912 398.784065320685 2863.07021173918 133 139 137
-1104.18219592306 397.928490888368 2870.67257008722 167 173 171
-1105.25798477432 397.532294071512 2878.31294569826 164 170 168
-1110.45032203093 397.747490511049 2886.03704985254 156 160 161
-1110.49522523612 397.198597830392 2893.6507943399 154 158 159
-1114.66122867061 397.260636755581 2901.36394691619 149 153 154
-1119.86147356847 397.474917395831 2909.11683240486 168 172 173
-1137.45464124445 399.518374795531 2917.27842599047 180 184 185
-1161.26806502803 402.473766459788 2925.72964954773 195 199 200
-1195.44938960904 406.948761089829 2934.66919258531 193 197 198
-1365.33737950619 450.126530741978 2567.88360244761 142 147 143
-1341.60293663076 445.872110394578 2578.38801176059 151 156 152
-1324.86064384291 442.693724608139 2588.25522605793 111 116 112
-1322.1597501575 441.660624801296 2597.05855199646 184 188 187
-1312.41155121225 439.557925282132 2606.29742621019 177 181 180
-1297.61390882012 436.693061407946 2615.79004683953 121 126 122
-1278.76311565811 433.220019017078 2625.43635153896 137 142 138
-1274.99899354887 432.040665799378 2634.09610236398 142 147 143
-1262.14890610064 429.488985204139 2643.22469954809 147 152 148
-1257.35113340111 428.159958653981 2651.84853279908 123 128 124
-1245.47313319836 425.765128279605 2660.78807701321 123 128 124
-1235.59589232214 423.677335954956 2669.557255451 127 132 128
-1230.75818847311 422.352923128705 2678.03574503387 119 124 120
-1221.8616679128 420.420985274997 2686.64729473582 124 129 125
-1218.01302728229 419.251398923073 2694.99941114431 130 135 131
-1204.01993065212 416.562665784779 2703.69403184295 136 141 137
-1197.10361048991 414.940205016622 2712.05949535375 135 140 136
-1181.03893126098 411.952541938362 2720.66757695847 136 141 137
-1171.04232515806 409.878527720442 2729.00227447977 132 137 133
-1158.99554403722 407.503177987949 2737.32746728265 120 125 121
-1146.92835616786 405.13018117706 2745.57837933943 139 141 138
-1137.89435263042 403.214106909823 2753.68949713122 138 140 137
-1138.01103140536 402.662838256016 2761.56823017641 99 101 98
-1138.12449051788 402.111941069652 2769.43524377114 106 108 105
-1133.13502032509 400.80504016217 2777.3613107738 119 121 118
-1122.01098485027 398.592160687138 2785.31873213804 88 88 86
-1118.01787005348 397.439241072032 2793.1449667884 114 116 113
-1118.1045689058 396.891490207888 2800.91368218254 95 97 94
-1120.23361465574 396.645977511734 2808.66340790679 121 123 120
-1118.26819148638 395.797047799876 2816.41641767288 121 123 120
-1118.34516270276 395.250349861168 2824.1506100458 117 119 116
-1114.31912690564 394.101217867 2831.85700677989 120 125 121
-1109.2586370874 392.802495532564 2839.52455535563 123 127 126
-1104.18787342237 391.504954199032 2847.15470477396 104 108 107
-1105.26963578514 391.111318696082 2854.818875942 106 110 109
-1103.2659361017 390.266722970226 2862.43343778769 133 139 137
-1101.25652988524 389.422846721273 2870.02633761228 164 170 168
-1100.27037331687 388.729844920498 2877.61729667267 154 158 159
-1104.42967104763 388.788003444935 2885.30310240339 151 155 156
-1109.6221770209 388.995889169358 2893.02321736675 148 152 153
-1115.85008498227 389.353249278731 2900.78562689597 144 148 149
-1123.11573707139 389.859877796359 2908.59796783108 160 164 165
-1135.55234243412 391.114657164971 2916.59885712917 177 181 182
-1154.20396672888 393.266068798771 2924.86212895611 185 189 190
-1181.15257434174 396.611973544266 2933.51033493278 196 200 201
-1360.64501142004 440.39619059082 2567.69831239174 148 153 149
-1331.87617579645 435.460320410809 2578.5633073388 141 146 142
-1313.10885033414 432.033699486437 2588.54881933171 131 136 132
-1305.36982790266 430.264163201041 2597.66414418666 104 108 107
-1296.6098132822 428.346064777172 2606.79218020279 121 125 124
-1288.84054997893 426.58002599966 2615.7974347712 122 127 123
-1275.01141273155 423.915224395939 2625.11591364106 110 115 111
-1273.25772037691 423.053066891766 2633.64668708855 149 154 150
-1259.39048381382 420.392660833023 2642.82648578343 146 151 147
-1255.59648714946 419.233244231473 2651.38790517631 112 117 113
-1242.70028989806 416.727168584991 2660.37316925322 125 130 126
-1229.78197536818 414.223576982793 2669.27881352802 119 124 120
-1224.93634313963 412.919196374438 2677.74051388538 113 118 114
-1214.00514501078 410.719002680546 2686.42191165818 132 137 133
-1211.16092750451 409.716375334221 2694.71141403435 132 137 133
-1194.11368778718 406.623880583967 2703.50157627681 135 140 136
-1187.18551863281 405.027101823649 2711.84019009984 129 134 130
-1174.15203153349 402.536843057081 2720.32570982945 128 133 129
-1165.16078630659 400.645415399906 2728.61207044973 124 129 125
-1151.06953598892 398.010820170092 2736.97644558555 116 121 117
-1134.92012442214 395.081072522997 2745.30556837573 133 135 132
-1129.94518871369 393.7915851312 2753.29659305227 141 143 140
-1132.09255279065 393.544612726966 2761.11340955118 109 111 108
-1137.29858408804 393.743720601497 2768.87819951719 117 119 116
-1132.30472581713 392.456410867372 2776.80034328709 113 115 112
-1123.21599603949 390.576198213855 2784.7318434431 88 88 86
-1122.28580300517 389.885312189096 2792.53191992711 103 105 102
-1121.35106519879 389.194946374328 2800.31545099656 88 90 87
-1121.43507751898 388.653407419352 2808.07811369766 116 118 115
-1115.37198513551 387.2230644206 2815.83734646319 115 117 114
-1114.420598672 386.534606054195 2823.5602685948 114 116 113
-1113.46487937818 385.846704678714 2831.26652640908 121 126 122
-1109.42608865915 384.715460732006 2838.9368601947 127 131 130
-1103.32474409886 383.289498463786 2846.55683588883 103 107 106
-1102.3494195631 382.603774356216 2854.19260691782 108 112 111
-1097.25669443754 381.327796171305 2861.75483158074 133 139 137
-1097.29857519508 380.791064954813 2869.36410340166 154 160 158
-1098.36672204239 380.402163337715 2876.98164057958 158 162 163
-1106.64599631394 381.045615186683 2884.7474247179 151 155 156
-1107.71609347986 380.656534856952 2892.37116119422 150 154 155
-1111.87968244426 380.709462123319 2900.07052571444 145 149 150
-1111.91621955678 380.173303796069 2907.66031932104 150 154 155
-1124.3481892723 381.402906033791 2915.62810184714 176 180 181
-1137.82808463933 382.77790676385 2923.68210354157 173 177 178
-1174.085762957 387.38415638241 2932.62003878655 191 195 196
-1367.63955567735 433.039353302989 2557.84961225591 155 160 156
-1344.90800449206 429.071407314546 2568.36210638185 150 155 151
-1327.16185387436 425.846694610487 2578.37019432398 134 139 135
-1309.38663339033 422.625324124484 2588.27246165148 112 117 113
-1298.62259229105 420.440791684204 2597.58436840882 111 115 114
-1284.82002449192 417.815785271885 2607.02661903312 114 119 115
-1279.05178352124 416.373294186009 2615.87197861626 120 125 121
-1272.26358251202 414.784762595684 2624.73547356062 111 116 112
-1269.49674500619 413.787044385016 2633.31537208361 152 157 153
-1258.64742985728 411.612352652143 2642.31688591544 132 137 133
-1254.84945853972 410.46988082411 2650.87424624294 119 124 120
-1241.94544412488 408.00485880521 2659.85733485788 127 132 128
-1233.06569789971 406.130310614087 2668.56739720708 118 123 119
-1224.16980642675 404.257622480721 2677.2186897587 114 119 115
-1212.21871816004 401.946301789096 2685.94052498062 133 138 134
-1203.28838993403 400.077580191442 2694.46646488058 132 137 133
-1190.28430277758 397.624070708203 2703.08527143196 137 142 138
-1182.33385642772 395.905947314827 2711.44808012444 124 129 125
-1172.33728957918 393.896551919994 2719.82279130912 123 128 124
-1164.35602141268 392.181973366476 2728.07340266367 123 128 124
-1150.25678387696 389.591112212747 2736.43573423043 120 122 119
-1139.18813347059 387.441646892444 2744.63882587615 128 130 127
-1133.19361662732 386.025156136493 2752.66141176291 132 134 131
-1137.38109087035 386.070854802906 2760.4439648592 131 133 130
-1137.49060892051 385.532243797301 2768.30410291314 110 112 109
-1135.55552194847 384.702183712612 2776.18165832893 101 103 100
-1126.46392452948 382.851978312718 2784.12052748118 85 85 83
-1123.48934299741 381.878102689773 2791.94509513572 102 104 101
-1120.50755717283 380.9051089359 2799.74254240759 89 91 88
-1120.58901825251 380.369704949885 2807.50053517347 115 117 114
-1115.54568844264 379.107138237172 2815.25462226379 115 117 114
-1113.56730111239 378.282026483612 2822.97453605336 114 116 113
-1110.55697916381 377.312226651974 2830.66897978758 120 125 121
-1109.59228023425 376.633812235255 2838.34881656594 125 129 128
-1102.46002023208 375.084856078403 2845.95894473758 107 111 110
-1099.42607725915 374.117744811427 2853.56738565699 109 113 112
-1092.27020415264 372.571422230994 2861.09243472506 130 136 134
-1096.42424897589 372.620886085602 2868.75324808036 148 154 152
-1100.58093099742 372.670035909056 2876.42365457322 155 159 160
-1108.86299515464 373.297922070028 2884.19089867217 148 152 153
-1108.90188393404 372.767371296665 2891.79296387293 151 155 156
-1109.96986288772 372.38175462009 2899.41102261169 146 150 151
-1105.87150963523 371.273671449344 2906.87483488599 146 150 151
-1113.13419893312 371.755443927627 2914.66141177846 168 172 173
-1127.64440137857 373.246968500056 2922.7170593676 168 172 173
-1161.83721688219 377.477828900915 2931.54513237695 155 159 160
-1355.92413636995 422.317918150388 2558.23948473157 160 165 161
-1337.18930606079 418.99967440345 2568.41406853547 157 162 158
-1317.41899335396 415.539811956214 2578.55194791907 125 130 126
-1301.63844965298 412.66376635473 2588.28543848159 133 138 134
-1285.83190232511 409.790785885243 2597.92338881542 126 130 129
-1277.04726827911 407.934931227807 2606.99838616293 121 126 122
-1272.27654111737 406.660065729652 2615.75775767027 119 124 120
-1269.51232126412 405.675881631228 2624.35591975424 108 113 109
-1262.70417854552 404.114046454367 2633.162229758 134 139 135
-1253.86338959988 402.264671949981 2642.03282619862 117 122 118
-1248.03758223811 400.850526459521 2650.68327800188 125 130 126
-1239.1665850923 399.004638463584 2659.4439185148 125 130 126
-1233.31513767284 397.593512446128 2668.00015112387 116 121 117
-1223.40121115711 395.606848977434 2676.69697043787 123 128 124
-1211.44318136983 393.333960414447 2685.41636816599 131 136 132
-1197.43656129508 390.77528996832 2694.14289374036 135 140 136
-1189.49522191263 389.08313715041 2702.55591127972 136 141 137
-1179.50816425739 387.104873896914 2710.98651246212 119 124 120
-1171.53603655864 385.416249407983 2719.28744661958 121 126 122
-1162.53241283116 383.585592026728 2727.56528644166 123 128 124
-1149.44202387307 381.18217712379 2735.89529841379 116 118 115
-1140.40333565017 379.35553541219 2744.04548592042 126 128 125
-1137.4626352445 378.391599786973 2752.00212315094 121 123 120
-1138.59370811012 378.002141136824 2759.85201159764 127 129 126
-1138.7023045994 377.469555964641 2767.71253247247 122 124 121
-1134.72326771792 376.364421820031 2775.62027588516 87 89 86
-1126.64754009736 374.687663646773 2783.54405560851 80 80 78
-1124.69268447384 373.870975721392 2791.35758539971 99 101 98
-1123.75530135666 373.197996651003 2799.14227202881 88 90 87
-1121.78936012113 372.382630462681 2806.91454856846 114 116 113
-1115.7184345276 370.996649906024 2814.67177726131 114 116 113
-1111.6865778739 369.897473078872 2822.38810137305 115 117 114
-1109.69834141426 369.084642119793 2830.07920072632 119 124 120
-1106.67705871541 368.129874602524 2837.74243995936 120 124 123
-1103.6486187978 367.17598531521 2845.37873128788 108 112 111
-1097.52754413067 365.795631533977 2852.95424777336 105 109 108
-1088.30793003225 363.989615140476 2860.44571471078 130 136 134
-1088.33994348955 363.465695827309 2868.02736896745 143 149 147
-1096.6126891709 364.079541084088 2875.7502216775 151 155 156
-1103.86266921822 364.550329293186 2883.48174769852 147 151 152
-1101.83230769686 363.742157378078 2891.0203154529 151 155 156
-1100.829022261 363.076641298716 2898.56410240857 146 150 151
-1097.75429379581 362.127870920913 2906.03269426619 147 151 152
-1107.08064101584 362.881134690971 2913.85906415549 165 169 170
-1120.55570214078 364.19999500322 2921.8596731357 170 174 175
-1153.72007160958 368.207582286152 2930.62375599131 150 154 155
-1363.92334596791 415.072791777579 2548.2951181359 154 159 155
-1346.20552674254 411.951657601134 2558.47378904488 163 168 164
-1328.45833073283 408.83384165149 2568.54641368851 131 136 132
-1318.72344220369 406.858914513253 2577.91444663834 120 125 121
-1303.94155768386 404.174237437192 2587.57933367048 125 130 126
-1287.12163474491 401.207865389261 2597.29310582984 111 115 114
-1277.3250158025 399.239983895026 2606.43732312731 117 122 118
-1270.53500671063 397.700508237463 2615.3241473405 122 127 123
-1264.74010531448 396.304537365475 2624.10082143936 120 125 121
-1251.86752282901 393.916390111256 2633.24821632702 129 134 130
-1246.04381794958 392.523743285189 2641.92004736641 113 118 114
-1239.19745945708 390.990698151437 2650.60264621782 120 125 121
-1234.36104449313 389.74260091439 2659.13410284623 123 128 124
-1230.52643335538 388.637313367031 2667.57890291078 116 121 117
-1222.63081330765 386.966929215017 2676.17541097522 126 131 127
-1209.65195964928 384.590982492801 2684.93594460373 131 136 132
-1191.57891309166 381.510672183003 2693.82150010295 136 141 137
-1184.64351496188 379.987859940882 2702.17997274454 132 137 133
-1173.63143948924 377.90173434344 2710.63310541593 116 121 117
-1165.6501602005 376.241174071346 2718.91777979076 121 126 122
-1152.56759048354 373.87703858275 2727.30162203859 121 126 122
-1144.55341012136 372.220236548952 2735.46651393107 113 115 112
-1140.59969135337 371.128666543866 2743.47682222455 126 128 125
-1141.73391644521 370.742067493679 2751.34114869361 122 124 121
-1140.82616846209 370.074260944082 2759.239130426 102 104 101
-1137.87218811318 369.125725061736 2767.15525539904 132 134 131
-1130.82419963727 367.615779208376 2775.10382531683 91 93 90
-1126.82992032938 366.528777562491 2782.96735352064 71 71 69
-1125.89580723134 365.863962503739 2790.76933541946 97 99 96
-1128.02835976276 365.620604004176 2798.53344118299 83 85 82
-1126.06285516068 364.816361504079 2806.31436177147 108 110 107
-1119.99075629774 363.452211533675 2814.08101703428 112 114 111
-1113.90669187996 362.089351652807 2821.80499005468 116 118 115
-1107.81117938593 360.7278518194 2829.48638825196 116 121 117
-1104.78565659935 359.787359195504 2837.14289729067 115 119 118
-1101.75294613229 358.847741103815 2844.77234299186 103 107 106
-1095.62645800308 357.4896722043 2852.34182986135 97 101 100
-1091.54746319245 356.412305777754 2859.89598015788 138 144 142
-1088.4895537912 355.475450515633 2867.43454048372 143 149 147
-1096.76389658305 356.073929327874 2875.15362138341 147 151 152
-1098.85713219622 355.834915843921 2882.77449435078 146 150 151
-1098.88543095676 355.317238897504 2890.34629777001 148 152 153
-1100.97679387767 355.078405895769 2897.96033174506 145 149 150
-1103.0679391467 354.839576404162 2905.57355983747 153 157 158
-1112.39986959893 355.574377123017 2913.40900256966 167 171 172
-1121.74163583186 356.308022232704 2921.28023403667 168 172 173
-1150.77436687082 359.680180730875 2929.89031629386 174 178 179
-1180.88079275034 363.186953423258 2938.67455600393 151 155 156
-1362.23872167088 405.830460464173 2547.89520432458 150 155 151
-1338.48590117958 401.924457969472 2558.55135394404 140 145 141
-1322.73382094115 399.141417007104 2568.44924202461 115 120 116
-1309.97233058833 396.780691791041 2578.02641306666 126 131 127
-1298.19510668534 394.56213646447 2587.45141076724 115 120 116
-1285.39022505074 392.206343101042 2596.87152122061 120 124 123
-1278.60959320564 390.690109874955 2605.80876439012 117 122 118
-1271.81585327164 389.175446737081 2614.69740204369 120 125 121
-1257.94473482705 386.68690960978 2623.97129711927 134 139 135
-1247.07980812406 384.618829723951 2632.98215744957 114 119 115
-1243.26969768116 383.527179192266 2641.52653348989 114 119 115
-1238.43935443297 382.297493186962 2650.0921570968 126 131 127
-1231.57453979831 380.790960017003 2658.72297017572 119 124 120
-1228.74714351361 379.84169500909 2667.10954566013 119 124 120
-1218.81857623048 377.921358109932 2675.79295277553 127 132 128
-1204.81570094512 375.447940176235 2684.58720599231 130 135 131
-1186.73018000342 372.422434298803 2693.46104719792 132 137 133
-1178.77128036274 370.786316771156 2701.84424468894 133 138 134
-1163.68379338779 368.182197181006 2710.42534948109 124 129 125
-1156.70744036579 366.688444839515 2718.65011153474 120 125 121
-1145.64708542549 364.64275419196 2726.9495205158 123 128 124
-1140.67834497184 363.428926488408 2735.0113145255 121 123 120
-1134.67994838011 362.078052159295 2743.06092244347 120 122 119
-1136.82866856131 361.833509766215 2750.88430807348 119 121 118
-1132.85387705333 360.760789805799 2758.82827834491 125 127 124
-1129.89113250938 359.82701242178 2766.72211034521 114 116 113
-1126.92113825655 358.894109523063 2774.58864867909 135 137 134
-1127.0115641584 358.375410214697 2782.39047253162 111 111 109
-1132.21597901423 358.545661178398 2790.13104222413 67 69 66
-1135.37606508073 358.440158100131 2797.90089292421 75 77 74
-1130.33856239515 357.234142286597 2805.7123182622 122 124 121
-1120.16288484599 355.341908435063 2813.4969252077 111 113 110
-1112.02238782848 353.726446952801 2821.21892837635 111 113 110
-1107.97549409852 352.66188545454 2828.90034805515 113 118 114
-1101.86401922052 351.32382202451 2836.53820658999 109 113 112
-1099.85470109326 350.535676548537 2844.16661896501 96 100 99
-1095.78109378132 349.474049446027 2851.751637996 99 103 102
-1097.87774631867 349.235312312068 2859.38537180605 136 142 140
-1092.76034136665 348.038274035603 2866.90580363608 138 144 142
-1096.91414373442 348.073775632569 2874.55690176319 147 151 152
-1092.81465475213 347.01501912093 2882.04763956564 145 149 150
-1098.0006700297 347.187167022187 2889.72109285735 148 152 153
-1104.22405384323 347.495401057812 2897.43568948114 148 152 153
-1111.48700007642 347.939467494197 2905.1994147031 144 148 149
-1117.72240729175 348.246336152401 2912.95686081094 169 173 174
-1122.92738264691 348.416157724925 2920.70016945502 173 177 178
-1144.71677472336 350.765554998104 2929.04753663986 164 168 169
-1167.56999846554 353.2480139165 2937.53239006687 143 147 148
-1351.51729762931 395.368644566975 2548.24317602681 139 144 140
-1328.74969130829 391.671328669187 2558.79266617196 130 135 131
-1312.982599566 388.938204562454 2568.66540534784 115 120 116
-1307.24864822353 387.578747511311 2577.69049894258 124 129 125
-1301.50255107987 386.220644720893 2586.67228158983 116 121 117
-1289.70049499704 384.042538400018 2596.03061965835 122 126 125
-1279.89395634751 382.140423103256 2605.17952836168 114 119 115
-1268.05233475615 379.966871068685 2614.39384278955 129 134 130
-1251.14249828685 377.112364642789 2623.84440973081 124 129 125
-1242.28706886157 375.353654462762 2632.71788964803 109 114 110
-1241.50300128342 374.688754431876 2641.07690750711 116 121 117
-1235.65601300328 373.342349004824 2649.69055721912 124 129 125
-1227.77203426422 371.724604867736 2658.3644503532 117 122 118
-1220.88683000041 370.244861351255 2666.93554529756 120 125 121
-1212.9743571822 368.63044871701 2675.50481981444 127 132 128
-1196.93075752434 365.928990110906 2684.37186025577 128 133 129
-1184.92220632332 363.774571020362 2692.97847729954 127 132 128
-1173.90910323763 361.758403843259 2701.47196272933 128 133 129
-1162.87704989011 359.7443922546 2709.89645047679 124 129 125
-1150.80869365741 357.596799654718 2718.28533304823 120 125 121
-1144.82843375999 356.265580384489 2726.41468813273 121 126 122
-1140.87433474311 355.206966760733 2734.44439157049 124 126 123
-1136.91106105951 354.14933849836 2742.441582397 126 128 125
-1134.97945098727 353.363610950299 2750.36003610306 126 128 125
-1127.93680553238 351.90178032499 2758.35882104682 131 133 130
-1129.05432788833 351.523637021898 2766.16647204723 128 130 127
-1128.12570189355 350.875347498267 2773.99833082028 108 110 107
-1131.28459185015 350.76800064665 2781.76257653677 112 112 110
-1133.42076616398 350.525515792951 2789.5406808428 102 104 101
-1137.60560734723 350.552932731978 2797.30284480105 90 92 89
-1134.61651007639 349.635991205166 2805.10853454781 114 116 113
-1124.43801613088 347.776309511642 2812.9032364941 116 118 115
-1115.26896054233 346.053326593685 2820.63484025907 114 116 113
-1106.08393995234 344.332139562297 2828.30830293153 103 108 104
-1102.02331149997 343.285482033267 2835.95096092934 96 100 99
-1097.95384990416 342.239809997404 2843.56144538556 99 103 102
-1092.84615015001 341.060741059926 2851.12925561308 106 110 109
-1092.87930123812 340.5543197558 2858.72618099682 132 138 136
-1092.90957404895 340.048270969473 2866.3117260669 133 139 137
-1096.03158545565 339.944936578391 2873.94158221315 141 145 146
-1096.05758361606 339.43925950689 2881.51242004781 144 148 149
-1100.21314976466 339.469838321387 2889.16695876032 152 156 157
-1107.47252323646 339.901771826523 2896.90975892184 149 153 154
-1107.49746814773 339.396191212008 2904.47581812426 144 148 149
-1111.66003060523 339.425827367384 2912.15666663737 168 172 173
-1115.82550782225 339.455162436519 2919.84721796867 170 174 175
-1135.54338064619 341.487777140314 2928.09701003621 171 175 176
-1161.50955836668 344.318600820001 2936.66970056015 144 148 149
-1353.84051760185 386.721632759643 2547.5132454835 127 132 128
-1330.05861428134 382.957477940628 2558.15097145482 128 133 129
-1313.27858303015 380.138894328045 2568.10523049102 116 121 117
-1301.50222569855 377.995335175622 2577.58172328208 123 128 124
-1292.72678663536 376.257076468963 2586.76510372568 120 125 121
-1279.90413028941 373.983810954818 2596.17039490068 123 127 126
-1268.06769132233 371.847164439662 2605.42818063222 116 121 117
-1257.22014952975 369.846956798654 2614.54643870976 130 135 131
-1243.32373785114 367.447008913847 2623.78235557475 114 119 115
-1238.49985990081 366.254776803751 2632.39562999419 108 113 109
-1231.64293229536 364.796151200443 2641.08504337378 117 122 118
-1225.78448351097 363.472740940683 2649.67158944702 122 127 123
-1215.86331636504 361.616131008488 2658.42270569225 116 121 117
-1214.03224079027 360.830051505597 2666.71513109985 122 127 123
-1204.08162635912 358.976818415836 2675.3590473081 128 133 129
-1190.05347859532 356.591954830548 2684.11537734541 126 131 127
-1176.00205925046 354.209724953462 2692.78696734881 125 130 126
-1169.04190431735 352.762857669998 2701.10147050294 126 131 127
-1161.05146535497 351.184359687536 2709.40394663846 124 129 125
-1152.02866227781 349.47444991596 2717.68681101374 120 125 121
-1142.98948899012 347.766346875152 2725.91096570355 120 125 121
-1136.99220088146 346.458849577052 2733.99114616599 125 127 124
-1133.02284531225 345.418359254556 2741.97657614129 128 130 127
-1129.0445428014 344.378889248953 2749.92943205054 132 134 131
-1126.07889028079 343.473118206504 2757.82922001888 125 127 124
-1128.21599051406 343.231179747941 2765.61110704761 105 107 104
-1130.35279196889 342.989268623798 2773.39190202806 80 82 79
-1134.53613120149 343.012234348907 2781.14567927448 72 72 70
-1135.6495165881 342.637883770165 2788.93943602367 77 79 76
-1140.86089014377 342.792798066686 2796.69615923603 76 78 75
-1137.87110237839 341.889731736263 2804.5080453845 110 112 109
-1126.66282361278 339.930580814612 2812.31287884697 113 115 112
-1114.40848232541 337.84148694399 2820.04909742024 105 107 104
-1106.24520873839 336.282508797259 2827.72219627153 102 107 103
-1103.2100546173 335.384516013306 2835.36884920443 93 97 96
-1095.02127484516 333.828386693103 2842.94904718938 105 109 108
-1087.84785359114 332.405578177821 2850.48692373979 114 118 117
-1087.87583239086 331.905603922194 2858.0687157594 133 139 137
-1088.93222320877 331.53754177645 2865.65483303301 132 138 136
-1088.95497698639 331.038178957787 2873.21668257645 140 144 145
-1090.00715739217 330.670473876591 2880.78832186939 144 148 149
-1093.12499939755 330.565578127627 2888.40078306361 152 156 157
-1099.34646804841 330.854162021444 2896.09586299294 151 155 156
-1103.50350988177 330.87977202817 2903.75367261112 145 149 150
-1107.66348115303 330.905086471825 2911.42124303253 161 165 166
-1113.89864721554 331.191999541971 2919.16612389608 173 177 178
-1130.5099551599 332.787239891079 2927.29560434048 171 175 176
-1158.55667705519 335.819229938791 2935.92638373243 149 153 154
-1385.94171573711 382.559689336261 2535.4832063933 148 153 147
-1365.20578275769 379.25695079877 2546.03144715651 120 125 121
-1337.39924594378 375.035024843937 2557.02369560257 124 129 125
-1315.58547386222 371.608733414559 2567.38844658668 110 115 111
-1300.78404679792 369.108280676159 2577.097085584 123 128 124
-1290.99502540397 367.268722251082 2586.35052755791 127 132 128
-1270.09841743572 363.984364396276 2596.31381817987 125 129 128
-1257.23978267841 361.755436492964 2605.61352101147 127 132 128
-1240.32055373437 359.003519130797 2615.0939848991 119 124 120
-1233.47699987452 357.56765208151 2623.84834995704 112 117 113
-1228.64229521181 356.395749486788 2632.43426190712 113 118 114
-1224.80886216425 355.356168546704 2640.92491970167 119 124 120
-1216.91654684109 353.793457839344 2649.60167693692 121 126 122
-1209.00950787533 352.232435553202 2658.22483415368 113 118 114
-1204.12949146483 351.065759046857 2666.64581194367 124 129 125
-1193.15127700919 349.115439721963 2675.31040490555 127 132 128
-1178.09272488547 346.644407065915 2684.08296325225 124 129 125
-1169.10586143207 344.960039845238 2692.51539063603 123 128 124
-1164.16962962223 343.799727819189 2700.73259888837 123 128 124
-1157.18847669199 342.379673614802 2708.98513994661 124 129 125
-1147.13915778809 340.569902181828 2717.29095423044 121 126 122
-1141.14820209583 339.28341433512 2725.40790998161 119 124 120
-1133.10607734869 337.737784328801 2733.53923804789 124 126 123
-1129.13063989386 336.714431946181 2741.51290717197 123 125 122
-1126.16723718438 335.822163629226 2749.4305021846 114 116 113
-1127.2836226173 335.450758764667 2757.23725728745 104 106 103
-1130.44309204104 335.339351792714 2765.00109110447 92 94 91
-1130.53423649614 334.838361346047 2772.81583423005 81 83 80
-1137.78932769606 335.245965008993 2780.52737456674 84 84 82
-1136.85429706544 334.615410448611 2788.34758013199 77 79 76
-1141.04150964989 334.633350130671 2796.11163617174 76 78 75
-1134.97049846301 333.35582513278 2803.93794925785 84 86 83
-1127.8613032249 331.950218620931 2811.7242158393 104 106 103
-1116.62885774762 330.028638070093 2819.46304300321 99 101 98
-1110.51842720787 328.755520480484 2827.14578236495 93 98 94
-1106.45424574194 327.742085187674 2834.79622350053 96 100 99
-1093.11483022614 325.567657198394 2842.34528999892 112 116 115
-1085.93556340131 324.169801080145 2849.87721672782 122 126 125
-1080.8053991193 323.031318903153 2857.38724492211 130 136 134
-1083.91898875772 322.92489322158 2864.98388101439 128 134 132
-1082.90392399347 322.303161760579 2872.5125059708 143 147 148
-1087.05045392992 322.32545277493 2880.12826251551 145 149 150
-1086.02997185246 321.704268424469 2887.6371194667 156 160 161
-1092.24728111466 321.983383110794 2895.31077803928 155 159 160
-1095.36432735661 321.876456480824 2902.91900252789 150 154 155
-1100.55459713151 322.026085279656 2910.59403455193 144 148 149
-1107.82230017028 322.431811514074 2918.35121486435 171 175 176
-1130.65894100515 324.760096307999 2926.6771617356 167 171 172
-1170.134711869 329.135427497536 2935.72756389289 167 171 172
-1392.29575403607 374.333340445219 2534.39735923836 139 144 138
-1377.58406843094 371.86811522777 2544.46143149726 120 125 121
-1347.76168547391 367.468160054203 2555.65040977128 130 135 131
-1315.88021256463 362.815329340981 2566.82737901425 116 121 117
-1294.02082735339 359.458152469099 2577.0673417237 128 133 129
-1276.15827575964 356.620688605296 2586.88774430073 123 128 124
-1258.26662521901 353.78655407606 2596.60221015878 119 123 122
-1242.36459338224 351.213286374842 2606.07486817725 125 130 126
-1231.48629369628 349.286439505605 2615.1252443759 114 119 115
-1229.68561685243 348.51922863202 2623.54151795565 114 119 115
-1226.86718702728 347.624201827645 2631.9956273093 110 115 111
-1219.99253788796 346.21628685912 2640.65218916957 124 129 125
-1210.06617909192 344.424838534591 2649.42516946332 118 123 119
-1204.1763358008 343.148492314724 2657.92486765718 113 118 114
-1202.33206206806 342.386345301514 2666.1824715896 125 130 126
-1189.31620584158 340.215539171672 2674.93606598827 127 132 128
-1179.32597046565 338.431384622295 2683.47648996813 124 129 125
-1166.2685530865 336.265305818574 2692.07876053894 123 128 124
-1162.34388232165 335.25263930768 2700.24766293292 122 127 123
-1151.28533778223 333.34642916919 2708.64092524665 124 129 125
-1143.26318685769 331.825458859996 2716.86291006579 121 126 122
-1135.22658902304 330.306195428378 2725.03140494991 120 125 121
-1127.17533509891 328.788583721923 2733.14652745906 122 124 121
-1124.21328138879 327.910037679152 2741.07686554494 118 120 117
-1126.35091429038 327.669301254731 2748.86148916818 111 113 110
-1130.53238823175 327.683218424463 2756.60262816969 109 111 108
-1131.64795966837 327.31516428317 2764.4084765351 108 110 107
-1131.73820138454 326.820177635876 2772.22365845256 88 90 87
-1135.92223222634 326.833799087301 2779.97410402318 88 88 86
-1138.05888987593 326.593153793248 2787.75516426182 93 95 92
-1140.19525095697 326.352521136431 2795.53513137804 90 92 89
-1132.0667142477 324.843587621346 2803.36879700871 73 75 72
-1123.92360478539 323.336267309951 2811.1493753559 97 99 96
-1115.76593614349 321.830573074006 2818.87692494171 105 110 106
-1113.76536319753 321.086069597595 2826.56535973473 90 95 91
-1105.58293350214 319.583116347585 2834.20270689698 101 105 104
-1091.20575538663 317.323182647689 2841.74202983598 113 117 116
-1082.98999760113 315.823939541795 2849.25797872253 122 126 125
-1078.88545442541 314.831390197782 2856.77175103502 129 135 133
-1081.99722490757 314.723138645289 2864.36048019734 127 133 131
-1080.97874797248 314.11027903738 2871.8820376558 141 145 146
-1083.05658760687 313.875981430234 2879.44872572923 146 150 151
-1079.96282417865 313.011931752745 2886.89920369236 159 163 164
-1084.10679823411 313.029767081497 2894.50265766527 157 161 162
-1089.28880138962 313.173001266111 2902.14388914958 151 155 156
-1094.47520404317 313.315755426256 2909.80022302301 144 148 149
-1101.74012440689 313.709253657854 2917.53842266501 155 159 160
-1126.65555095641 316.236268992324 2925.91439173246 168 172 173
-1399.65820417876 366.20709136994 2533.22242501496 110 115 109
-1383.93828710274 363.66109008103 2543.38938305438 114 119 115
-1353.10042425617 359.22083203597 2554.67895878826 121 126 122
-1321.20801464282 354.659612849247 2565.87316091445 119 124 120
-1292.28887794286 350.48291132438 2576.66034579158 134 139 135
-1277.4408343563 348.078774325633 2586.25671549415 123 128 124
-1252.47811094372 344.415831605223 2596.47050830284 118 122 121
-1239.59283221644 342.270345486606 2605.72396807063 116 121 117
-1230.72703514815 340.631331388509 2614.63545382381 106 111 107
-1230.94557572312 340.127514042406 2622.92140901722 112 117 113
-1226.10121481384 338.994868586986 2631.49718314145 117 122 118
-1218.20890608542 337.486161475592 2640.20805990505 119 124 120
-1209.28868402186 335.853470699521 2648.92053950981 118 123 119
-1204.40822257042 334.725029251589 2657.36400456426 114 119 115
-1197.48781985226 333.346732786172 2665.86939192604 125 130 126
-1185.47713340094 331.342767717022 2674.56306999669 125 130 126
-1173.44601526409 329.341115128769 2683.18234920286 125 130 126
-1165.46186961897 327.842884999552 2691.55886811237 124 129 125
-1160.51576495894 326.721934425406 2699.76334214461 123 128 124
-1150.46768153752 324.976559607711 2708.11440018442 125 130 126
-1138.36425378545 322.983103909277 2716.47038304867 123 128 124
-1132.35853633153 321.741669876558 2724.56190491409 121 126 122
-1126.34126142295 320.501601320659 2732.61044928361 113 118 114
-1127.45998453333 320.136410453624 2740.43073593992 108 113 109
-1130.62097195191 320.020892498574 2748.19668129221 111 116 112
-1132.76030691877 319.78059465215 2755.98790124538 111 116 112
-1133.87582711688 319.415766997118 2763.79652542924 103 108 104
