ply
format ascii 1.0
comment KinectMotionCapture
element vertex 774
property float x
property float y
property float z
property uchar red
property uchar green
property uchar blue
end_header
-945.38570654741 -50.3769534227268 2507.99245777253 14 15 9
-953.000065771162 -50.4119964840164 2498.98034571867 17 18 12
-959.996357359548 -49.7240668704221 2477.95025467565 20 21 15
-968.827668784121 -51.0339738320069 2489.95250216486 8 9 3
-977.240317043602 -51.9185177528248 2494.95134566997 11 12 6
-985.713543991981 -52.9210944474423 2501.95879488181 11 12 6
-993.788773541165 -53.442684648965 2500.95242756357 12 13 7
-1001.4064092234 -53.3085672658425 2488.91615958574 13 14 8
-1009.04385464589 -53.119013289303 2475.8693461122 17 18 12
-1017.14253696113 -53.5859041138063 2473.85222088036 20 21 15
-1024.91161831215 -53.462288234116 2461.79684076499 15 18 9
-1033.19974651145 -54.2265872595324 2464.79553278041 16 19 10
-1042.05322637869 -56.2233859463964 2488.89002893722 15 18 9
-1049.30340063955 -54.8142721234855 2454.7254622732 16 19 10
-1057.20533888929 -54.6432699405418 2441.64569051399 18 21 12
-1065.78764738056 -56.2815467750862 2459.72647997419 15 18 9
-1073.92236826737 -56.7523758237243 2457.70486771284 16 19 10
-1082.0180015382 -57.050091427227 2452.66437590347 18 21 12
-1090.06339340704 -57.0031506580785 2441.58264315711 17 20 11
-1097.86214501643 -55.0616076941683 2397.27062336183 16 19 10
-1106.20441334091 -55.9452662712733 2402.27824753522 15 18 9
-1114.51308103658 -56.8269908192612 2407.29030004398 15 18 9
-1122.7715201168 -56.7377872605662 2395.17418186943 16 19 10
-1131.10187781483 -56.1980262641671 2374.98568455782 16 19 10
-1139.41409904542 -57.1944394445466 2382.01296983125 22 25 18
-1147.69609628763 -58.075241320077 2387.02834822511 21 24 17
-1155.72826915899 -60.192461515004 2414.24895732855 26 28 23
-1164.00864191137 -60.5042005965266 2409.18544805438 28 30 25
-739.863912493006 -44.146594386779 2510.44547006981 161 166 159
-748.011244692814 -44.6649095421419 2509.43009614232 154 159 152
-756.404561124637 -45.3077560972898 2510.39996725105 153 155 152
-764.306047927389 -45.7023848081428 2507.39933318671 155 157 154
-773.276200091645 -46.6538511665666 2513.33670710522 135 137 134
-781.289766403185 -47.1104522544546 2511.33017674978 114 116 113
-789.196541663003 -47.5062241199704 2508.32888572773 82 84 81
-796.238823294274 -47.412952726537 2497.37221319865 121 123 120
-803.761965864994 -47.5677229780982 2490.38741420624 150 152 149
-811.317421305003 -47.7248229986415 2483.3983486254 140 142 139
-818.803930383198 -47.8234723557806 2475.41004611697 140 142 139
-832.548019340761 -47.1835412956089 2445.47577866557 31 33 28
-840.185460352526 -47.2926718549579 2437.468668346 36 37 29
-848.40310785886 -47.7646629739412 2435.43671039306 21 22 14
-858.117097127088 -49.2548441137762 2450.35234094593 12 13 5
-865.788637373696 -49.36693830914 2442.34098304808 19 20 12
-875.3907134536 -50.850480140766 2457.27080248959 14 15 7
-886.577151809306 -53.5747646014856 2493.16904101176 18 19 13
-894.564015558014 -53.9790252939231 2490.15801804353 13 14 8
-902.857861300536 -54.6201510385023 2491.14005770579 10 11 5
-911.855055529233 -55.84894232121 2502.11370328829 9 10 4
-920.649118700793 -56.956499558149 2511.09676469515 14 15 9
-927.935219709141 -56.7745111014563 2498.09405711964 16 17 11
-936.172500301711 -57.4129888764112 2499.08314880487 19 20 14
-943.973811107028 -57.6441668953733 2493.07152437663 16 17 11
-951.164269173211 -57.2398569043179 2476.04893806877 12 13 7
-959.876428795825 -58.3433908589592 2485.04220995916 14 15 9
-968.428639116327 -59.3284118323668 2492.039516012 17 18 12
-977.385048669364 -60.8276266058046 2508.05763919124 19 20 14
-985.494946250142 -61.4051378378674 2508.05502014059 19 20 14
-994.131367736486 -62.667333376225 2520.08146309558 18 19 13
-1001.48754059898 -62.2751630068873 2503.0382285301 17 18 12
-1009.12433443358 -62.1723685968057 2490.99941194731 15 16 10
-1016.71089112274 -61.9039448195686 2475.94336718964 16 17 11
-1024.8758625276 -62.4861615180473 2475.93364737428 23 26 17
-1033.40483007908 -63.7425567624005 2487.97348467021 24 27 18
-1041.74987848952 -64.7704966293512 2496.00468369701 18 21 12
-1049.332326994 -64.2316585976393 2475.90952346175 15 18 9
-1057.06194199905 -63.8110417785198 2457.81192351374 16 19 10
-1065.30355640909 -64.5619112944099 2460.81638480895 18 21 12
-1073.52243064486 -65.3115535850177 2463.82392098035 20 23 14
-1081.2498247051 -64.2952373716099 2434.63951028489 21 24 15
-1089.39026411409 -64.4982042240986 2427.57756295178 18 21 12
-1097.66358256816 -65.3061944884793 2431.58614556211 16 19 10
-1105.79093107128 -65.1293861920398 2417.4705415475 17 20 11
-1113.9488736443 -64.4128158589733 2393.27210634157 18 21 12
-1122.25264979789 -64.7898091121615 2389.21353540402 20 23 14
-1130.56510097642 -65.3843475060837 2389.18544343354 18 21 12
-1138.98164730675 -64.5767769612511 2362.93912216535 21 24 17
-1147.0238711565 -67.7012891958847 2410.31607294139 19 22 15
-1155.45271471735 -67.2201015201648 2390.11567969583 24 26 21
-1164.13098354671 -66.104936058357 2357.78904357141 24 26 21
-1171.75590498914 -69.3112616800136 2407.23390113859 20 22 17
-738.579789313374 -51.9927510818302 2504.57978049872 164 169 162
-747.624500677279 -52.9290350075327 2510.50780988751 106 108 103
-755.523196449256 -53.3287389627364 2507.50777776153 103 105 102
-763.553165707238 -53.7885798030202 2505.49920894712 100 102 99
-771.82393942231 -54.3671002628028 2505.47627589502 111 113 110
-779.97426141462 -54.8866659540199 2504.46053215235 121 122 117
-787.8999248598 -55.2890907553919 2501.45690151669 132 133 128
-794.959732243217 -55.2243334086493 2490.49811696808 135 136 131
-802.607936976101 -55.4549997013152 2484.50559792491 111 113 108
-809.553975862265 -55.2804046861124 2471.54510729345 180 182 177
-824.134184367087 -55.2335891059435 2450.57796370409 3 8 4
-833.661678883471 -56.5125969638995 2462.49325028755 25 27 22
-840.039045084569 -55.890588198014 2441.54057107402 21 23 12
-849.15198058354 -56.9375708530208 2449.47599248038 30 32 21
-858.655226028371 -58.2673006246253 2462.40212587715 18 19 11
-867.656288007051 -59.3076042107479 2470.35149084836 21 22 14
-875.288518412324 -59.4364844117002 2462.34508279166 13 14 6
-885.271452988256 -61.2096313922732 2483.27449886722 12 13 5
-892.591798383755 -61.1130273138468 2471.27542974956 18 19 11
-902.201642256714 -62.7082936179442 2489.22787560215 15 16 10
-910.84833408152 -63.6241186343892 2495.20552159854 19 20 14
-918.973959939383 -64.1463065241071 2494.19286669291 29 30 24
-926.900328021289 -64.5014664381583 2490.18133655417 24 25 19
-935.096352784906 -65.0801371110336 2490.16773212488 16 17 9
-943.286297452944 -65.6586568318057 2490.15512632679 12 13 5
-951.17958647714 -65.960923329493 2485.13965759903 22 23 15
-959.647758322074 -66.8151842261281 2490.1317326084 22 23 15
-968.662194207684 -68.2710793141405 2506.14250036354 15 16 8
-976.984104071451 -69.0649054166437 2510.14498175239 20 21 13
-985.372615035345 -69.9662088711535 2516.15480895186 16 17 9
-993.365897198984 -70.4304760712387 2514.15083012659 15 16 8
-1000.94515933422 -70.3535790468731 2502.11926135959 16 17 9
-1008.62219529294 -70.3346673523821 2491.0835710667 16 17 9
-1016.71691182842 -70.8576184311593 2490.07477547159 14 17 8
-1024.7768976086 -71.327075658983 2488.06248609708 23 26 17
-1032.90341163043 -71.9039906667615 2488.05755157394 23 26 17
-1040.7968870584 -72.0543213115166 2480.01859817186 22 25 16
-1048.80401754404 -72.3666296722756 2474.98918941636 21 24 15
-1056.53377341706 -71.9921870818599 2456.89169348705 21 24 15
-1064.25320971471 -71.3599689041901 2433.75589050846 17 20 11
-1072.52845356748 -72.0504717339427 2435.74830897631 20 23 14
-1080.56413785874 -71.9537440751244 2422.65204210113 21 24 15
-1088.65139950536 -71.8091378278509 2408.5417657609 18 21 12
-1096.99600357416 -72.7105556180173 2414.5570725824 17 20 11
-1105.42896108676 -74.5956494604529 2439.71144037042 19 22 13
-1113.53593357888 -74.0926529999456 2418.54298966303 20 23 14
-1121.74440103016 -73.3906537382131 2393.3306005252 20 23 14
-1138.21496854632 -76.1587577391076 2424.53853770329 20 23 14
-1146.43351675053 -76.641481579579 2422.50649561282 18 21 14
-1154.95037620814 -75.5485871392577 2389.1923739755 22 25 18
-1163.71173116518 -74.1629859324134 2349.80060705455 28 31 24
-739.224406509569 -60.727343573038 2513.59224301197 168 171 164
-747.238105295996 -61.188432264755 2511.58570794239 123 125 120
-754.764064968457 -61.4234966765682 2505.6082156736 120 122 117
-762.558341281759 -61.7734815157653 2501.61315617829 105 106 101
-770.722504930417 -62.2936602500691 2500.59568669315 100 101 96
-778.771467326967 -62.7579659217656 2498.58475940531 94 93 88
-786.825773162479 -63.222850889961 2496.57316681343 113 112 107
-793.568436057608 -63.0188662535458 2482.63029180859 107 106 101
-801.344751525087 -63.3201432877386 2477.62965835219 89 90 84
-841.763493792162 -65.5623951679951 2465.53701266735 23 26 17
-849.179264428252 -65.598199758718 2455.54199820246 21 24 15
-859.637576078706 -67.4869561058876 2479.43569604599 22 25 16
-869.19181708324 -68.8792408907237 2494.37124469992 20 23 14
-877.006024814348 -69.1850818785081 2489.36589453204 15 18 9
-883.482549301241 -68.5765767882329 2467.39318941392 17 20 11
-891.230739229635 -68.7811464036409 2460.38019671785 16 19 10
-901.395469796 -70.701030486243 2485.31854108576 17 20 11
-910.413447462216 -71.8650656913733 2496.28918221656 19 22 13
-917.983829190449 -71.9614189071701 2487.28271975226 20 23 14
-926.128075065441 -72.4848527210384 2486.26774445966 20 23 14
-934.335351573949 -73.061283946125 2486.25272998163 17 20 13
-943.024338385312 -74.0588329533454 2494.24092749609 19 22 15
-950.848103039832 -74.318617512732 2488.22633602577 20 23 16
-959.587209065136 -75.4173358244079 2498.22415984952 20 23 16
-968.213114966582 -76.4602513385269 2507.22803605788 20 23 16
-976.934535909969 -77.6557323524577 2519.24369589282 21 24 17
-985.015455201318 -78.2253829941859 2519.24443219204 18 21 14
-993.000704754476 -78.6915870807633 2517.24146088979 17 20 13
-1000.23400857867 -78.2323776584692 2497.19008154562 15 18 11
-1008.35563197665 -78.8052783295204 2497.18574677181 16 19 12
-1016.14147401657 -78.9181496162652 2488.15243963415 20 23 14
-1024.37647056984 -79.6449624791155 2491.15766344642 19 25 13
-1031.5278914668 -78.6453105778698 2460.02980048511 20 26 16
-1039.72414594284 -79.2238615098122 2460.01616707374 22 25 16
-1047.86229908816 -79.701418931971 2457.99414420575 21 24 15
-1055.63539967416 -79.3759924864373 2439.89136819478 20 23 14
-1063.29539058971 -78.5562054738628 2411.72381393289 21 24 15
-1071.48936139589 -78.8430680381056 2405.66309423245 24 27 18
-1080.05379969006 -80.2747249395343 2422.73764229443 23 26 19
-1088.20047011484 -80.4127629253382 2413.65937218314 18 23 16
-1096.41801365249 -80.7017517869999 2407.59595661344 16 21 14
-1104.95701918751 -83.1067401529775 2444.83142534346 16 21 14
-1113.2185185666 -84.6656832641173 2464.96741515811 23 26 19
-1121.30489469198 -84.2158985544708 2443.80191515551 22 24 19
-1129.52373761839 -82.7517836476905 2401.45434220234 18 21 14
-1137.77038657845 -83.6769216151074 2408.48962280673 18 20 15
-1145.97257816747 -84.5993592638763 2415.53068458576 21 23 18
-1154.37269424675 -84.2680780164544 2396.34171796276 27 29 24
-1162.97674058056 -83.5117473339749 2368.05651827586 24 26 21
-738.067637703276 -68.6537950385112 2508.71879918835 174 174 166
-746.599626292812 -69.3348863594827 2510.67891237731 150 145 139
-754.127707584293 -69.5838195309328 2504.70143213463 142 135 129
-762.045165957204 -69.9959191864352 2501.69885092188 144 136 133
-770.091522491682 -70.4625671818361 2499.68825499864 126 117 112
-777.566563839499 -70.6627401723223 2492.70933805223 123 114 109
-784.060443464642 -70.3861509301846 2476.78194433067 92 83 78
-790.635504807984 -70.1149897526327 2460.84419363648 63 56 50
-798.042192216957 -70.2194136498385 2451.85818050933 85 80 74
-823.592515738485 -72.1739345406921 2455.72908857182 17 20 13
-833.978609010505 -73.8506779525857 2476.60793895019 30 35 28
-843.121366602538 -74.8957903139996 2485.54756117722 21 24 15
-851.845747591913 -75.7302885728381 2490.50737048712 21 24 15
-860.801975748506 -76.7178978177476 2498.4621916856 18 21 12
-870.222168538579 -78.0115571650506 2512.40652193943 17 20 11
-876.910554891786 -77.6578657501481 2494.43879714842 17 20 11
-883.610531590497 -77.2591233420655 2475.46206048118 14 17 8
-890.097941782447 -76.6629204034924 2452.48010192177 13 16 7
-900.21428703965 -78.4622685726837 2476.41647996497 14 17 8
-909.258934683569 -79.5949440711672 2487.3839505243 16 19 10
-917.060356531683 -79.8658917175676 2481.37217670173 17 20 11
-926.019829419402 -80.9935442200295 2492.3502633392 17 20 11
-934.275082688731 -81.6161013412117 2493.33707021414 17 20 13
-943.130317155643 -82.7374715911589 2504.32814864619 17 20 13
-950.692627536181 -82.8099220809406 2494.31470312445 18 21 14
-958.748827751981 -83.2823482144193 2492.3028939845 19 22 15
-966.915697708101 -83.8540851723861 2492.29290964314 18 21 14
-975.680136186129 -85.016458404272 2504.3031139559 17 20 13
-983.802075507638 -85.58572121719 2504.29873017654 16 19 12
-991.513639608449 -85.7148230623832 2495.27473522915 18 21 14
-999.900589131178 -86.5775211606792 2501.28465562141 19 22 15
-1007.37997443326 -86.3701194914613 2485.23445882062 23 26 19
-1016.15345035486 -87.764045745679 2502.2828208602 27 30 21
-1023.94259885256 -87.8989561340269 2493.24915913535 24 32 19
-1031.27204022856 -87.2685568338639 2468.14641554218 25 31 21
-1038.61561872867 -86.4553433455298 2439.01067789207 25 31 21
-1047.38187778817 -87.9875564637603 2459.08360629023 28 31 22
-1054.89374479347 -87.1856014188069 2429.92689687829 29 32 23
-1062.7820433592 -86.9140074724076 2411.80988660647 33 36 27
-1070.97536433368 -87.2141317569647 2405.74928292545 30 33 24
-1079.2703104211 -87.7509882595921 2404.71553648545 20 23 16
-1087.65126857496 -88.6154397416773 2410.7262091826 15 20 13
-1095.88603116271 -88.9647947013781 2405.6684908474 16 23 15
-1104.41582061014 -91.126828822701 2439.88140858474 18 23 16
-1112.72932459929 -92.999071708038 2468.07371091832 22 24 19
-1120.84058261973 -93.6168575132145 2469.07871525269 21 23 18
-1128.9767800161 -92.6270455587805 2434.80468235602 18 20 15
-1137.28242090096 -91.7403608027693 2402.52538996067 19 21 16
-1145.56689968051 -92.1859497456773 2399.47709496381 22 24 19
-1153.87920499351 -92.5415435797041 2394.40971618479 31 33 28
-1162.33024198005 -92.4464744646098 2379.24600565136 22 24 19
-747.097972980027 -77.949739376389 2518.70162615749 100 89 83
-753.861898524675 -77.903837422278 2506.77212846994 100 87 81
-761.048241671018 -78.0149950215584 2497.81339046832 113 100 94
-768.86904889667 -78.3833623848753 2493.81506848172 122 109 103
-775.666539988299 -78.2969174419266 2480.87358814563 114 100 97
-781.964986145986 -77.9623550625993 2462.95457596135 76 62 59
-788.355517862251 -77.6338805161994 2445.0243283446 58 47 43
-795.482318780038 -77.6124096942624 2433.04961029429 40 31 26
-821.784483404275 -79.8553225194528 2442.87405562854 9 10 4
-834.623116417471 -82.7107218813633 2488.6440470997 20 21 15
-841.952603432993 -82.7898998979348 2478.65967427418 18 21 12
-851.517243907718 -84.05116488489 2492.58589300154 19 22 13
-860.469811652552 -85.0137413002324 2500.5411050747 16 19 10
-867.830682603246 -85.095590528261 2490.55282275415 14 17 8
-874.244118819952 -84.5976284483618 2468.58828179026 16 19 10
-883.179114959586 -85.5597299690574 2476.54544517651 14 17 8
-891.13405532407 -85.939942034279 2472.53041535977 14 17 8
-900.077837174247 -86.9463122659145 2481.49452628829 15 18 9
-907.956838361382 -87.2788111657457 2476.48116048282 17 20 11
-917.384539687998 -88.6628277856648 2493.44809323167 18 21 12
-926.313709187991 -89.7554214061462 2504.42962895771 17 20 11
-933.832838742938 -89.8491119163536 2494.42186835131 16 19 12
-942.687578667012 -90.9373372093717 2505.41268094457 17 20 13
-950.831962558894 -91.5042499376929 2505.40573029539 17 20 13
-958.411233448826 -91.6024013830185 2495.3902358849 18 21 14
-965.719313482228 -91.4237744856358 2479.3612524775 18 21 14
-974.067035499871 -92.1341186194108 2482.35236544842 17 20 13
-982.583323618689 -93.0285792383746 2489.35415616093 16 19 12
-990.6498554505 -93.5049632062118 2487.3410681192 18 21 14
-998.254936338862 -93.476000813675 2474.29871646041 18 21 14
-1006.83616116617 -94.5049564290909 2484.31581893797 19 22 15
-1015.31998977448 -95.484593053645 2493.33725890985 22 25 16
-1023.54325372945 -96.1881108511856 2496.34412580304 18 24 12
-1030.48225084628 -95.0789437696514 2459.19588054269 16 22 12
-1038.50895604253 -95.3808908194005 2453.15607432596 22 25 16
-1046.71842061326 -95.9543110909679 2453.14077886145 23 26 17
-1054.5231748518 -95.7665823515833 2436.04234265073 23 24 16
-1062.20607492097 -95.13867386347 2408.88012186536 23 24 16
-1070.38885338027 -95.4081959105214 2401.81306613981 23 24 16
-1078.81740657784 -96.2992496753634 2408.82555641124 22 25 18
-1086.97443902008 -96.394482789248 2397.7302659912 20 23 16
-1095.51146834938 -97.9415826569488 2419.84745457334 16 21 14
-1103.80761996064 -98.7813412074392 2425.86864559768 17 22 15
-1112.09177598982 -99.8799718741196 2437.93861845688 21 23 18
-1120.30991623456 -101.10421510825 2453.04046205524 20 22 17
-1136.67706940436 -101.213464712676 2428.8274277648 21 23 18
-1145.0421963753 -100.631449169203 2401.58043022155 23 25 20
-1153.54631959499 -100.058574668827 2374.31587057206 27 29 24
-741.822765184254 -86.8844696022525 2545.58525690066 174 168 154
-746.586853288038 -86.1325180920682 2518.78695992984 131 111 102
-753.349113480083 -86.1166697525222 2506.85774921357 135 111 101
-760.171007199414 -86.1048170119355 2494.92086683917 125 100 93
-766.934180258307 -86.0488687830437 2481.98374950269 113 90 84
-773.183941715689 -85.7575642606176 2464.07092679922 74 53 48
-779.299908986816 -85.3767906053204 2444.15943127779 54 35 31
-786.180283829546 -85.288377220629 2430.19967498881 51 33 31
-792.808350466301 -85.0624034491375 2413.24774144861 48 34 31
-802.563182210815 -86.2124263569772 2425.13431801272 198 188 186
-821.363674276863 -88.2650305453186 2443.95640388479 20 17 12
-831.4034337403 -89.6366627655017 2460.84692278274 15 14 9
-838.619499774913 -89.6520710626196 2448.86092182469 16 19 10
-851.371829593489 -92.4545103699173 2496.65715842102 16 19 10
-858.898117606448 -92.6523691722033 2488.66415300125 13 16 7
-866.977121408139 -93.1290400374689 2486.64950928694 12 15 6
-873.481207996319 -92.7348369633527 2465.68161603645 13 16 7
-881.862951026787 -93.3529105479194 2466.65262592977 14 17 8
-893.731403524117 -96.0187406390981 2512.54343123848 13 16 7
-898.817479066838 -94.7235636309241 2471.59470085545 14 17 8
-908.675642901877 -96.2881027298328 2493.54706558734 17 20 11
-916.807587950004 -96.8099317302875 2492.53362113899 17 20 11
-925.80863908603 -97.9145921246966 2504.51414560618 17 20 11
-933.262268259462 -97.987977596186 2493.50657822062 17 20 13
-941.015271940325 -98.2429010723554 2486.4931174018 17 20 13
-949.740462069804 -99.2088564606556 2495.48464112245 17 20 13
-958.578933455404 -100.303848900956 2507.48518885237 17 20 13
-966.705962830372 -100.867043201035 2507.48039415195 17 20 13
-974.016362412815 -100.729593218311 2491.45122971648 21 24 17
-981.790706766442 -100.946330326085 2483.42731804723 18 21 14
-989.556867325128 -101.122208868372 2474.39663296944 20 23 16
-997.578085141795 -101.517288668456 2470.37337127215 21 24 17
-1005.73408563912 -102.042770276912 2469.35693446497 20 23 16
-1014.96569666424 -103.81260776 2497.43463305601 21 24 15
-1023.00692954355 -104.29054781944 2495.42446600316 20 23 12
-1030.54525920996 -104.088048730236 2477.35131173982 19 22 13
-1038.14558807947 -103.849206926971 2458.26263753704 24 25 17
-1046.68381004432 -104.967392225711 2471.30864306411 24 25 17
-1054.36657967872 -104.693706554205 2451.20166161424 22 22 14
-1062.19276605954 -104.510486214353 2433.09263530464 18 18 10
-1070.1825523323 -104.500034812529 2418.99463633807 19 20 12
-1078.58217953209 -105.407423598865 2427.01870678765 23 26 19
-1086.79131789602 -105.857066739892 2423.97982450584 20 23 16
-1094.92951601844 -105.978228805334 2412.88695278053 16 19 12
-1103.20907103881 -106.594791656876 2413.87095142367 20 23 16
-1111.47651670003 -107.21071995156 2414.85621930341 21 23 18
-1119.74974331347 -108.191773351122 2424.91187225715 21 23 18
-1127.978953433 -108.238449679709 2411.791832152 18 20 15
-1136.18601898765 -109.296530022489 2423.87131865884 22 24 19
-1144.51149531979 -109.106693721405 2404.69203912525 23 25 20
-1153.10049604719 -108.16444400835 2366.33063564178 22 24 19
-1161.35774320787 -109.064210632185 2374.3724542058 26 28 23
-738.080815681367 -93.8449233206121 2520.87646057884 152 145 129
-745.062175357267 -93.9486711735983 2510.93559669098 144 120 108
-752.340360773087 -94.1471778804577 2502.9735547148 141 113 102
-758.686383684936 -93.983853630498 2487.06491091626 129 102 93
-764.639469117401 -93.6443656674188 2467.173610541 89 64 57
-770.9272325622 -93.4020628957617 2449.25641472727 62 39 33
-777.872755601309 -93.3910290332478 2436.29641920295 61 42 38
-785.104089879088 -93.4740821987574 2425.3166183657 54 36 34
-792.389493955928 -93.5607740179185 2414.33007951945 39 25 22
-813.566884657525 -96.5389531941389 2455.02877800409 162 154 151
-821.640204419418 -96.9791052961239 2452.00706035529 22 19 14
-833.308358165939 -99.0481065253585 2485.82784351437 14 13 8
-843.185736054029 -100.360123298622 2502.73846967777 18 21 12
-848.849845155844 -99.7016329212943 2474.82017416691 16 19 10
-857.144733660838 -100.27014581406 2474.79444564576 14 17 8
-865.949951124143 -101.098334455905 2480.75207779239 14 17 8
-872.550416036679 -100.802760849359 2460.78010393218 12 15 6
-882.155470419351 -102.060513440977 2476.71664418937 15 18 9
-892.135304180361 -103.569244269382 2498.65367826471 14 17 8
-902.140368264711 -105.155372042645 2522.60338203208 15 18 9
-909.254985915442 -105.120282638843 2508.6145340523 18 21 12
-917.137199514175 -105.512524083316 2504.60861178491 18 21 12
-925.839878067964 -106.411045036034 2512.594839864 18 21 12
-932.948535386443 -106.300547754353 2496.59092264936 18 21 14
-940.939225154978 -106.738108419621 2493.57950991078 17 20 13
-949.352602074188 -107.467470982134 2497.57016672068 16 19 12
-958.75043552334 -108.940334424753 2519.5797365387 17 20 13
-967.487665218505 -109.993130952363 2531.59304778036 18 21 14
-975.950462347818 -110.877340567197 2539.60917395467 18 21 14
-982.968390343377 -110.573220374959 2518.57739356439 17 20 13
-989.775916803544 -109.991272517883 2490.51684816776 20 23 16
-997.668146212053 -110.310407883553 2484.49386899915 23 26 19
-1005.38653533289 -110.429640277033 2473.45338187364 20 23 16
-1014.64967101296 -112.159526091439 2502.53472826101 20 23 14
-1021.8819836099 -111.718974722748 2477.44484599176 19 22 11
-1029.84886813458 -112.043612575195 2471.4125647966 21 22 14
-1037.69599606886 -112.17182275847 2460.35603547096 24 24 16
-1046.15191848049 -113.132697931016 2470.38883593053 25 25 17
-1053.8106802069 -112.87134600055 2449.27695563917 27 24 17
-1061.76595041137 -112.969288463063 2437.19916399038 43 40 33
-1069.70622709522 -112.915321074478 2421.09185473363 31 31 23
-1077.83602083036 -113.13813707353 2412.01567372457 22 23 17
-1086.13735818029 -113.749906337585 2412.99694143801 20 21 15
-1094.44722613385 -114.437921599105 2415.99271957005 15 18 11
-1102.7644561289 -115.277629292568 2423.01896710097 19 22 15
-1111.05658301365 -116.26694376704 2434.07997026602 21 23 18
-1119.18188530994 -115.470487898854 2397.79219174469 20 22 17
-1127.48605553702 -115.290046897392 2377.60814899979 19 21 16
-1135.85240574479 -115.567028372839 2369.51051715124 24 26 21
-1144.15407759322 -116.481997398514 2378.55451891004 24 26 21
-1152.65138113513 -116.314504615124 2358.34616809918 21 23 18
-1160.81837224571 -117.560987768349 2376.47775493844 21 23 18
-733.293772143727 -100.595765157136 2488.23555648557 139 128 110
-742.393025598175 -101.42057343752 2494.15648577676 137 111 96
-750.337057890765 -101.856162100505 2491.15089042214 126 97 83
-757.077537417805 -101.864360564908 2478.21653376357 128 100 88
-762.458348288754 -101.365057532884 2453.35755324334 49 25 15
-769.245426880842 -101.341516231019 2439.4096106132 47 27 18
-777.349278729712 -101.788050278841 2436.38385927834 52 37 30
-785.906272754271 -102.403982735351 2437.33323351383 48 34 31
-793.912833977403 -102.809625348315 2433.31182868955 203 195 192
-813.048103752662 -104.87301286763 2455.11546624354 84 83 78
-823.216092722896 -106.188831514828 2472.99752297225 18 19 13
-834.736427958834 -108.117285983014 2505.82869578447 20 23 14
-838.619933349093 -106.787508705691 2459.99151243741 19 22 13
-848.885661084126 -108.215336346483 2480.88472821238 17 20 11
-856.097693537 -108.29098375815 2468.89962952779 17 20 11
-866.385999158464 -109.790753954333 2491.80583163929 16 19 10
-873.621584145492 -109.868260130756 2479.81779863267 12 15 6
-881.966500038143 -110.472712547605 2480.79360873295 17 20 11
-891.002707634302 -111.437113293107 2490.75376204783 16 19 10
-901.486034543432 -113.195501144892 2520.69059794081 17 20 11
-909.185311387145 -113.513748759589 2514.69193604244 20 23 14
-917.540572134094 -114.189710323965 2517.68201767924 20 23 14
-924.730526831339 -114.19525363776 2503.68387508626 20 23 14
-933.022742237757 -114.832460596847 2505.67403525177 18 21 14
-941.112533902393 -115.351708698676 2504.66584449978 17 20 13
-949.260720313755 -115.909922774911 2504.65815614232 17 20 13
-957.741207072307 -116.699910674239 2510.65621216081 17 20 13
-966.505164084333 -117.71853177834 2522.66609799158 18 21 14
-974.025247212848 -117.851438567643 2511.65039429257 21 24 17
-982.322869213608 -118.560106324733 2515.65568240166 18 21 14
-989.908893402716 -118.697602132305 2504.63176173315 22 25 18
-996.476547120365 -117.893782771961 2468.53834915421 23 26 19
-1004.99980506258 -118.757626738629 2476.54687654429 20 23 16
-1013.36108905892 -119.506088732193 2481.55201190761 19 22 13
-1020.88963690164 -119.395282063342 2463.48031982676 18 21 10
-1028.92582874235 -119.772764757429 2458.44721575151 19 20 12
-1037.42270249757 -120.705626211523 2468.47483195237 22 22 14
-1045.24639059317 -120.789475372564 2455.40549649172 23 23 15
-1053.20578081259 -120.987331451821 2445.34282800476 28 25 18
-1061.38251407338 -121.479619559267 2443.31602935918 48 45 38
-1069.35976101928 -121.573818661229 2430.22755791804 34 31 24
-1077.27420333477 -121.383905992383 2409.08419860223 23 22 17
-1085.37429709818 -121.416275464593 2393.96485958202 24 25 19
-1094.00717650246 -123.024594058381 2423.12453808363 14 17 10
-1102.2298617457 -123.485551597014 2420.08399502743 14 17 10
-1110.49216471383 -124.159410933776 2423.08591197807 20 22 17
-1118.6738799166 -123.952416413477 2400.90122623464 19 21 16
-1126.97235408502 -123.332768629064 2366.60791697037 19 21 16
-1135.33038399836 -124.048270826501 2370.60568452736 25 27 22
-1143.81059603045 -123.860994003171 2348.38380007018 25 27 22
-1152.31796472695 -124.025955167337 2336.23728628493 23 25 20
-1160.33515521161 -125.875816038899 2373.53665280853 16 18 13
-731.090318882525 -108.339664592692 2475.43003435796 113 100 81
-740.226188922637 -109.147634736029 2481.34634977311 117 91 74
-748.578266025931 -109.711773166423 2481.313472933 121 93 79
-755.587220690569 -109.834678197142 2470.36152870525 98 72 59
-759.202314662707 -108.80347472635 2430.60499065772 219 196 188
-767.443953779345 -109.296376603878 2428.56985349265 210 191 184
-777.166168771168 -110.304352879379 2439.45243926173 41 28 22
-786.158609967951 -111.071926344646 2444.37886026717 40 31 26
-823.799765750411 -114.897299666484 2484.03289635631 25 28 21
-830.435617638318 -114.803987071611 2467.08034062128 26 29 22
-837.441426846661 -114.831452716214 2453.10523602833 18 21 12
-844.884532167184 -115.016363192583 2443.10720302146 17 20 11
-856.117465473047 -116.801335923454 2474.96617694321 16 19 10
-865.789167728037 -117.96949587249 2490.89416400092 16 19 10
-873.946046736969 -118.491465046191 2489.87760831082 13 16 7
-881.131038227396 -118.563590831006 2476.88794753747 16 19 10
-890.884337023737 -119.834442463294 2495.82932382742 16 19 10
-899.39570900102 -120.541214481243 2499.80793221077 18 21 12
-908.170740721931 -121.394282618318 2507.78501134398 19 22 13
-916.265359232022 -121.913106621051 2506.77621711335 17 20 11
-924.157174515887 -122.322189253717 2502.7691409631 15 18 9
-931.741079871243 -122.550123454343 2493.76109707518 18 21 14
-940.607431300858 -123.506652001716 2504.75035407125 18 21 14
-948.755980416018 -124.061903074653 2504.74261264753 18 21 14
-956.954977603727 -124.652879079059 2505.73659704988 18 21 14
-964.873009860945 -125.06445306354 2501.72625573722 17 20 13
-973.113476168633 -125.690689006328 2503.72284499254 17 20 13
-981.239937022118 -126.245189874338 2503.71785807766 20 23 16
-988.536756317117 -126.165114146964 2485.67516527845 20 23 16
-995.881711786785 -126.055979560841 2466.61870174555 19 22 15
-1003.44414648336 -126.057882127299 2450.55845179783 18 21 14
-1011.68884543974 -126.620587315739 2450.53873107251 18 21 12
-1019.57799650942 -126.837616242269 2440.48511877594 17 20 9
-1028.51337823093 -128.123300179906 2461.54397953809 17 18 10
-1035.88284282564 -127.725859265861 2433.41379347688 19 19 11
-1044.36228918887 -128.562650042897 2441.4277170494 20 20 12
-1052.38224355553 -128.820975914099 2432.36533685815 26 23 16
-1060.61553079514 -129.351575228741 2431.33926859975 30 27 20
-1068.6981510364 -129.614264035631 2422.2693198362 25 25 17
-1076.29526606549 -128.780074564064 2380.00075346647 19 20 14
-1084.73725264961 -129.518329172245 2384.99579074315 19 20 14
-1093.03983613769 -129.924769269395 2379.92975909222 18 21 14
-1101.60710779638 -131.34952070187 2406.07384007171 19 22 15
-1109.88735800768 -131.883977799133 2405.04192127142 21 23 18
-1118.09193919183 -131.444917657724 2373.78410643093 23 25 20
-1126.45047709183 -132.016995178061 2373.75020396016 20 22 17
-1134.82857420574 -132.299836376368 2364.64343450035 22 24 19
-1143.22044951396 -132.745150353196 2360.57404922934 22 24 19
-1151.76865348113 -132.651735869116 2339.35185433069 22 24 19
-729.142273543588 -116.230875100334 2464.60864123521 123 110 91
-739.581344120336 -117.398761986184 2480.44086454389 113 87 72
-748.434430921873 -118.110506333096 2484.37684203182 114 88 75
-755.433718435151 -118.260237858127 2473.42617485402 100 73 62
-767.151362972491 -117.793145719916 2430.64435749974 165 150 143
-777.21131753957 -118.878505092033 2444.50830071546 57 48 43
-785.969520096993 -119.555433770601 2447.44810014335 69 64 60
-822.685482423488 -122.934532641669 2478.14651496828 14 20 10
-830.698432951356 -123.387172896545 2475.13236393009 14 20 10
-836.923124921112 -123.163594466914 2453.19185944321 17 20 11
-845.652334374808 -123.869447809231 2457.14328057804 16 19 10
-853.99705471379 -124.432530318755 2457.11107876915 15 18 9
-864.93218490185 -126.048870262943 2486.99139847458 16 19 10
-873.267740756155 -126.641277165154 2487.96810466214 15 18 9
-881.510893711551 -127.198364523061 2487.94880234299 18 21 12
-889.51286019857 -127.651449722307 2484.93578295117 17 20 11
-898.433576901806 -128.518407238165 2493.90240513524 18 21 12
-905.693697063786 -128.628569481082 2480.90346891549 17 20 11
-913.22909480619 -128.845234154216 2470.89400198355 15 18 9
-921.35321508747 -129.33636034208 2468.87352579815 13 16 7
-930.649728370059 -130.43501820256 2484.84839145899 16 19 12
-939.418340704639 -131.293009928733 2493.83397175795 17 20 13
-948.369851165563 -132.28114898157 2506.82805885189 19 22 15
-955.996501296635 -132.534000529429 2497.81474628762 19 22 15
-964.097995046718 -133.054001586538 2496.80509716742 19 22 15
-972.301344044848 -133.63982010675 2497.7985249075 18 21 14
-980.298519747777 -134.094294722759 2494.78610703619 19 22 15
-987.571108680937 -134.029402726178 2475.73879093051 18 21 14
-994.983449224429 -134.003202487837 2457.68182364163 17 20 13
-1002.60839534925 -134.07947729119 2442.62189586079 17 20 13
-1010.6861084966 -134.480590016115 2437.58367240079 18 21 12
-1019.45114086417 -135.487658361368 2451.60900807488 17 20 9
-1027.648273518 -136.014991401041 2450.58744309342 17 20 11
-1035.16182021638 -135.818653445601 2426.47079469647 20 21 13
-1043.36516477985 -136.287538763163 2423.4326861203 19 20 12
-1051.79663420204 -137.037264238535 2429.43675318292 21 21 13
-1059.77941185209 -137.196678940258 2416.34800355431 21 21 13
-1067.90142444112 -137.483402154707 2407.27296188366 21 21 13
-1075.80701268516 -137.283460091614 2382.09969243006 18 19 13
-1083.92183936698 -137.274463055745 2362.94741722999 17 18 12
-1092.58440891475 -138.54217223672 2386.05589046782 18 21 14
-1100.94697591199 -139.170035308412 2388.03724656392 19 22 15
-1109.3401956001 -140.065996695312 2399.085147834 21 23 18
-1117.54288663933 -139.560761689401 2362.78871884358 22 24 19
-1125.93241202542 -139.599665468636 2344.60997611251 20 22 17
-1134.25270169381 -141.348345515249 2384.89431248836 21 23 18
-1142.73748380415 -141.00945535775 2353.60179402291 21 23 18
-1150.64096779666 -143.322550332844 2414.0948152259 23 25 20
-1158.70211896234 -144.316014447439 2429.21564238463 5 7 2
-729.271787810717 -124.745060839759 2469.65357618515 131 118 99
-739.827759374186 -125.900693962539 2486.47910603889 128 102 89
-747.91761391181 -126.388940451497 2484.46313870088 132 106 93
-754.671443313159 -126.496710163294 2471.52737827426 123 96 85
-775.892291471949 -127.016448290028 2437.64004812964 63 53 51
-784.336989566455 -127.581823916767 2437.59537572677 75 67 64
-801.421045737989 -128.779146323221 2439.49752828391 83 84 78
-813.653583883173 -130.580215165698 2476.27071584829 14 17 8
-819.363267646901 -130.27353483477 2450.36327383342 13 16 7
-829.695624864041 -131.497166904582 2470.23994980297 12 15 4
-839.060264210652 -132.417542584817 2481.16692820555 13 16 7
-845.871953074047 -132.450153015697 2465.20044776752 12 15 6
-854.016488673926 -132.943906091417 2463.17767105761 15 18 9
-860.95208027579 -132.984758201853 2447.19599026323 17 20 11
-870.908572083856 -134.158284832481 2466.11175296465 18 21 12
-878.64260946568 -134.492057645252 2459.10086667475 17 20 11
-887.823135775502 -135.401550348204 2470.05055236718 18 21 12
-897.620951327915 -136.59223140271 2489.99408946973 20 23 14
-905.255846546053 -136.893266350654 2481.98780222354 21 24 15
-911.589469218081 -136.601301110182 2454.99484797507 19 22 13
-920.163398732881 -137.284738003247 2458.96534782661 17 20 11
-929.620085279687 -138.400509868814 2476.93564407651 19 22 15
-939.284797655783 -139.663873486625 2499.91904437008 19 22 15
-947.566808802021 -140.275376916126 2501.91041027761 20 23 16
-955.148910188953 -140.520234575141 2491.89518925216 20 23 16
-962.833157077462 -140.79861368938 2482.87475617901 19 22 15
-970.971920004357 -141.320877027842 2481.86046204352 17 20 13
-979.353753676922 -141.993021899162 2485.85514485211 15 18 11
-985.956605871667 -141.531833685023 2451.77385648337 13 16 9
-994.428816970507 -142.236854831466 2456.76479413142 12 15 8
-1001.81022699797 -142.174630525189 2435.68829035666 13 16 9
-1018.55201732552 -143.438248329628 2440.6568720863 10 16 4
-1026.94182977881 -144.111695318008 2444.65032235057 11 17 7
-1034.34850680502 -143.863907440775 2416.51588650385 18 21 12
-1042.55154080524 -144.311069086877 2412.47007237743 16 19 10
-1050.52537819893 -144.475461110259 2398.37452418062 13 14 6
-1058.89437180619 -145.067659054586 2399.34729725275 16 17 9
-1067.68909938531 -146.304149190751 2423.44688283352 21 22 14
-1074.97614586413 -145.191161911143 2363.07670787048 18 21 14
-1083.48007501993 -145.926489434462 2369.07169447024 14 17 10
-1092.15243861504 -147.182297989138 2394.19452859411 16 19 12
-1100.66661749138 -148.374409000875 2417.3215612941 16 19 12
-1108.69124794808 -147.792107207118 2375.00030686368 22 24 19
-1117.07130913612 -148.519939289491 2381.01073171453 21 23 18
-1125.40625496819 -147.850628676203 2334.61977423243 19 21 16
-1142.30976518268 -149.021168021729 2335.53645995847 19 21 16
-730.18458245877 -133.426947093404 2480.64804740298 130 119 99
-739.566020106302 -134.241309033323 2488.54910846145 116 90 77
-747.650428131899 -134.731970699596 2486.53382717622 128 100 89
-754.15271148628 -134.808407002339 2471.61400149733 139 112 103
-764.35078965669 -134.155754672237 2415.92067529317 171 156 151
-773.886884332528 -135.004805950496 2424.8104547889 82 72 70
-782.700979916199 -135.663310103607 2427.74323057722 60 52 50
-805.608412135909 -136.61843875144 2403.72392281762 22 21 16
-815.127509068364 -137.491266369717 2413.62381351231 9 11 0
-828.593296375731 -139.604578550923 2464.35250160352 12 14 3
-837.786365224342 -140.432762531409 2473.28503374126 12 15 6
-846.371065835296 -141.077630859073 2476.24640075654 12 15 6
-853.141894098872 -141.124701516472 2459.27737046209 16 19 10
-861.128500096506 -141.562898023674 2455.2585416615 17 20 11
-867.784193408024 -141.530582062466 2435.28036890325 17 20 11
-877.067683659436 -142.413478373587 2446.21737553258 15 18 9
-886.679383483885 -143.437968845007 2462.15247219044 18 21 12
-895.590087183112 -144.225004929644 2470.11244636978 21 24 15
-904.524778125137 -145.037788823467 2479.07718198717 23 26 17
-911.780366334355 -145.189122151755 2465.07123265272 22 25 16
-919.513245447837 -145.515704434841 2457.05278487366 20 23 14
-928.913522740492 -146.551438469787 2474.02198252129 20 23 16
-938.278108710245 -147.609115942878 2492.0036193892 20 23 16
-946.582411723023 -148.21359626729 2493.99218490848 20 23 16
-953.899420318566 -148.345458853246 2478.97083229924 19 22 15
-961.943881923415 -148.81309862528 2475.95254809689 18 21 14
-970.153406463809 -149.363716305095 2475.93718509871 15 18 11
-976.838996985966 -149.070135882763 2444.86931442833 15 18 11
-984.56490388565 -149.300980401205 2432.82049595682 12 15 8
-992.393008540611 -149.562607444275 2421.76669197253 11 14 7
-1001.86695384355 -150.869194710315 2449.81292872541 13 16 9
-1009.73404604031 -151.157652077367 2439.76201708128 14 17 8
-1018.32190717593 -151.950057934965 2448.76998134323 11 17 5
-1026.39656972875 -152.372511131201 2443.7324350475 12 18 8
-1034.0116595018 -152.380289684059 2422.62695377203 18 21 12
-1041.92502498334 -152.575908622237 2408.53903434732 15 18 9
-1049.83379243023 -152.699108125118 2391.42819645282 13 14 6
-1058.0251047071 -153.057313980614 2383.35262220475 15 16 8
-1066.36826122706 -153.569859308044 2381.30486799824 20 21 13
-1074.5838183417 -153.881692899742 2371.21077182166 17 20 13
-1083.24673780181 -154.920666608414 2390.28761036426 13 18 11
-1091.8447245166 -156.05186485733 2413.40378366115 17 22 15
-1099.95108174698 -156.116271976764 2393.24483133886 16 21 14
-1108.13608303098 -156.089537072659 2369.04483602282 24 26 21
-1116.46206764898 -156.216439769081 2350.87425454597 19 21 16
-1124.88056035084 -156.517939897224 2339.74687862811 18 20 15
-1133.33231304766 -157.014310996623 2336.67784256829 15 17 12
-1141.92667765028 -156.893999766437 2307.3878389406 15 17 12
-729.535998252609 -141.692888618406 2479.74282757338 148 139 122
-737.26155991961 -142.099186282931 2474.74880445932 106 79 68
-745.258896566288 -142.565680274008 2471.73663842452 91 61 51
-752.777918390035 -142.916310728282 2464.7526291991 111 82 74
-759.492410427439 -143.066177101366 2450.8142016048 162 139 133
-765.809884762574 -143.105371457487 2432.89403936027 207 188 184
-773.475198327199 -143.46573212535 2425.89179941463 48 34 33
-781.841623603238 -143.999184280421 2424.84912382924 164 154 153
-798.468011199976 -145.038304138238 2421.76929833833 7 4 0
-804.357061573319 -144.90123451642 2396.84760619294 27 26 21
-814.400145403235 -145.884098247966 2411.7210719565 18 18 10
-825.433015475383 -147.165273469322 2437.55708272761 12 13 5
-834.510770933949 -147.915850960749 2444.48842672438 14 17 8
-841.325476649496 -148.009336459828 2427.51404301517 14 17 8
-851.368176200452 -149.056792159022 2445.41102839843 16 19 10
-858.086591069878 -149.10165633755 2426.4329187099 15 18 9
-867.179335932091 -149.875086723943 2434.3701393982 10 13 4
-877.039126288806 -150.911240925561 2452.28992100547 13 16 7
-886.006213918496 -151.676885221884 2460.24256220037 17 20 11
-894.161910244587 -152.177217005307 2458.21841002261 21 24 15
-903.645473637829 -153.146991001782 2474.16935325565 24 27 18
-913.319500818921 -154.214469938617 2494.12801396672 22 25 16
-919.815327860624 -154.1178919305 2469.13070631356 20 23 14
-927.421199830868 -154.412750866929 2459.11265053643 17 20 13
-936.704434831634 -155.370203246212 2475.08856111999 17 20 13
-945.595058130542 -156.195868989371 2486.07420423899 18 21 14
-953.274964953254 -156.517200514533 2477.05466616277 17 20 13
-961.979190652334 -157.288479720063 2486.04805317886 17 20 13
-969.073444349321 -157.316357686363 2465.00762209761 13 16 9
-976.668104988275 -157.547194875061 2451.9672549973 15 18 11
-983.073613682355 -157.125620436058 2411.86433539433 14 17 10
-991.918694244233 -157.949123907611 2422.8556562834 13 16 9
-1000.77988490047 -158.816446801876 2435.86069658994 15 18 11
-1009.9473567602 -159.916965976342 2458.905960984 16 19 12
-1017.59580424596 -160.087807691305 2442.83542204392 13 21 8
-1025.29148719198 -160.240462328023 2425.75125340444 15 21 11
-1032.98220877782 -160.328891146343 2405.6444734824 17 20 11
-1041.21431139958 -160.793626497581 2401.59507804358 14 17 8
-1049.21378370204 -161.030138729178 2387.49652068771 13 16 7
-1058.0328373922 -162.044952582561 2407.56149807553 14 17 8
-1065.55580343942 -161.674925623174 2366.31133478275 19 22 13
-1074.12710111261 -162.439304258079 2375.3212922582 16 19 12
-1082.74077490899 -163.355878481003 2391.38065247049 13 18 11
-1091.02503757337 -163.803285443161 2386.31701503484 18 25 17
-1099.2098302081 -163.945679667412 2367.15616691224 17 22 15
-1107.53747169281 -164.268065475705 2356.04018369086 24 26 21
-1115.9683958096 -164.938577180431 2361.03642309954 18 20 15
-1124.35191881195 -164.966061025057 2335.80410913166 18 20 15
-1132.78735119369 -165.722411344134 2344.83100064997 14 16 11
-1141.15756936418 -166.517348003989 2355.88174659718 14 16 11
-726.536400246605 -149.479492926851 2460.99040920703 166 160 148
-734.696542564426 -149.980371733943 2458.96546336761 110 81 73
-743.362893886344 -150.588170963766 2460.90885613854 75 41 32
-751.768103205738 -151.142197005824 2460.86932208136 91 58 49
-759.928343374766 -151.643462775575 2458.84436504974 126 99 92
-767.391757248639 -151.988622308396 2450.85959386204 159 136 130
-774.893057244646 -152.336329779572 2442.87010142019 146 131 124
-780.311465281217 -152.197372160778 2415.99176348767 196 185 179
-795.924792750841 -152.988232970566 2402.96011634196 12 11 6
-808.173958768847 -154.458888175164 2438.72243134663 15 18 11
-814.276642005125 -154.438585515885 2415.79000104969 16 19 12
-822.753782886675 -154.99829887185 2415.74150533615 13 18 11
-831.320523203912 -155.582462903011 2416.68933936217 16 19 12
-838.301198181818 -155.748931118861 2400.70236323453 16 19 12
-847.341268620428 -156.456676102775 2406.63036993419 11 14 7
-856.779061514072 -157.283046060836 2417.54773137712 11 14 7
-865.644340255734 -157.961244109508 2422.48978613821 15 18 11
-875.540015155632 -158.947419978993 2440.40495795047 15 18 11
-884.383106183816 -159.64307162564 2446.35751466865 17 20 13
-893.111372367879 -160.312869660085 2451.31664566578 18 21 14
-902.616912205409 -161.237228948745 2467.26472677048 17 20 13
-912.171660730081 -162.202088976223 2485.22238804433 18 21 14
-920.189536466466 -162.677896702844 2482.20744311121 18 21 14
-926.251263814958 -162.470380208623 2449.20227932657 18 21 14
-935.501757453701 -163.360269025403 2464.17417054537 18 21 14
-945.025609555591 -164.379431045482 2485.1591320758 19 22 15
-953.338617560373 -164.967639200181 2487.14656841136 21 24 17
-960.70452139573 -165.178993912148 2472.11932330494 23 26 19
-968.665463607112 -165.614627459699 2467.0960033455 21 24 17
-975.562714682684 -165.572911531371 2440.03337062706 16 19 12
-983.578212724788 -165.993663658309 2433.99527586585 13 16 9
-991.444402205013 -166.330535541418 2423.94460437332 12 15 8
-1000.51123757124 -167.265372769302 2441.96307526085 15 18 11
-1008.70494160456 -167.772276554177 2439.93419725306 16 19 12
-1016.90308016455 -168.279582288238 2437.90476690107 16 19 12
-1024.74195273891 -168.559324557938 2424.83405238477 16 19 12
-1032.12875744843 -168.493951601104 2394.68696240377 12 15 8
-1040.36255412711 -168.948050008968 2389.62964044646 11 14 7
-1049.53981422637 -170.151012701382 2421.74361752866 13 16 9
-1058.07047508621 -170.92196459578 2432.77427801374 15 18 11
-1065.753662708 -170.894623694588 2403.59798845174 17 20 13
-1073.51976971944 -170.798323712579 2370.38018077734 18 21 14
-1081.81090431026 -171.200812414467 2362.29226591193 17 20 13
-1090.24150110123 -171.779742309066 2363.25731632999 19 22 15
-1098.6600803252 -172.357991237577 2364.22362440732 20 23 16
-1107.01231929016 -172.764701110855 2356.12809519357 23 26 19
-1115.50411990295 -173.757011771951 2379.25739440145 17 20 13
-1123.83453387668 -173.827733071659 2353.02389462372 16 19 12
-1132.28616536401 -174.017925847765 2332.82218536745 8 11 4
-1140.52839329905 -175.403619970164 2378.15422350406 18 21 14
-741.964529240705 -158.76666519804 2454.05061132791 88 58 50
-750.75687402364 -159.390294481007 2456.98600964584 76 47 39
-759.887293761691 -160.08325079971 2462.90270234164 107 82 75
-768.159254831558 -160.6103640359 2461.8717986374 123 103 94
-776.431146219369 -161.137592277328 2460.84090393193 105 90 83
-794.501669325637 -162.512162019566 2472.69825007898 29 26 19
-806.564361746075 -163.853372315131 2507.47580789946 11 11 3
-807.236939570043 -162.752590588905 2434.83021831164 17 20 13
-817.485552323679 -163.708277040792 2452.70126527351 11 16 10
-826.353815870725 -164.369512542863 2457.64266260953 10 15 9
-832.514657461133 -164.413396050843 2434.70338379455 15 18 11
-838.423162242767 -164.377760024143 2407.76415677939 14 17 10
-843.9316383022 -164.221411298287 2374.82792996459 12 15 8
-857.915258461907 -166.11479216497 2436.57669528227 12 15 8
-876.741649293405 -167.746229600872 2461.44104314051 15 18 11
-883.943949543249 -168.000160140996 2447.44201401447 17 20 13
-892.747190337285 -168.674010188126 2453.39972666128 17 20 13
-902.176489181919 -169.530804354802 2468.34921689389 15 18 11
-912.087523582744 -170.545497311461 2491.30146305842 15 18 11
-918.309916666704 -170.499128536733 2462.30742190939 16 19 12
-925.734810616888 -170.783700333658 2449.2886224651 17 20 13
-934.232078209427 -171.390883067359 2452.26080136051 19 22 15
-943.490805530012 -172.253167095686 2468.2395197352 20 23 16
-952.368792539164 -173.011853141768 2479.22680366854 20 23 16
-960.687028779892 -173.592018327641 2481.21356637029 20 23 16
-967.7361235353 -173.710238455694 2459.17108140392 19 22 15
-975.738998644307 -174.159345621015 2454.14256394905 16 19 12
-983.856164762185 -174.647600239506 2451.11526094176 14 17 10
-991.498694469196 -174.931054046949 2437.06137153055 14 17 10
-999.169305776723 -175.200542750118 2421.99625382681 15 18 11
-1007.10799032072 -175.566608666974 2411.93661226036 16 19 12
-1015.63337049418 -176.208327191823 2416.92098828577 15 18 11
-1023.79297217142 -176.668068217892 2411.87294028563 15 18 11
-1031.24069933974 -176.701579279957 2382.72643531642 13 16 9
-1039.75674064195 -177.327123006902 2386.70400681506 11 14 7
-1048.89756963751 -178.405205258661 2416.8065869503 12 15 8
-1057.7800496302 -179.403357560874 2442.91044862831 15 18 11
-1066.02270337238 -179.964046078293 2443.898664921 16 19 12
-1073.09736279571 -179.371403723284 2376.50207469188 18 21 14
-1081.17103685697 -179.556654734342 2354.33214507757 17 20 13
-1089.51934830738 -179.981665608368 2346.23715418945 19 22 15
-1098.08211956232 -180.737704351821 2358.271455312 20 23 16
-1106.49905867272 -181.294167304706 2358.23022359502 25 28 21
-1123.30103346828 -182.167401163906 2343.03484275162 13 16 9
-1131.7555432914 -182.583796684089 2333.918889148 14 17 10
-1139.99378869696 -183.874462647796 2381.26654822386 18 21 14
