ply
format ascii 1.0
comment KinectMotionCapture
element vertex 768
property float x
property float y
property float z
property uchar red
property uchar green
property uchar blue
end_header
-197.561392373689 69.0540387871982 1936.80759587164 161 165 168
-208.785532117243 68.1939391527471 1927.43290292854 162 166 169
-220.007872139977 67.3341117238019 1918.11951679469 162 166 169
-212.30203837539 67.8277273099973 1906.93625678773 163 166 171
-219.53831354137 67.2528112969786 1897.27603747802 172 175 180
-230.757559951272 66.3932522996016 1888.08384867169 169 172 177
-248.946779110751 65.0358265233797 1879.72219104483 156 159 164
-255.183186878189 64.5326321349636 1870.10910070476 152 156 159
-253.452431324551 64.5984335405579 1859.60735218255 153 157 160
-254.708889985596 64.4507025767899 1849.45013481858 147 151 154
-252.978168499562 64.5160479050297 1838.93724032746 139 143 144
-252.243442838612 64.5100689964004 1828.53828284183 132 136 137
-246.531096867805 64.8590835681323 1817.50367630635 132 136 137
-227.878662231603 66.1309275093752 1804.76002160496 131 135 134
-185.406123908075 68.8590371171742 1746.78284244637 123 127 126
-211.542373373601 66.9359617550549 1740.10962866239 123 127 126
-217.775677217068 66.4312829861357 1730.61625661022 129 133 132
-209.084553167397 66.9894564468335 1718.89338480964 127 131 130
-197.41013087426 67.7596127072774 1706.66194353326 119 123 124
-175.790000768733 69.2372117532906 1692.80254686057 122 126 127
-164.119509806768 70.0058562338681 1680.41583231032 111 115 116
-215.374861706626 66.2351571879705 1667.79588666036 148 150 147
-237.51626005868 64.5987803524283 1661.11183112387 123 125 122
-247.7217838948 63.8116456738917 1652.50903403146 127 129 126
-258.92038138775 62.9541147704573 1644.13537883072 103 105 102
-263.157293757986 62.5915721647253 1634.59486780315 114 116 113
-258.445712639591 62.864844983994 1623.47374018824 120 122 119
-256.717433933609 62.9259056869094 1612.87009767794 126 128 125
-250.018947747547 63.3397612925116 1601.33872638724 136 138 133
-78.9563022552153 67.3373943067623 2033.58904513552 168 170 165
-78.2325199871066 67.3300024317646 2022.76086481322 122 124 123
-80.4996023167259 67.1162839470132 2012.14228302384 116 120 121
-78.7789947998472 67.1771029325606 2001.23856433141 144 148 151
-92.0112474712109 66.2077911244855 1991.47892176941 164 168 171
-119.19651712665 64.2778279965754 1982.90713125859 163 167 170
-132.424118882921 63.3093942801572 1973.33020539724 167 171 174
-136.680057231703 62.9586667750934 1963.05877936365 165 169 172
-150.901106252576 61.9220962517184 1953.68949470868 166 170 173
-172.095892047568 60.4059648528576 1945.03261037224 164 168 171
-195.280441301439 58.7533812350907 1936.67868896613 161 165 168
-206.505331356017 57.9237997302133 1927.29811449787 162 166 169
-216.732438324087 57.1629391705044 1917.87998496601 164 168 171
-212.014911859699 57.4294790364699 1906.9933175298 162 165 170
-215.266935011907 57.1479978016497 1896.91523980214 165 168 173
-227.483556726634 56.2504630115419 1887.81888014523 164 167 172
-242.686536810959 55.1479632149505 1879.11902479991 161 164 169
-253.903431726639 54.3195349340221 1870.05216629954 157 161 164
-251.17657101325 54.4486471318889 1859.4321497297 146 150 153
-258.408133748903 53.8938766976717 1849.97773929285 143 147 150
-259.664466904052 53.7492519881376 1839.8380871789 140 144 145
-259.924789704639 53.6728043835483 1829.58168677383 138 142 143
-256.202500950015 53.8694284960627 1818.82144886072 136 140 141
-226.597231347451 55.8408968769278 1804.68597544135 129 133 132
-189.09758069761 58.1100026897357 1747.40841009542 120 124 123
-210.260108924084 56.5995632544687 1740.01837487517 118 122 121
-218.483892995007 55.9756019524385 1730.81838744058 124 128 127
-210.787177052531 56.4415971190027 1719.24911468025 129 133 132
-191.152609640022 57.7242033745977 1705.79400506297 134 138 139
-165.551734454403 59.4142681511238 1691.29274852803 152 156 157
-145.923042697014 60.6947999781992 1677.60577059267 142 146 147
-232.258356701579 54.6046566707223 1660.32785435383 122 124 121
-245.448484984184 53.6415329783297 1652.22122315351 123 125 122
-256.647833663821 52.8147450427774 1643.84189361773 100 102 99
-257.902144586248 52.6675258491003 1633.76916681846 119 121 118
-254.184996519871 52.8597322620823 1622.81259440304 117 119 116
-251.462492774778 52.983783272799 1612.0168581058 121 123 120
-246.752218977101 53.2433206628317 1600.83921261056 137 139 134
-77.6619970240557 56.6440571000338 2033.58513351424 165 167 162
-75.9409191706548 56.7000828757922 2022.68532583471 124 126 123
-78.2085422770953 56.4920241285938 2012.06101039233 120 124 123
-77.484618487873 56.4816421038382 2001.22582582464 155 159 160
-92.7118822335662 55.4164011828912 1991.61688658093 153 157 158
-119.899140735603 53.5608123408502 1983.04722243537 166 170 171
-139.108427512447 52.2330878297357 1973.96716618578 164 168 169
-143.36419461928 51.8937795239796 1963.71469393746 172 176 177
-156.589256182956 50.9618834610301 1954.27627892074 166 170 171
-177.785229233553 49.5038045063112 1945.63532476586 165 169 170
-194.992033246495 48.3095745758879 1936.73691961594 161 165 166
-205.221405257263 47.5762599314407 1927.25984105119 166 170 171
-214.452819927796 46.9089398777164 1917.73976572449 164 168 169
-214.71643732361 46.8334007248353 1907.35557655034 158 162 165
-217.968729585257 46.5605624770439 1897.2855860556 159 163 166
-232.178479942949 45.5650039069842 1888.41125256363 160 164 167
-246.386010248233 44.5698444514234 1879.61479016059 164 168 171
-257.603474150824 43.7720544622392 1870.55859071866 158 162 165
-256.868119363336 43.762176754413 1860.18003544726 148 152 153
-262.107955868267 43.3583986680972 1850.50566128561 137 141 142
-263.364103908201 43.2170342606347 1840.37674477679 136 140 141
-265.615504715721 43.0099964386327 1830.37822437597 138 142 143
-257.910110909244 43.4584205894913 1819.1292461992 120 124 125
-230.293511860948 45.2170983926624 1805.2574839581 123 127 126
-199.756610529649 46.9242514248656 1749.03328067514 126 130 129
-215.943937138236 45.7992364080626 1740.94573994168 133 137 136
-220.187512979763 45.4594375782533 1731.16921788743 119 123 122
-212.489834792692 45.9041452183209 1719.60537128462 114 118 117
-193.848780155236 47.067187775272 1706.30944905105 122 126 127
-168.245749161486 48.6866438968925 1691.8166348305 128 132 133
-237.940528745858 43.8648498121406 1661.38492997808 133 135 130
-242.180122399386 43.5251358445512 1651.76413674444 122 124 121
-253.380534676209 42.7290645880845 1643.37621935042 111 113 110
-255.629737143061 42.5199680534825 1633.47073201962 114 116 113
-253.901008683346 42.571503566758 1622.86511523998 121 123 120
-250.1840890564 42.7531608338102 1611.88828775974 136 138 135
-250.444479358757 42.6740244106384 1601.62636210535 136 138 135
-88.0621664161252 45.260935469518 2045.1059209442 163 165 160
-80.3565834570783 45.6916143300787 2033.84528197909 146 148 143
-76.6406428794397 45.8688877719901 2022.81615805832 116 118 115
-77.9112908825592 45.7297549951868 2012.12292891069 116 118 117
-79.1815391194439 45.5905217161395 2001.43589131257 163 165 164
-95.4067394194627 44.5035439175909 1991.90895695167 171 173 172
-125.586662526 42.5329302485151 1983.58589844952 177 179 178
-148.78437880375 41.0052219405774 1974.85144562727 180 182 181
-156.030161889591 40.4880337741381 1964.88160758774 158 160 159
-168.25866728549 39.6554718355506 1955.39055534722 168 170 169
-181.482052651622 38.7601384869589 1946.0569101639 160 162 161
-194.703598893263 37.8651747275455 1936.79554117312 163 165 164
-207.92330322924 36.970521278689 1927.60649342403 169 171 170
-214.165852734245 36.5173413120898 1917.7977395496 157 159 158
-217.418629535018 36.2532118711924 1907.71816243341 169 173 174
-220.670956093809 35.9890372451381 1897.65613381725 158 162 163
-237.870060414527 34.8434619836239 1889.1109009489 159 163 164
-250.086062864601 34.0131033278484 1880.11087285922 159 163 164
-261.304097333873 33.2459812193531 1871.06530250315 158 162 163
-261.564357003631 33.1709458648815 1860.81288583497 151 155 156
-264.812473783265 32.9071717732493 1850.91582003477 145 149 150
-263.080822655442 32.9576366629038 1840.4326064845 139 143 144
-264.336646129808 32.8193627517737 1830.31036867119 129 133 134
-260.613674031297 32.9950389492698 1819.56367073481 125 129 130
-244.942992754203 33.9239596937195 1807.24837122801 126 130 129
-231.265804934399 34.7265355763646 1795.11043068207 117 121 120
-223.563564393013 35.151901320626 1783.70412885267 119 124 120
-227.808121739396 34.8240100485229 1773.90203160694 119 124 120
-226.079869536906 34.8723996760683 1763.28374802356 132 136 135
-222.361097795759 35.0459823093514 1752.37063766254 116 120 119
-216.652221138901 35.3446175544203 1741.14634487869 122 126 125
-217.910451755261 35.2043223554569 1730.92785731419 121 125 124
-211.207611917132 35.5649747733001 1719.50951634273 107 111 110
-192.564972903257 36.6765407988054 1706.21092070508 130 134 135
-171.935099696846 37.9123620230881 1692.49741342573 126 130 131
-240.900645889375 33.266830136286 1651.64777064931 126 128 123
-246.134525807805 32.8762965631197 1642.22042146101 108 110 107
-252.362331602478 32.4234225087887 1632.99755611469 113 115 112
-254.611350075983 32.220379998654 1623.09643543822 134 136 133
-254.871467886336 32.142141382535 1612.84612371138 134 136 133
-251.154422136631 32.3133288934409 1601.86298392772 135 137 134
-79.0619952911364 34.9970801791252 2033.84181845451 65 67 62
-72.3541924526812 35.3450244361351 2022.60380368421 27 29 26
-74.6223503346415 35.1483619786881 2011.97082382016 29 31 28
-78.8843540789612 34.8306956984133 2001.49783971411 77 79 76
-97.1047877194153 33.6670438777985 1992.12427158744 58 60 55
-132.272005856358 31.4770098889819 1984.20430855942 11 13 8
-160.455791345651 29.7108964800813 1975.90047606305 24 26 23
-170.691904765411 29.032325025084 1966.21869890203 20 22 17
-177.936183811301 28.5350434678792 1956.32901813792 0 1 0
-182.189252754239 28.218870605021 1946.20684053833 14 16 13
-196.408313446238 27.2996114964041 1937.04122662594 133 135 132
-208.632360565986 26.501291969161 1927.76118612578 167 169 164
-213.878863224987 26.1252385256212 1917.85604415636 181 183 180
-214.142509520815 26.050441916849 1907.47152275618 169 174 170
-220.384450213301 25.6141362033966 1897.71400644572 169 173 172
-238.581332558309 24.4553708344351 1889.27547601494 176 181 177
-253.786696651352 23.4777843283745 1880.60724283294 167 172 168
-262.017001849682 22.9218034094262 1871.23470403675 160 164 163
-262.277208786047 22.8472322369538 1860.98484677514 161 165 164
-260.545221097538 22.8927932780734 1850.50019701933 149 153 152
-257.817585197198 22.9982617830808 1839.88509066446 137 141 140
-259.074085354431 22.8630756226169 1829.7490459176 140 144 143
-257.342679355128 22.9080316586469 1819.24101212465 140 144 143
-247.645581020926 23.4331838107988 1807.691482659 122 126 125
-235.958366327398 24.0778698688237 1795.82529246522 124 129 125
-230.246516096031 24.3618868731602 1784.70152133318 132 137 133
-235.486618769817 23.9856285477211 1775.05561775857 138 143 139
-234.753082013027 23.9692649234636 1764.59904347196 111 115 114
-229.042493427908 24.2525109035581 1753.4251349675 120 124 123
-217.360627040822 24.8949628330427 1741.34751559527 90 94 93
-214.637860218098 24.997627072414 1730.53909781531 93 97 96
-209.925209232934 25.2198202840085 1719.41426373942 114 118 117
-196.256747243636 25.980553693621 1706.88103549615 106 110 111
-179.605213288542 26.9201060204969 1693.80411002725 141 145 146
-222.710663379003 24.0182259993873 1648.64199981093 127 129 124
-237.892859510402 23.0444185715388 1640.89263329961 102 104 101
-249.0944430299 22.3099451462158 1632.52507869143 112 114 111
-259.300020881061 21.6355193641626 1624.04118863667 149 151 148
-258.565448301538 21.6176984553476 1613.62353317084 123 125 122
-252.85901515662 21.8979700460988 1602.28402199789 141 143 142
-237.210402768649 22.7741480491689 1589.04956275972 153 155 154
-69.0644036510588 24.7409299721084 2022.46047622102 3 5 2
-64.3519209682748 24.9539704861002 2011.31923684333 6 8 3
-67.61778586467 24.7050375507608 2000.74444844783 31 33 28
-106.780709823851 22.3795086840436 1992.95494823735 22 24 19
-146.935186454384 19.9976835029312 1985.45984990973 21 23 18
-159.167580127252 19.2312733528681 1975.87853424297 9 11 6
-190.340493758359 17.3703127292159 1967.98118976878 13 15 10
-185.621352093604 17.5841913913442 1957.09178162516 2 4 0
-163.957485899569 18.7766700398626 1944.63560247795 3 5 0
-202.100433610955 16.5142275401024 1937.66055806394 18 20 15
-210.338378016766 15.9795002378267 1928.01227307242 8 10 5
-207.61247256721 16.0777408997909 1917.32177400514 12 14 9
-213.85551018772 15.65817669338 1907.53003690018 18 23 19
-219.101534491039 15.2961868906378 1897.66801597051 90 95 91
-238.296180555504 14.1297225984856 1889.33331828222 138 143 139
-245.532260309031 13.6532448362637 1879.78643178039 182 187 183
-253.763507816272 13.1195008194629 1870.39161577226 180 185 181
-255.020629706379 12.9877802884928 1860.23499267692 165 170 166
-256.27733923787 12.8560001196349 1850.08509716198 161 166 162
-251.557598072806 13.0683353452842 1839.217462344 148 152 151
-254.806403018328 12.8215509947681 1829.31174291247 128 132 131
-252.079313120256 12.9187490596454 1818.66641673591 131 135 134
-249.352601462516 13.0157038809404 1808.00604644064 119 123 122
-241.647586746629 13.3988539220197 1796.67216577853 127 132 128
-240.913451850911 13.380706422648 1786.2370534456 134 139 135
-243.166061170331 13.1906473513257 1776.20953068806 132 137 133
-238.449755392226 13.4011570558032 1765.21499373108 134 138 137
-228.756573049782 13.8973953135249 1753.48136822878 129 133 132
-218.069156835287 14.4503167280788 1741.54922202855 39 43 42
-220.322946578094 14.2595051210714 1731.48408100919 111 115 114
-213.618878230925 14.5830027067413 1720.07386042959 117 121 120
-202.934968767236 15.1346122700981 1708.01257448323 101 105 106
-183.296257867558 16.1996422340434 1694.48579003344 153 157 158
-217.450435256148 13.929471005364 1647.84727512508 135 137 132
-228.655067964999 13.2252381546545 1639.393017634 122 124 121
-241.847522176461 12.4074465567604 1631.35152748649 136 138 135
-249.070595369402 11.9317606634139 1622.31383267736 140 142 139
-247.34198569293 11.9686124028179 1611.68780713161 110 112 109
-237.658166893808 12.4605272378402 1599.58357976089 113 115 114
-221.015100530995 13.3501101065486 1586.12205809659 133 135 134
-33.135090169981 15.8587345518303 2009.16909630002 86 89 82
-96.2411711208739 12.3202500397193 2002.95685683826 28 31 24
-115.460496306667 11.2013301384129 1993.70866310044 25 28 21
-189.520938878303 7.0624807461756 1988.9444774733 30 33 26
-199.757225518295 6.43991346461709 1979.31606323368 21 24 17
-175.096333391983 7.73840795617475 1966.76473629962 29 32 25
-218.494925838766 5.23184264314536 1949.67822763884 35 38 31
-168.917804573136 7.8993797869088 1934.64010274507 31 34 27
-184.135820251211 7.00268867870704 1925.57358582865 33 36 29
-202.34151237169 5.942112939539 1916.88684252765 23 26 19
-195.629773568435 6.25119989703454 1905.76093692112 21 26 20
-245.721217249864 3.43950319426739 1900.54277266232 27 32 26
-222.067574779584 4.67921479026673 1887.67900996136 22 27 21
-232.294513469773 4.05792081322115 1878.41731315946 14 19 13
-241.523775534279 3.49159758331399 1869.0991365325 6 11 5
-248.759149082514 3.03483653117903 1859.60102126466 0 2 0
-249.020254337895 2.96074642921101 1849.31657112042 0 3 0
-251.273407737789 2.77730215360206 1839.27488627134 3 8 4
-254.522456037462 2.53921579647215 1829.36899495193 0 2 0
-254.783101366478 2.46489552807694 1819.10227318834 146 151 147
-252.055971812568 2.55417413358794 1808.44999359376 115 120 116
-251.320984874795 2.53413029819233 1798.04614587642 133 138 134
-247.598773543624 2.67752377596259 1787.23505181885 136 141 137
-245.868328095852 2.71163822603279 1776.67783548449 134 139 135
-238.164546542407 3.07248548977973 1765.27181155763 151 155 154
-227.474902421922 3.59633562123024 1753.39552513656 117 121 120
-225.746443788323 3.62961039191967 1742.76908042678 0 1 0
-226.008914364368 3.55386639317856 1732.42949299429 145 149 148
-219.303917685659 3.85885517424012 1721.03568149829 132 136 135
-206.628125855866 4.48980589888159 1708.68360061287 127 131 132
-204.901332811352 4.52210770857614 1697.98168943295 164 168 169
-208.209779665445 4.02996734334093 1646.37335135702 146 148 143
-218.421162602102 3.41059404574698 1637.72168956894 131 133 128
-231.61531485073 2.62887947587087 1629.65257098077 142 144 139
-238.839631763622 2.1728263051283 1620.58734739298 126 128 125
-237.11158364085 2.20467450235079 1609.93400196507 121 123 122
-232.400425915606 2.39883139349212 1598.72070287696 110 112 111
-218.73980956419 3.08002585510789 1585.80476191821 124 126 125
-108.184968917278 0.907200707466527 1993.23265138357 30 33 26
-172.27918509894 -2.50668380814167 1987.65193653607 27 30 23
-168.556942417486 -2.37167401326405 1976.82374121492 20 23 16
-181.786044445313 -3.12326069361654 1967.42101319034 22 25 18
-208.971842641923 -4.60409507653992 1959.32013010355 27 30 23
-217.211402314755 -5.09414495809124 1949.64736126647 31 34 27
-195.543263517177 -4.02166663411901 1937.21999837213 29 32 25
-126.031105894521 -0.451365796675124 1920.06228540625 25 28 21
-200.060034866822 -4.37749488597877 1916.7488383002 22 25 18
-260.125446877374 -7.57258916122311 1912.42069491315 24 27 20
-266.365520891591 -7.95745674376969 1902.7913651593 25 28 21
-249.684111518491 -7.14663347737848 1890.73453038123 26 29 22
-210.086495769768 -5.14150051377032 1876.06111328346 22 25 18
-245.224378834428 -7.03362259710794 1869.60754136238 18 21 14
-256.445284593831 -7.67835753811988 1860.58116095581 13 15 10
-259.694650320584 -7.90754805313138 1850.67241515664 13 16 9
-207.156913182758 -5.23130440285768 1834.0209527138 12 14 9
-244.277289240654 -7.22488010650468 1828.19207750632 9 11 6
-257.487321879433 -7.97289795143144 1819.53847920637 8 11 4
-260.735704645253 -8.20223940523296 1809.6679888592 7 9 4
-258.008114758704 -8.12073825342755 1799.02534982804 3 5 2
-260.260229416911 -8.29837236442851 1789.03982589798 11 13 8
-249.566725868956 -7.80307663244084 1777.2837197573 63 65 60
-236.88368227968 -7.20484441450064 1765.18925692959 166 168 163
-227.188853766628 -6.7623469607237 1753.45294195275 95 97 92
-228.446977962238 -6.88910517427849 1743.26247344042 2 4 0
-230.70010426029 -7.0675981654259 1733.22716413315 165 167 162
-218.021653506038 -6.47111072227155 1720.94199920923 147 149 144
-211.317145450535 -6.18510551045048 1709.50870753102 134 136 133
-213.571207800096 -6.36409091662457 1699.44561015903 140 142 139
-212.896833778193 -6.64059458438265 1647.27994625578 115 120 116
-219.129217181915 -7.02578546000196 1637.95084507463 63 67 66
-228.345147134225 -7.56527191114101 1629.18254884342 61 65 64
-232.586006929797 -7.84712699116979 1619.57439480993 77 81 80
-232.847663229884 -7.9230968469666 1609.26638959473 85 90 86
-230.125466863734 -7.84486968716164 1598.40943774173 171 176 172
-215.469500904915 -7.14996439560153 1585.30176730093 167 172 168
-169.994356310574 -12.9109790884348 1987.55398121064 21 24 17
-211.147859562546 -15.0101896649355 1980.42507334815 21 24 17
-158.561700859113 -12.4651455483507 1965.52522147618 25 28 21
-203.698869292928 -14.7607039071937 1958.94135199506 22 25 18
-168.070095725782 -13.0570539081116 1945.27009662917 25 28 21
-107.793475061297 -10.1966769024913 1918.39477518782 22 25 18
-127.003964570417 -11.2085006166658 1909.59757715211 22 25 18
-162.16009607251 -13.0081150507548 1902.53012066911 21 24 17
-270.069169765941 -18.4021844381589 1903.26716503116 23 26 19
-232.457407555866 -16.6035628276109 1888.97429998858 25 28 21
-226.740383290499 -16.3814734403514 1877.98625492335 24 27 20
-213.052465561692 -15.7661287818542 1866.06664192326 21 24 17
-252.175905021574 -17.7578831520942 1860.1787140752 15 18 11
-200.627268888206 -15.2747267354432 1843.77059759663 15 18 11
-228.787271135829 -16.7248550888824 1836.73557699071 14 17 10
-230.04584936122 -16.847739776032 1826.52219772777 13 16 9
-255.211464672966 -18.1490816988719 1819.3441367648 13 16 9
-261.448184664757 -18.5169831094908 1809.85478600681 13 16 9
-276.648220282089 -19.3263087044984 1801.58479851002 20 22 19
-265.952232594383 -18.8600266765564 1789.9039532637 1 3 0
-232.352969317071 -17.2667464971935 1775.01022225522 0 1 0
-223.653208043503 -16.8999581688246 1763.42875325862 26 29 22
-227.898656645319 -17.1703709002768 1753.65353869322 18 21 14
-248.073789848515 -18.2240903307928 1746.22722563151 0 2 0
-226.432061916297 -17.2215057824558 1732.69258807335 52 55 48
-221.717070269361 -17.0515587000729 1721.6031372983 87 90 83
-211.029858725994 -16.5884352581503 1709.56657369435 140 142 137
-217.265492828721 -16.9568684690241 1700.1284170248 122 124 119
-187.734410079001 -15.8205493442499 1643.08858359398 139 145 143
-209.887939785626 -16.9693726237232 1636.45389015399 67 71 70
-223.084653499268 -17.6786809312869 1628.36240490762 91 95 94
-232.300335884431 -18.1926383913728 1619.63119552258 116 121 117
-233.556677419381 -18.3166306483975 1609.50404464716 123 125 122
-226.855580827348 -18.0511748990934 1597.91535672842 107 109 106
-208.220120583501 -17.2020552567626 1584.05439517608 137 142 136
-83.1105030918629 -19.1814484711731 2012.99883625602 32 35 28
-97.3486217823676 -19.9100142275341 2003.29312157644 36 39 32
-113.579772560398 -20.7315589650496 1993.81862349929 30 33 26
-132.800848428615 -21.6926372031282 1984.67148524903 30 33 26
-134.067432916035 -21.8130994397103 1974.14779457169 22 25 18
-218.105510551713 -25.8053234274598 1970.69009417691 21 24 17
-132.611452094539 -21.8676677389951 1952.76832913816 24 27 20
-255.525135932779 -27.6746380924115 1953.29894069606 26 29 22
-142.660757653647 -22.5835355557726 1911.2394424944 29 32 25
-254.834927428893 -27.9415544655453 1901.762437301 25 28 21
-247.383494132437 -27.7144131027698 1880.35020620948 22 25 18
-230.703396093504 -26.9972792100567 1868.1508483039 18 21 14
-214.025391236295 -26.2808720013721 1855.85957655978 21 24 17
-233.220775345103 -27.2361982072319 1847.72273735764 21 24 17
-248.428165100832 -28.0052582820341 1839.20855867063 21 24 17
-260.644356286498 -28.6346827606067 1830.40757699604 22 25 18
-237.991899432403 -27.6412040123467 1817.25778810234 22 25 18
-263.157091885188 -28.8729237967149 1810.17100882259 22 25 18
-239.51162587071 -27.834134585059 1796.77194692223 17 19 16
-214.873297063985 -26.7500407325658 1783.10856040131 15 17 12
-273.896184204223 -29.5544859972538 1780.82786263035 21 23 18
-211.41652234752 -26.7129653506124 1761.80912773477 17 20 13
-212.675749490782 -26.8333594528569 1751.5730607117 13 16 7
-223.892182753084 -27.416009995324 1742.79746721926 13 16 7
-242.076308023866 -28.3216816832729 1735.11995515607 24 27 18
-240.346360955261 -28.3030797972834 1724.52660424082 13 16 9
-212.733656791776 -27.0844131206026 1709.93211883941 22 24 19
-197.069905339804 -26.4206033498489 1697.06132201513 19 21 16
-213.580815179049 -27.5609077501833 1637.20244925621 106 105 103
-230.758015077815 -28.417864178421 1629.82321375345 148 147 143
-234.999310527539 -28.6763903008798 1620.22308168439 95 94 90
-232.276336941597 -28.613051013928 1609.38052082207 94 93 89
-221.595870784949 -28.1823212315313 1597.0548671093 116 115 111
-199.975292700027 -27.2468718951152 1582.62153563169 130 129 124
-84.8088513703611 -30.0155750951542 2013.20497508214 28 31 24
-130.971204531334 -32.1127349002629 2005.8745219686 47 50 43
-142.213674551962 -32.6696668059673 1996.10893645587 32 35 28
-139.489946157732 -32.61107813913 1985.29077526624 20 23 16
-201.597159563222 -35.4075894028273 1979.80625162248 18 21 14
-127.062444758274 -32.1871766275661 1963.01233073901 25 28 21
-141.293641723556 -32.8753223798066 1953.62054094674 22 25 18
-178.45807830603 -34.5718827573714 1946.38853998653 25 28 21
-138.111585123935 -32.9210103334512 1921.49530770208 24 27 20
-134.392648353962 -32.8196767095886 1910.51107181741 25 28 21
-289.440335049378 -39.7519718563718 1905.47034871319 25 28 21
-295.679273946452 -40.085686098977 1895.94030778628 27 30 23
-270.023016210298 -39.0198622166169 1882.93333138717 29 32 25
-241.380443873809 -37.8239737490668 1869.4477177182 28 31 24
-230.680019557654 -37.4157193564346 1857.87796567534 26 29 22
-248.879021885904 -38.2744555867081 1849.6694023489 26 29 22
-260.100594510773 -38.8269837447662 1840.7159630718 26 29 22
-252.390171210114 -38.5501204754802 1829.47934608934 25 28 21
-255.639805692105 -38.7533867900891 1819.58793181422 25 28 21
-208.082214400293 -36.7332237030031 1803.1408028104 25 28 21
-221.295869141713 -37.373121232765 1794.46173145888 29 31 28
-246.460598496119 -38.5352681848322 1787.46775361709 21 23 18
-218.833582085634 -37.3890122379394 1773.34556655579 18 20 15
-216.108782713776 -37.3318564916641 1762.56772432218 18 21 14
-221.614180475191 -37.6963302621796 1742.56582303746 21 24 15
-184.039370189831 -36.1183782207239 1726.59181078049 25 28 19
-217.424270541382 -37.699939956793 1710.75868324119 15 17 12
-209.723226188649 -37.4265114279939 1699.15181652342 1 3 0
-225.234714260385 -38.4770389409554 1639.33271749199 122 118 115
-226.492132959526 -38.594291373881 1629.18002880081 121 118 113
-233.71893034342 -38.9709920215961 1620.10306244114 141 136 132
-233.980508323308 -39.0448853738908 1609.80034784022 157 152 148
-226.283337372711 -38.7731676363735 1598.03093344465 133 130 125
-100.476120233234 -41.4165363283954 2014.40957300802 33 36 29
-133.671042689784 -42.8508486101145 2006.15954484851 27 30 23
-162.870966282024 -44.1191244730488 1997.78421666103 19 22 15
-178.101359834818 -44.8096331883837 1988.45531229514 28 31 24
-169.390241620862 -44.5113833978284 1977.23479568002 16 19 12
-134.747974476234 -43.1434328632242 1963.75516549888 22 25 18
-141.00115975703 -43.4635793886086 1953.68289451374 22 25 18
-131.297308258403 -43.1256368402951 1942.19629085378 26 29 22
-125.5835269346 -42.9525460938446 1931.02888943132 26 29 22
-216.854708343358 -46.8366990268044 1918.76825765942 24 27 20
-249.021538881556 -48.2221789131621 1911.64389378738 24 27 20
-266.230115538282 -48.9911243925623 1903.13284526695 21 24 17
-270.477347351734 -49.2264055647463 1893.325658176 20 23 16
-265.753222642915 -49.0927130297985 1882.55423175724 20 23 16
-241.095501501634 -48.1399096943946 1869.50779520389 19 22 15
-276.239354237844 -49.6450239887897 1863.23644699609 21 24 17
-235.639309923235 -48.0382250663036 1848.19622380043 21 24 17
-250.848793556644 -48.7240184863087 1839.68961444102 20 23 16
-260.07733091923 -49.163940588905 1830.52615668281 19 22 15
-235.428855204034 -48.2139356402709 1817.12469694619 19 22 15
-235.690793112181 -48.2862517847139 1806.80960858637 18 21 14
-223.998028363102 -47.8686106738801 1794.91655041204 25 27 22
-199.357225624378 -46.9209073220883 1781.21273289684 16 18 13
-199.621618113423 -46.9940795101095 1770.80079185871 14 16 11
-236.004031836546 -48.6077877388378 1755.11375172095 13 16 7
-196.430893551455 -47.0509159420145 1738.99303744449 12 15 6
-170.804623425938 -46.0656761574056 1724.72751634102 12 15 6
-183.019718028456 -46.6280331349747 1716.05072964013 25 28 21
-253.977018321115 -49.5900427288115 1716.49788374223 11 13 8
-206.04012344667 -48.0707857470886 1636.11176983329 38 29 24
-224.215689387901 -48.8739012555297 1628.88822773528 42 33 26
-233.433335852473 -49.3118010538282 1620.16192018246 100 90 81
-239.664770353892 -49.6279237135245 1610.94406552132 108 97 91
-233.956486163335 -49.4582470794803 1599.55815127752 109 98 92
-99.1828593925845 -52.0752580068561 2014.40201047589 34 37 30
-134.375961789563 -53.4957391896329 2006.29668743204 36 39 32
-159.587104246431 -54.5302450627951 1997.61645113385 25 28 21
-175.816394884112 -55.2178084613489 1988.35851262833 21 24 17
-163.114619103454 -54.7902880811187 1976.80354671995 12 15 8
-143.432343047886 -54.0944169299946 1964.58306517876 26 29 22
-145.695800750171 -54.2440297801064 1954.1843028635 20 23 16
-178.876232065104 -55.5832551527203 1946.60273571814 24 27 20
-159.464443402918 -54.9610684741885 1923.73155311174 23 26 19
-211.582197989681 -57.0263665732496 1918.33588818704 24 27 20
-216.831346157451 -57.2896614492308 1908.45774682413 22 25 18
-208.121775817858 -57.0168779487405 1897.14939017587 20 23 16
-238.293227102984 -58.2366898495144 1889.96359291669 20 23 16
-261.482569609166 -59.1877114962743 1882.17561781765 23 26 19
-275.697850409568 -59.7938946278291 1873.5032168233 22 25 18
-242.330363356942 -58.6372476222521 1849.08204496304 22 25 18
-248.571325301346 -58.9377997614882 1839.50854325085 22 25 18
-258.797364026031 -59.3907445364192 1830.46278062592 21 24 17
-251.086347358026 -59.1570457958281 1819.20300774837 21 24 17
-240.387069337551 -58.8093413162964 1807.51411587777 20 23 16
-234.671085970953 -58.6525703234066 1796.4245798098 20 22 17
-228.955662984998 -58.496050417847 1785.30354773857 16 18 13
-163.738847572283 -56.1300213383924 1755.41789926119 20 23 16
-209.822274376271 -57.9520593003571 1751.46756624075 14 17 8
-236.976289514901 -59.0504690537268 1745.01016848815 17 20 11
-211.345218082027 -58.1351598751786 1730.85721300993 13 16 7
-221.566690204376 -58.5873202775285 1721.99077122277 17 20 13
-247.718523406838 -59.6461326018646 1715.63647010114 17 19 14
-275.857890528682 -60.7798054682804 1709.73840243589 17 19 14
-183.857102607537 -57.6554539940148 1632.37428235672 41 30 24
-204.025793639437 -58.484547586383 1625.44093759113 57 44 36
-228.172053698784 -59.4639600131759 1619.33098758996 114 100 91
-235.399277008018 -59.8007976163634 1610.28017645962 117 102 95
-228.69593665246 -59.609216899872 1598.69986127164 134 121 113
-96.8913725606351 -62.7038799872827 2014.32340982486 29 32 25
-117.119741790556 -63.4919110389421 2005.10172413756 32 35 28
-141.336524540756 -64.4221414285664 1996.29763574564 27 30 23
-145.595936539062 -64.6373704190995 1986.03593532441 21 24 17
-148.857220916874 -64.8168084703576 1975.71478771714 21 24 17
-169.343127228798 -65.6745510865023 1956.3528097984 21 24 17
-178.586615223511 -66.0672828662687 1946.6650236672 23 26 19
-204.783578321564 -67.0651193868709 1938.61236100916 26 29 22
-213.025883373364 -67.4213224533082 1928.97600765302 25 28 21
-208.30365088258 -67.3148008944582 1918.10145269694 16 19 12
-225.518828706119 -67.9907187088314 1909.43229365174 15 18 11
-200.854931965075 -67.173482301934 1896.48165960378 15 18 11
-221.05923683635 -67.9555306210385 1888.2069162133 17 20 13
-245.248369363062 -68.8788467418944 1880.48159356207 21 24 17
-276.412310713984 -70.0496529017888 1873.67595158862 20 23 16
-275.93393940305 -70.1549780035532 1853.15110775297 20 23 16
-253.270259993989 -69.4106815271075 1840.17238245226 20 23 16
-250.541232324561 -69.3753723787814 1829.53633954103 20 23 16
-287.672777810954 -70.7556273487647 1823.9294609424 19 22 15
-246.080684477835 -69.3405449779719 1808.34793771589 19 22 15
-218.44370612444 -68.4219518614876 1794.37997586851 18 20 15
-195.324847171571 -67.7901194670908 1759.95300205667 16 19 10
-183.636559191754 -67.4390865961871 1747.82278222135 15 18 9
-197.846179985198 -68.0050999674564 1739.40540031291 15 18 9
-214.045808670672 -68.6410726423835 1731.36214779999 15 18 9
-240.201962795259 -69.6286073315018 1724.91550250832 15 18 9
-245.442290761535 -69.8760578510581 1715.38977283604 18 21 14
-216.82675437844 -68.9273270336744 1700.58212160133 20 23 16
-187.813818725 -68.3451330009603 1622.6963278403 36 22 11
-216.939069717023 -69.4335293610385 1617.43260430586 89 71 61
-227.152976018454 -69.8557254055677 1608.8940344293 119 102 92
-224.429821306379 -69.8227262925454 1598.02597566163 130 113 105
-213.747306881138 -69.5101163654574 1585.6535473777 145 131 122
-74.3669700843483 -72.6099842176207 2023.58316613682 27 28 20
-111.565331087078 -73.9049221552895 2015.45651255646 29 32 25
-118.821409676384 -74.2085388731439 2005.31360714874 29 32 25
-130.067779231681 -74.6438381276267 1995.51688929723 23 26 19
-139.317209551496 -75.0128332626444 1985.62234309672 20 23 16
-132.602203358728 -74.85443203475 1974.46234366017 22 25 18
-143.845301516091 -75.2889447517941 1964.79432789598 22 25 18
-143.116323735854 -75.3282077380711 1954.13498544125 21 24 17
-218.196404357126 -77.8669018384602 1950.34609798004 26 29 22
-204.495929440386 -77.4775843981766 1938.67457276593 26 29 22
-194.786716101572 -77.2202041478497 1927.31102680406 23 26 19
-236.937105328786 -78.6703841042569 1921.02540257276 14 17 10
-228.224373463695 -78.4456419397964 1909.79835099472 11 14 7
-237.46100328082 -78.8115111719273 1900.39812434827 13 16 9
-192.854982342642 -77.4072799155032 1885.27519609622 15 18 11
-209.072006285654 -78.0028168994311 1876.59549338901 20 23 16
-255.194622907375 -79.5798641129921 1871.37653872764 21 24 17
-331.216570366534 -82.1367225907207 1869.86489077958 18 21 14
-300.571241075233 -81.1919755214161 1856.15865205034 18 21 14
-281.890924299776 -80.6405670735624 1843.73117979318 19 22 15
-232.317133079115 -79.0773967120471 1827.37712121055 19 22 15
-228.59301641196 -79.0176745717486 1816.55065444563 19 22 15
-251.775194278133 -79.8389519637912 1809.182007686 19 22 15
-248.050238673867 -79.7790514888461 1798.38852097166 19 21 16
-271.48718762979 -80.6693228154751 1780.98845707548 17 20 13
-219.942306595866 -79.0470046391299 1763.50927649915 16 19 10
-205.262636426566 -78.630251387474 1751.02006569365 16 19 8
-190.585248221077 -78.2140844120655 1738.45036312723 16 19 8
-200.810396960665 -78.6107832211384 1729.49977678928 16 19 8
-206.054219163861 -78.84474630502 1719.85196200314 15 18 9
-277.026037962401 -81.2205194731005 1720.36113812424 18 21 14
-167.618128256952 -78.1643089116261 1619.25161240903 33 19 8
-194.756364157479 -79.1083576239924 1613.57666294119 66 48 36
-206.9630512399 -79.5674154551304 1605.33938591856 106 88 76
-218.172738802516 -79.9937685544136 1596.98593310692 129 112 102
-215.4501581685 -79.9685203138203 1586.08711509013 143 129 118
-76.0656217459745 -83.4370615353356 2023.78501670148 19 20 12
-82.3272064972955 -83.6917155551478 2013.45478611927 21 24 17
-133.497127950653 -85.3075745119313 2006.48745959401 21 24 17
-135.762035518918 -85.4400184016392 1996.0411414128 20 23 16
-148.005282156875 -85.8745704348787 1986.40130274889 23 26 19
-146.277859316028 -85.8859101724232 1975.67714725911 23 26 19
-156.523195197067 -86.2594883916156 1965.9624026098 21 24 17
-189.712650696148 -87.3263921902008 1958.32053701926 20 23 16
-157.058389219604 -86.4027140687979 1944.89138149306 23 26 19
-201.215771756236 -87.799763900004 1938.45752644199 25 28 21
-248.359048266275 -89.2854907239435 1932.55386223924 18 21 14
-237.649410831455 -89.0244935528463 1921.18607732665 12 15 8
-234.919445394891 -89.004447792851 1910.57029695285 11 14 7
-206.262279660472 -88.2032597155762 1897.23124494895 13 16 9
-175.614978300062 -87.34310339922 1883.52057926478 15 18 11
-171.892694670283 -87.2944069758747 1872.60130769531 20 23 16
-244.940476061319 -89.5552986593018 1870.31434876855 20 23 16
-289.067126659325 -90.9442324197174 1865.09031875204 16 19 12
-268.391033476146 -90.3844295774524 1852.44806701781 16 19 12
-296.561118080306 -91.2923151262525 1845.60121155278 16 19 12
-272.897429337612 -90.6434263570978 1832.49571193199 17 20 13
-236.542109263659 -89.6770260601714 1807.31132235655 20 23 16
-258.727404329215 -90.4042803321346 1799.89710176866 19 22 15
-247.030189399811 -90.1160409030054 1788.03903049807 16 19 12
-264.229881937644 -90.6931723079425 1780.09048408868 15 18 11
-207.699901451548 -89.064023437279 1761.89413486817 15 18 9
-198.001261524175 -88.8370096869605 1750.08473814991 15 18 7
-182.32690279056 -88.4317598531427 1737.35088889117 15 18 7
-190.561324018729 -88.7411107640872 1728.082293698 19 22 11
-217.719006830025 -89.6150513404436 1721.7225683064 17 20 11
-234.179200441797 -90.2315449894567 1703.51645090473 18 21 14
-148.414723086766 -88.1227340114145 1615.98359687057 44 30 19
-169.584509478897 -88.8152005502409 1609.18816369103 64 46 34
-193.736925944688 -89.5954516938639 1603.0514440461 98 80 68
-213.905219346289 -90.2567762117231 1596.31377756116 127 110 100
-210.187652578155 -90.2096275281341 1585.21781764294 137 120 110
-132.205944390877 -95.8841605853368 2006.47757582792 19 22 15
-129.481272043789 -95.873424472643 1995.64492719879 18 21 14
-141.725854467362 -96.2748713928596 1985.98842712634 23 26 19
-171.929878505578 -97.1700186660404 1977.87817371047 22 25 18
-195.14528821244 -97.8720086281458 1969.33879315036 19 22 15
-189.423899866097 -97.7780807484859 1958.38370153148 19 22 15
-161.755450995524 -97.0816363571328 1945.4071903235 22 25 18
-198.932643886252 -98.1658360660837 1938.33413437012 24 27 20
-228.124768064228 -99.0297791604579 1930.69777569705 16 19 12
-249.333258788772 -99.6739047481244 1922.4322231296 12 15 8
-216.681483914078 -98.8418045957544 1908.80755321894 12 15 8
-199.990946295319 -98.447795764889 1896.66926345246 13 16 9
-251.113800063891 -99.9098563546975 1891.70664194145 15 18 11
-224.451468006306 -99.2431552179637 1878.47450135055 19 22 15
-274.827739030075 -100.744702042723 1863.54036067978 17 20 13
-281.068419959893 -100.977043240933 1854.0417568579 16 19 12
-229.490033678183 -99.6319605718442 1837.58372808609 16 19 12
-213.803518518628 -99.2670797146785 1825.28164896725 16 19 12
-219.050498279652 -99.4730603369436 1815.54047129496 18 21 14
-239.246805141114 -100.085914459119 1807.75998553249 20 23 16
-293.324645304778 -101.620070454124 1804.56265891999 18 21 14
-255.714443783993 -100.658963034951 1789.30953849766 16 19 12
-260.957271090816 -100.863786547081 1779.74122032444 14 17 10
-277.159522627962 -101.366112008782 1771.73895776654 15 18 9
-204.687169634649 -99.4608304824519 1751.14502992915 16 19 8
-173.071392945295 -98.6663372443108 1736.10706927369 16 19 8
-216.173100937726 -99.8986062570807 1731.99207477825 17 20 9
-222.412874674486 -100.130667572417 1722.53855250862 15 18 9
-244.588176763169 -100.794025500453 1715.57417425932 17 20 13
-245.845368724913 -100.890568554779 1705.45258338678 19 22 15
-144.140769402816 -98.5876746176895 1615.34609318534 55 41 30
-152.371818520618 -98.8735125820406 1606.2252133499 86 68 56
-180.508811565634 -99.6947667197314 1600.76470878885 119 101 89
-200.679540335136 -100.300831036906 1593.99119383726 119 102 94
-197.95772362776 -100.290920119255 1583.04605088488 113 99 90
-115.672305215839 -106.023008949296 2016.00594236402 23 26 19
-81.2811564973801 -105.300485988854 1992.02804853392 16 19 12
-117.481754452599 -106.263040881873 1984.14615675246 22 25 18
-169.64411311344 -107.619576706211 1977.77754922772 21 24 17
-181.884872550306 -107.986583463671 1968.29811912537 19 22 15
-155.210579922584 -107.390956973335 1955.46644935602 18 21 14
-179.42331672897 -108.05359530761 1947.09848541586 21 24 17
-174.7011949016 -108.00094217326 1936.1617655848 23 26 19
-202.166347924424 -108.80622354797 1917.85876015367 14 17 10
-203.428075201108 -108.900854243672 1907.55264201727 11 14 7
-234.610812773032 -109.732244240726 1900.37681754817 12 15 8
-219.913346528968 -109.433537137481 1888.45639013092 15 18 11
-250.093202043197 -110.238922989921 1881.38710525729 19 22 15
-251.351498525374 -110.332543101426 1871.22548433087 19 22 15
-272.551109912959 -110.915831784324 1863.37228899438 18 21 14
-270.816360224626 -110.935560125589 1852.92548504933 17 20 13
-215.246760993348 -109.635057309431 1835.95872126654 16 19 12
-207.535183827684 -109.50930553166 1824.60494944428 16 19 12
-214.776684031655 -109.750019835939 1815.09935760488 17 20 13
-240.955275950636 -110.453954010104 1808.08027397031 20 23 16
-226.266625541939 -110.157487024181 1795.81288790171 18 21 14
-264.400048347404 -111.15251790295 1790.58028358167 15 18 9
-277.614785949504 -111.537645268982 1782.13244286366 14 17 8
-266.912679785416 -111.338572779151 1770.4038198476 16 19 10
-288.096425235771 -111.91756528763 1763.17533320193 17 20 9
-227.578776903278 -110.504458620846 1744.15691577898 18 21 10
-200.942315917525 -109.918616086331 1729.83614912715 17 20 9
-238.065180862457 -110.885581485181 1725.01229467102 16 19 10
-248.287843230754 -111.19698492747 1716.25046793198 17 20 11
-238.588206715491 -111.023784896041 1704.42224029408 18 21 12
-135.268417597956 -108.576842669791 1677.60695537243 19 22 15
-166.017073444395 -109.770991991922 1608.78139695587 77 59 47
-178.22824861741 -110.129826232386 1600.46699738965 141 123 111
-209.349660417488 -110.944731075975 1595.70569701669 121 104 96
-201.650492385401 -110.822114775034 1583.85424184483 114 100 91
-65.4642047299752 -115.572142275732 2012.51135137248 24 27 18
-97.6808625158414 -116.349193401171 2004.09284999446 24 27 18
-84.9767472345913 -116.135027467767 1992.40023630062 15 18 9
-146.131610538617 -117.547954056134 1986.51427855558 21 24 15
-174.343760391148 -118.233809850749 1978.25244112383 18 21 14
-183.591518928186 -118.501655447399 1968.53184056967 17 20 13
-200.820773257187 -118.944549430114 1959.56272597086 19 22 15
-191.107361747024 -118.795267420738 1948.24719152288 23 26 19
-193.368043835111 -118.909000170042 1937.99543511459 22 24 19
-205.604678534231 -119.241335649273 1928.71444140053 16 18 13
-178.934169571657 -118.720938472819 1915.65411744654 14 16 11
-169.225043065646 -118.572686593368 1904.17000411803 13 16 9
-199.414902914143 -119.297423817184 1896.79630949037 14 17 10
-245.558536750546 -120.369791957273 1891.29781479172 14 17 10
-234.114219232783 -120.246205655536 1869.37884474198 17 20 13
-252.325346121473 -120.706529197899 1861.13352123969 17 20 13
-246.603524997768 -120.644765916073 1850.16080819138 18 21 14
-232.906419626995 -120.409542292366 1838.19213537573 19 22 15
-185.314627792131 -119.4374026906 1821.95639516889 15 18 11
-257.355761961206 -121.067366168358 1820.5819771558 15 18 11
-232.695896260376 -120.594470021636 1807.11339482898 22 25 18
-232.957966802032 -120.663282228584 1796.79688495037 23 24 16
-239.199863250211 -120.861753171898 1787.28714173121 22 23 15
-242.451282985989 -120.995186206894 1777.40093515094 21 22 14
-241.716151031058 -121.042166246031 1766.97383318548 20 21 13
-238.98809240147 -121.046031810323 1756.25785405105 21 22 14
-245.228053655772 -121.243851891184 1746.83376854677 23 24 16
-234.529598733072 -121.075522789727 1734.92943248601 18 21 14
-271.652922234008 -121.939831398629 1730.19788102741 16 19 12
-267.927404281841 -121.921779540364 1719.38143899556 17 20 13
-211.407824762553 -120.765963115936 1700.27035603527 19 21 16
-109.078030215112 -118.625450038577 1673.54179561804 18 20 15
-173.690762413775 -120.463758568348 1610.26992409166 134 119 114
-199.839422679716 -121.087152613994 1604.50715093392 159 144 139
-199.107974557823 -121.134807672287 1593.93534722827 111 96 91
-102.105393500492 -127.074099266156 2015.21073262358 20 23 14
-109.36471801415 -127.280535273346 2005.04531041018 21 24 15
-135.589167245938 -127.852520653121 1996.37564058567 19 22 13
-182.770911038777 -128.827473511895 1989.5169714585 12 15 6
-185.032650649795 -128.935824122038 1979.22033752886 12 15 8
-171.326217655789 -128.736861391451 1967.57728638755 18 21 14
-179.57636256797 -128.960368882908 1957.78632720575 19 22 15
-172.857281919996 -128.896082509133 1946.68451831145 22 25 18
-199.066171947625 -129.463794910221 1938.61821929272 22 24 19
-199.330746648769 -129.533213776639 1928.2031868022 17 19 14
-152.705505074292 -128.704478279696 1913.15482446354 14 16 11
-142.997441147063 -128.583765439685 1901.59961257567 13 16 9
-185.161687167767 -129.455126473078 1895.40323282101 12 15 8
-279.18714136267 -131.315713296617 1894.99331423989 13 16 9
-229.577224894037 -130.431687094586 1879.32194280008 15 18 11
-197.925677861148 -129.891744538099 1865.39936937985 16 19 12
-235.088277323229 -130.663887589053 1859.24106236626 16 19 12
-209.423831880098 -130.238824841739 1845.86608996237 17 20 13
-196.725280143692 -130.061179953474 1833.91682017735 18 21 14
-200.977973416045 -130.206029708267 1823.99327864424 16 19 12
-235.138861093226 -130.91848388335 1817.87322086767 17 20 13
-249.357422949984 -131.251502924697 1809.36588738648 21 24 17
-238.653135181456 -131.111700491239 1797.64956461949 23 24 16
-225.956980362349 -130.934515549018 1785.60612114837 20 21 13
-220.239580695919 -130.889738161718 1774.45168887589 20 21 13
-236.448055415396 -131.259526287555 1766.33918638956 20 21 13
-246.675205738433 -131.515790108832 1757.46115951053 21 22 16
-244.943394687339 -131.546053278545 1746.89751674302 22 23 17
-274.100252592135 -132.158581843649 1740.90943575325 16 19 12
-263.659209577238 -132.086919538256 1718.83143246248 15 17 12
-193.189165225481 -130.824663408082 1697.5248886711 18 20 15
-101.810142551857 -129.17201848218 1672.49614736873 16 18 13
-181.365883348996 -131.112607011606 1611.75896573906 168 154 151
-193.577805691813 -131.404002452648 1603.48777477756 106 92 89
-185.878233410522 -131.323962710725 1591.61572842322 71 58 52
-103.079792909305 -137.848350200328 2004.66742922444 24 27 18
-156.260414451629 -138.794588322121 1998.05028876104 18 21 12
-179.487052793674 -139.244071849019 1989.34317620259 20 23 14
-137.830629725581 -138.621861404471 1975.42455705975 21 24 17
-96.1800398179915 -138.001125138245 1961.27637493809 13 16 9
-129.386159530516 -138.614653246361 1953.47001405682 17 20 13
-167.577478791497 -139.309018740026 1946.2974470249 19 22 15
-144.893194485922 -139.001487017967 1933.65506810438 20 22 17
-173.100115007134 -139.530254959385 1925.77560468251 17 19 14
-192.323214743972 -139.91065565449 1917.1635286708 16 18 13
-176.625598343741 -139.718192531253 1905.11019561085 14 17 10
-162.925461106655 -139.558909222053 1893.17847977266 11 14 7
-193.118190682845 -140.117720668993 1885.87078456555 10 13 6
-203.357655023545 -140.349543409438 1876.5377261683 12 15 8
-179.950560999569 -140.096687407852 1852.97838656221 16 19 12
-176.227449118588 -140.10072729752 1842.04418651587 14 17 10
-169.513314917613 -140.056200537172 1830.72783698633 13 16 9
-188.724656794107 -140.433103338573 1822.57905465718 19 22 15
-226.877300951204 -141.116759788013 1816.92954320993 20 23 16
-233.121623990951 -141.281693419019 1807.37029495738 17 20 13
-260.299824993506 -141.785455110852 1800.60611714851 21 22 14
-223.677378477536 -141.255897506856 1785.4022310532 16 17 9
-225.93340021001 -141.355966209593 1775.33796409929 17 18 10
-244.136392925747 -141.713415990228 1767.5210101766 22 23 15
-242.404247348669 -141.748647320412 1756.95578262705 21 22 16
-223.731038572087 -141.510918931284 1743.91369966208 19 20 14
-154.240072160231 -140.455780034564 1723.22717358639 15 18 11
-234.220461560467 -141.806406246742 1724.75235807971 14 17 10
-220.533300914813 -141.649723019926 1712.30135553849 16 18 13
-223.784857508651 -141.765261799476 1702.42901354448 19 21 16
-206.115804837718 -141.545306210114 1689.23943496057 14 19 13
-181.076338888615 -141.590758999101 1611.82473368171 76 67 62
-175.367653078169 -141.563700741469 1600.30138350593 61 52 47
-122.294852784818 -148.934623416494 1984.88376225607 28 31 22
-101.601883969411 -148.716748374832 1972.53393295177 23 26 19
-84.904634905004 -148.554407173874 1960.40920287232 15 18 11
-95.1580300468589 -148.76231492262 1950.55735858323 15 18 11
-213.459481271696 -150.515149717309 1940.14355800703 18 20 15
-176.801605818867 -150.078976304603 1926.22408874441 16 18 13
-187.045777615984 -150.284218469832 1916.7355868174 15 17 12
-211.256809984249 -150.679461748166 1908.72134644062 15 18 11
-237.459904404746 -151.100939654877 1901.04789995141 11 14 7
-155.918584223963 -150.056257861846 1881.98447446217 10 13 6
-161.173868783486 -150.193158285563 1872.00221428021 12 15 8
-219.556618685786 -151.114780232159 1857.6444413525 15 18 11
-191.894801373544 -150.804762030135 1843.99383119132 13 16 9
-169.222982051533 -150.563054930003 1830.79360012263 12 15 8
-190.430232326526 -150.914272062818 1822.89103116066 19 22 15
-215.623161452299 -151.318439891531 1815.60876816965 20 23 16
-241.809548499147 -151.735064691339 1808.59351461262 16 19 12
-225.122226411426 -151.574290358289 1796.06979672503 20 21 13
-283.205270781554 -152.418083420021 1793.5184456827 15 16 8
