ply
format ascii 1.0
comment KinectMotionCapture
element vertex 754
property float x
property float y
property float z
property uchar red
property uchar green
property uchar blue
end_header
-1134.38361787002 135.033058919313 2711.61710588603 95 100 96
-1131.36132308402 134.491203504437 2719.53727852309 91 96 92
-1137.60508869064 134.518761791968 2727.15034477612 90 95 91
-1141.7921820026 134.419601123088 2734.84002694915 90 95 91
-1149.07703826818 134.50918818183 2742.46130010531 93 98 94
-1142.94611654536 133.779668214071 2750.41022977874 107 112 108
-1139.90299154735 133.239990851685 2758.25443902954 111 116 112
-1137.88655260019 132.763870946465 2766.05340980654 111 116 112
-1138.96811956259 132.47653557325 2773.78396782836 113 118 114
-1134.87101271163 131.876089305052 2781.5729031124 106 111 107
-1120.40416505328 130.650775067603 2789.43250517914 100 105 101
-1095.54627287545 128.802825676042 2797.2850872036 127 132 128
-1077.91387916187 127.395736669339 2804.96583527693 114 119 115
-1071.67437326698 126.67729482335 2812.51953637001 125 130 126
-1070.61803249243 126.271386663863 2820.03117112417 121 125 124
-1067.47800845904 125.741508019332 2827.52087062325 120 124 123
-1065.37097760497 125.274392477596 2834.98917628919 117 121 120
-1061.17585121139 124.68366520007 2842.4203202847 119 123 122
-1061.13902339072 124.341674834023 2849.8612407819 125 129 128
-1057.97192652731 123.814234100777 2857.2519633388 125 130 126
-1056.88378613323 123.411050580615 2864.64725253286 138 143 139
-1059.9669137945 123.255132869701 2872.09954259797 144 149 145
-1064.09613217035 123.160586136055 2879.57725947359 144 149 145
-1073.45464098852 123.373606809528 2887.18195786415 132 137 133
-1085.96123939368 123.769908419508 2894.90071969556 140 145 141
-1414.73149161471 153.678252408614 2474.49046405211 137 139 134
-1405.97852641784 152.736152095415 2484.25993828682 109 114 110
-1406.31894420132 152.358214321371 2493.07880246253 107 112 108
-1408.68193656485 152.105718353054 2501.69271723828 109 114 110
-1412.05831282327 151.915718814903 2510.21133536542 102 107 103
-1398.19165169143 150.667549722087 2520.28488301249 96 101 97
-1358.92504958016 147.867767905025 2532.48926279647 97 102 98
-1317.56790405808 144.950239054906 2544.65016608749 128 132 131
-1293.42903071419 143.09385237567 2555.16699725673 127 131 130
-1264.16658728389 140.931881735266 2565.95061811586 154 158 157
-1224.67993392401 138.156105784439 2577.35314678981 134 138 137
-1206.52572243076 136.68437304707 2586.95292446013 124 128 127
-1192.41983644931 135.462716175195 2596.15501555577 127 131 130
-1175.23067018005 134.058723878375 2605.48333536015 124 128 127
-1166.17983125134 133.150316050022 2614.16906350381 123 127 126
-1159.15624876757 132.366642384208 2622.66584930288 123 127 126
-1156.20793531629 131.830123476454 2630.864069327 123 128 124
-1147.11474391116 130.926447761433 2639.39460961273 122 127 123
-1140.05257380449 130.147114277113 2647.75179631681 120 125 121
-1141.17217539937 129.858701576383 2655.6228893062 121 126 122
-1142.289737262 129.570546527015 2663.48750085963 122 127 123
-1139.30266361938 129.038488682868 2671.54369934963 122 127 123
-1135.28141500856 128.446367883236 2679.61953767653 119 124 118
-1135.36003901743 128.098678983752 2687.48551043316 116 121 117
-1140.57522773663 128.055453770894 2695.13130368648 105 110 106
-1139.6224766337 127.647443002002 2703.02621911082 101 106 102
-1137.63579983407 127.179260935598 2710.94070244426 100 105 101
-1132.55285317071 126.530036434148 2718.93493208559 98 103 99
-1137.76742192004 126.486911807101 2726.57848701688 96 101 97
-1140.92285051955 126.322545481926 2734.29388228234 96 101 97
-1145.11181833404 126.218344523468 2741.9873419409 102 107 103
-1141.03976190811 125.631695536685 2749.87799542452 109 114 110
-1139.02623450166 125.166330045109 2757.69456595533 115 120 116
-1139.07525718348 124.821804738187 2765.45263211303 115 120 116
-1139.12136363003 124.477594962301 2773.19914104805 109 114 110
-1133.98538496869 123.833781796386 2780.99988970884 107 112 108
-1117.43757194878 122.532121706425 2788.87864426271 98 103 99
-1093.60350371492 120.814311707184 2796.71832674225 126 131 127
-1075.96130967474 119.458786220186 2804.39524263073 117 122 118
-1069.71638471728 118.762460214855 2811.9427865906 123 128 124
-1068.65665166088 118.365291633811 2819.44734417943 125 129 128
-1065.51249155601 117.849408683075 2826.93052340416 126 130 129
-1062.36074671994 117.334251391344 2834.38692917409 126 130 129
-1059.20194536654 116.819715175767 2841.8165985707 126 130 129
-1056.0355637017 116.305875224828 2849.21949236421 129 133 132
-1054.94780134732 115.911110759378 2856.62150049597 130 135 131
-1054.89940667868 115.57580868569 2864.02276916883 133 138 134
-1061.11374979912 115.595129902094 2871.52139504185 133 138 134
-1067.33367517249 115.613632203877 2879.04022970605 139 144 140
-1074.60504753166 115.690373165214 2886.6024003846 136 141 137
-1417.07168061942 144.863618384469 2473.71677928431 120 122 117
-1406.29105681232 143.831641811302 2483.69478113508 108 113 109
-1402.57947762903 143.220516216494 2492.90836272006 102 107 103
-1405.95201425968 143.028614074412 2501.41245287981 89 94 90
-1408.31161509072 142.777116900919 2510.01440614691 78 83 79
-1393.42013455343 141.513214358712 2520.16938730868 76 81 77
-1355.14829354538 138.883795293852 2532.27742881743 120 125 121
-1321.89948487831 136.557752830988 2543.74401008135 121 125 124
-1293.68471826732 134.533965194616 2554.608370762 148 152 151
-1258.30332372501 132.100063796098 2565.88162292969 125 129 128
-1223.88681545948 129.731141297141 2576.88201262171 137 141 140
-1208.78017524022 128.490996602224 2586.25314751553 130 134 133
-1196.70783027044 127.430765401304 2595.31465277369 128 132 131
-1183.59492224889 126.313766054179 2604.37230229153 132 136 135
-1171.48127092265 125.258117094394 2613.28240910865 132 136 135
-1164.45655366974 124.498800536013 2621.79128855733 126 130 129
-1157.41862324058 123.740925497876 2630.25202017271 122 126 125
-1149.34415777222 122.925895966295 2638.72453637204 119 123 122
-1139.20685498482 121.995337957831 2647.25877306967 122 127 123
-1141.34923355389 121.768732558433 2655.06993801554 120 125 121
-1141.44042721606 121.425431458727 2662.98442063584 122 127 123
-1141.52816948529 121.082493509599 2670.88724720739 121 126 122
-1137.50514279156 120.506839594377 2678.96688018971 111 116 112
-1137.58383163183 120.165013622985 2686.835866176 107 112 108
-1141.77237031967 120.056031664114 2694.52564312053 101 106 102
-1138.76038089584 119.540430557388 2702.49972412075 100 105 101
-1135.74066721478 119.02565789614 2710.44657852742 102 107 103
-1131.68309017028 118.453797719189 2718.40032799674 98 103 99
-1132.77266360473 118.172006193748 2726.16411257528 95 100 96
-1134.89234826063 117.948112108362 2733.89273125117 109 114 110
-1142.1748770795 118.01264492072 2741.4886160918 116 121 117
-1142.23076352864 117.673217957128 2749.27538489938 114 119 115
-1141.24951706756 117.27659011407 2757.07168922735 118 123 119
-1137.15942951416 116.708056691908 2764.9068338878 112 117 113
-1137.20256166167 116.369909781685 2772.64612760943 106 111 107
-1133.09765734728 115.802858926364 2780.42719655542 106 111 107
-1117.57826589559 114.607158288749 2788.29392667136 93 98 94
-1092.69587272512 112.899670995859 2796.14422172806 123 128 124
-1074.0061079088 111.538516980257 2803.82540849142 121 126 122
-1067.75579987521 110.864273770374 2811.36690806569 124 129 125
-1066.69268337651 110.475785979039 2818.86438419258 120 124 123
-1058.34195527823 109.689761514455 2826.32950367391 122 126 125
-1056.22381767335 109.245766221305 2833.77116906552 125 129 128
-1053.05800326155 108.74558732063 2841.18386480783 126 130 129
-1051.96986134674 108.359329530133 2848.58983437532 128 132 131
-1050.87733103626 107.973377097131 2855.97970347657 135 140 136
-1053.95634625668 107.813660297303 2863.41432630895 136 141 137
-1061.21578786851 107.879188035022 2870.9251210186 130 135 131
-1067.43653665349 107.887572635576 2878.44062506189 137 142 138
-1079.93979988018 108.232616818328 2886.11464277311 136 141 137
-1413.34276536057 135.700921958817 2473.57066089208 129 131 126
-1404.57783233993 134.819127507289 2483.33377490678 110 115 111
-1398.83549671389 134.110569936181 2492.73961217907 108 113 109
-1402.20497067251 133.916862904658 2501.23026270264 102 107 103
-1409.63286117155 133.951088322256 2509.34764149172 93 98 94
-1396.76480888175 132.847073159183 2519.3225898852 89 94 90
-1361.52562142641 130.495642615361 2531.17682589772 135 140 136
-1319.11722917959 127.752888719655 2543.4413202794 121 125 124
-1290.88743120186 125.810297212483 2554.30113542673 162 166 165
-1249.3801195639 123.136868924811 2566.05861367753 134 138 137
-1222.07294013315 121.261256471531 2576.48989734543 148 152 151
-1210.01556719084 120.236675675577 2585.62856958399 136 140 139
-1198.95783735997 119.270772205025 2594.61944617786 135 139 138
-1180.73504312931 117.913030505352 2604.03655755969 133 137 136
-1166.56956176345 116.783240504667 2613.07538260657 130 134 133
-1162.60380055107 116.217340323502 2621.37378909444 125 129 128
-1156.58291872638 115.540391464525 2629.76539501085 124 128 127
-1152.59804315621 114.976709091377 2637.99330481996 125 129 128
-1144.50625412133 114.190457840958 2646.41967111231 119 124 120
-1144.60096559321 113.852432741852 2654.35147468369 118 123 119
-1141.61482980245 113.34755391511 2662.42924366509 118 123 119
-1140.67468922214 112.954901834336 2670.37974713745 116 121 117
-1137.67497281862 112.451535906902 2678.40804913084 106 111 107
-1140.83591428823 112.282170627927 2686.14075652476 109 114 110
-1141.94060242725 112.001865929529 2693.96159774373 101 106 102
-1136.86683098589 111.38950390625 2702.01316622495 98 103 99
-1134.87323948727 110.944101672684 2709.91635863023 98 103 99
-1134.93518917337 110.60983675456 2717.72889809357 99 104 100
-1134.99397524848 110.275879957454 2725.52988622083 98 103 99
-1135.04983624878 109.942297480117 2733.31932142203 113 118 114
-1136.13546443344 109.664052744663 2741.07069731886 118 123 119
-1140.32035787597 109.550639999425 2748.7441428155 117 122 118
-1141.40468930307 109.272458590867 2756.49074408694 118 123 119
-1140.41688694916 108.88487844727 2764.2684199135 112 117 113
-1137.3526867895 108.388306074802 2772.06159545379 111 116 112
-1132.20814225223 107.783205051272 2779.85498151618 108 113 109
-1116.68043355634 106.633639665514 2787.71995871739 91 96 92
-1090.74822100332 104.941875777877 2795.57872748484 126 131 127
-1073.0869226468 103.68926837341 2803.25061890303 127 132 128
-1065.79261179698 102.982678526595 2810.79183905072 125 130 126
-1063.68604699276 102.548666994693 2818.28277520716 128 132 131
-1056.36921206596 101.844277805129 2825.74175725138 131 135 134
-1052.16431556835 101.303471346714 2833.16721513483 133 137 136
-1051.07728214647 100.925519247166 2840.58254409776 135 139 138
-1049.98580413937 100.547936770113 2847.98160454718 139 143 142
-1048.88989038659 100.170665126821 2855.36439218648 127 132 128
-1051.96718715218 100.00886530227 2862.79131962011 130 135 131
-1056.09104635777 99.900554551038 2870.24044906678 135 140 136
-1065.446679643 100.059982864371 2877.80063575653 137 142 138
-1080.04496161675 100.48610185887 2885.51066406388 123 128 124
-1405.56170853958 126.347772684803 2473.84570367922 126 128 125
-1393.7477494132 125.333079036341 2483.89436593586 115 120 116
-1393.06057717616 124.919567776465 2492.77185091516 102 107 103
-1399.46741746624 124.887309288082 2500.95261632524 86 91 87
-1403.85005776906 124.746094240929 2509.34177521634 86 91 87
-1400.11059271612 124.171178397884 2518.47468297441 87 92 88
-1362.8254865451 121.810986148951 2530.51993287139 140 145 141
-1319.38241667979 119.132605617628 2542.87983440348 137 141 140
-1291.1395136402 117.270980315818 2553.74303987053 156 160 159
-1249.61412708645 114.713326748133 2565.50650359891 155 159 158
-1221.27545256109 112.862149603764 2576.0197957072 135 139 138
-1207.17114106873 111.768234316457 2585.30838192139 126 130 129
-1195.08475904983 110.784239006802 2594.36497269559 126 130 131
-1177.87146038138 109.534551859959 2603.70204284781 130 134 135
-1162.67469530903 108.394888364563 2612.8020003952 129 133 134
-1157.68022915756 107.792474965157 2621.15429491471 125 129 128
-1152.67534600433 107.191266344042 2629.46867378228 124 128 127
-1148.68415190814 106.644539959975 2637.68475828898 124 128 127
-1147.75857427644 106.258485942096 2645.69442582931 122 126 125
-1147.85406966939 105.926182838375 2653.63182349181 121 126 122
-1143.8410674226 105.381949792663 2661.76851277297 119 124 120
-1142.90012376542 104.997730698784 2669.72228774728 115 120 116
-1137.84376168567 104.402331456683 2677.84920318804 108 113 109
-1142.03263133844 104.283721998466 2685.53413064143 105 110 106
-1142.10780915817 103.953797606777 2693.39759493096 101 106 102
-1140.11998598409 103.518819385536 2701.32878517036 100 105 101
-1138.1258906197 103.084501670983 2709.2380340283 100 105 101
-1137.15720175358 102.703375916321 2717.09074945217 102 107 103
-1136.18389720955 102.322726221471 2724.92662832787 103 108 104
-1135.20629191647 101.942523300395 2732.74589241233 116 121 117
-1134.22381473021 101.562847817845 2740.54833013185 119 124 120
-1136.33917978906 101.340348694561 2748.26179169656 120 125 121
-1137.41924409373 101.065686398715 2755.99570078482 117 122 118
-1135.39114248541 100.634846682038 2763.77995792739 112 117 113
-1133.35709245519 100.204579397279 2771.5424911488 111 116 112
-1126.13203155465 99.5151954794002 2779.35168570831 105 110 106
-1111.63010504908 98.463973670031 2787.19095973585 94 99 95
-1083.60611792036 96.7416590972232 2795.05673214567 132 137 133
-1069.04883484665 95.6961463547383 2802.69408249123 128 133 129
-1062.78703904713 95.0661233107812 2810.22084853994 124 129 125
-1064.83811922868 94.8498170771791 2817.69954282109 119 123 122
-1057.51764555998 94.1699373130774 2825.16048889793 123 127 126
-1055.3940945688 93.7484326856649 2832.59625487616 127 131 130
-1052.22206237175 93.2760942254438 2840.00344219713 129 133 132
-1051.12938344249 92.9069112355458 2847.40334685443 132 136 135
-1051.07625361843 92.5892774053435 2854.79911864979 133 138 134
-1055.19960214706 92.4763177552483 2862.2434169816 133 138 134
-1061.41657018346 92.4649791463483 2869.7324316445 140 145 141
-1070.77780493246 92.6058231567165 2877.30168231537 140 145 141
-1091.66552992276 93.3052971695523 2885.15598154353 131 136 132
-1400.81028977174 117.19963338781 2473.80874115658 127 129 126
-1387.97324421057 116.171605351026 2483.94678574989 113 118 114
-1389.30741565155 115.870680817934 2492.60663520737 112 117 113
-1398.75572796881 115.983604056453 2500.48156010876 105 110 106
-1405.16790633286 115.940907905972 2508.67555494784 91 96 92
-1403.45792461843 115.485609159847 2517.62548675584 80 85 81
-1378.35851749988 113.847719791076 2528.6103124269 135 140 136
-1321.68113146856 110.62144230288 2542.14468854214 148 152 151
-1283.24609856393 108.327601457544 2553.85869704368 152 156 155
-1250.86606606647 106.347307040864 2564.87284078187 135 139 138
-1227.61298325183 104.832743691754 2574.99699852518 130 134 133
-1208.4044065016 103.526405807985 2584.68379570507 117 121 120
-1191.20765420451 102.325415489865 2594.112114897 117 121 122
-1172.96146303166 101.076554397746 2603.51109953379 128 132 133
-1160.82040392167 100.135932772241 2612.39299788123 127 131 132
-1154.79786471575 99.5021898159429 2620.80479918854 125 129 130
-1151.83470399581 99.0219195460115 2628.98340665943 127 131 130
-1149.8887702586 98.5931299836255 2637.07403136305 127 131 130
-1149.98730922331 98.2661648655511 2645.02609933566 123 127 126
-1147.00448688649 97.7881396766305 2653.13312450322 122 126 125
-1141.9609570009 97.210232587986 2661.31872699586 127 132 128
-1142.0438825644 96.8850949838939 2669.21490828907 124 129 125
-1138.01124875766 96.3593070168016 2677.29035469284 121 126 122
-1141.17161251581 96.1857409768583 2685.01733599427 120 125 121
-1142.27368694713 95.9118835508393 2692.83347252157 114 119 115
-1140.28348979197 95.4881555074516 2700.76295140783 114 119 115
-1139.31811908581 95.1150798847093 2708.63306894117 117 122 118
-1138.34817310797 94.7424178822011 2716.48646052566 122 127 123
-1136.34129486241 94.3205035574541 2724.35515087967 123 128 124
-1133.29537127785 93.8494657649246 2732.2313759357 123 128 124
-1132.30951064929 93.4784710720847 2740.02673219329 124 129 125
-1137.52627120971 93.4054010240204 2747.65951891843 116 121 117
-1138.60586259851 93.1338839253984 2755.39365787563 115 120 116
-1136.57612882591 92.7142085917566 2763.17890371906 114 119 115
-1132.46698373274 92.196403041205 2770.97531839206 115 120 116
-1127.31173562538 91.630203628671 2778.75352463721 95 100 96
-1110.72729845817 90.5238487933619 2786.61867740125 110 115 111
-1083.72872196097 88.9288545964937 2794.47659056919 136 141 137
-1067.08539465411 87.8285019704741 2802.12688526758 124 129 125
-1059.77806560595 87.1715660336983 2809.6511202757 127 132 128
-1060.78541405422 86.9070827019898 2817.12054708365 130 134 133
-1058.66584860848 86.4962011371519 2824.57874647903 131 135 134
-1058.62553086404 86.1833025504817 2832.02414757727 128 132 131
-1056.49586461289 85.7732786161306 2839.44445710236 129 133 132
-1051.22896332387 85.2179417447627 2846.81497500727 127 131 130
-1050.12993747666 84.8575512197553 2854.19686590424 127 132 128
-1054.25236065143 84.7398101940059 2861.63563889077 128 133 129
-1064.65336693849 84.9118510045575 2869.1878041125 132 137 133
-1083.43867805952 85.4688621976775 2876.93987893067 136 141 137
-1122.14605788826 86.9395684212611 2885.20081703745 153 158 154
-1393.01566223773 107.93704990336 2474.08964802189 125 127 124
-1385.23332762758 107.19614160493 2483.69358510799 109 114 110
-1394.67759905781 107.291278011346 2491.54227731322 106 111 107
-1405.14628787085 107.434630193963 2499.3285510132 88 93 89
-1406.48550298052 107.136674968697 2508.00900128949 86 91 87
-1400.70842902717 106.497216039881 2517.3285582039 84 89 85
-1379.66344202586 105.127558393061 2527.94978803312 124 129 125
-1320.92702106262 101.959738293125 2541.66984773171 141 145 144
-1282.47441843006 99.7736708609411 2553.38666576807 139 143 142
-1253.13710017218 98.0307612228254 2564.15686424617 138 142 141
-1233.95403412146 96.7774485361424 2573.9718549869 135 139 138
-1206.57546504556 95.1403206198688 2584.2886495462 132 136 135
-1188.34727679634 93.9426380160454 2593.78678692824 129 133 134
-1175.20064682036 92.9892628640349 2602.82253718956 132 136 137
-1163.05485077093 92.0865422007725 2611.70984787019 127 131 132
-1154.98258765286 91.3784723858067 2620.25806973019 124 128 129
-1149.96810208116 90.8160597681412 2628.5622194881 124 128 127
-1145.96857315024 90.3027980836851 2636.76755722396 124 128 127
-1147.08799152802 90.0299385961679 2644.64871847132 119 123 122
-1144.1004824891 89.5660665708758 2652.74634937665 120 124 123
-1142.13242539769 89.1508401831947 2660.76339748062 122 127 123
-1143.2414810675 88.8792369610138 2668.60687716449 117 122 118
-1139.20635892774 88.3699980223057 2676.68353306559 113 118 114
-1137.22085430624 87.9567317622376 2684.63703943196 116 121 117
-1134.19943129801 87.4967531737072 2692.61121252836 119 124 120
-1134.26225953867 87.1795432657242 2700.43778153312 120 125 121
-1135.35346351758 86.9100118178281 2708.21536037483 122 127 123
-1133.34667791113 86.4990335107896 2716.09129910876 120 125 121
-1131.33360433102 86.0887175358594 2723.94523901328 118 123 119
-1128.28134637152 85.6319585651015 2731.80696067718 120 125 121
-1130.39259259691 85.410860067804 2739.50601410245 120 125 121
-1133.53841562548 85.2366290598091 2747.17951772132 115 120 116
-1134.61424348286 84.9685871052003 2754.90094842549 116 121 117
-1131.54274764214 84.5137282392703 2762.69337225621 115 120 116
-1129.5010701388 84.1062365736458 2770.4419654985 101 106 102
-1126.41575556916 83.6527231010237 2778.18300348553 90 95 91
-1111.8995160702 82.6881310281279 2786.02382965434 113 118 114
-1082.81143380799 81.0755522512923 2793.90535623408 140 145 141
-1067.19903546915 80.070254676677 2801.54790955566 127 132 128
-1060.92816601623 79.48417973153 2809.06780441406 126 131 127
-1058.81100630658 79.0841182162267 2816.54083802637 126 130 129
-1055.64572969684 78.6384303392327 2823.99086232455 128 132 131
-1056.64439221824 78.3776665989278 2831.43038834371 130 134 133
-1056.5977902036 78.07097548998 2838.85730527735 134 138 137
-1051.32737336416 77.5347904048097 2846.22686206781 134 138 137
-1050.22638015512 77.1829457759298 2853.60684396731 137 142 138
-1051.21226954893 76.9229661148944 2860.99944089378 138 143 139
-1065.79888842938 77.2570835098041 2868.60808142801 136 141 137
-1098.20181352401 78.3648999908125 2876.61248551119 139 144 140
-1401.42402390218 99.4685210442108 2472.68556036449 114 116 113
-1399.72589641031 99.0331959810465 2481.69211491528 105 110 106
-1405.12378298546 98.9235231115186 2489.9742779281 103 108 104
-1412.55603361921 98.9062654140239 2498.07534129907 96 101 97
-1409.83493823238 98.426080684252 2507.15181489132 99 104 100
-1406.08936554724 97.9006549400972 2516.29329166572 97 102 98
-1383.00285939014 96.5006060025971 2527.10914331744 158 163 159
-1325.26203106565 93.5399074437415 2540.7591596442 152 156 155
-1265.39870264954 90.4963805381845 2554.269096416 149 153 152
-1240.11410948603 89.0218337564276 2564.67041757848 155 159 158
-1224.99400326333 88.009459675547 2574.13535828252 148 152 151
-1201.68094428105 86.6340601483544 2584.12469702229 141 145 144
-1188.54905038595 85.7190345529692 2593.24030038865 136 140 141
-1174.3729013064 84.7608603092044 2602.34786751013 126 130 131
-1165.28956421683 84.0326945297828 2611.0258027234 120 124 125
-1156.19009655786 83.3063943312885 2619.64502612411 117 121 122
-1151.17270909009 82.7631780604208 2627.9505212791 116 120 121
-1146.14519492652 82.2211978959619 2636.21826938771 114 118 119
-1143.15949823804 81.7707491325475 2644.33110393985 108 112 111
-1141.19298585264 81.366290823783 2652.36068563583 111 115 114
-1138.19277807246 80.9174554371572 2660.42159097271 109 113 112
-1139.29800265773 80.6493640550427 2668.25213476003 106 110 109
-1136.28566191193 80.2019030233 2676.2688604693 105 109 108
-1134.29560962876 79.8001094549059 2684.2127255161 111 116 112
-1130.23877000468 79.3094701927969 2692.22049151655 111 116 112
-1131.32838487064 79.0431841526954 2699.99421927391 109 114 110
-1133.44792807174 78.8216748494661 2707.72381838245 106 111 107
-1133.50212463528 78.511124344785 2715.52254406048 108 113 109
-1132.52004101882 78.1564739594238 2723.34224256384 111 116 112
-1128.43188336596 77.6691750888672 2731.23491078745 115 120 116
-1129.50757301942 77.4043191329084 2738.95876886279 113 118 114
-1131.617066027 77.1837411191816 2746.65164154004 113 118 114
-1133.72625031165 76.9632565771993 2754.34342700271 115 120 116
-1131.68819459915 76.5664371812448 2762.1122051569 110 115 111
-1128.60651956503 76.126157393558 2769.87604010436 98 103 99
-1126.55588580124 75.730474996892 2777.59883626117 95 100 96
-1113.07151460028 74.8530451479651 2785.42856743823 99 104 100
-1089.16928029407 73.5400029134875 2793.27071182815 121 126 122
-1068.35214450035 72.3617245102098 2800.96241498483 131 136 132
-1059.99591355302 71.7101812152068 2808.49200783646 128 133 129
-1052.6670981285 71.1036257638379 2815.9673467189 128 132 131
-1048.45244222821 70.6287547874125 2823.39912708702 127 131 130
-1047.35853812893 70.2848418764443 2830.8104371331 125 129 128
-1050.43566203819 70.1145992666983 2838.23139245249 125 129 128
-1047.2467227477 69.6845660233112 2845.60251634845 120 124 123
-1045.0954596242 69.2983196546903 2852.95858185209 121 126 122
-1049.21474006385 69.1711578350333 2860.37880966051 127 132 128
-1069.03750691341 69.6889493417336 2868.06167262182 125 130 126
-1111.92810532522 71.1490058124628 2876.26021816051 137 142 138
-1412.87840521076 91.0952288062815 2470.96098388378 121 123 122
-1412.19992971366 90.7141295845938 2479.89122141808 92 97 93
-1411.51674446689 90.3337194849695 2488.80440765054 86 91 87
-1413.87597718914 90.0849799056695 2497.40673520245 81 86 82
-1409.11981551725 89.5314881100118 2506.67469408772 79 84 80
-1406.38732951028 89.0663042609537 2515.71927633318 75 80 76
-1383.29021015257 87.7337479854335 2526.53740556217 169 174 170
-1312.28333829391 84.3681904637146 2541.3334766513 159 163 162
-1266.65552425689 82.0953095927608 2553.63143232043 151 155 154
-1235.24014614062 80.4343445873035 2564.53150717523 151 155 154
-1213.98440493895 79.2097357160276 2574.46182416868 140 144 143
-1198.82385554912 78.2469453246324 2583.80884088812 131 135 134
-1182.61669342782 77.2440011045765 2593.1400300026 127 131 132
-1169.45183890182 76.3725308506763 2602.16075556899 120 124 125
-1159.33619286121 75.6319240138212 2610.894395726 116 120 121
-1155.34861657784 75.1497375229929 2619.16465957256 117 121 122
-1151.35209998251 74.6685272575076 2627.40234613062 116 120 121
-1143.24375976337 74.0180349718262 2635.85297222303 118 122 123
-1138.20013494725 73.4966632800426 2644.07391574712 119 123 124
-1137.25472662354 73.1462628739631 2652.03246563869 118 122 121
-1140.41616385726 72.965864642311 2659.76004807881 111 115 114
-1138.43581878883 72.5739817675182 2667.74621120451 109 113 112
-1134.3907545477 72.0982707469873 2675.80712180416 109 113 112
-1132.3968806363 71.7078659008713 2683.74398813742 116 121 117
-1131.42764831476 71.3601630927519 2691.61578731658 113 118 114
-1131.48540666651 71.0550133092448 2699.43021792625 109 114 110
-1132.57183209668 70.7920928588159 2707.19515781323 107 112 108
-1133.65678893872 70.5293493949978 2714.95382783792 112 117 113
-1132.67272217709 70.1832467311858 2722.77155989585 115 120 116
-1131.68405110113 69.8376476961294 2730.5725150019 117 122 118
-1129.65590589098 69.4508310153392 2738.38440409962 114 119 115
-1129.69305321128 69.1477401483438 2746.12453890381 113 118 114
-1128.69073081718 68.8034022412481 2753.87560555137 115 120 116
-1128.72117579735 68.5009492544407 2761.59032958188 108 113 109
-1127.71041563402 68.1574428015171 2769.31059338269 96 101 97
-1124.61794585639 67.7318132835178 2777.04359897656 101 106 102
-1112.16461988265 66.9362903221972 2784.85679033958 112 117 113
-1086.17106153149 65.6084732886929 2792.71757117284 130 135 131
-1070.54598011594 64.6948519383649 2800.36998526261 131 136 132
-1061.144782764 64.0294360268436 2807.90831362473 124 129 125
-1054.85444486441 63.4881576548435 2815.38420816752 125 129 128
-1048.5524853815 62.9480500778225 2822.81769322785 125 129 128
-1044.32595575053 62.4904669995297 2830.21630343502 126 130 129
-1048.44478117314 62.3589026553811 2837.63299135334 128 132 131
-1049.43161241999 62.1051394846067 2845.03300996208 124 128 127
-1053.55396941972 61.9728850010047 2852.46144519368 126 131 127
-1055.58611148282 61.7593756025523 2859.87159172806 133 138 134
-1079.60765553886 62.3931543664751 2867.63070924174 130 135 131
-1141.38121348761 64.4737556459704 2876.1913500587 142 147 143
-1429.41021989496 82.8754719269559 2468.70232562077 112 114 113
-1422.6532617165 82.2549991497423 2478.29207170586 96 101 97
-1416.89806764463 81.6772387977047 2487.7327466058 93 98 94
-1418.24400568406 81.3876908888601 2496.44346574209 84 89 85
-1410.43655160942 80.7305029688136 2506.00699584395 74 79 75
-1411.77230370984 80.4424797130682 2514.68085917123 74 79 75
-1350.99188911968 77.6696934296828 2528.85401558494 170 175 171
-1308.46382718939 75.6384464312122 2541.12433711609 139 143 142
-1267.91208952833 73.6952214393859 2552.99343698331 134 138 137
-1233.42211860718 72.0015638797237 2564.14740116541 132 136 135
-1213.17598921542 70.8795949587022 2573.99469003761 131 135 134
-1200.05083737422 70.0437094188172 2583.18529021673 136 140 139
-1183.83639651262 69.0893798302401 2592.52014752833 128 132 135
-1163.50252819525 67.9770384566872 2602.04775729555 124 128 131
-1156.44896452949 67.3899742065729 2610.55735773445 119 123 126
-1154.50532070978 67.0046418278711 2618.68485006622 117 121 122
-1155.63206104623 66.7401275131503 2626.59753599372 116 120 121
-1147.52177906939 66.1165767592102 2635.05796219312 110 114 115
-1141.45062587839 65.5743837659354 2643.34706915587 112 116 117
-1140.50538094321 65.2322828240604 2651.31146552424 111 115 114
-1139.55549128746 64.8907479505175 2659.25897434142 112 116 115
-1135.51398815076 64.4308574275117 2667.3430948578 117 121 120
-1133.52307502585 64.0510857667305 2675.29766724755 116 120 119
-1133.58678624083 63.7509014745223 2683.13826364544 111 116 112
-1134.67863656515 63.4904801303838 2690.92399388352 110 115 111
-1131.64116265377 63.0729894309218 2698.86632677381 110 115 111
-1131.6941606655 62.7740224280456 2706.66698665802 111 116 112
-1132.77696977192 62.5145240760711 2714.42066037752 111 116 112
-1132.82437353892 62.2161463091479 2722.2009219402 110 115 111
-1131.83375530423 61.8790619504307 2730.00002334843 111 116 112
-1129.8032089661 61.50346970397 2737.8100840488 111 116 112
-1130.87487440904 61.2450579899584 2745.52306957624 112 117 113
-1128.83450136811 60.8704578347752 2753.2972720096 114 119 115
-1127.8256836905 60.5350739677763 2761.02987605471 107 112 108
-1125.7740653423 60.1615144397744 2768.76298386369 108 113 109
-1121.63848533371 59.7113201658395 2776.50393709737 111 116 112
-1107.0972033148 58.8769704036129 2784.33401347451 115 120 116
-1082.12885433591 57.6605895178762 2792.17523033712 127 132 128
-1066.49336722779 56.7931716597069 2799.81818059602 131 136 132
-1057.08443611944 56.1579448951545 2807.34592586082 129 134 130
-1051.82975692024 55.6770706380971 2814.80883378629 134 138 137
-1047.60811671795 55.2352410795888 2822.23554343151 133 137 136
-1045.46575873655 54.8703275187881 2829.63721137798 135 139 138
-1048.54079868326 54.6957912676996 2837.04771857251 137 141 140
-1051.61709182905 54.5209656618895 2844.46269596619 132 136 135
-1056.78699656906 54.4215143229724 2851.9048604477 125 130 126
-1063.00774895703 54.3592213223379 2859.37575573077 129 134 130
-1087.04222913194 54.9367774371333 2867.14647745851 128 133 129
-1164.56649680989 57.429133554331 2875.99692601728 142 147 143
-1243.24203328051 59.9480158315141 2885.24223680515 155 160 156
-1435.81035780039 74.1913216544067 2467.49860544333 119 121 120
-1419.91740758954 73.249113684419 2478.0347474861 98 100 97
-1421.26660652957 72.9620120524355 2486.76004718086 99 104 100
-1422.61416199727 72.6754253484685 2495.47864106106 91 96 92
-1419.89073205453 72.236344326073 2504.57332665633 81 86 82
-1413.08823415757 71.645718045929 2514.01283620795 81 86 82
-1355.33886812522 69.1536547677053 2527.92702548156 147 152 148
-1319.93085861437 67.5063388870277 2539.59899942765 138 142 141
-1279.36936452788 65.6752404028493 2551.50266640652 138 142 141
-1247.93445723658 64.1911907398239 2562.44192834758 136 140 139
-1224.62411385053 63.0143308186649 2572.56762609996 136 140 139
-1205.3667609761 61.9921619486613 2582.25180750692 139 143 144
-1179.94091253595 60.7476299409745 2592.27389479941 135 139 140
-1162.66584832269 59.8076449196653 2601.57624227593 128 132 135
-1156.63121313077 59.2827103993239 2610.01275853074 120 124 125
-1156.73572281513 58.9833891545255 2618.0044475096 115 119 120
-1156.83671165768 58.6845835084027 2625.98431883738 114 118 119
-1148.72231676657 58.0882831577032 2634.44667907021 115 119 120
-1146.75682411528 57.7165471072472 2642.50070595994 116 120 121
-1142.72925425879 57.2713641374197 2650.64584359401 114 118 117
-1142.80738441102 56.9752310962143 2658.54253242766 112 116 115
-1138.76507660059 56.5317308982399 2666.63308431889 115 119 118
-1138.83397792103 56.2366363343339 2674.49616394911 107 111 110
-1135.80718217516 55.8315724041481 2682.48598838662 111 116 112
-1132.77319290996 55.4273186942661 2690.44868720497 105 110 106
-1128.6993475798 54.9871699989525 2698.42519145244 105 110 106
-1127.71550847544 54.6577066104461 2706.25427392453 109 114 110
-1126.72706947652 54.3287174563287 2714.06657729642 110 115 111
-1126.76860806998 54.0366502495518 2721.82904677662 110 115 111
-1125.77175844872 53.7085182931298 2729.61066434598 114 119 115
-1126.8417874287 53.4533574631779 2737.31962644521 116 121 117
-1128.94682004571 53.234595059793 2744.99708484779 119 124 120
-1130.01442649363 52.9796637784395 2752.6962684627 121 126 122
-1126.92855741398 52.5806881483119 2760.46968000141 116 121 117
-1123.83506951244 52.1823554703551 2768.21613929651 108 113 109
-1114.49816235191 51.5692994331075 2776.02529279983 113 118 114
-1098.90475165646 50.7428239789978 2783.85031342278 126 131 127
-1071.83782578154 49.5255551909409 2791.69293479629 128 133 129
-1063.47827469177 48.9545756434857 2799.26106434243 126 131 127
-1053.01968435889 48.3137885906314 2806.78536956598 125 130 126
-1050.88744016745 47.9589697665583 2814.23096132063 130 134 133
-1046.66195616099 47.5337304706514 2821.65387389765 128 132 131
-1046.60538304683 47.2507574835413 2829.05781545105 129 133 132
-1046.5455340522 46.968011815326 2836.45066684204 131 135 134
-1051.71177654011 46.8615610523799 2843.87481502935 124 128 127
-1057.92857440866 46.7896740589105 2851.32497081208 130 134 133
-1065.19833735061 46.7521081621691 2858.80899867379 127 131 130
-1093.43331254642 47.4139052715504 2866.64323895634 129 133 132
-1165.74686196204 49.5391262194466 2875.39805289778 147 151 150
-1249.69822369919 52.037626368266 2884.73606971397 159 163 162
-1298.05881938755 53.3414554510808 2893.66154928975 172 177 173
-1439.16988210716 65.3740213163953 2466.61150911255 114 114 114
-1415.14698240214 64.1942701799668 2477.98611993212 107 109 104
-1422.58860532766 64.1248919199829 2486.08907459089 90 93 86
-1431.05405606483 64.0906340220109 2494.11822500078 91 96 90
-1426.2984042772 63.5937809725475 2503.42383572564 83 90 83
-1413.38533756513 62.8146151628623 2513.43767628999 78 85 78
-1381.08830759128 61.3656238679077 2525.09450008475 140 146 142
-1325.28713592426 59.1098802414329 2538.59758326675 135 141 139
-1279.60868337386 57.2152398968849 2550.94725835031 130 136 136
-1249.18117527251 55.8551490727617 2561.80780775359 133 137 140
-1224.83881771642 54.7106118407257 2572.01856639995 139 143 146
-1197.39094763367 53.4650677959746 2582.32528546024 143 147 148
-1176.04140454811 52.4336760906738 2592.02932164706 130 134 135
-1162.85108652122 51.6847272558415 2601.03285983531 124 130 128
-1157.83740498701 51.2165035411946 2609.39853174681 122 128 126
-1153.8387846788 50.7841470021441 2617.65925131664 119 125 123
-1153.93627069056 50.4914147196839 2625.62902270161 117 123 121
-1148.89575748513 50.0262942218439 2633.89703308539 118 124 122
-1150.01059656851 49.7692435641216 2641.77117317765 120 126 124
-1145.98219931117 49.3403957814357 2649.92262299403 121 127 125
-1145.03189461568 49.0155456311196 2657.8791247108 123 129 127
-1142.01728529178 48.6226762664201 2665.92189395488 123 129 127
-1141.05629085805 48.2990913209283 2673.83950555274 125 131 129
-1139.05953819677 47.9418596122685 2681.78662743426 123 128 124
-1136.02468074853 47.5512165115027 2689.7556249077 126 131 127
-1131.95002380085 47.127401177909 2697.73849878544 125 130 126
-1127.86621767594 46.704607972109 2705.68897790178 124 129 125
-1124.80758295164 46.3164548833156 2713.57126707261 127 132 128
-1124.84614472205 46.030364184523 2721.32645744653 128 133 129
-1122.81019457504 45.6771965926687 2729.13154163915 128 133 129
-1122.84104460968 45.3918533786522 2736.85857177237 127 132 128
-1122.86851964405 45.1067778304271 2744.57416920374 123 128 124
-1126.00603691289 44.9223945310232 2752.2094965168 119 124 120
-1120.83755570301 44.4707095247857 2760.01179826963 109 114 110
-1117.73725918856 44.0867176536473 2767.74110353163 112 118 114
-1107.35097623125 43.470754685637 2775.54954449645 98 104 100
-1090.70458763432 42.6575951483047 2783.36979190625 134 140 136
-1069.86732832253 41.7146448853173 2791.13535425263 128 134 130
-1059.41765634656 41.1050022620443 2798.71243454984 135 141 137
-1052.07884481452 40.5958706079888 2806.21216812964 131 137 133
-1047.85680258959 40.1865233762918 2813.65789278431 137 143 141
-1042.58207672465 39.745111408358 2821.07128579238 139 145 143
-1044.61052609335 39.5336754307205 2828.46903112557 138 144 142
-1044.54772489855 39.2568456563346 2835.85465656164 138 144 142
-1048.66691598348 39.1103713118148 2843.2623596963 134 140 138
-1052.78854033579 38.9634928779187 2850.67977097748 126 130 133
-1066.34175318814 39.1078377318875 2858.22808540804 134 138 141
-1098.78023876131 39.8324855178946 2866.12167690102 133 137 138
-1183.71170212837 42.1659480612394 2875.09717346334 150 154 155
-1249.85991004163 43.907966042497 2884.10005786147 146 150 151
-1288.78319079846 44.805592941791 2892.79985249203 165 169 168
-1405.29193274378 55.007309585827 2478.45932642906 110 112 107
-1425.94361678045 55.3549331793591 2485.21511192402 90 93 86
-1428.30880105485 55.1073537979679 2493.84026891083 81 86 80
-1424.56532947256 54.6628468359819 2503.04063455122 76 81 75
-1420.81282350654 54.2195291615914 2512.20820814942 70 75 69
-1401.75943569831 53.2867328985736 2522.70609705644 133 139 135
-1328.60561862452 50.6278298631136 2537.77069579142 143 149 147
-1286.99349382602 48.9894799498293 2549.79251761851 135 139 140
-1258.600400033 47.7800558956318 2560.50893095676 147 151 152
-1221.98547405536 46.3160235176967 2571.71096758123 159 163 164
-1184.29258843855 44.8254709330084 2582.79125727637 142 146 147
-1167.01872422283 43.9861134652981 2592.16252010051 127 131 132
-1163.03549115751 43.5681807885896 2600.48947595891 123 129 127
-1160.06867030397 43.1834244548952 2608.71386754771 122 128 126
-1155.04219335564 42.7354186519794 2617.04572614801 122 128 126
-1150.00558971151 42.2886489554726 2625.33983770192 121 127 125
-1144.95862525517 41.8430197722573 2633.59620165116 124 130 128
-1147.0976040254 41.6212844722031 2641.39781853607 124 130 128
-1144.09257613516 41.2409180899595 2649.48312647149 125 131 129
-1144.16824770234 40.9563916098491 2657.37801483578 129 135 133
-1140.11999171243 40.5459502759767 2665.46828296104 131 137 135
-1138.12478817695 40.1994572518671 2673.42793628626 130 136 134
-1140.24993190528 39.9793798099124 2681.17923305703 130 135 131
-1138.24549511823 39.6339546574686 2689.10527932711 128 133 129
-1135.20180258416 39.2578218317837 2697.05063488657 123 128 124
-1130.08332257587 38.8200594146243 2705.04644227231 117 122 118
-1125.98892369452 38.4144926054812 2712.96846840514 119 124 120
-1126.02663939224 38.1341319827499 2720.72413514706 121 126 122
-1120.88153858338 37.699101795782 2728.62282970495 119 124 120
-1121.9457080661 37.4506263510554 2736.31425744152 118 123 119
-1118.85915673237 37.078879832749 2744.10232694026 115 120 116
-1119.91703055979 36.8310169792165 2751.77076690061 112 117 113
-1114.74095212137 36.3990207290932 2759.55636306033 103 108 104
-1114.75205522984 36.1211314380974 2767.21478274372 102 108 104
-1102.27761656614 35.4768493617225 2775.04600142663 121 127 123
-1086.66059831108 34.7430176338845 2782.84186220649 128 134 130
-1066.85269455057 33.8901196943594 2790.58882488253 130 136 132
-1055.35313900037 33.282806096749 2798.16568404934 128 134 130
-1049.05008915709 32.8287521381599 2805.64945056508 125 131 127
-1044.82276432041 32.4360749247566 2813.08608649453 131 137 135
-1040.58674223734 32.0442014089604 2820.49093866533 130 136 134
-1040.52261263023 31.7732152620185 2827.87532132728 126 132 130
-1041.5015128832 31.5323847604985 2835.25405872051 126 132 130
-1048.75817173146 31.4708811835216 2842.67524967502 122 128 128
-1052.88015654393 31.3190291708791 2850.08993019437 123 127 130
-1070.6290231661 31.5534099301248 2857.68651814409 128 132 135
-1106.22718915511 32.2896667621786 2865.6297519317 130 134 137
-1196.44181441662 34.5599385104616 2874.69723781029 156 160 161
-1244.76978389494 35.6366126757075 2883.35909796202 149 153 154
-1281.60095742203 36.3826418616054 2891.98916742143 168 172 173
-1416.07864742787 46.1811352576019 2485.6597987628 97 99 94
-1416.40056851 45.8742302827584 2494.45390567995 86 88 83
-1418.75588314036 45.6283411557559 2503.04348575097 84 89 83
-1413.97676158782 45.1719528410826 2512.28750515387 72 78 74
-1408.16718250617 44.6867853814716 2521.58471747663 127 133 129
-1307.43174838671 41.4172120296965 2539.06578623483 160 166 164
-1283.14859959314 40.4040042257497 2549.57928993756 142 146 145
-1259.84975796382 39.4247037675285 2559.87242016091 163 164 166
-1219.12842045041 37.9438372445135 2571.40466697198 160 161 163
-1183.46393727887 36.6177379573078 2582.32627480211 127 128 130
-1170.27777841644 35.9480906231126 2591.39439294635 130 134 133
-1166.29349077765 35.5464545037398 2599.72772217333 128 132 131
-1162.3002451478 35.1459121871764 2608.02848270504 127 131 130
-1158.29807940908 34.7463148761678 2616.29672124788 128 132 131
-1150.1789167284 34.2307168174415 2624.79233081484 128 132 131
-1145.12834896542 33.8043073362654 2633.04745070645 129 135 133
-1142.12419347887 33.4373213723899 2641.14537442399 127 133 131
-1142.2002966857 33.1583843315845 2649.04446523858 125 131 129
-1141.2431304056 32.8509067132172 2656.98645934371 125 131 129
-1137.18959622372 32.4571060032719 2665.06763659545 124 130 128
-1136.22107036146 32.1509132941269 2672.96826602289 118 124 122
-1139.37593684452 31.9602705043317 2680.66498467595 116 121 117
-1140.4666366939 31.7121420445487 2688.45420450972 114 119 115
-1134.32147918922 31.2638867518773 2696.52785530667 110 115 111
-1129.1986944637 30.8453673919982 2704.51982918008 104 109 105
-1127.17001883679 30.5133385789177 2712.36526815832 104 109 105
-1125.13559039391 30.1819244784042 2720.18880713323 105 110 106
-1121.0224835974 29.7944359749686 2728.05278813953 112 117 113
-1120.01160032033 29.4925933316786 2735.79889919144 111 116 112
-1117.95849703869 29.1630502375775 2743.55428340569 107 112 108
-1114.861067625 28.8059925104335 2751.31123845935 104 109 105
-1110.7169402687 28.4215140257408 2759.06194657529 96 101 97
-1106.56401212645 28.0379089799181 2766.78053054146 90 96 92
-1096.15878188153 27.4878248110378 2774.56021636591 133 139 135
-1076.36481900698 26.6890879929461 2782.39313331588 125 131 127
-1062.7925083737 26.0598480728711 2790.05398576706 128 134 130
-1051.28415150907 25.4880678123512 2797.62060126726 126 132 128
-1049.14797297999 25.1664286769401 2805.07253351583 127 133 129
-1047.00596282789 24.8452040490839 2812.50307578945 126 132 130
-1044.85800425387 24.5245518531455 2819.91189414191 128 134 132
-1041.65847258219 24.1769272029041 2827.29664809659 126 132 130
-1042.6369649484 23.9391188448767 2834.6757791094 126 132 130
-1050.94277971808 23.891783192205 2842.10397585013 119 125 123
-1055.06604631973 23.734807887199 2849.52110984537 120 124 127
-1071.77330845371 23.9022225089687 2857.10446595015 131 135 138
-1123.12120385108 24.9583545734251 2865.27585976757 134 138 141
-1207.08104228812 26.8418535891955 2874.25614036691 156 160 161
-1240.72540441474 27.4247926692239 2882.64112731477 148 152 153
-1266.00220284721 27.788773827125 2890.99410183634 161 165 166
-1397.04813313774 36.8185105960013 2487.02413983141 95 97 92
-1423.82592183763 37.2359794829569 2493.1892675683 86 88 83
-1427.20421094273 37.0174749270405 2501.69792016679 87 92 86
-1430.58349755025 36.7991438369609 2510.21038581356 77 82 76
-1390.0925368301 35.4046601762181 2522.65158509988 151 157 153
-1314.82716562416 33.0892425591293 2537.88682569804 151 157 155
-1287.47292939315 32.0639708926215 2548.67932832382 144 148 147
-1252.91965499108 30.853312077741 2559.90319921058 175 176 178
-1216.26815165302 29.5940678412111 2571.09965279896 153 154 156
-1186.72902714279 28.5295690254387 2581.54889729301 138 140 139
-1175.58714233417 27.9541945753758 2590.47388252749 130 134 133
-1171.60323640549 27.5686888999687 2598.81881288718 125 129 128
-1168.63629529205 27.2110317772073 2607.06079602016 122 126 125
-1163.60853921137 26.8009313886374 2615.41090792447 118 122 121
-1156.51578053139 26.3386987556404 2623.85379710561 116 120 119
-1152.49396302962 25.9575777430392 2632.06073747143 110 114 113
-1144.34787988588 25.4716657121168 2640.47513883919 109 113 112
-1141.33484890728 25.1192524628986 2648.54931004343 108 112 111
-1135.22375593118 24.6886909523252 2656.76060668629 108 112 111
-1134.25570218039 24.3907042356403 2664.6681698051 107 111 110
-1132.25144120375 24.0670077976242 2672.60858719757 104 108 107
-1136.43542759956 23.90052599012 2680.24515997979 110 114 113
-1136.48975603016 23.6297395344852 2688.06855117075 113 117 116
-1131.37130333412 23.2295438615238 2696.0891066597 114 118 117
-1127.27752760911 22.8563479491821 2704.03295471696 112 116 115
-1124.20984210118 22.5098225213298 2711.907921628 111 115 114
-1123.20681816508 22.2155336828899 2719.68798194945 109 113 112
-1119.08913458716 21.8446624481402 2727.54546153693 103 107 106
-1121.1871031914 21.6282189593923 2735.19815668593 100 104 103
-1120.1704437205 21.3351894234915 2742.92838599687 95 99 98
-1117.07169650869 20.9917436763559 2750.689042216 90 94 93
-1113.96531721566 20.6490290644908 2758.42275263645 82 87 83
-1104.61019240602 20.155172472367 2766.23952386866 81 86 82
-1083.7882371025 19.3856288177176 2774.1713868528 135 140 136
-1062.93497892529 18.6192216194762 2781.98807957398 128 133 129
-1055.60113688522 18.1818316085402 2789.55248684372 129 134 130
-1051.38365403923 17.8206541330195 2797.04555144109 130 135 131
-1050.28889359575 17.5350399056665 2804.49048878584 133 138 134
-1050.23441363669 17.2745559112114 2811.91640018652 133 138 134
-1045.99569337523 16.9151703353316 2819.33174573429 130 134 133
-1043.8403088961 16.6059482327289 2826.72020951907 124 128 127
-1044.81886508949 16.3710136754694 2834.10232089955 125 129 128
-1053.12781340221 16.3078919853834 2841.5321853938 124 128 127
-1060.39710867381 16.2192858005302 2848.98225272121 109 113 114
-1081.30777284984 16.4468632169535 2856.6247188657 121 125 128
-1134.77933926852 17.4257979594828 2864.83857881825 148 152 153
-1217.72703887277 19.0762745648931 2873.81111756098 153 157 158
-1242.98234369677 19.3852711398473 2882.04864711724 151 155 156
-1261.95892298667 19.5461238051041 2890.26074940352 160 164 163
-1406.81116429842 27.9690484661745 2494.30549356473 72 74 69
-1431.58092858215 28.2710615600913 2500.73589725396 72 77 71
-1320.18475754687 24.6810497097641 2536.88288207491 150 156 152
-1278.51208583806 23.3900908326217 2548.89922960497 158 162 161
-1231.66327589227 21.983491062273 2561.10804071684 163 165 164
-1208.2866235649 21.1448971809449 2571.20110983537 142 144 143
-1192.04377022333 20.4804038408261 2580.61346461171 130 132 131
-1180.89947193159 19.9398528264516 2589.55147475065 112 116 115
-1175.89030833447 19.5463762027126 2597.98111227725 108 113 109
-1168.81792504831 19.1059262697606 2606.51433278118 107 112 108
-1162.75957081131 18.69098542515 2614.93130009653 105 110 106
-1155.66139503011 18.2534318734977 2623.37058674505 103 108 104
-1151.63568637416 17.888906599763 2631.57355769879 104 109 105
-1140.39633705246 17.3588576974481 2640.16529247675 106 111 107
-1135.31791302467 16.9731025565137 2648.34265453896 107 112 108
-1132.29034223216 16.635801596281 2656.37238337199 109 114 110
-1132.34972755773 16.37006250901 2664.21773646704 110 115 111
-1132.40571326016 16.1046517016853 2672.0516037089 112 117 113
-1134.52421344953 15.8864690629041 2679.7794306011 113 115 114
-1134.57555369351 15.6216315463086 2687.59548308953 113 115 114
-1130.48649641411 15.2640862589476 2695.56765981836 113 115 114
-1125.35373352372 14.884182430946 2703.54696654651 111 113 112
-1123.31747714545 14.5747216510124 2711.37850795544 109 111 110
-1119.20283560802 14.2198247327779 2719.25643836769 108 110 109
-1119.22748571219 13.9576625623516 2726.97601369411 109 111 110
-1120.28696098684 13.7187487209419 2734.65512042942 106 108 107
-1120.30605725249 13.4571133468922 2742.35440803362 101 103 102
-1115.1260119182 13.0819270065778 2750.16114268944 97 99 98
-1113.05558641462 12.7757897633815 2757.86699011766 89 91 88
-1099.53175969996 12.2214110243962 2765.75511728677 85 90 86
-1076.614105403 11.4663951033564 2773.7078734731 124 129 123
-1055.74608145241 10.7597148474513 2781.50838125889 127 132 126
