ply
format ascii 1.0
comment KinectMotionCapture
element vertex 787
property float x
property float y
property float z
property uchar red
property uchar green
property uchar blue
end_header
-1131.89780712128 -342.611610889435 2733.99996757507 17 20 9
-1122.00808525085 -341.862350702286 2727.9999256134 19 22 11
-1119.09890174866 -343.244284391403 2739.00008201599 19 22 11
-1281.43095970154 -310.635626316071 2421.0000038147 19 22 11
-1296.27060890198 -315.858364105225 2461.99989318848 21 24 13
-1265.37680625916 -311.553657054901 2428.99990081787 22 25 14
-1281.42642974854 -317.163050174713 2473.00004959106 23 26 15
-1276.62241458893 -317.642956972122 2476.99999809265 24 27 16
-1273.34010601044 -318.508595228195 2483.99996757507 24 27 16
-1277.67300605774 -321.298480033875 2506.00004196167 24 27 16
-1277.83310413361 -323.063373565674 2519.99998092651 23 26 15
-1271.87037467957 -323.290944099426 2522.0000743866 23 25 12
-1256.37257099152 -321.084201335907 2505.00011444092 20 24 10
-1247.95734882355 -320.673257112503 2502.00009346008 20 24 10
-1245.02050876617 -321.6732442379 2509.99999046326 22 25 14
-1235.63230037689 -321.008294820786 2505.00011444092 21 24 13
-1240.01121520996 -323.932409286499 2528.00011634827 19 22 11
-1249.63390827179 -328.266561031342 2562.00003623962 18 21 10
-1244.82583999634 -334.46404337883 2611.00006103516 12 18 8
-1222.47290611267 -338.100254535675 2640.00010490417 8 10 5
-1217.0912027359 -338.599771261215 2644.00005340576 8 10 5
-1226.7918586731 -343.326151371002 2680.99999427795 12 14 9
-1219.91956233978 -343.443244695663 2681.99992179871 12 14 9
-1219.37525272369 -345.353960990906 2697.00002670288 11 13 8
-1198.53007793427 -341.503381729126 2667.00005531311 11 13 8
-1198.84526729584 -343.672007322311 2684.00001525879 10 12 7
-1188.41695785522 -342.768400907516 2677.00004577637 10 12 7
-1197.44336605072 -347.499459981918 2713.99998664856 11 13 8
-1179.96203899384 -344.548970460892 2690.99998474121 12 14 9
-1163.48099708557 -341.855585575104 2670.00007629395 12 15 8
-1150.14863014221 -340.059280395508 2655.99989891052 13 16 9
-1151.09586715698 -342.488974332809 2674.99995231628 14 17 10
-1143.39065551758 -342.358767986298 2674.00002479553 14 17 10
-1156.51249885559 -348.502963781357 2721.99988365173 14 17 8
-1148.69022369385 -348.374307155609 2720.99995613098 14 17 8
-1150.52306652069 -351.191252470016 2743.00003051758 15 18 9
-1135.98692417145 -349.015682935715 2726.0000705719 16 19 10
-1128.16953659058 -348.889380693436 2724.99990463257 21 23 12
-1122.41649627686 -349.404066801071 2729.00009155273 19 21 10
-1123.18110466003 -351.967960596085 2749.00007247925 27 29 18
-1386.17408275604 -337.942838668823 2578.00006866455 18 21 10
-1341.28177165985 -332.046538591385 2533.99991989136 19 22 11
-1322.10826873779 -328.992962837219 2510.99991798401 21 24 13
-1250.82492828369 -314.508497714996 2401.00002288818 22 25 14
-1278.86986732483 -323.249667882919 2467.99993515015 22 25 14
-1286.96346282959 -327.013611793518 2496.99997901917 24 27 16
-1282.08684921265 -327.504307031631 2500.99992752075 24 27 16
-1276.17430686951 -327.734261751175 2503.00002098084 24 27 16
-1271.77798748016 -328.358083963394 2507.99989700317 23 26 15
-1263.82994651794 -328.066676855087 2506.00004196167 24 26 13
-1257.4028968811 -328.169167041779 2506.99996948242 20 24 10
-1251.97374820709 -328.534603118896 2509.99999046326 20 24 10
-1241.57345294952 -327.592343091965 2503.00002098084 22 25 14
-1237.62941360474 -328.352600336075 2509.0000629425 22 25 14
-1255.24044036865 -334.871768951416 2559.00001525879 20 23 12
-1255.02157211304 -336.68041229248 2572.99995422363 18 21 10
-1235.33034324646 -333.256304264069 2546.99993133545 14 20 8
-1240.99624156952 -342.466652393341 2618.00003051758 13 15 10
-1260.67841053009 -349.905371665955 2674.99995231628 10 12 7
-1253.81445884705 -350.019693374634 2676.00011825562 5 7 2
-1244.15445327759 -349.350214004517 2671.0000038147 6 8 3
-1219.40529346466 -346.445173025131 2648.9999294281 8 10 5
-1219.48218345642 -348.525255918503 2664.99996185303 10 12 7
-1228.57260704041 -353.221744298935 2700.99997520447 10 12 7
-1212.15116977692 -350.59580206871 2680.99999427795 11 13 8
-1192.24727153778 -346.924751996994 2653.00011634827 11 13 8
-1185.89997291565 -347.177714109421 2654.99997138977 12 14 9
-1205.73759078979 -355.146557092667 2716.00008010864 10 12 7
-1213.3332490921 -359.585464000702 2750 11 13 8
-1170.32063007355 -348.988115787506 2668.99991035461 12 14 9
-1166.97156429291 -350.15994310379 2677.99997329712 13 16 9
-1169.6389913559 -353.163123130798 2700.99997520447 13 16 9
-1167.4507856369 -354.728847742081 2713.00005912781 13 16 9
-1171.18620872498 -358.125865459442 2739.00008201599 12 15 8
-1165.4360294342 -358.647167682648 2743.00003051758 12 15 6
-1163.04397583008 -360.215365886688 2755.00011444092 13 16 7
-1151.36158466339 -358.907788991928 2744.99988555908 14 17 8
-1134.31882858276 -355.901271104813 2721.99988365173 15 18 9
-1126.92546844482 -355.902820825577 2721.99988365173 20 22 11
-1122.82502651215 -356.951177120209 2730.00001907349 20 22 11
-1107.65147209167 -354.469865560532 2710.99996566772 27 27 17
-1277.96745300293 -326.30729675293 2440.00005722046 22 25 14
-1294.62194442749 -332.287460565567 2484.99989509583 23 26 15
-1290.82334041595 -333.053261041641 2490.9999370575 23 26 15
-1290.09020328522 -334.622263908386 2503.00002098084 24 27 16
-1284.68298912048 -334.989130496979 2506.00004196167 24 27 16
-1273.65672588348 -333.88689160347 2497.99990653992 22 25 14
-1269.78027820587 -334.657222032547 2503.99994850159 22 25 14
-1254.2769908905 -332.354962825775 2486.99998855591 23 25 12
-1250.91075897217 -333.261281251907 2493.99995803833 21 25 11
-1242.52355098724 -332.832425832748 2490.9999370575 21 25 11
-1239.61508274078 -333.874553442001 2499.00007247925 22 25 14
-1246.0401058197 -337.455898523331 2526.00002288818 22 25 14
-1255.26475906372 -341.839343309402 2559.00001525879 20 23 12
-1233.0949306488 -337.674587965012 2528.00011634827 19 22 11
-1242.62750148773 -342.193216085434 2562.00003623962 14 20 8
-1216.28975868225 -336.829245090485 2522.0000743866 14 20 10
-1239.08805847168 -345.088869333267 2584.00011062622 13 19 9
-1248.59881401062 -351.727157831192 2634.0000629425 13 15 10
-1263.05222511292 -357.851445674896 2680.0000667572 11 13 8
-1263.20159435272 -359.970599412918 2696.00009918213 6 8 3
-1246.96457386017 -357.417672872543 2677.00004577637 7 9 4
-1236.85562610626 -356.601566076279 2671.0000038147 9 11 6
-1212.51356601715 -351.647973060608 2634.0000629425 10 12 7
-1232.30707645416 -359.511643648148 2693.00007820129 10 12 7
-1221.76098823547 -358.565121889114 2686.00010871887 10 12 7
-1189.55481052399 -351.21214389801 2631.00004196167 9 11 6
-1182.81900882721 -351.335793733597 2631.99996948242 8 10 5
-1195.28830051422 -357.200175523758 2676.00011825562 8 10 5
-1198.19808006287 -360.26206612587 2698.99988174438 9 11 6
-1204.95676994324 -364.526093006134 2730.99994659424 10 12 7
-1172.95730113983 -357.045143842697 2674.99995231628 13 15 10
-1177.43468284607 -360.643535852432 2701.99990272522 13 16 9
-1167.0446395874 -359.704732894897 2694.9999332428 13 16 9
-1165.30203819275 -361.436188220978 2707.99994468689 13 16 9
-1165.20202159882 -363.702327013016 2724.99990463257 11 14 7
-1162.46330738068 -365.168571472168 2736.00006103516 12 15 6
-1159.66725349426 -366.63556098938 2746.99997901917 13 16 7
-1150.1030921936 -365.967959165573 2742.00010299683 15 18 9
-1134.31775569916 -363.299071788788 2721.99988365173 15 18 9
-1129.40788269043 -364.101231098175 2727.9999256134 18 20 9
-1115.00775814056 -361.834347248077 2710.99996566772 24 24 14
-1110.50832271576 -362.771481275558 2717.99993515015 26 23 14
-1400.98917484283 -357.566505670547 2618.99995803833 17 20 9
-1321.77972793579 -340.82242846489 2496.99997901917 20 23 12
-1318.85993480682 -343.605935573578 2517.99988746643 22 25 14
-1296.7437505722 -339.609771966934 2489.00008201599 24 27 16
-1308.99727344513 -344.620048999786 2526.00002288818 24 27 16
-1292.18721389771 -341.991394758224 2506.99996948242 25 28 17
-1283.69176387787 -341.546982526779 2503.99994850159 24 27 16
-1275.21908283234 -341.103941202164 2500.99992752075 21 24 13
-1269.81163024902 -341.480493545532 2503.99994850159 21 24 13
-1261.87217235565 -341.176420450211 2502.00009346008 22 24 11
-1247.93040752411 -339.237421751022 2487.99991607666 20 24 10
-1247.53952026367 -340.981096029282 2500.99992752075 21 25 11
-1250.05888938904 -343.543648719788 2519.99998092651 22 25 14
-1247.05243110657 -344.607502222061 2528.00011634827 21 24 13
-1236.15849018097 -343.49137544632 2519.99998092651 19 22 11
-1255.0687789917 -350.690752267838 2572.99995422363 19 22 11
-1238.76988887787 -348.077595233917 2553.99990081787 15 21 9
-1248.62360954285 -352.82489657402 2588.99998664856 13 19 9
-1232.39517211914 -350.214213132858 2569.9999332428 11 17 7
-1260.24258136749 -364.326328039169 2674.00002479553 10 12 7
-1254.31609153748 -364.717304706573 2677.00004577637 6 8 3
-1252.57003307343 -366.335421800613 2688.99989128113 7 9 4
-1227.14591026306 -361.006796360016 2650.00009536743 9 11 6
-1219.43187713623 -360.856145620346 2648.9999294281 10 12 7
-1222.6824760437 -366.142779588699 2687.99996376038 10 12 7
-1216.2412405014 -366.403639316559 2690.00005722046 9 11 6
-1221.92680835724 -370.343118906021 2719.00010108948 9 11 6
-1207.35728740692 -368.15419793129 2703.00006866455 8 10 5
-1197.76201248169 -367.464572191238 2697.99995422363 9 11 6
-1183.34424495697 -365.277796983719 2681.99992179871 10 12 7
-1186.11788749695 -368.403524160385 2704.99992370605 13 15 10
-1158.26618671417 -361.99676990509 2657.99999237061 14 17 10
-1154.05762195587 -362.945258617401 2664.99996185303 13 16 9
-1149.38378334045 -363.758474588394 2671.0000038147 12 15 8
-1150.66635608673 -366.479128599167 2690.99998474121 13 16 9
-1156.09169006348 -370.562434196472 2720.99995613098 14 17 8
-1149.11413192749 -370.697230100632 2721.99988365173 16 19 10
-1132.06708431244 -367.564409971237 2698.99988174438 17 20 11
-1137.65072822571 -371.786415576935 2730.00001907349 18 21 12
-1124.85218048096 -370.0170814991 2717.00000762939 21 21 13
-1117.884516716 -370.1551258564 2717.99993515015 25 22 15
-1113.77382278442 -371.247321367264 2726.0000705719 27 23 14
-1341.93861484528 -352.926075458527 2535.00008583069 19 23 9
-1317.49153137207 -348.288774490356 2502.00009346008 21 25 11
-1318.37689876556 -350.335001945496 2516.99995994568 22 25 14
-1297.63424396515 -348.446547985077 2503.99994850159 25 28 17
-1271.09038829803 -343.121707439423 2466.00008010864 22 25 16
-1273.98598194122 -345.729470252991 2484.99989509583 22 25 16
-1269.13392543793 -346.251338720322 2489.00008201599 20 23 14
-1257.67314434052 -344.96608376503 2480.00001907349 17 20 9
-1262.9120349884 -348.272174596787 2503.99994850159 16 19 8
-1258.4935426712 -348.936527967453 2509.0000629425 21 24 13
-1257.54463672638 -350.575417280197 2520.99990844727 21 24 13
-1257.52770900726 -352.493405342102 2535.00008583069 19 22 11
-1256.45184516907 -354.134172201157 2546.99993133545 20 23 12
-1248.44765663147 -353.82953286171 2545.00007629395 20 23 14
-1243.87419223785 -354.499191045761 2549.99995231628 18 21 12
-1245.58389186859 -356.977134943008 2568.00007820129 8 11 2
-1246.71709537506 -359.316885471344 2585.00003814697 15 18 9
-1221.86672687531 -354.1519343853 2548.00009727478 14 17 8
-1226.30846500397 -357.466697692871 2572.00002670288 18 21 12
-1269.02103424072 -372.039258480072 2677.00004577637 12 14 9
-1254.6055316925 -369.935214519501 2661.99994087219 7 9 4
-1250.5851984024 -370.889604091644 2668.99991035461 6 8 3
-1241.40703678131 -370.316505432129 2664.99996185303 8 10 5
-1236.42265796661 -370.995134115219 2670.00007629395 9 11 6
-1201.49266719818 -362.643331289291 2609.99989509583 9 11 6
-1209.91051197052 -367.353558540344 2644.00005340576 9 11 6
-1215.8716917038 -371.369749307632 2673.00009727478 9 11 6
-1219.41757202148 -374.692112207413 2697.00002670288 10 12 7
-1217.44310855865 -376.34813785553 2709.00011062622 11 13 8
-1205.57987689972 -374.948799610138 2698.99988174438 11 13 8
-1189.7794008255 -372.300297021866 2680.0000667572 9 11 6
-1179.38053607941 -371.319800615311 2673.00009727478 12 14 9
-1172.96957969666 -371.590554714203 2674.99995231628 13 16 9
-1170.47309875488 -373.112499713898 2686.00010871887 14 17 10
-1150.16484260559 -368.939995765686 2655.99989891052 13 16 9
-1139.92035388947 -367.963373661041 2648.9999294281 12 15 8
-1147.24838733673 -372.68278002739 2683.00008773804 12 15 8
-1145.47181129456 -374.485969543457 2696.00009918213 13 16 7
-1141.93844795227 -375.734359025955 2704.99992370605 16 19 10
-1136.26182079315 -376.289159059525 2709.00011062622 17 20 11
-1125.14853477478 -375.039011240005 2700.00004768372 17 20 11
-1128.99088859558 -378.790259361267 2726.99999809265 24 24 16
-1123.64041805267 -379.486411809921 2732.00011253357 23 20 13
-1121.53363227844 -381.294578313828 2744.99988555908 29 26 17
-1350.79944133759 -358.517706394196 2525.00009536743 17 21 7
-1344.27297115326 -358.612179756165 2526.00002288818 17 21 7
-1301.75054073334 -349.055498838425 2459.00011062622 18 22 8
-1311.60914897919 -355.356335639954 2503.99994850159 22 25 14
-1279.10757064819 -348.361939191818 2454.99992370605 23 26 15
-1290.41755199432 -353.288739919662 2490.00000953674 25 28 17
-1292.77634620667 -355.803996324539 2507.99989700317 25 28 19
-1263.76807689667 -349.667102098465 2464.99991416931 21 24 15
-1257.4405670166 -349.773645401001 2466.00008010864 20 23 14
-1257.19904899597 -351.583361625671 2479.00009155273 17 20 11
-1242.7693605423 -349.423289299011 2463.99998664856 19 22 11
-1251.50191783905 -353.787630796433 2494.99988555908 20 23 12
-1254.58157062531 -356.592833995819 2515.00010490417 20 23 12
-1257.06017017365 -359.256953001022 2533.99991989136 20 23 12
-1268.31912994385 -364.473700523376 2571.00009918213 21 24 13
-1255.34188747406 -362.744987010956 2559.00001525879 23 26 17
-1250.72872638702 -363.427340984344 2563.99989128113 15 18 9
-1252.88391113281 -366.095066070557 2582.99994468689 21 24 15
-1207.67402648926 -354.874730110168 2503.99994850159 11 14 5
-1249.21572208405 -371.269166469574 2619.99988555908 9 12 3
-1249.44031238556 -375.620782375336 2651.00002288818 5 7 2
-1237.0148897171 -374.043375253677 2640.00010490417 7 9 4
-1253.06963920593 -381.109476089478 2690.00005722046 7 9 4
-1238.75403404236 -378.967493772507 2674.99995231628 9 12 5
-1204.43284511566 -372.84579873085 2631.99996948242 10 13 6
-1204.9674987793 -375.240534543991 2648.9999294281 10 13 6
-1210.83867549896 -379.335969686508 2677.99997329712 10 13 6
-1212.95988559723 -382.29900598526 2698.99988174438 10 13 6
-1202.90970802307 -381.438583135605 2693.00007820129 9 12 3
-1183.57276916504 -377.604812383652 2665.99988937378 10 13 6
-1184.68296527863 -380.287438631058 2684.99994277954 11 14 7
-1165.24970531464 -378.715425729752 2674.00002479553 11 14 5
-1157.96458721161 -378.709852695465 2674.00002479553 12 15 6
-1152.83381938934 -379.413247108459 2678.99990081787 13 16 7
-1151.52752399445 -381.392240524292 2693.00007820129 15 18 9
-1148.0233669281 -382.663935422897 2701.99990272522 16 19 10
-1145.3173160553 -384.219735860825 2713.00005912781 18 21 10
-1131.22916221619 -381.952673196793 2697.00002670288 18 21 10
-1126.81519985199 -382.943689823151 2703.9999961853 18 21 10
-1124.02164936066 -384.502083063126 2714.99991416931 31 31 23
-1123.63862991333 -386.911064386368 2732.00011253357 17 17 9
-1313.44199180603 -358.949452638626 2480.99994659424 18 22 8
-1289.12723064423 -355.968177318573 2460.99996566772 21 24 13
-1281.23199939728 -355.637192726135 2459.00011062622 21 24 13
-1301.85866355896 -363.261222839355 2512.00008392334 25 28 17
-1287.66000270844 -361.197173595428 2497.99990653992 22 25 16
-1259.7029209137 -355.231285095215 2457.00001716614 19 22 13
-1265.12455940247 -358.664691448212 2480.99994659424 19 22 13
-1250.64015388489 -356.461256742477 2466.00008010864 20 23 14
-1241.28866195679 -355.7049036026 2460.99996566772 22 25 14
-1245.5141544342 -358.852118253708 2483.00004005432 21 24 13
-1249.12476539612 -361.855536699295 2503.99994850159 22 25 14
-1251.63280963898 -364.570736885071 2523.00000190735 24 27 16
-1256.50799274445 -368.009150028229 2546.99993133545 23 26 15
-1273.02968502045 -374.915719032288 2595.00002861023 21 24 13
-1259.53555107117 -373.010128736496 2582.00001716614 11 14 5
-1247.08819389343 -371.39493227005 2571.00009918213 20 23 14
-1229.88343238831 -368.336766958237 2549.99995231628 7 10 1
-1245.88871002197 -375.246286392212 2598.00004959106 19 22 13
-1276.41570568085 -386.633366346359 2677.00004577637 11 14 5
-1247.57504463196 -382.25793838501 2647.0000743866 6 8 3
-1237.71500587463 -383.663892745972 2657.00006484985 7 9 4
-1240.15974998474 -386.678695678711 2677.99997329712 8 10 5
-1194.15688514709 -374.534040689468 2594.00010108948 11 14 7
-1196.79272174835 -379.847377538681 2631.00004196167 10 13 6
-1201.35593414307 -383.58810544014 2657.00006484985 10 13 6
-1210.7241153717 -388.917654752731 2694.00000572205 10 13 6
-1200.68645477295 -388.04042339325 2687.99996376038 10 13 6
-1184.46981906891 -385.143309831619 2667.99998283386 10 13 6
-1166.15974903107 -381.52551651001 2642.99988746643 11 14 7
-1171.66829109192 -385.703831911087 2671.99993133545 10 13 6
-1165.33172130585 -388.433426618576 2690.99998474121 13 16 7
-1154.99007701874 -387.417942285538 2684.00001525879 14 17 8
-1153.24151515961 -389.290183782578 2697.00002670288 15 18 9
-1156.94844722748 -393.039792776108 2723.00004959106 16 19 10
-1145.31910419464 -391.594052314758 2713.00005912781 18 21 10
-1134.58549976349 -390.437811613083 2704.99992370605 18 21 10
-1132.23254680634 -392.169296741486 2717.00000762939 18 21 10
-1128.57496738434 -393.468648195267 2726.0000705719 17 17 9
-1124.45938587189 -394.624471664429 2733.99996757507 21 21 13
-1353.03843021393 -372.895628213882 2529.00004386902 17 20 9
-1359.27093029022 -376.531213521957 2553.99990081787 17 21 7
-1299.7180223465 -363.759130239487 2467.99993515015 20 23 12
-1243.59619617462 -349.861711263657 2374.00007247925 22 25 14
-1275.98583698273 -362.746149301529 2461.99989318848 24 27 16
-1274.81210231781 -364.326685667038 2473.00004959106 22 25 14
-1279.73616123199 -367.675960063934 2496.00005149841 19 22 13
-1262.61126995087 -364.692360162735 2476.0000705719 21 24 15
-1254.7322511673 -364.361673593521 2473.99997711182 21 24 15
-1248.55637550354 -366.50225520134 2489.00008201599 23 26 15
-1245.16522884369 -367.500603199005 2496.00005149841 25 28 17
-1262.08126544952 -374.53618645668 2543.99991035461 25 28 17
-1282.68420696259 -382.749676704407 2599.99990463257 21 24 15
-1253.4351348877 -376.095950603485 2555.0000667572 13 16 7
-1264.44089412689 -381.513953208923 2592.00000762939 17 20 11
-1260.21111011505 -382.369935512543 2598.00004959106 11 14 5
-1256.43539428711 -383.374214172363 2605.00001907349 10 13 4
-1262.67778873444 -394.170433282852 2678.99990081787 12 14 9
-1271.72768115997 -399.299293756485 2713.99998664856 5 7 2
-1239.5966053009 -391.482472419739 2661.00001335144 8 10 5
-1225.82113742828 -389.404863119125 2647.0000743866 9 11 6
-1206.14171028137 -385.416209697723 2619.99988555908 10 13 6
-1197.13973999023 -384.812265634537 2615.9999370575 11 14 7
-1208.17852020264 -390.681594610214 2655.99989891052 12 15 8
-1200.91652870178 -390.66806435585 2655.99989891052 9 12 5
-1212.08417415619 -396.686017513275 2697.00002670288 9 12 5
-1208.29093456268 -397.851079702377 2704.99992370605 9 12 5
-1182.25979804993 -391.663312911987 2663.00010681152 12 15 8
-1172.78683185577 -390.918523073196 2657.99999237061 12 15 8
-1174.84986782074 -396.491378545761 2696.00009918213 12 15 8
-1163.60533237457 -395.161300897598 2687.00003623962 15 18 11
-1148.10955524445 -392.361581325531 2667.99998283386 18 21 14
-1151.96263790131 -396.180659532547 2694.00000572205 15 18 9
-1155.67684173584 -400.000542402267 2720.00002861023 16 19 10
-1151.2314081192 -401.027202606201 2726.99999809265 17 20 11
-1143.39506626129 -400.878369808197 2726.0000705719 18 21 12
-1144.3178653717 -403.818607330322 2746.00005149841 18 21 12
-1137.26842403412 -403.965622186661 2746.99997901917 15 14 9
-1129.39345836639 -403.819382190704 2746.00005149841 21 20 15
-1365.39578437805 -383.256047964096 2552.00004577637 16 19 8
-1295.90618610382 -373.256981372833 2486.99998855591 21 24 13
-1295.20416259766 -375.014841556549 2499.00007247925 23 26 15
-1275.88307857513 -371.371895074844 2474.99990463257 21 24 13
-1270.54595947266 -371.782094240189 2477.9999256134 21 24 13
-1266.21806621552 -372.493654489517 2483.00004005432 26 29 18
-1262.37595081329 -373.356491327286 2489.00008201599 25 28 17
-1253.462433815 -372.720569372177 2484.99989509583 26 29 18
-1253.10456752777 -374.635726213455 2497.99990653992 25 28 17
-1243.20197105408 -373.702585697174 2492.00010299683 25 28 17
-1233.83438587189 -372.920870780945 2486.99998855591 22 25 14
-1230.41975498199 -373.939782381058 2493.99995803833 19 22 13
-1284.37149524689 -392.501026391983 2618.00003051758 16 19 10
-1255.20014762878 -385.725378990173 2572.99995422363 20 23 14
-1254.41682338715 -387.646347284317 2585.99996566772 9 12 3
-1276.21853351593 -403.432965278625 2691.99991226196 21 23 18
-1270.24042606354 -403.859943151474 2694.9999332428 12 14 9
-1275.02834796906 -407.734602689743 2720.99995613098 5 7 2
-1234.49122905731 -397.075682878494 2650.00009536743 8 10 5
-1229.08055782318 -397.656381130219 2654.00004386902 9 11 6
-1219.50876712799 -396.889746189117 2648.9999294281 10 12 7
-1204.0194272995 -394.176661968231 2631.00004196167 11 14 7
-1201.36964321136 -395.65971493721 2641.00003242493 12 15 8
-1210.87718009949 -401.188552379608 2677.99997329712 9 12 5
-1208.05180072784 -402.673453092575 2687.99996376038 8 11 4
-1199.81527328491 -402.361780405045 2686.00010871887 11 14 7
-1195.1447725296 -403.249531984329 2691.99991226196 13 16 9
-1182.5031042099 -401.442021131516 2680.0000667572 13 16 9
-1158.52892398834 -395.741134881973 2641.99995994568 13 16 9
-1173.98536205292 -403.522133827209 2694.00000572205 13 16 9
-1160.14695167542 -401.268482208252 2678.99990081787 16 19 12
-1148.97537231445 -399.914562702179 2670.00007629395 17 20 13
-1147.69077301025 -402.006536722183 2684.00001525879 15 18 9
-1161.20374202728 -409.341633319855 2733.00004005432 16 19 10
-1151.65591239929 -408.589601516724 2727.9999256134 17 20 11
-1143.81587505341 -408.437669277191 2726.99999809265 18 21 12
-1143.48495006561 -410.982578992844 2743.99995803833 18 21 12
-1140.99419116974 -412.779569625854 2756.00004196167 30 29 25
-1135.56158542633 -413.528978824615 2760.99991798401 15 14 10
-1349.46930408478 -383.704870939255 2509.0000629425 12 18 8
-1310.54103374481 -384.322047233582 2515.00010490417 21 24 13
-1295.76539993286 -381.985485553741 2500 22 25 14
-1279.01744842529 -379.039853811264 2480.99994659424 21 24 13
-1262.38191127777 -376.096308231354 2461.99989318848 23 26 15
-1262.17687129974 -378.042668104172 2474.99990463257 27 30 19
-1264.44172859192 -380.753636360168 2493.00003051758 25 28 17
-1262.07327842712 -382.091075181961 2502.00009346008 28 31 20
-1243.1058883667 -378.390491008759 2477.9999256134 25 28 17
-1259.19961929321 -385.380029678345 2523.9999294281 21 24 13
-1255.19943237305 -386.262744665146 2529.99997138977 15 18 9
-1271.64626121521 -395.664155483246 2592.00000762939 18 21 12
-1247.91145324707 -390.444457530975 2558.00008773804 11 14 5
-1263.17632198334 -397.436767816544 2604.00009155273 7 10 3
-1271.02720737457 -409.083008766174 2680.99999427795 3 5 2
-1267.90618896484 -410.432934761047 2690.00005722046 4 6 3
-1242.52915382385 -409.302562475204 2683.00008773804 7 9 4
-1232.87677764893 -408.521413803101 2677.99997329712 11 13 8
-1221.42553329468 -407.131433486938 2668.99991035461 11 13 8
-1205.02376556396 -404.064774513245 2648.9999294281 13 16 9
-1180.59635162354 -398.254007101059 2611.00006103516 9 12 5
-1192.78419017792 -404.799163341522 2654.00004386902 8 11 4
-1197.14689254761 -408.752143383026 2680.0000667572 12 15 8
-1194.26763057709 -410.265743732452 2690.00005722046 12 14 9
-1186.04254722595 -409.950166940689 2687.99996376038 13 15 10
-1203.26519012451 -418.481171131134 2743.99995803833 14 17 10
-1181.83720111847 -413.592427968979 2711.99989318848 14 17 10
-1162.31894493103 -409.314930438995 2684.00001525879 13 16 9
-1163.18202018738 -412.20611333847 2703.00006866455 14 17 10
-1158.81335735321 -413.268178701401 2710.00003814697 15 18 11
-1155.6841135025 -414.788693189621 2720.00002861023 16 19 10
-1147.43721485138 -414.480149745941 2717.99993515015 18 21 12
-1146.75378799438 -416.917532682419 2733.99996757507 18 21 12
-1131.81781768799 -414.171069860458 2716.00008010864 18 21 12
-1137.26818561554 -418.897598981857 2746.99997901917 20 19 15
-1332.85069465637 -385.734140872955 2477.9999256134 14 19 12
-1310.39130687714 -381.16592168808 2448.99988174438 19 22 13
-1300.16481876373 -388.07475566864 2494.99988555908 21 24 13
-1287.51623630524 -386.318534612656 2483.99996757507 21 24 13
-1271.32678031921 -383.475750684738 2466.00008010864 21 24 13
-1263.96071910858 -383.278280496597 2464.99991416931 22 25 14
-1264.76609706879 -385.569930076599 2480.00001907349 26 29 18
-1270.05934715271 -389.261603355408 2503.99994850159 27 30 19
-1264.6324634552 -389.689713716507 2506.99996948242 26 29 20
-1265.21480083466 -391.984283924103 2522.0000743866 22 25 16
-1264.72198963165 -393.968999385834 2535.00008583069 20 23 14
-1261.68251037598 -395.177751779556 2542.99998283386 15 18 9
-1277.35245227814 -402.292281389236 2588.99998664856 14 17 8
-1271.67761325836 -402.726054191589 2592.00000762939 14 17 8
-1262.5766992569 -402.073621749878 2588.00005912781 12 15 8
-1240.8903837204 -397.383451461792 2558.00008773804 16 19 12
-1273.58543872833 -419.61932182312 2701.99990272522 6 8 5
-1262.8880739212 -418.509364128113 2694.9999332428 7 9 6
-1247.64275550842 -418.312102556229 2694.00000572205 8 10 5
-1240.72122573853 -418.448209762573 2694.9999332428 9 11 6
-1224.64597225189 -415.480345487595 2676.00011825562 8 10 5
-1218.68634223938 -415.929466485977 2678.99990081787 8 10 5
-1200.50597190857 -412.187993526459 2654.99997138977 10 12 7
-1193.24684143066 -412.173748016357 2654.99997138977 10 12 7
-1194.03231143951 -414.954990148544 2673.00009727478 12 15 8
-1197.83067703247 -418.823748826981 2697.99995422363 12 14 9
-1200.61373710632 -422.382980585098 2720.99995613098 12 14 9
-1196.69699668884 -423.614770174026 2729.00009155273 14 16 11
-1187.51060962677 -422.984808683395 2724.99990463257 14 16 11
-1175.31776428223 -421.26938700676 2713.99998664856 13 16 9
-1163.61832618713 -419.710278511047 2703.9999961853 13 16 9
-1154.54232692719 -419.083595275879 2700.00004768372 15 18 11
-1145.06602287292 -418.302625417709 2694.9999332428 17 20 13
-1147.0183134079 -421.713471412659 2717.00000762939 19 22 13
-1143.82016658783 -423.262685537338 2726.99999809265 19 22 13
-1153.48863601685 -429.624289274216 2767.99988746643 19 22 13
-1293.95818710327 -392.985284328461 2483.00004005432 20 23 12
-1280.82299232483 -391.039848327637 2470.99995613098 20 23 12
-1271.88539505005 -390.36226272583 2467.00000762939 20 23 12
-1264.00244235992 -390.002727508545 2464.99991416931 21 25 11
-1272.45664596558 -394.707143306732 2494.99988555908 25 29 15
-1275.67839622498 -397.830247879028 2515.00010490417 26 29 18
-1279.80422973633 -401.270508766174 2536.99994087219 22 25 16
-1272.27520942688 -401.074051856995 2536.00001335144 19 22 13
-1274.23691749573 -403.88360619545 2553.99990081787 17 20 11
-1272.13597297668 -405.429244041443 2563.99989128113 14 17 8
-1285.28022766113 -411.877304315567 2605.00001907349 13 16 9
-1265.53463935852 -410.072773694992 2594.00010108948 12 15 8
-1248.68106842041 -406.880646944046 2573.99988174438 10 13 6
-1261.03615760803 -425.213426351547 2690.99998474121 4 6 3
-1255.98204135895 -425.981134176254 2696.00009918213 5 7 4
-1245.34726142883 -424.854040145874 2688.99989128113 10 12 9
-1244.88365650177 -427.204042673111 2703.9999961853 12 14 11
-1238.85047435761 -427.659302949905 2707.00001716614 9 11 6
-1223.70684146881 -424.956262111664 2690.00005722046 9 11 6
-1214.0861749649 -424.150139093399 2684.99994277954 9 11 6
-1209.44058895111 -425.082951784134 2690.99998474121 9 11 6
-1204.3194770813 -425.85888504982 2696.00009918213 10 12 7
-1207.16607570648 -429.47906255722 2719.00010108948 11 13 8
-1202.38959789276 -430.415034294128 2724.99990463257 11 13 8
-1189.25201892853 -428.351074457169 2711.99989318848 13 15 10
-1180.54676055908 -427.867740392685 2709.00011062622 14 16 11
-1173.16019535065 -427.859306335449 2709.00011062622 13 16 9
-1159.75201129913 -425.640791654587 2694.9999332428 13 16 9
-1148.98896217346 -424.371063709259 2687.00003623962 14 17 10
-1141.24667644501 -424.207836389542 2686.00010871887 15 18 11
-1137.31217384338 -425.467044115067 2694.00000572205 16 19 10
-1145.92003822327 -431.465059518814 2732.00011253357 16 19 10
-1155.15732765198 -437.779814004898 2772.0000743866 15 18 9
-1293.63834857941 -395.515114068985 2456.00008964539 16 19 8
-1296.09048366547 -400.407165288925 2486.99998855591 20 23 12
-1301.08499526978 -404.062032699585 2509.99999046326 20 23 12
-1275.02346038818 -398.05993437767 2473.00004959106 20 23 12
-1273.27573299408 -399.625062942505 2483.00004005432 21 25 11
-1266.88838005066 -399.742960929871 2483.99996757507 23 27 13
-1275.21181106567 -404.528766870499 2513.99993896484 24 28 14
-1276.31235122681 -407.062590122223 2529.99997138977 21 24 15
-1261.80064678192 -406.824678182602 2529.00004386902 15 18 9
-1291.91207885742 -425.824165344238 2648.00000190735 3 6 0
-1286.06593608856 -426.274299621582 2651.00002288818 4 7 0
-1314.24689292908 -445.610582828522 2772.0000743866 12 14 11
-1250.74994564056 -429.003030061722 2668.99991035461 5 7 4
-1236.90319061279 -426.72997713089 2654.99997138977 6 8 5
-1257.40957260132 -436.351537704468 2714.99991416931 8 10 7
-1238.45791816711 -432.313024997711 2690.00005722046 9 11 8
-1235.6653213501 -433.900773525238 2700.00004768372 9 11 6
-1221.90427780151 -431.632846593857 2686.00010871887 9 11 6
-1201.89321041107 -427.11666226387 2657.99999237061 8 10 5
-1199.11813735962 -428.707987070084 2667.99998283386 8 10 5
-1202.99303531647 -432.71067738533 2693.00007820129 8 10 5
-1201.5186548233 -437.505185604095 2723.00004959106 10 12 7
-1180.49192428589 -432.513296604156 2691.99991226196 10 12 7
-1173.58326911926 -432.664006948471 2693.00007820129 11 13 8
-1171.00298404694 -434.422373771667 2703.9999961853 11 13 8
-1156.31639957428 -431.683361530304 2687.00003623962 11 13 8
-1148.99492263794 -431.6765666008 2687.00003623962 9 12 5
-1131.05428218842 -427.654564380646 2661.99994087219 10 13 6
-1128.87287139893 -429.577708244324 2674.00002479553 10 13 6
-1135.85638999939 -435.036033391953 2707.99994468689 10 13 6
-1145.57492733002 -441.619843244553 2749.00007247925 10 13 6
-1309.49246883392 -407.135844230652 2486.00006103516 13 16 7
-1300.98009109497 -406.592428684235 2483.00004005432 16 19 8
-1293.53380203247 -406.378239393234 2482.00011253357 19 22 11
-1290.24696350098 -407.475382089615 2489.00008201599 19 22 11
-1274.03795719147 -404.481589794159 2470.99995613098 18 22 8
-1264.08934593201 -403.454065322876 2464.99991416931 19 23 9
-1278.15198898315 -410.120129585266 2506.00004196167 20 24 10
-1254.96315956116 -404.840737581253 2473.99997711182 22 26 12
-1253.14664840698 -406.436026096344 2483.99996757507 17 20 11
-1256.2974691391 -409.668534994125 2503.99994850159 15 18 9
-1286.57853603363 -431.240737438202 2637.00008392334 13 16 9
-1303.0778169632 -439.220309257507 2686.00010871887 6 9 2
-1284.5014333725 -445.448696613312 2724.99990463257 8 10 9
-1232.88476467133 -435.079216957092 2661.99994087219 10 12 9
-1230.19075393677 -436.692446470261 2671.99993133545 7 9 6
-1226.07350349426 -437.816560268402 2678.99990081787 9 11 8
-1220.10231018066 -438.28809261322 2681.99992179871 8 10 5
-1197.3876953125 -432.714551687241 2648.00000190735 7 9 4
-1186.09941005707 -431.227833032608 2638.99993896484 7 9 4
-1193.87233257294 -439.369052648544 2688.99989128113 8 10 5
-1190.94061851501 -440.990179777145 2698.99988174438 8 10 5
-1169.53980922699 -435.750186443329 2667.00005531311 8 10 5
-1173.15721511841 -439.824223518372 2691.99991226196 8 10 5
-1169.71254348755 -441.285252571106 2700.99997520447 9 11 6
-1164.50035572052 -442.093759775162 2706.00008964539 9 11 6
-1122.06172943115 -428.689897060394 2624.00007247925 8 11 4
-1118.32308769226 -432.762980461121 2648.9999294281 9 12 5
-1143.4098482132 -445.338100194931 2726.0000705719 10 13 6
-1337.82565593719 -418.535202741623 2513.00001144409 15 18 9
-1317.27528572083 -418.534368276596 2513.99993896484 16 19 8
-1292.8878068924 -415.102452039719 2493.99995803833 18 21 10
-1285.42816638947 -414.887338876724 2493.00003051758 18 22 8
-1285.67337989807 -417.169868946075 2506.99996948242 18 22 8
-1282.27663040161 -418.288826942444 2513.99993896484 19 23 9
-1263.12184333801 -414.251774549484 2490.00000953674 21 25 11
-1243.09730529785 -409.884393215179 2463.99998664856 15 18 9
-1225.73161125183 -406.351059675217 2443.00007820129 13 16 7
-1266.63720607758 -426.859349012375 2566.99991226196 11 14 7
-1258.56423377991 -426.490813493729 2565.00005722046 15 18 11
-1281.733751297 -436.764389276505 2627.00009346008 16 19 12
-1283.22005271912 -439.722985029221 2644.99998092651 12 14 9
-1263.78726959229 -445.556700229645 2680.99999427795 11 13 12
-1239.08281326294 -439.382016658783 2644.00005340576 7 9 8
-1236.48321628571 -441.019415855408 2654.00004386902 9 11 8
-1252.82227993011 -449.470579624176 2704.99992370605 9 11 8
-1233.43455791473 -445.128351449966 2678.99990081787 7 9 6
-1231.12773895264 -446.935296058655 2690.00005722046 8 10 7
-1222.85032272339 -446.583479642868 2687.99996376038 7 9 6
-1204.63991165161 -442.578077316284 2664.00003433228 6 8 3
-1198.25053215027 -442.893475294113 2665.99988937378 7 9 4
-1176.66554450989 -437.561988830566 2634.0000629425 7 9 4
-1175.34649372101 -447.9760825634 2697.00002670288 7 9 4
-1161.49318218231 -445.474565029144 2681.99992179871 9 11 6
-1154.6106338501 -445.631861686707 2683.00008773804 9 11 6
-1141.26300811768 -446.115612983704 2686.00010871887 8 11 4
-1154.21223640442 -454.082131385803 2733.99996757507 8 11 4
-1108.18028450012 -438.797652721405 2641.99995994568 10 13 6
-1110.99195480347 -442.780047655106 2665.99988937378 11 14 7
-1391.48724079132 -440.193355083466 2599.99990463257 13 14 8
-1337.3521566391 -425.233870744705 2512.00008392334 12 15 8
-1319.94915008545 -426.246970891953 2519.00005340576 13 16 9
-1315.52624702454 -427.039086818695 2523.9999294281 15 18 9
-1311.6010427475 -428.001970052719 2529.99997138977 16 17 9
-1263.82005214691 -414.588421583176 2450.99997520447 15 16 8
-1297.51622676849 -427.902311086655 2529.99997138977 16 17 9
-1295.58420181274 -429.54608798027 2539.99996185303 18 19 11
-1278.38432788849 -426.118284463882 2519.99998092651 20 23 14
-1244.14813518524 -416.944146156311 2466.00008010864 10 15 8
-1253.16774845123 -451.648652553558 2674.00002479553 7 9 8
-1270.05243301392 -460.405677556992 2726.0000705719 7 9 6
-1245.88775634766 -456.980437040329 2706.00008964539 4 6 3
-1240.3017282486 -457.63424038887 2710.00003814697 7 9 6
-1235.60786247253 -458.626925945282 2716.00008010864 7 9 6
-1242.64240264893 -464.01110291481 2747.99990653992 6 8 5
-1222.98753261566 -459.434121847153 2720.99995613098 7 9 4
-1183.68852138519 -450.116068124771 2665.99988937378 9 11 8
-1164.04938697815 -445.37490606308 2638.00001144409 8 10 5
-1189.29672241211 -457.855373620987 2711.99989318848 8 10 5
-1193.66097450256 -462.401777505875 2739.00008201599 8 10 5
-1200.04653930664 -467.793166637421 2770.99990844727 9 11 6
-1165.80832004547 -457.317024469376 2709.00011062622 10 12 7
-1161.41700744629 -458.490312099457 2716.00008010864 10 12 7
-1155.29108047485 -458.989411592484 2719.00010108948 9 12 5
-1136.06429100037 -454.256594181061 2690.99998474121 8 11 4
-1139.22381401062 -458.471596240997 2716.00008010864 9 12 5
-1114.74573612213 -451.546609401703 2674.99995231628 10 13 6
-1360.30638217926 -439.496874809265 2555.0000667572 12 15 8
-1330.90949058533 -432.21190571785 2513.00001144409 11 14 7
-1316.31922721863 -436.457753181458 2539.00003433228 14 15 9
-1301.51164531708 -433.827370405197 2523.9999294281 13 14 8
-1291.0407781601 -434.931695461273 2530.99989891052 15 16 10
-1296.18573188782 -439.00853395462 2555.0000667572 17 20 13
-1295.14920711517 -441.024392843246 2566.99991226196 15 20 13
-1270.53463459015 -465.280681848526 2710.99996566772 6 10 9
-1260.75983047485 -464.395940303802 2706.00008964539 3 8 4
-1256.50036334991 -468.293696641922 2729.00009155273 8 10 7
-1247.18832969666 -467.584609985352 2724.99990463257 9 11 8
-1249.27628040314 -471.166521310806 2746.00005149841 9 11 8
-1242.66147613525 -471.489548683167 2747.99990653992 9 11 8
-1195.13809680939 -456.201106309891 2658.99991989136 7 9 4
-1193.22562217712 -458.242863416672 2671.0000038147 9 10 5
-1162.83547878265 -449.306130409241 2618.99995803833 9 11 6
-1193.69494915009 -466.947853565216 2721.99988365173 11 13 8
-1201.08139514923 -472.76782989502 2756.00004196167 11 13 8
-1189.23020362854 -471.041023731232 2746.00005149841 11 13 8
-1177.86717414856 -469.487011432648 2736.99998855591 11 13 8
-1163.99073600769 -466.904997825623 2721.99988365173 10 12 7
-1153.59854698181 -465.696483850479 2714.99991416931 9 11 6
-1150.42412281036 -467.404961585999 2724.99990463257 8 10 5
-1143.50390434265 -470.653593540192 2743.99995803833 8 10 5
-1103.89590263367 -460.35635471344 2684.00001525879 8 7 2
-1306.77378177643 -437.858164310455 2506.99996948242 12 15 6
-1317.40963459015 -443.741202354431 2540.99988937378 11 12 4
-1316.51782989502 -445.783048868179 2552.99997329712 11 12 4
-1302.23095417023 -443.286806344986 2539.00003433228 10 11 3
-1260.99264621735 -431.540459394455 2471.99988365173 11 12 4
-1283.0423116684 -441.442936658859 2529.00004386902 10 13 4
-1250.79417228699 -432.669788599014 2479.00009155273 9 16 8
-1267.3134803772 -455.592423677444 2611.99998855591 4 6 1
-1260.2516412735 -468.828141689301 2688.99989128113 7 11 10
-1274.29795265198 -476.820468902588 2734.99989509583 6 11 7
-1293.19107532501 -486.730992794037 2792.00005531311 3 8 4
-1286.45217418671 -487.054139375687 2793.99991035461 10 12 9
-1257.73763656616 -479.011684656143 2747.99990653992 8 10 7
-1241.77694320679 -478.619873523712 2746.00005149841 9 11 6
-1198.75192642212 -464.831352233887 2667.00005531311 9 11 6
-1188.32838535309 -463.593661785126 2660.00008583069 11 12 7
-1224.97272491455 -483.777463436127 2776.00002288818 11 13 8
-1198.97067546844 -476.443648338318 2733.99996757507 11 13 8
-1190.19842147827 -475.90771317482 2730.99994659424 11 13 8
-1182.31201171875 -475.721478462219 2730.00001907349 12 14 9
-1188.63594532013 -481.286883354187 2762.00008392334 12 14 9
-1158.70475769043 -475.169986486435 2726.99999809265 8 10 5
-1141.56496524811 -471.155047416687 2703.9999961853 8 10 5
-1135.87832450867 -471.845835447311 2707.99994468689 7 9 4
-1129.75609302521 -472.363471984863 2710.99996566772 8 11 4
-1128.17430496216 -474.798798561096 2724.99990463257 10 9 4
-1133.92221927643 -480.371385812759 2756.99996948242 16 16 8
-1308.06589126587 -442.813515663147 2496.00005149841 12 15 6
-1316.21277332306 -447.900354862213 2525.00009536743 13 16 7
-1305.53948879242 -446.602523326874 2517.99988746643 13 14 6
-1316.57135486603 -452.755212783813 2552.99997329712 12 13 5
-1298.69222640991 -448.978185653687 2532.00006484985 12 13 5
-1286.54766082764 -447.154015302658 2522.0000743866 12 13 5
-1277.5092124939 -446.395605802536 2517.99988746643 11 14 5
-1249.83036518097 -439.080357551575 2476.99999809265 7 12 5
-1249.98378753662 -441.516667604446 2490.9999370575 8 13 6
-1268.71645450592 -479.339480400085 2707.00001716614 3 8 4
-1263.11063766479 -482.825219631195 2726.99999809265 7 9 6
-1267.13871955872 -487.225532531738 2752.00009346008 12 14 11
-1252.72631645203 -484.545409679413 2736.99998855591 9 11 6
-1244.31490898132 -484.168350696564 2734.99989509583 10 12 7
-1218.2822227478 -476.888954639435 2694.00000572205 10 12 7
-1213.60349655151 -477.930992841721 2700.00004768372 11 13 8
-1205.49166202545 -480.549842119217 2714.99991416931 13 15 10
-1231.60743713379 -493.985027074814 2790.99988937378 12 14 9
-1200.30045509338 -484.412342309952 2736.99998855591 9 11 6
-1174.52192306519 -476.965248584747 2694.9999332428 8 10 5
-1177.55973339081 -481.200337409973 2719.00010108948 8 10 5
-1192.95012950897 -490.568518638611 2772.0000743866 8 10 5
-1124.26257133484 -471.252024173737 2663.00010681152 9 11 6
-1129.17292118073 -476.37727856636 2691.99991226196 10 12 7
-1131.42776489258 -480.441749095917 2714.99991416931 11 13 8
-1137.28630542755 -486.099809408188 2746.99997901917 14 13 8
-1132.69102573395 -487.334996461868 2753.99994850159 19 19 11
-1366.7699098587 -457.888871431351 2539.99996185303 13 18 11
-1378.90779972076 -464.308232069016 2575.99997520447 17 20 11
-1334.27238464355 -453.902542591095 2519.00005340576 18 21 12
-1339.86723423004 -458.163499832153 2542.99998283386 16 19 10
-1309.69703197479 -450.175553560257 2499.00007247925 15 18 9
-1267.26877689362 -437.868595123291 2430.99999427795 17 18 10
-1315.44709205627 -456.903278827667 2536.99994087219 17 18 10
-1293.10238361359 -453.912019729614 2520.99990844727 18 19 11
-1297.31142520905 -457.820534706116 2542.99998283386 15 16 8
-1275.02143383026 -452.369272708893 2513.00001144409 14 17 8
-1258.4547996521 -448.900759220123 2493.99995803833 14 17 10
-1242.50173568726 -445.614665746689 2476.0000705719 10 15 8
-1246.61600589752 -449.529051780701 2497.99990653992 12 17 10
-1256.47044181824 -458.079993724823 2546.0000038147 14 15 9
-1254.7322511673 -489.865243434906 2724.99990463257 8 10 7
-1252.75051593781 -491.997182369232 2736.99998855591 10 12 7
-1233.41846466064 -487.299859523773 2710.99996566772 11 13 8
-1225.99112987518 -487.277537584305 2710.99996566772 10 12 7
-1192.49725341797 -476.832151412964 2653.00011634827 10 12 7
-1176.3014793396 -473.218441009521 2632.99989700317 13 14 9
-1201.61664485931 -489.358484745026 2723.00004959106 10 12 7
-1212.59486675262 -496.890515089035 2765.00010490417 8 10 5
-1175.84264278412 -484.835714101791 2697.99995422363 7 9 4
-1179.73744869232 -489.494770765305 2723.99997711182 7 9 4
-1195.11318206787 -499.006450176239 2776.99995040894 7 9 4
-1168.72274875641 -491.089165210724 2733.00004005432 7 9 4
-1151.92306041718 -487.126410007477 2710.99996566772 7 9 4
-1145.37906646729 -487.477362155914 2713.00005912781 10 12 7
-1143.44096183777 -489.805966615677 2726.0000705719 12 14 9
-1149.29699897766 -498.778432607651 2776.00002288818 18 17 12
-1137.62974739075 -496.977627277374 2766.00003242493 18 18 10
-1361.9978427887 -463.192462921143 2530.99989891052 20 25 18
-1360.03506183624 -467.260867357254 2553.99990081787 18 21 12
-1340.16382694244 -462.803274393082 2529.99997138977 18 21 12
-1353.10351848602 -469.68874335289 2568.00007820129 17 20 11
-1342.25249290466 -468.34471821785 2561.00010871887 16 19 10
-1313.58802318573 -465.605795383453 2546.99993133545 19 20 12
-1303.41529846191 -464.453190565109 2540.99988937378 19 20 12
-1286.14008426666 -460.743993520737 2520.99990844727 19 20 12
-1286.74137592316 -463.433384895325 2536.00001335144 18 21 12
-1259.00757312775 -455.891460180283 2494.99988555908 14 17 8
-1248.06785583496 -454.381972551346 2486.99998855591 20 23 14
-1244.66836452484 -460.641503334045 2522.0000743866 16 17 11
-1252.90536880493 -466.261357069016 2552.99997329712 14 15 10
-1291.77963733673 -500.143110752106 2740.00000953674 7 12 8
-1278.15079689026 -497.738093137741 2726.99999809265 4 9 5
-1252.94947624207 -490.772098302841 2688.99989128113 8 13 9
-1241.8577671051 -489.283472299576 2680.99999427795 4 6 1
-1257.52151012421 -498.380899429321 2730.99994659424 11 13 8
-1239.9594783783 -494.340181350708 2709.00011062622 12 14 9
-1233.4418296814 -494.680643081665 2710.99996566772 12 14 9
-1210.63709259033 -488.453805446625 2677.00004577637 9 11 6
-1192.9669380188 -484.235823154449 2654.00004386902 8 10 5
-1182.5749874115 -482.938796281815 2647.0000743866 10 11 5
-1188.06004524231 -497.283607721329 2726.0000705719 7 9 4
-1181.35344982147 -500.722825527191 2744.99988555908 10 12 7
-1169.58844661713 -498.887181282043 2734.99989509583 9 11 6
-1170.71831226349 -505.799055099487 2773.00000190735 10 12 7
-1160.64584255219 -504.696607589722 2766.99995994568 12 14 9
-1154.77621555328 -505.419373512268 2770.99990844727 14 16 11
-1146.81768417358 -505.231261253357 2769.99998092651 17 16 11
-1139.68992233276 -505.409002304077 2770.99990844727 17 16 11
-1349.60579872131 -468.190282583237 2520.99990844727 18 21 12
-1356.37640953064 -472.948104143143 2546.99993133545 17 20 9
-1284.14058685303 -452.392727136612 2437.00003623962 15 18 7
-1311.39171123505 -464.39528465271 2502.00009346008 15 18 7
-1334.11610126495 -474.91180896759 2559.00001525879 16 19 8
-1316.08247756958 -470.953792333603 2538.00010681152 16 18 7
-1290.13359546661 -466.571003198624 2515.00010490417 18 20 9
-1256.85620307922 -459.415346384048 2476.99999809265 16 19 8
-1272.17721939087 -467.524737119675 2520.99990844727 21 24 13
-1260.15996932983 -465.620905160904 2510.99991798401 21 24 15
-1246.70672416687 -463.162779808044 2497.99990653992 20 23 14
-1236.81485652924 -464.55591917038 2506.00004196167 14 13 8
-1249.02129173279 -471.742421388626 2545.00007629395 11 10 6
-1258.02779197693 -497.202068567276 2684.00001525879 9 14 10
-1264.1624212265 -502.542853355408 2713.00005912781 8 13 7
-1259.0252161026 -503.439128398895 2717.99993515015 9 11 6
-1250.64182281494 -503.040313720703 2716.00008010864 9 11 6
-1242.73145198822 -502.828180789948 2714.99991416931 11 13 8
-1220.27146816254 -496.691346168518 2681.99992179871 10 13 6
-1202.51905918121 -492.408335208893 2658.99991989136 8 11 4
-1199.73051548004 -494.237989187241 2668.99991035461 7 10 3
-1228.635430336 -512.34358549118 2766.99995994568 8 11 4
-1212.68320083618 -508.806765079498 2747.99990653992 8 11 4
-1187.19029426575 -501.198291778564 2707.00001716614 9 12 5
-1188.51065635681 -504.885375499725 2726.99999809265 10 13 6
-1185.39428710938 -506.722033023834 2736.99998855591 13 16 9
-1172.75846004486 -504.487037658691 2724.99990463257 14 17 10
-1164.89565372467 -504.28980588913 2723.99997711182 14 17 10
-1160.17246246338 -508.712112903595 2747.99990653992 13 16 9
-1154.78098392487 -509.629130363464 2753.00002098084 11 14 7
-1141.44718647003 -507.030129432678 2739.00008201599 11 14 7
-1135.64479351044 -507.764339447021 2743.00003051758 14 13 8
-1141.33954048157 -513.682782649994 2775.00009536743 16 15 10
-1118.67105960846 -506.829679012299 2737.99991607666 9 8 4
-1347.00083732605 -474.14767742157 2516.00003242493 16 19 10
-1328.22096347809 -469.930768013 2493.99995803833 16 19 8
-1270.50316333771 -454.160213470459 2411.00001335144 14 17 6
-1302.02043056488 -467.846542596817 2483.99996757507 14 17 6
-1326.87997817993 -479.271173477173 2545.00007629395 14 17 6
-1291.52572154999 -471.429198980331 2503.99994850159 17 19 8
-1284.03401374817 -471.183270215988 2503.00002098084 20 22 11
-1255.89323043823 -465.80371260643 2474.99990463257 23 25 14
-1255.07020950317 -468.01021695137 2486.99998855591 23 26 15
-1251.17540359497 -469.089031219482 2493.00003051758 20 23 12
-1234.27653312683 -465.277582406998 2473.00004959106 17 18 10
-1221.46534919739 -462.973594665527 2460.99996566772 16 17 9
-1268.69595050812 -486.208945512772 2585.00003814697 15 14 9
-1253.37290763855 -502.635657787323 2674.00002479553 8 13 7
-1253.49605083466 -508.587718009949 2706.00008964539 10 12 7
-1253.89325618744 -511.753439903259 2723.00004959106 10 12 7
-1242.30027198792 -510.034084320068 2713.99998664856 9 12 5
-1189.86320495605 -497.370213270187 2647.0000743866 7 10 3
-1216.12310409546 -511.440515518188 2721.99988365173 8 9 3
-1191.80011749268 -504.28032875061 2684.00001525879 9 12 5
-1181.81037902832 -503.133952617645 2677.99997329712 9 12 5
-1175.01413822174 -509.659826755524 2713.00005912781 14 17 10
-1168.46787929535 -510.021567344666 2714.99991416931 15 18 11
-1164.05212879181 -511.323690414429 2721.99988365173 14 17 10
