ply
format ascii 1.0
comment KinectMotionCapture
element vertex 778
property float x
property float y
property float z
property uchar red
property uchar green
property uchar blue
end_header
-1150.00965928015 -153.01674454978 2813.7772733994 18 18 8
-1149.9797800434 -153.160908804487 2821.36888967718 13 15 4
-1153.11574581588 -153.40758702196 2828.95912683826 14 17 8
-1126.66028195257 -152.696009730087 2836.39343887181 12 18 8
-1230.24994668221 -156.201588267137 2844.71369465739 5 13 2
-1358.60216614616 -161.496970815794 2452.87173204024 101 96 90
-1326.0451945647 -160.586353147482 2465.05317716543 26 23 16
-1237.7662887063 -158.593873957577 2524.31243767792 17 20 11
-1262.05205721054 -159.998513924817 2555.14539825729 15 18 9
-1233.27162159245 -159.18750036419 2565.69928585477 12 15 4
-1254.06754153752 -160.029562794207 2572.23948553375 13 16 9
-1221.09703219046 -159.074532771953 2582.91451464423 14 17 10
-1170.48012328354 -157.52504362842 2594.68839378057 15 18 11
-1195.40909703186 -158.504773220523 2600.90161479826 16 19 12
-1193.41792171242 -158.582136361699 2609.0461386191 14 17 10
-1144.74181188989 -157.088759390551 2620.19775731283 12 15 8
-1180.07541476679 -158.420348329976 2625.85226152862 13 16 9
-1171.8274232177 -158.284923142966 2634.28057675279 13 16 9
-1186.43289583902 -158.920428980414 2641.34704818312 13 16 9
-1156.39720414703 -158.328981463784 2666.58525346218 15 18 7
-1114.7349153374 -157.054888122522 2676.36326996614 17 21 7
-1130.37857849419 -157.725423917242 2683.36590290943 15 21 7
-1132.47204118756 -157.93582958415 2691.0056804591 15 21 9
-1129.34322834599 -157.968336452746 2698.85101941769 16 22 10
-1133.52288050575 -158.24987865773 2706.39885691946 22 25 14
-1110.51274809522 -157.602144432265 2714.8938830029 23 25 14
-1089.56123040658 -157.022761952697 2723.19634758858 39 36 27
-1075.90947457735 -156.691567272749 2731.1676747026 40 36 27
-1063.28413365843 -156.394445004967 2739.03204728517 43 32 26
-1066.36932771187 -156.635893786919 2746.43800961874 56 46 37
-1071.55482584424 -156.949931096151 2753.80259096192 53 43 33
-1099.84752615931 -158.060671119004 2760.73206614669 37 28 19
-1093.4975734085 -157.978658416047 2768.38013578612 41 34 24
-1083.98137832133 -157.786742328212 2776.03184561625 38 34 23
-1094.44266128923 -158.285098119243 2783.38548204399 22 18 7
-1102.80939026191 -158.711869870213 2790.80028519285 24 21 12
-1164.92373230748 -161.003594859256 2797.86573265766 20 20 10
-1177.56136977175 -161.58275712428 2805.45516000807 20 20 10
-1211.31590938382 -162.897478095087 2813.05113115291 16 18 7
-1201.82349791028 -162.709641328062 2820.78856940936 18 21 12
-1244.1132012089 -164.470787665056 2836.41230051956 13 21 10
-1302.65558676467 -168.930224782047 2509.32569659596 19 22 13
-1238.99222641732 -166.804296555371 2523.68047311447 19 22 13
-1209.24536531884 -165.88464741329 2534.61204854325 20 23 14
-1262.10536915237 -168.062554977796 2546.35487227877 16 19 10
-1216.81203074197 -166.580850573471 2558.36879859766 16 19 10
-1210.72255451837 -166.503206606844 2566.98213736167 13 16 5
-1231.50915733455 -167.391502142005 2573.45855520496 12 15 8
-1185.05554879203 -165.859442707998 2585.09366686642 13 16 9
-1193.41970466188 -166.299838568007 2592.49031503956 15 18 11
-1193.50199725332 -166.441603056798 2600.49898939438 16 19 12
-1209.13594155587 -167.1453858226 2607.44454773966 14 17 10
-1204.03378432406 -167.099661052069 2615.80713591725 14 17 10
-1229.035882389 -168.144162934893 2622.2500303346 14 17 10
-1214.58184958087 -167.759016899864 2631.17397173594 15 18 11
-1212.58301855006 -167.824865603068 2639.29734101431 14 17 10
-1206.41603720849 -167.738712776494 2647.62736149211 14 17 10
-1164.8338237672 -166.362218109721 2657.76733298055 15 18 9
-1152.36725249593 -166.043368466537 2666.23490367422 15 18 7
-1075.23258729294 -163.362625877646 2677.6841360348 15 21 7
-1177.45738523297 -167.230075009941 2680.70844278753 15 21 7
-1121.11097221952 -165.304062711627 2690.93097310361 15 21 9
-1125.2852013043 -165.590176686465 2698.45578941471 16 22 10
-1138.87244091105 -166.221786184815 2705.64054155895 21 24 13
-1129.45689641105 -166.009746459878 2713.67958132575 21 24 13
-1106.41496972766 -165.295889594762 2722.0983078787 28 28 18
-1092.76772049282 -164.925768814128 2730.11187201911 31 28 19
-1070.711784488 -164.24448624858 2738.27450262094 31 24 16
-1069.60526564981 -164.334212223126 2745.79945693863 46 39 31
-1087.3914703265 -165.121733730451 2752.88949817288 42 35 25
-1107.29992820192 -165.989299571049 2760.01587301354 25 18 8
-1110.41229236445 -166.236721265203 2767.51894165292 28 24 13
-1095.64267363805 -165.8214810751 2775.28924524443 18 16 4
-1091.37684313366 -165.794999964789 2782.84755179897 28 26 14
-1118.70420533036 -166.94192784787 2790.06638901512 18 18 6
-1130.25419775448 -167.504544614695 2797.52436984977 18 20 9
-1179.7902726159 -169.482851822962 2804.84661281351 17 19 8
-1177.66950213217 -169.539565529301 2812.52301216145 15 18 9
-1232.60042594554 -171.864375972293 2827.96568872154 12 18 8
-1270.69375006379 -173.428297905856 2835.92717335755 10 18 7
-1231.07788744567 -174.801242082717 2532.11047123725 19 22 13
-1288.98101668211 -177.159755196265 2535.18730554447 18 21 12
-1270.56396369655 -176.591627179832 2545.09906556121 14 20 10
-1213.89291860948 -174.550621792218 2558.08615063748 14 20 10
-1211.93284561049 -174.610497337882 2566.35719203058 14 20 8
-1189.27603695607 -173.872208220747 2576.22121158886 16 19 12
-1249.40448272367 -176.325458243756 2579.70775733245 14 17 10
-1224.66365570391 -175.505719573971 2589.67921793135 15 18 11
-1192.62869575654 -174.401582021471 2600.02464788214 14 17 10
-1205.15415426144 -175.019297853971 2607.17323603875 13 16 9
-1244.6843820392 -176.684217581658 2612.61232782611 11 14 7
-1199.08253002426 -175.049681788468 2623.57729333648 14 17 10
-1227.22169574333 -176.274827143433 2629.86356609828 15 18 11
-1216.90697724591 -176.007095990947 2638.4956300821 14 17 10
-1189.9756102553 -175.223062165282 2655.89771349348 16 19 10
-1154.6126950707 -174.10454928441 2673.37963370601 14 22 7
-1200.56304969619 -176.030028226623 2679.11111437016 15 23 8
-1143.1649029894 -173.915378485102 2689.44417980768 16 24 9
-1129.58515782686 -173.512108513455 2697.72930200192 17 23 11
-1147.36266773644 -174.337212379503 2704.76333373619 18 24 12
-1147.36785814679 -174.466138638093 2712.4947772132 17 23 11
-1148.41754229842 -174.636015689698 2720.18111764268 18 21 12
-1100.20509640251 -172.868025279954 2729.33128578498 18 19 11
-1085.48591560798 -172.414954230936 2737.31366897836 20 19 14
-1090.68472753512 -172.745954974547 2744.71697200763 23 22 17
-1093.78728701714 -172.994488460776 2752.1820068401 28 28 20
-1106.34952322997 -173.617093249258 2759.46405678712 20 17 8
-1118.92588552853 -174.241331790119 2766.79752265609 16 16 6
-1118.88788644905 -174.367284792299 2774.37048918073 20 20 10
-1100.94454583786 -173.783632444864 2782.15453126407 18 20 9
-1105.10391018387 -174.075471966328 2789.61961388061 19 21 10
-1137.73776209724 -175.498702718034 2796.88250423814 18 20 9
-1172.52306519053 -177.010091539789 2804.28501199489 17 20 11
-1196.79327702172 -178.106235017474 2811.87520187938 18 21 12
-1309.99025258052 -183.020098856438 2835.49387123299 12 20 9
-1272.20014384161 -184.344284256511 2511.21051843261 28 31 22
-1304.31267216523 -185.789942808798 2516.52367673884 19 22 13
-1254.98894141917 -183.907714715579 2529.41262649987 19 22 13
-1244.81208544657 -183.623405572268 2538.56701349357 16 22 12
-1263.53601727671 -184.522200631942 2545.1720791791 15 21 11
-1268.84689792138 -184.871881555669 2552.97967770389 15 21 11
-1228.65629709992 -183.353563195213 2564.47872474994 15 21 9
-1170.81274480557 -181.10613972213 2577.13916232804 17 20 13
-1238.31243836186 -184.139768225309 2588.14382583018 15 18 11
-1214.56939120379 -183.290424298328 2597.94221832131 15 18 11
-1180.4124380539 -182.009058776411 2608.31456566343 13 16 9
-1195.0151121515 -182.738689006709 2615.31122150951 11 14 7
-1205.55215354117 -183.428079275382 2630.61816570908 13 16 9
-1209.78594276364 -183.730324300888 2638.35393283703 13 16 9
-1180.69900131113 -182.651005470522 2647.93921824618 14 17 10
-1177.6209432701 -182.648714843135 2655.99496914877 16 19 12
-1181.83471607024 -182.948933701389 2663.65769843968 13 19 9
-1205.87789544714 -184.073863979185 2670.3858578174 14 22 9
-1186.0936412223 -183.376396942262 2679.20037489023 15 23 10
-1167.32430470687 -182.719463935077 2687.86024202842 17 23 11
-1119.24849245316 -180.838738522269 2697.58795006143 17 23 9
-1135.97763090208 -181.659298077802 2704.62970248404 17 23 11
-1173.66782674824 -183.35705843147 2711.00995228483 16 22 10
-1140.15760342068 -182.079767408849 2719.88365886937 19 22 11
-1109.74422411465 -180.929424124835 2728.48530200925 18 21 12
-1090.82766952451 -180.258410698072 2736.60746692982 16 17 11
-1103.37993106533 -180.905856743736 2743.83679940535 17 18 12
-1093.88291276535 -180.628591829118 2751.61452269142 18 19 11
-1099.08910005128 -180.968417332349 2759.03963749114 17 17 9
-1129.54867925846 -182.371101664071 2766.0364211614 17 18 10
-1114.77767610724 -181.871773923205 2773.85560215494 19 20 12
-1107.35836597991 -181.681229323973 2781.49819918557 18 19 11
-1107.30516369028 -181.800860453736 2789.01871046993 18 21 12
-1148.39047953284 -183.657812763057 2796.21397974966 17 20 11
-1166.30500645537 -184.538795442937 2803.72144984064 17 20 11
-1225.45289248144 -187.293101411646 2818.96350904426 17 20 11
-1261.42872316454 -188.945405783783 2826.80092531917 14 20 10
-1380.59245852678 -197.285186131062 2500.23268188038 19 22 13
-1218.0436029 -190.484812807864 2532.26346371287 16 22 12
-1221.25766612831 -190.749715380109 2540.1330845397 15 21 11
-1257.53482860398 -192.453952164704 2545.15924988774 14 20 10
-1234.92659786356 -191.594599621382 2555.28006282924 14 20 10
-1182.27985212564 -189.422937294464 2567.7039330171 13 19 7
-1221.80445577174 -191.39426175158 2580.72226539122 14 17 10
-1228.12489562735 -191.793915457748 2588.35028881506 15 18 11
-1229.26353644639 -191.966975525694 2596.36489832571 16 19 12
-1205.48377941014 -191.048109891389 2606.0708866006 15 18 11
-1191.01850746969 -190.535610583253 2615.03257447353 12 15 8
-1208.75782301582 -191.435213113234 2621.87869248837 12 15 8
-1272.29298525033 -194.347879610227 2626.0337670891 12 15 8
-1191.26384494311 -191.029393455748 2646.80506591308 13 16 9
-1170.46800482639 -190.233715366226 2655.82208853621 13 16 9
-1156.9669086429 -189.876704994952 2672.16265385338 15 20 13
-1161.16633689308 -190.18074550483 2679.76878282846 16 22 12
-1158.050936658 -190.161665661871 2687.69741833773 17 23 11
-1122.50117150386 -188.707497726493 2696.90394647361 18 22 8
-1122.48954608207 -188.824016295512 2704.57986060481 20 24 10
-1131.9018715888 -189.358073808909 2711.91270375507 18 22 8
-1146.56503926697 -190.125720978185 2719.10995850433 16 22 10
-1111.9471811183 -188.706883853066 2727.85784829444 20 23 14
-1103.51941329566 -188.448940020106 2735.69604130925 18 21 14
-1108.73140580708 -188.796946558034 2743.13754469639 18 21 14
-1123.40652979154 -189.566445802076 2750.37895058696 18 19 11
-1089.66097633787 -188.296104412422 2766.16810469324 20 21 13
-1087.49394566836 -188.315292015088 2773.6964410555 19 20 12
-1102.18323099813 -189.087172915534 2780.98799256998 19 20 12
-1135.87209274908 -190.709586898442 2788.14585342906 19 20 12
-1134.77859419353 -190.778636437972 2795.73220352298 17 20 11
-1150.57708323314 -191.604100508768 2803.21186102118 17 20 11
-1194.90903496072 -193.951276367237 2826.0480719174 13 19 9
-1248.90823683103 -199.744056045594 2512.42413583664 20 23 14
-1293.40296579032 -201.91145851432 2516.49567525406 21 24 15
-1231.644053862 -199.191436726856 2530.50373429528 15 21 11
-1211.11122369807 -198.3653996674 2540.51549936637 15 21 11
-1232.9235235219 -199.489693669594 2546.75481170621 15 21 11
-1244.41943303144 -200.139239809651 2553.95803964603 14 20 10
-1235.22792980334 -199.834163432245 2562.88671019383 12 18 6
-1203.2342999144 -198.474221698862 2573.54709191942 14 17 10
-1229.23401771005 -199.79387530544 2579.62391609048 13 16 9
-1262.52639637179 -201.452808918057 2585.28665636552 15 18 11
-1238.77837545909 -200.471471202504 2595.14991624866 17 20 13
-1201.49298890346 -198.860492103493 2605.80406542143 16 19 12
-1218.19644709195 -199.751618229673 2612.7059200317 13 16 9
-1214.11941013069 -199.678749923004 2620.99446645673 12 15 8
-1267.27363174264 -202.265280654946 2625.77903909372 12 15 8
-1215.31195221825 -199.966382730883 2636.93043537398 13 16 9
-1235.18470636665 -201.007212719598 2643.8139303388 14 17 10
-1238.39534652882 -201.273279089815 2651.67010723087 12 15 8
-1125.77076230981 -196.251001369738 2673.10737287932 15 20 14
-1132.03875557253 -196.65573827972 2680.5374631142 16 21 14
-1141.44944430734 -197.207687373955 2687.8529334436 17 23 11
-1142.49857465358 -197.369239780692 2695.54247344721 19 23 9
-1118.41437002847 -196.354393014228 2704.1787049569 22 26 12
-1132.0175803413 -197.103151329267 2711.34879157265 19 23 9
-1113.13039818853 -196.329706935664 2719.64468014649 16 22 10
-1114.15082760676 -196.488929102484 2727.2300594436 17 23 13
-1112.01989261129 -196.500218173569 2734.89739868833 16 22 12
-1122.49153608106 -197.103578420508 2742.2232073125 17 22 15
-1120.35745894522 -197.11490845213 2749.87885454555 18 21 14
-1128.73899702841 -197.621088752204 2757.29850661838 19 20 14
-1080.27487572796 -195.450646612784 2765.76834026419 18 19 13
-1099.17045259233 -196.451610391188 2772.94618633987 17 18 12
-1117.03454853661 -197.405438306734 2780.22042542451 18 21 14
-1139.13991014715 -198.561026880695 2787.52806098554 19 22 15
-1151.7708783121 -199.270663057756 2795.01035213709 16 19 10
-1154.90825923836 -199.532531344635 2802.5971822947 16 19 10
-1205.61656592805 -202.161756861201 2817.75705692594 17 20 11
-1218.31514170417 -202.879674327372 2825.48513351462 15 18 9
-1260.68755811078 -205.006258811056 2833.39167387757 12 18 8
-1279.00737043473 -209.368410508023 2508.99560313174 22 25 16
-1283.29689391251 -209.693211165755 2516.92313115816 21 24 15
-1236.99379455665 -207.559584809751 2529.49592277033 17 23 13
-1213.35492134334 -206.524381450015 2539.79843461674 17 23 13
-1241.37938918048 -208.001235876618 2545.4999406924 16 22 12
-1263.23078391838 -209.179044441073 2551.85154751522 15 21 11
-1237.48039608299 -208.038466176321 2562.17358838258 13 19 9
-1225.16077051671 -207.550661511909 2571.29340903379 15 18 11
-1241.85224214262 -208.477487357949 2578.12822095234 13 16 9
-1249.22565817991 -208.950266747125 2585.72232142615 14 17 10
-1236.87879247144 -208.459427156988 2594.74292086156 15 18 11
-1183.99105004313 -205.984700389474 2606.46428561674 13 16 9
-1189.25060237491 -206.35195586025 2614.07021652689 11 14 7
-1222.6052714699 -208.095616174941 2619.91073696778 10 13 6
-1228.93350471164 -208.51667115837 2627.55325503825 10 13 6
-1254.01995214825 -209.858207887594 2634.12271891103 14 17 10
-1268.71230037003 -210.691097741725 2641.38712448374 15 18 11
-1296.98398378952 -212.191807040927 2647.991432846 15 18 11
-1164.51806676524 -205.793071328612 2662.87376276932 12 17 11
-1125.88701270736 -204.107599708367 2680.26863310328 16 21 14
-1148.89506780039 -205.347650055932 2686.97814751519 19 22 11
-1136.33926297313 -204.836053830319 2695.2361016065 19 23 9
-1100.71725273175 -203.185674072639 2704.2982757659 22 26 12
-1120.60139377318 -204.272943704098 2711.195657496 19 23 9
-1125.82408130209 -204.637206436966 2718.66660607643 17 23 11
-1111.10686833526 -204.016205000721 2726.76231788357 17 23 13
-1103.71942565673 -203.756740809462 2734.56767375065 16 22 12
-1115.23919477599 -204.432839050318 2741.84179511609 16 22 12
-1115.20138666201 -204.537267273215 2749.42906027699 20 23 16
-1112.00330463968 -204.485049042258 2757.07070733625 18 21 14
-1118.27701228545 -204.902520025775 2764.51397432802 18 21 14
-1119.28670512303 -205.05933798845 2772.06007967164 18 21 14
-1150.88024214888 -206.735727839083 2779.19790275274 19 20 14
-1156.12907763955 -207.104632173409 2786.76300312616 19 20 14
-1157.15781465917 -207.264230354818 2794.37806050056 17 18 12
-1180.37802935484 -208.528818020218 2801.85979035696 17 18 10
-1142.29017830751 -206.740813627139 2809.64723967664 18 19 11
-1173.99208487629 -208.429845352476 2817.17850719038 17 18 10
-1292.56772281637 -214.455592412457 2824.99636941534 16 17 9
-1301.90824168359 -218.772072047315 2506.25583879498 25 28 21
-1278.34293548227 -217.67906125835 2516.86798712275 18 21 14
-1251.64289772616 -216.423519857853 2527.63306605061 18 21 14
-1238.34000689559 -215.851646782241 2537.0525412908 18 21 14
-1245.70317723298 -216.337047373489 2544.60063312274 18 21 14
-1270.66956995768 -217.724891759341 2550.69512115014 17 20 13
-1226.37251446915 -215.66874929021 2570.66704119787 16 19 12
-1235.80890281699 -216.260005735629 2578.05311254973 16 19 12
-1260.82445672121 -217.652373392502 2584.32634162229 14 17 10
-1260.94295210811 -217.76580957201 2592.48824389509 12 15 8
-1228.83766638414 -216.220983725146 2602.85079553958 14 17 10
-1196.68497005382 -214.671310035177 2613.04038156928 9 12 5
-1205.07649502033 -215.208221762519 2620.47771076815 8 11 4
-1241.59742049132 -217.195862889024 2626.22999367647 8 11 4
-1260.44726419034 -218.27420110989 2633.18919130031 12 15 8
-1281.40541919955 -219.462396133945 2640.11413699812 14 17 10
-1185.49902985994 -214.614974556756 2653.3730474902 14 17 10
-1151.07625200754 -212.939167856166 2663.00746932309 16 19 12
-1137.50542131454 -212.339591744504 2671.44869759305 19 22 15
-1123.90317792143 -211.83860528531 2687.50555113242 19 22 13
-1090.37940641345 -210.202519960238 2696.55547991787 20 23 14
-1089.29315011702 -210.246296692596 2704.18467502783 20 23 14
-1108.1269642732 -211.323647512689 2711.08498149397 20 23 12
-1129.08206364177 -212.512355632568 2717.99825825513 21 24 15
-1108.05962579957 -211.521438774867 2726.29630245036 21 24 15
-1079.64993902448 -210.145245263903 2734.68721248594 20 23 12
-1073.28059514725 -209.913743339033 2742.3576663424 20 23 14
-1081.63051348693 -210.448103078616 2749.64305850451 21 24 17
-1100.51848406048 -211.531948424483 2756.7403368304 19 22 15
-1117.32181716997 -212.508566569991 2763.95903226198 19 22 15
-1164.7217445595 -215.082121984391 2770.76608152641 19 22 13
-1178.42029731931 -215.900258325858 2778.24728332974 18 21 12
-1166.79562633494 -215.396984350243 2786.0607802652 17 20 9
-1220.65534414879 -218.315006667554 2793.25543559312 17 20 11
-1137.1472687457 -214.053987571525 2801.5216798371 17 20 11
-1256.70302950202 -220.627119149521 2824.32191720386 15 18 11
-1325.63159701239 -224.348250380787 2832.40501564605 11 18 10
-1335.14458584676 -228.840212439585 2502.50508064197 24 27 20
-1273.38399849019 -225.631697542133 2516.81532812317 21 24 17
-1267.33548019191 -225.411190287456 2525.67000301494 21 24 17
-1264.37717319841 -225.356036417543 2534.20467019285 20 23 16
-1253.1333042276 -224.854807927711 2543.43071895684 18 21 14
-1321.60368191151 -228.641755724082 2545.87384583576 18 21 14
-1209.8648786968 -222.73040093423 2563.36851869439 17 20 13
-1208.91962099271 -222.780310835507 2571.51641275846 17 20 13
-1229.75984051167 -224.004256298865 2577.98091613987 17 20 13
-1254.77911826821 -225.454705500237 2584.23130149967 16 19 12
-1274.63409432642 -226.627735603441 2590.96625469101 14 17 10
-1207.17155108849 -223.086666716048 2603.79967468385 15 18 11
-1238.5521626843 -224.982340058456 2617.80114402684 8 11 4
-1216.76078169634 -223.903778913128 2627.19683645235 8 11 4
-1215.7890402923 -223.950632979273 2635.249260046 12 15 8
-1204.37955290863 -223.431975747484 2643.87047467613 14 17 10
-1159.54105879001 -221.10107533213 2654.21296622449 14 17 10
-1168.96643191208 -221.709427525327 2661.54734684178 16 19 12
-1155.4007934407 -221.070946842797 2670.03334414488 19 22 15
-1132.39795659908 -219.919293625356 2678.87360531683 19 22 15
-1124.01745003805 -219.560410093484 2686.95099817464 19 22 15
-1135.52747839135 -220.28188371421 2694.16030634582 20 23 14
-1112.45490195372 -219.123551157606 2702.74585505143 20 23 14
-1107.1816249252 -218.932220319129 2710.56503701117 20 23 14
-1114.49574023522 -219.425869152654 2717.92578963261 21 24 15
-1113.4128734544 -219.462586034448 2725.57202656979 21 24 15
-1073.43151088481 -217.379182295435 2734.30837917664 20 23 12
-1068.1058798149 -217.183233473369 2741.93516737237 20 23 12
-1082.76977430638 -218.077942375869 2749.05582953289 20 23 16
-1095.34412757762 -218.859419755908 2756.28256390571 18 21 14
-1143.77041824874 -221.600481984188 2762.8982234555 18 21 14
-1173.27358104007 -223.310443913004 2770.04634182189 18 21 12
-1198.59166015098 -224.793436296824 2777.38650100776 17 20 9
-1222.88518194756 -226.222114667786 2784.85236207937 16 19 8
-1193.3067320977 -224.70267040413 2792.89064529989 17 20 9
-1167.91589263915 -223.411014946823 2800.74668066705 16 19 10
-1142.48795982797 -222.115878187526 2808.46719359785 17 20 13
-1175.26999076226 -224.012485572215 2815.98137839326 16 19 12
-1212.33224868155 -226.146149175076 2823.65133163663 14 17 10
-1267.46944476886 -229.27527814104 2831.5594113443 9 16 9
-1366.12046558861 -238.841815510179 2490.40274029074 103 106 99
-1304.40196295717 -235.475035621462 2504.96916033815 23 26 19
-1322.13784454428 -236.572321965953 2511.67772152456 23 26 19
-1313.01772504835 -236.159333253073 2520.93955607841 21 24 17
-1261.46848220099 -233.356639916279 2533.94031895469 21 24 17
-1292.65889909977 -235.211168817065 2539.46803932031 18 21 14
-1212.01255810121 -230.764220065554 2554.58040839021 17 20 13
-1226.61958244458 -231.683480601281 2561.47349319864 15 18 11
-1208.04917550837 -230.731435255454 2571.05826535665 16 19 12
-1233.04742064608 -232.237564922934 2577.19540699364 18 21 14
-1252.88299651468 -233.453409085531 2583.83130052754 18 21 14
-1248.8349229019 -233.320463032899 2592.26531213247 17 20 13
-1236.63789545204 -232.916268489737 2617.37466808982 9 12 5
-1282.58595431673 -235.612952123193 2622.61072677512 9 12 5
-1263.92578188337 -234.651622510728 2631.86807883568 12 15 8
-1223.31827847012 -232.444862325371 2642.25389439697 13 16 9
-1192.05197324731 -230.765300156485 2651.92016128252 14 17 10
-1197.32092459938 -231.157211360135 2659.54542257385 15 18 11
-1171.21744143103 -229.768125665704 2668.7133842563 18 21 14
-1164.97600593802 -229.597656898578 2684.6137735243 19 22 15
-1158.70011588783 -229.33272145399 2692.65324032067 20 23 14
-1148.21801168844 -228.828075927684 2700.8124803103 20 23 14
-1106.23484901885 -226.529586461886 2710.04590514706 20 23 14
-1105.14813540272 -226.557944441821 2717.6831369117 21 24 15
-1107.20966084631 -226.765638434977 2725.20604972133 21 24 15
-1134.50920027572 -228.412609310728 2732.00588548765 20 23 14
-1130.27373812434 -228.262265550798 2739.75514417756 20 23 12
-1107.07541051513 -227.029427724861 2747.92084215633 22 25 18
-1119.66954259851 -227.839303033939 2755.20308241632 20 23 16
-1123.84242876594 -228.168983717761 2762.69447797671 19 22 15
-1144.90034664734 -229.464204667535 2769.92225309935 20 23 14
-1180.76624639835 -231.607857405406 2777.04037671107 19 22 11
-1234.63961187781 -234.784460835513 2784.1224485688 17 20 9
-1254.74922748299 -236.031132566615 2791.75633502138 15 18 7
-1138.3505676949 -229.55212088114 2807.89447313637 16 19 12
-1197.62661518136 -233.044573365173 2815.35277386514 15 18 11
-1249.55842149654 -236.119579466316 2823.083930107 13 16 9
-1285.6445404476 -238.288355056352 2831.00382319307 9 16 9
-1386.20013505925 -248.558388930969 2496.47523949991 20 23 16
-1276.00248017976 -242.268930186089 2523.82600047524 21 24 17
-1287.53236858655 -243.040076302301 2531.0786135418 20 23 16
-1220.37147346397 -239.178335226948 2545.23352047506 17 20 13
-1220.47313411568 -239.274805122494 2553.34363029911 16 19 12
-1226.79396814643 -239.737520417053 2560.93237440985 14 17 10
-1234.25949545336 -240.358059388451 2576.56874810056 17 20 13
-1243.71033333419 -241.005807303551 2583.97280197977 18 21 14
-1195.00392092482 -238.308162428585 2603.56579460893 15 18 11
-1231.51112075278 -240.55428042695 2609.10392812941 11 14 7
-1207.6292514364 -239.231075205157 2618.68514334718 10 13 6
-1245.23147545414 -241.544155704289 2624.35029006368 9 12 5
-1268.27409735013 -242.997491524974 2631.05348695796 11 14 7
-1261.06481357537 -242.660313896311 2639.56937611256 13 16 9
-1246.52852616039 -241.888613443866 2648.43197250292 14 17 10
-1119.04783172698 -234.421070595851 2663.01385671296 15 18 11
-1167.19927598225 -237.535688087783 2683.96036173352 19 22 15
-1160.92095939881 -237.249560567453 2692.00419885469 20 23 14
-1168.27011347185 -237.772736789218 2699.47640148871 20 23 14
-1099.99466845167 -233.885925460908 2717.30260093427 21 24 15
-1104.15460351009 -234.21838299752 2724.74415840575 21 24 15
-1138.82482760034 -236.367489631251 2731.31677873761 20 23 14
-1138.79994634752 -236.452270409583 2738.96444316833 20 23 12
-1117.70408434088 -235.28164208522 2747.10333824379 22 25 18
-1094.46813599343 -233.982303728841 2755.17227177104 19 22 15
-1121.83068398768 -235.699693392718 2762.16065823042 19 22 15
-1108.06045259166 -234.964360493785 2769.9481895226 19 22 13
-1218.92040280006 -241.75805867144 2783.70311280389 17 20 9
-1155.39174688808 -238.228127322425 2807.23800435152 16 19 12
-1172.30661558488 -239.328903192844 2814.79242287062 15 18 11
-1219.99738081449 -242.273573873877 2822.44592230388 13 16 9
-1296.40335639165 -246.941334360368 2830.41741847598 11 18 11
-1385.18106559897 -256.883260410131 2487.43574628672 110 113 106
-1355.45117421305 -255.151060591171 2498.94239986956 26 29 22
-1270.88363229428 -250.052801921444 2515.4935320026 21 24 17
-1267.9247431372 -249.958292435634 2524.04995577434 21 24 17
-1249.42946832098 -248.909339524424 2533.97486113198 19 22 15
-1297.2074027434 -251.930282216407 2538.00752815439 18 21 14
-1252.78317392876 -249.287113041895 2550.08432670717 16 19 12
-1246.67785560397 -248.997251645935 2558.7728298296 15 18 11
-1287.27613297634 -251.579628149086 2563.70182586691 15 18 11
-1260.40325565991 -250.011914563308 2574.02227455827 14 17 10
-1260.51807952577 -250.104130210808 2582.18394272605 15 18 11
-1231.50269009612 -248.401988862113 2592.42810430514 17 20 13
-1224.3852674954 -248.130968603835 2609.03592846285 12 15 8
-1252.60743866091 -249.954880554674 2615.25328331835 10 13 6
-1224.5373526631 -248.307230993334 2625.0755185968 9 12 5
-1232.95914544827 -248.910327020913 2632.58436999415 10 13 6
-1296.75017707825 -252.932644382049 2636.98886204657 13 16 9
-1263.41663599702 -250.958444448612 2646.95854698559 14 17 10
-1242.58584289585 -249.755167835208 2656.103132398 14 17 10
-1198.69665893385 -247.125114602575 2666.26184651937 18 21 14
-1185.11874365223 -246.36754389866 2674.77744963727 18 21 14
-1167.32717048307 -245.348606305244 2683.39886178157 18 21 14
-1156.84976128653 -244.781430013007 2691.61594107117 19 22 13
-1191.48507071837 -247.007660377295 2698.01023823343 20 23 14
-1171.55177334629 -245.85479051149 2706.55797579519 20 23 14
-1087.47967073357 -240.725306956914 2717.17472093481 21 24 15
-1126.33647648644 -243.214489687316 2723.48945260596 21 24 15
-1124.19993871634 -243.162627529958 2731.17586022623 20 23 14
-1116.79198790921 -242.783583455391 2738.98056990955 20 23 12
-1108.31734585217 -242.338080939114 2746.76314281294 20 23 16
-1104.04644270525 -242.153368659945 2754.40251451649 18 21 14
-1107.15358236268 -242.427105254134 2761.86957174211 17 20 13
-1077.52765895342 -240.666194711937 2769.88404410849 17 20 11
-1137.67549235479 -244.487467723048 2776.47519462288 16 19 8
-1139.74583819223 -244.698434728223 2784.02878941767 15 18 7
-1343.2660530286 -257.893870848314 2829.93978524584 9 14 7
-1308.14122936188 -260.521299308954 2503.03942391872 25 28 21
-1265.90998994162 -257.90546968158 2515.44846075125 21 24 17
-1223.61695435212 -255.283186215289 2527.63213513513 21 24 17
-1317.96857037419 -261.396912951541 2527.28370820054 20 23 16
-1283.93723553086 -259.301821240377 2538.63619581116 18 21 14
-1261.26372165861 -257.931657542065 2548.83712470128 17 20 13
-1284.21868074433 -259.481491486322 2555.15392289903 16 19 12
-1253.19928487606 -257.575273683817 2565.88001432655 16 19 12
-1290.72284496458 -260.059140861136 2571.14527152372 14 17 10
-1263.81859178818 -258.414781776933 2581.39761775179 15 18 11
-1268.0934714262 -258.768338828758 2589.25354981197 17 20 13
-1233.84062181617 -256.650335711818 2599.79713254924 16 19 12
-1233.92607913219 -256.734244827546 2607.85501278243 12 15 8
-1243.39366053075 -257.420322043064 2615.29703294763 11 14 7
-1234.0879737977 -256.901070484152 2623.93698151828 9 12 5
-1263.4026321685 -258.862639283431 2630.22636851092 10 13 6
-1288.57447197776 -260.559199141168 2636.88780548673 12 15 8
-1285.54472691701 -260.443677813487 2645.19534997498 14 17 10
-1221.81861290625 -256.423773749148 2656.61657124941 14 17 10
-1235.48613716815 -257.380773420317 2663.89489928466 17 20 13
-1188.39738715886 -254.427444033909 2674.06824158538 18 21 14
-1191.56956615245 -254.708471686633 2681.77217392617 18 21 14
-1183.20165372537 -254.246140955642 2689.96163748098 19 22 13
-1165.36992269058 -253.173637904821 2698.46869878905 20 23 14
-1165.37214240742 -253.250108162368 2706.22130161373 20 23 14
-1164.3198247369 -253.258644450422 2713.99875316159 20 23 14
-1119.07603208211 -250.415907520098 2723.15959746206 21 24 15
-1115.87959979445 -250.285028959794 2730.85703167683 20 23 14
-1144.28056873342 -252.194318128859 2737.68432491575 20 23 12
-1117.89833291899 -250.566478435751 2745.96806943319 20 23 16
-1162.15734738542 -253.502245737044 2752.57566219081 18 21 14
-1068.1850906758 -247.504563688817 2762.05195212759 17 20 13
-1108.23934080039 -250.169832935102 2768.80506786607 18 21 12
-1092.32030604599 -249.216045517493 2776.54600398046 16 19 8
-1039.24017539008 -245.931541518561 2791.95971126694 16 19 8
-1217.06820228966 -257.524611343323 2798.04542950414 16 19 10
-1298.73216635239 -262.978303428257 2813.35179112038 15 18 11
-1316.82319814969 -264.234103749993 2821.27887800273 14 17 10
-1410.34161975136 -270.384308960533 2829.50382306309 10 15 8
-1284.573375819 -267.219746522341 2504.82667538763 22 25 18
-1274.38125182231 -266.618837565061 2514.12333072616 21 24 17
-1368.74065574849 -272.967130079774 2513.65572620028 21 24 17
-1260.16060197413 -265.824689482482 2531.96556958825 20 23 16
-1253.0308252463 -265.425474138655 2540.81489116826 18 21 14
-1253.15002788589 -265.50802932766 2548.99891597242 18 21 14
-1265.72450750983 -266.419380177354 2556.14412415827 18 21 14
-1281.42981576256 -267.53970942151 2563.09165722364 17 20 13
-1300.27233226407 -268.869466063075 2569.86491797033 16 19 12
-1280.64474130344 -267.636427017561 2579.59922716666 15 18 11
-1263.06937806009 -266.539208867529 2589.07280663489 13 16 9
-1284.0116884028 -268.009435442604 2595.7608642347 13 16 9
-1239.30324309709 -265.101181439657 2606.95071236684 13 16 9
-1269.64060053672 -267.198458978672 2613.05425175787 11 14 7
-1242.6010339446 -265.467058094649 2622.8600884523 8 11 4
-1228.05684410635 -264.568744011598 2631.77328191195 10 13 6
-1280.39125022903 -268.137003357835 2636.79054864808 12 15 8
-1219.82059884579 -264.163252711629 2648.20835517729 15 18 11
-1263.84031809716 -267.177865558647 2653.87771275201 15 18 11
-1196.88450740914 -262.773954085056 2665.24003561754 17 20 13
-1196.91836578142 -262.847851877529 2673.11265971117 18 21 14
-1183.31373432878 -262.009141778055 2681.57936906646 19 22 15
-1145.54613471981 -259.552617312994 2690.97791778513 19 22 13
-1223.26059856575 -264.826767867074 2695.63116170772 19 22 13
-1161.28877495726 -260.748285885368 2705.81006167612 17 20 11
-1131.83437922527 -258.845756301381 2714.55079353885 19 22 13
-1134.9638547836 -259.126112664686 2722.09567118862 19 22 13
-1149.67928867606 -260.183502586447 2729.30498076444 20 23 14
-1161.25028860548 -261.030853349376 2736.66119220981 20 23 12
-1136.97713309865 -259.47373601553 2744.93824737706 17 20 13
-1168.60061631829 -261.667587540195 2751.85962757237 19 22 15
-1146.40602660637 -260.249517668321 2759.97263306904 18 21 14
-1121.00836795878 -258.615558609514 2768.01946269798 16 19 10
-1139.98700312432 -259.962213382423 2775.28743677015 16 19 8
-1132.53393086845 -259.533412896244 2782.95603295138 19 22 11
-1127.18596249987 -259.24615147103 2790.55753713246 16 19 8
-1125.00680061876 -259.171971937371 2798.09977980573 14 17 8
-1277.66306219488 -269.592593715024 2812.7796514181 13 16 9
-1280.88121047471 -269.886209374061 2820.64538227823 11 14 7
-1334.42234138126 -278.854564852637 2499.41950578751 21 24 17
-1354.27441424905 -280.296161756866 2505.9741209833 19 22 15
-1363.79315631666 -281.025126452226 2513.57901377585 21 24 17
-1299.73383270976 -276.674339138182 2527.86831587325 20 23 16
-1273.95751695126 -274.964427578454 2538.45446770385 18 21 14
-1258.52143866895 -273.967593283747 2548.01477506438 18 21 14
-1242.02226445295 -272.896340236311 2557.57132007313 17 20 13
-1303.44501971908 -277.210718777325 2560.79204380776 18 21 14
-1308.78787744516 -277.649707807887 2568.66198250519 17 20 13
-1302.68674568496 -277.297127035664 2577.40469822966 15 18 11
-1281.99350294923 -275.934611098976 2587.16051656223 13 16 9
-1244.59392113928 -273.414706161978 2597.96545835111 12 15 8
-1279.09871233159 -275.871283715896 2603.72880869166 11 14 7
-1279.20878012307 -275.94723684015 2611.88308579325 11 14 7
-1213.52454412842 -271.465148326434 2624.11955277964 9 12 5
-1201.04346826588 -270.667066365976 2632.83583296575 10 13 6
-1224.09703184584 -272.331590727103 2639.44632079953 12 15 8
-1273.34026139842 -275.813070018095 2644.73133334418 14 17 10
-1217.93132026019 -272.037825828772 2655.70570081668 15 18 11
-1159.3001080608 -268.036673167435 2666.54892434508 17 20 13
-1190.76468956803 -270.286030134724 2672.84529039538 18 21 14
-1189.74060361263 -270.281194839848 2680.73600288565 19 22 15
-1245.41301938012 -274.213754882581 2686.2267546372 19 22 13
-1222.35316560656 -272.679397510278 2695.09787150695 19 22 13
-1148.78997036801 -267.634713518635 2705.71260112215 20 23 14
-1130.88834343813 -266.456089948743 2714.02622258874 19 22 13
-1145.59804467253 -267.544357311725 2721.19475352882 19 22 13
-1157.1642701865 -268.414724578885 2728.51870708955 19 22 13
-1158.20028425023 -268.553097623843 2736.17418314246 18 21 10
-1144.46452566867 -267.663645054532 2744.18700832985 21 24 17
-1134.93039392903 -267.0662139994 2752.02814380624 22 25 18
-1128.54958545498 -266.688226322644 2759.74944431931 21 24 17
-1140.12903363503 -267.561335951485 2767.12075966399 17 20 11
-1154.89488557581 -268.657187848596 2774.49204967131 17 20 9
-1142.15495301677 -267.836735215901 2782.26136934918 17 20 9
-1165.41065695528 -269.525793447139 2789.6068753146 15 18 7
-1185.51488250339 -270.996437535622 2797.07934512034 15 18 9
-1242.78674530912 -275.203216697691 2820.02622184302 12 15 8
-1334.64244367606 -287.186556542992 2498.87356850797 25 28 21
-1247.85253610857 -281.043529514821 2515.6257453749 22 25 18
-1314.28706853093 -285.861865481179 2517.65258310683 21 24 17
-1293.71464317728 -284.454400955172 2527.8853508857 20 23 16
-1272.07304400503 -282.969330783694 2538.09380235461 18 21 14
-1271.16408839351 -282.968156763142 2546.40873068736 17 20 13
-1283.7571899944 -283.933939925116 2553.58871291136 17 20 13
-1241.26003476427 -280.952252947656 2565.24143963791 18 21 14
-1293.37921132142 -284.750954523208 2569.31504104379 17 20 13
-1286.22220898946 -284.301460160867 2578.09595185439 16 19 12
-1289.4707969979 -284.597729830646 2586.07302385741 13 16 9
-1262.48599948799 -282.725070124914 2596.17139084464 12 15 8
-1258.41316922927 -282.495448216765 2604.57452194953 12 15 8
-1256.41964294488 -282.414837198296 2612.81005371263 12 15 8
-1226.21325661804 -280.30842679231 2622.78383194479 10 13 6
-1241.96070866933 -281.501101326844 2629.84216164528 10 13 6
-1267.14150101035 -283.372002912156 2636.42769639947 11 14 7
-1303.8689827898 -286.073668430587 2642.49608477575 14 17 10
-1300.83631837524 -285.91892554405 2650.81662369198 15 18 11
-1158.37605162565 -275.739548880317 2666.04753220556 17 20 13
-1200.33998790547 -278.817794239153 2671.8375660837 18 21 14
-1199.32074594699 -278.805771342707 2679.74987223799 19 22 15
-1228.75856742709 -280.985333783616 2686.35983896542 19 22 13
-1154.17222284543 -275.678893330851 2697.23739531216 20 23 14
-1141.54012267796 -274.830071211507 2705.42498653404 20 23 14
-1148.88649674451 -275.419646098051 2712.84494690788 19 22 13
-1138.33414007038 -274.720181669993 2720.86728070607 19 22 13
-1129.87268307451 -274.171242531886 2728.76411162546 19 22 13
-1132.99837524968 -274.457176170184 2736.29235013811 19 22 11
-1136.12542163947 -274.743555262146 2743.82533534816 22 25 18
-1114.96341172048 -273.278639748478 2751.90443371489 23 26 19
-1111.73581130109 -273.106846483828 2759.51290719025 21 24 17
-1134.9397454337 -274.842311398827 2766.63690326226 17 20 11
-1141.24028989689 -275.358944572439 2774.11627525913 17 20 9
-1130.60270768314 -274.653262667896 2781.82610872161 16 19 8
-1135.84335525843 -275.094063453212 2789.31541731468 14 17 6
-1220.61787696877 -281.280571062024 2796.22640654413 15 18 9
-1300.29122029246 -287.236453868844 2819.4120661576 12 15 8
-1336.74385964746 -295.590968776934 2489.67971806023 18 21 14
-1293.45787051156 -292.445562222407 2502.40334345626 26 29 22
-1281.18318650171 -291.595907598603 2511.91847641944 23 26 19
-1228.46350579747 -287.748382982026 2525.12960508943 22 25 18
-1279.3921858436 -291.58120477897 2528.65790494357 20 23 16
-1262.92035397669 -290.418673091749 2538.37452431269 18 21 14
-1273.42834418452 -291.256024603419 2545.68662239406 17 20 13
-1249.64748294509 -289.550252960334 2555.88532223781 16 19 12
-1225.83092664478 -287.840807999255 2565.95288343474 16 19 12
-1234.2433661708 -288.52207776986 2573.37765320518 16 19 12
-1263.4950405836 -290.75046370484 2579.26473873484 16 19 12
-1247.9670792154 -289.654966686036 2588.54619268497 15 18 11
-1231.449015685 -288.541870279596 2605.85259286889 13 16 9
-1265.98827384484 -291.164757680897 2611.63891297331 13 16 9
-1259.81237275176 -290.762869056696 2620.13608423814 12 15 8
-1278.82187666824 -292.290405819656 2635.19803830421 9 12 5
-1285.19982649083 -292.821999014839 2642.95535625501 12 15 8
-1244.42499829022 -289.846201742584 2653.20638645517 15 18 11
-1227.71113964635 -288.659252829066 2662.03889457331 17 20 13
-1162.69958490915 -283.877103441711 2673.06601756969 18 21 14
-1175.30379207041 -284.870743558994 2680.2696451395 19 22 15
-1098.60333511158 -279.215149539292 2691.31192365935 19 22 13
-1156.39093074635 -283.573584849516 2696.59347855403 18 21 12
-1157.432886938 -283.706817862397 2704.27519073297 18 21 12
-1159.52643361809 -283.918504103483 2711.91447162139 19 22 13
-1104.72218363343 -279.889513386986 2721.39689169755 20 23 14
-1114.15766604586 -280.648129836035 2728.67393714388 21 24 13
-1118.32769346697 -281.014392618075 2736.13162271774 22 25 14
-1122.50030883656 -281.381366211109 2743.59939709073 20 23 16
-1128.78883928154 -281.906495094133 2751.029728669 21 24 17
-1124.51103942487 -281.643628835845 2758.69190754945 20 23 16
-1155.1364568175 -283.986173988278 2765.71103697902 17 20 11
-1158.27531046519 -284.277846763467 2773.28451806901 16 19 8
-1179.36937231944 -286.028045584757 2795.94545002859 15 18 9
-1270.62721868205 -292.907690614035 2803.10943294066 18 21 12
-1321.61889576794 -302.800431880639 2499.11042603355 25 28 21
-1239.93074505107 -296.595498457818 2515.36097968259 23 26 19
-1254.68101611295 -297.831796011394 2530.37932069623 19 22 15
-1252.72132645766 -297.734244699449 2538.75117644586 18 21 14
-1266.34163235448 -298.831354646648 2545.76573365268 17 20 13
-1268.53983324358 -299.052429649207 2553.787647535 16 19 12
-1227.03701075087 -295.9206352648 2565.32965738341 16 19 12
-1233.36959449251 -296.458195463827 2572.91570173583 16 19 12
-1227.20440554552 -296.036576551386 2581.46510177068 16 19 12
-1207.47348711724 -294.573165290909 2590.96029226514 16 19 12
-1222.14311515492 -295.750661243601 2597.92277599706 16 19 12
-1273.3719764827 -299.736390549758 2602.46905231952 16 19 12
-1256.75695423601 -298.511886656185 2611.69223085736 14 17 10
-1293.43634052848 -301.381866540748 2617.47578523753 13 16 9
-1341.67089668175 -305.141075861886 2622.73769635024 9 12 5
-1241.37199433931 -297.53536378119 2644.80928754807 12 15 8
-1163.86626818246 -291.676396936377 2664.68004849444 17 20 13
-1092.48663628856 -286.235047406065 2675.85878490595 19 22 15
-1171.2274571666 -292.343386017854 2679.8997082746 19 22 15
-1121.825056607 -288.591393948924 2689.78072314348 19 22 13
-1054.47002123741 -283.455911868035 2700.12267839551 19 22 13
-1134.38938378333 -289.658664243836 2704.5833676969 19 22 13
-1113.24636984729 -288.130638715595 2720.56640857555 20 23 14
-1098.42989416532 -287.039260807301 2728.59054845627 21 24 13
-1124.75460501151 -289.118292591199 2735.39457649988 21 24 13
-1139.49388493302 -290.305288292063 2742.60966638137 20 23 16
-1134.16888081256 -289.946106380698 2750.34183914476 21 24 17
-1147.87103406391 -291.054299842362 2757.65328198652 20 23 16
-1180.63908256029 -293.633764104588 2764.68443264599 17 20 11
-1181.67668634272 -293.766724805182 2772.35015710628 17 20 9
-1270.73819847213 -300.803029603063 2794.64045505409 16 19 10
-1293.10638231883 -302.642552908056 2810.28566727244 15 18 11
-1359.07062592314 -307.795631722221 2818.14771645546 13 16 9
-1323.90294176562 -311.242918541227 2498.36417667005 30 30 30
-1270.17197931163 -307.038251298077 2511.94241595108 20 25 21
-1235.03530442306 -304.304040956108 2523.49081904397 18 24 20
-1264.20541392576 -306.66122848543 2528.9937514649 15 22 14
-1268.48215017734 -307.04734944518 2536.8360176206 15 21 11
-1269.64333914575 -307.186566723886 2544.95571055602 18 20 9
-1284.32526793464 -308.397083538056 2551.94301692302 21 21 11
-1267.79696565173 -307.134381438577 2561.51321505976 18 19 11
-1230.41078970981 -304.217720525452 2572.61749213954 16 19 10
-1228.40883286443 -304.105178819742 2580.84281126887 15 18 9
-1220.14294149915 -303.495789747461 2589.50390396862 16 19 10
-1223.34397823984 -303.795455900449 2597.30228307257 17 20 13
-1264.14689246002 -307.07805969745 2602.54896876211 18 21 14
-1276.78259826538 -308.126985947546 2609.83463985389 14 17 10
-1276.8815208176 -308.181316298108 2617.96118835386 12 15 8
-1265.46480274228 -307.321643636635 2626.7717851555 9 11 6
-1263.45534492216 -307.208516100644 2634.96869547582 8 10 5
-1198.64915630705 -302.246038010652 2670.25100406325 16 19 10
-1175.55408408505 -300.456720857595 2679.15140097232 19 22 13
-1117.72148309502 -295.906194857489 2689.41023657936 21 24 15
-1114.52823531715 -295.697064537828 2697.16889831915 19 22 13
-1072.3654432223 -292.38999467436 2706.37215916956 19 22 13
-1122.83048593621 -296.492376340942 2719.69876866478 19 22 13
-1086.91006002537 -293.680634249918 2728.38620731055 21 24 15
-1131.18568427175 -297.248257957462 2734.65561884633 21 24 15
-1118.46160297845 -296.281763768263 2742.57692318305 21 22 16
-1143.78103932598 -298.343032069044 2749.55609935912 21 24 17
-1173.36389501309 -300.744836371025 2756.56330877216 21 24 17
-1173.33899169512 -300.790275682303 2764.23572942205 18 21 12
-1209.33277135049 -303.704476117867 2771.34216257726 18 21 12
-1231.59585021453 -305.575861499707 2786.57702454769 17 20 11
-1254.97009859626 -307.538656193589 2801.98248069296 17 20 11
-1247.42942744839 -313.25629671775 2505.40726116971 23 21 22
-1252.7327529651 -313.731901090579 2513.10730751159 20 24 23
-1275.68131657522 -315.649198368926 2519.16836344969 18 24 20
-1262.31308870484 -314.598849947831 2528.64641032893 15 22 14
-1267.62780725513 -315.075136551558 2536.38832604663 16 22 12
-1278.14578433412 -315.976846668133 2543.69779979179 17 20 9
-1290.75618733521 -317.049650129879 2550.87445170908 20 20 10
-1272.14189411449 -315.569223342215 2560.62987507547 19 20 12
-1238.91074884832 -312.892757819235 2571.42310933592 17 20 11
-1243.16857611218 -313.28194860206 2579.1932320007 16 19 10
-1254.7333898533 -314.269071774455 2586.4382303592 15 18 9
-1245.42781874314 -313.548633233544 2595.20562714318 15 18 11
-1253.86899717779 -314.280241511097 2602.70438872814 18 21 14
-1284.27562605129 -316.810063012603 2608.79296278482 17 20 13
-1254.03558292251 -314.375639923128 2618.84979896713 14 17 10
-1229.10067283154 -312.45609999944 2644.38123465771 9 12 5
-1306.79033561495 -318.861105458286 2648.22843451016 12 15 8
-1171.47404805286 -307.936652128128 2686.55761958256 20 23 14
-1139.89136379108 -305.387904952401 2695.5970619934 19 22 13
-1078.76674726491 -300.416002860381 2705.58828509015 19 22 13
-1117.65329071519 -303.685032053112 2719.31464256348 20 23 14
-1113.38142350832 -303.375086263665 2727.02950078371 21 24 15
-1104.87585493367 -302.717816852961 2734.83094811968 21 24 15
-1143.92064394201 -305.962843272713 2741.36735366062 21 22 16
-1134.36095364916 -305.21977324717 2749.20554405989 21 24 17
-1147.01231949926 -306.300029287595 2756.52957783902 21 24 17
-1164.93899551072 -307.856982064696 2771.44895277511 17 20 13
-1239.14092211305 -313.994526432546 2778.10194325555 16 19 12
-1257.19201617996 -315.521888891554 2785.70929905554 14 17 10
-1317.85514160872 -320.644550889165 2808.97820955506 15 20 13
-1267.56612935134 -323.085364550492 2519.4121992854 20 25 18
-1268.85073575 -323.266783638414 2535.75704272811 16 23 16
-1275.21088272878 -323.839129881656 2543.4234618905 16 21 14
-1280.53564023013 -324.324318237172 2551.19703016585 15 18 11
-1293.15623461462 -325.424468560325 2558.39425531555 15 18 9
-1257.84023356555 -322.483163861309 2569.40760405703 17 20 11
-1229.77442842266 -320.152293486094 2579.67801218811 18 21 12
-1255.94643573244 -322.39499305764 2585.81175065705 18 21 12
-1242.45836757149 -321.292947519475 2594.87749287882 17 20 13
-1245.67268901977 -321.59958729346 2602.72172174159 14 17 10
-1283.40548258762 -324.81858439315 2608.29969929042 13 16 9
-1291.87945334943 -325.569524427444 2615.90800729982 12 15 8
-1252.18121951257 -322.255399345592 2626.47257442638 9 11 6
-1204.11187872269 -318.304146354505 2653.11867203757 12 15 8
-1167.38461137203 -315.34371636879 2686.1804410414 19 22 13
-1145.26351377335 -313.510256419193 2694.82856389957 19 22 13
-1147.34754942837 -313.721709158647 2702.43267963673 19 22 13
-1126.23155246807 -311.972828303563 2710.86282497408 20 23 14
-1106.13951585554 -310.310180727979 2719.14304180687 21 24 15
-1099.74477951539 -309.805113613634 2726.8928621871 22 25 16
-1125.0392433389 -311.979199806787 2733.70809296483 22 25 16
-1148.25012740344 -313.977901249371 2740.69169900904 21 22 16
-1148.21137741625 -314.011391802393 2748.31932448793 22 25 18
-1125.93439860917 -312.164409191203 2756.39722847185 22 25 18
-1147.06534635235 -313.98895599451 2763.56196052445 19 22 15
-1207.44083829302 -319.173126735907 2777.93147008806 16 19 12
-1259.44987726585 -323.613644066731 2785.08633472307 14 17 10
-1244.60151564085 -322.437616701865 2800.83910137319 16 21 14
-1330.77389713058 -329.774159830566 2808.31674836151 17 22 15
-1308.82013724416 -334.661578264395 2489.92513512505 28 16 2
-1294.46133838811 -333.448043023479 2499.72566310299 40 32 21
-1263.47479939354 -330.791304557404 2511.046656097 25 25 15
-1248.01987422607 -329.481507320287 2520.73457708481 22 25 16
-1296.97257186333 -333.760881773077 2524.43808135829 20 25 18
-1279.43291656103 -332.269905631951 2534.29376461769 16 23 16
-1270.19132452698 -331.498753597247 2543.3307210168 16 21 15
-1280.71995525847 -332.443569361389 2550.65160601387 16 18 13
-1281.88068145063 -332.575172857001 2558.77531671832 17 20 13
-1277.82589895324 -332.253825636851 2567.30336618387 18 21 12
-1256.02261233903 -330.391095125478 2577.1499388385 18 21 12
-1257.15942288699 -330.520214352292 2585.18549485817 17 20 11
-1261.42946650845 -330.921439897549 2592.99244732288 16 19 12
-1253.15418981296 -330.232922965079 2601.66865131959 11 14 7
-1302.52680350026 -334.583584660924 2614.67885532069 10 13 6
-1261.77116658869 -331.07272171567 2625.33895147056 8 10 5
-1263.94612179813 -331.292263567162 2633.27552665167 8 10 5
-1192.67494303776 -325.127975440235 2645.31335387531 8 11 4
-1172.75094250063 -323.426013652267 2654.24227665743 11 14 7
