ply
format ascii 1.0
comment KinectMotionCapture
element vertex 781
property float x
property float y
property float z
property uchar red
property uchar green
property uchar blue
end_header
-1314.33001065953 -183.011477502569 2722.8467805923 16 19 10
-1299.44534249974 -182.957060899509 2717.98055222063 16 19 10
-1312.68908639281 -183.103708674544 2708.65510618591 16 19 10
-1326.93543159596 -183.256950017472 2699.24560993938 17 20 11
-1332.14073549354 -183.345530553799 2691.26864934232 18 21 12
-1336.34091627772 -183.426782992096 2683.46576366055 20 23 14
-1332.50684208127 -183.451209902216 2676.846465285 20 23 14
-1312.60675162238 -183.36281156668 2672.48666765311 20 23 14
-1327.85251468213 -183.521573880159 2663.1186932568 19 22 13
-1325.02394633973 -183.553360128053 2656.30100280433 18 21 12
-1316.1723084978 -183.543227715969 2650.27244657483 17 20 11
-1309.32957470241 -183.547369146858 2643.92995853294 17 20 11
-1288.43426314709 -183.454327677475 2639.35434778304 19 22 13
-1277.57957937514 -183.431477884468 2633.39977188076 19 22 13
-1281.78145703421 -183.512840720806 2625.53044791325 22 25 16
-1281.96843958126 -183.566398244855 2618.16501628653 27 30 21
-1283.15892212761 -183.626799847014 2610.68014158133 24 27 18
-1282.34250771672 -183.673398180251 2603.43024941927 19 20 14
-1299.58732485279 -183.843128661723 2594.1461883369 14 17 10
-1295.7599986753 -183.868901943655 2587.26170837365 12 17 10
-1310.99524421045 -184.024019558988 2578.31803345791 14 19 12
-1315.193192948 -184.10389376412 2570.60386373153 15 20 13
-1306.35003609538 -184.095655983166 2564.23248196277 13 18 11
-1254.37696591873 -183.797808846485 2562.06630141796 8 13 6
-1212.44119843729 -183.569185626894 2558.65215079028 14 17 10
-1270.99045380757 -184.065764595369 2538.24314578148 183 182 177
-1248.30483215957 -184.019413592884 2525.37259909433 33 23 13
-1263.5343855369 -184.172381842612 2516.65370124822 28 14 3
-1266.73101819299 -184.245441965697 2508.97358731821 140 118 105
-1265.91709214512 -184.291983159303 2501.61717787308 123 101 87
-1248.06236952946 -184.226901790455 2495.51793191523 110 88 74
-1235.22183599095 -184.195188744821 2488.96111243536 116 100 84
-1142.04621215442 -188.291147617692 2919.08695324172 0 2 0
-1181.48170140688 -188.539178721731 2902.87531424595 13 16 9
-1209.84458346862 -188.73208015152 2889.25163634416 15 18 11
-1236.19171738169 -188.914163568724 2876.20567087041 18 21 14
-1278.63074467136 -189.17242513795 2859.9281862148 15 18 9
-1251.65731284589 -189.097307571677 2858.22903017445 17 20 13
-1286.04284085458 -189.315280222622 2843.86018622236 16 19 12
-1282.20510675567 -189.350747825971 2837.37207486749 27 30 23
-1300.49291233218 -189.490795402508 2826.46444549272 28 31 24
-1269.50318601158 -189.398543473395 2825.3124168893 16 19 12
-1283.76732622866 -189.519284286587 2815.24232641847 15 18 11
-1291.99688090282 -189.611350717954 2806.39723635439 15 18 11
-1293.18727776267 -189.67043909837 2798.91712061083 14 17 10
-1282.31361793857 -189.673724738719 2793.67613234753 13 16 9
-1284.50983591775 -189.737563034663 2785.98810466465 12 15 8
-1276.65401777781 -189.755277301885 2780.11772700566 12 15 8
-1299.9584293332 -189.915400360758 2768.68166083305 11 14 5
-1304.16338687843 -189.987871318036 2760.7015116599 12 15 6
-1304.34789250125 -190.041988551303 2753.4322858402 17 20 11
-1306.54238162527 -190.105129635887 2745.82190120616 20 23 14
-1312.75577320295 -190.186178787005 2737.55230554914 19 22 13
-1317.9638927164 -190.262492289102 2729.47847232685 18 21 12
-1318.14763815488 -190.316257092042 2722.23933555704 17 20 11
-1319.33599793057 -190.374443028388 2714.83980509428 16 19 10
-1324.54277154895 -190.450248167293 2706.81911995488 16 19 10
-1330.7533267539 -190.530237732924 2698.67084205981 18 21 12
-1335.95847887452 -190.605555531035 2690.70472915058 19 22 13
-1328.10632584021 -190.623960463191 2684.69036488429 20 23 14
-1331.30259689172 -190.690408498817 2677.03148326405 20 23 14
-1320.43899902365 -190.696197228155 2671.38522649021 21 24 15
-1286.48135324835 -190.603475102249 2668.89646612813 21 24 15
-1290.6840377279 -190.674755719027 2661.00643433201 21 24 15
-1293.88224669061 -190.741584638901 2653.27140346475 20 23 14
-1285.0324787204 -190.75736872314 2647.1326142445 17 20 11
-1268.15297677795 -190.73970418779 2641.97561533727 20 23 14
-1268.34077743698 -190.794083458212 2634.57732673244 22 25 16
-1279.57003618882 -190.894406843228 2625.81835443289 26 29 20
-1274.73861901354 -190.927670171539 2619.05170014949 26 29 20
-1286.96954379392 -191.03149472343 2610.24855206254 21 24 15
-1291.17035601064 -191.10181174293 2602.43272942039 20 21 15
-1288.34635933719 -191.14322151728 2595.42602930671 15 18 11
-1308.60112056946 -191.278549481952 2585.87367504605 11 16 9
-1303.76966126872 -191.311516504782 2579.10898532158 13 18 11
-1297.9359741711 -191.340588358723 2572.42017507441 14 19 12
-1282.07095583994 -191.329642333629 2566.71459030737 13 18 11
-1194.98606901019 -191.035220902526 2567.94792279506 8 13 6
-1200.19484705011 -191.110434318313 2559.8495332649 13 16 9
-1230.47752294885 -191.284432301251 2549.43960724137 15 14 9
-1301.2451584709 -191.720866352809 2520.8937994762 159 151 140
-1261.32301790146 -191.618524487957 2516.86086605394 28 16 4
-1264.52000449959 -191.68376757956 2509.17531216936 117 98 84
-1262.70363210359 -191.729612069045 2501.89056488783 121 99 86
-1250.86279517437 -191.737250553946 2495.33737277624 136 114 101
-1166.1774103255 -196.13157025456 2906.19884966346 6 9 2
-1177.43870502126 -196.212566178299 2896.20855403635 22 25 18
-1227.93649725533 -196.375574436788 2877.95283832814 23 26 19
-1240.19786116882 -196.456979930333 2867.9747705422 9 12 3
-1279.61897049303 -196.593868628236 2852.44448511342 19 22 15
-1280.81064524896 -196.651147172844 2844.92569281473 17 20 13
-1271.94366457843 -196.688066909015 2839.43694171589 26 29 22
-1232.90510439749 -196.665004982257 2839.89366298237 27 30 23
-1252.20228236988 -196.759037147197 2828.70315816461 21 24 17
-1280.54732130624 -196.870018736694 2815.86481062988 17 20 13
-1293.8053276274 -196.950590149095 2806.05288720689 16 19 12
-1299.01778063574 -197.015183264797 2797.82227044001 15 18 11
-1293.16982572901 -197.058549229982 2791.66642289538 14 17 10
-1277.26925325589 -197.08327200552 2787.31211875183 13 16 9
-1300.576870699 -197.181491144591 2775.81722304276 13 16 9
-1284.67809168121 -197.206691388977 2771.39231178266 11 14 5
-1295.92057353435 -197.281868541474 2762.14353496469 11 14 5
-1302.13585039828 -197.347544570921 2753.81676226438 14 17 8
-1310.36067774586 -197.41652802665 2745.18121722074 16 19 10
-1310.54482058978 -197.471028830245 2737.92575820872 17 20 11
-1320.77764295201 -197.542959350631 2729.02397129088 16 19 10
-1324.98029893625 -197.604096664209 2721.14594428806 20 23 14
-1321.14472232189 -197.651422232595 2714.56077879361 18 21 12
-1324.34231090523 -197.710658632487 2706.85814676412 17 20 11
-1318.49815614767 -197.754766219804 2700.55297992869 17 20 11
-1320.69115916278 -197.812237485956 2693.0067653931 17 20 11
-1308.82143552745 -197.846873382811 2687.54425329513 21 24 15
-1316.03670490516 -197.912412162786 2679.25194300145 22 25 16
-1305.17353868231 -197.949146227803 2673.56491410724 23 26 17
-1292.30335016452 -197.983159049026 2668.09654257405 25 28 19
-1280.43909687318 -198.019198790456 2662.4187231427 25 28 19
-1291.67094255458 -198.09067838224 2653.58029012983 25 28 19
-1283.8248202665 -198.133135995076 2647.30439749309 26 29 20
-1279.99564998019 -198.181814498386 2640.46739782818 22 25 16
-1270.14365191277 -198.221826092983 2634.36505723502 23 26 17
-1272.33884127924 -198.279493671365 2626.72385694145 25 28 19
-1265.50014490006 -198.324240023639 2620.17997425062 20 23 14
-1281.7472915478 -198.401418213524 2610.87954564227 17 20 11
-1311.03931316425 -198.495831591504 2600.16511075215 21 22 16
-1312.22783476013 -198.550947120812 2592.76255256238 18 21 14
-1297.36077027135 -198.584545447493 2587.12313288051 12 17 10
-1277.47865078629 -198.612068019819 2581.93650039308 12 17 10
-1256.59583175278 -198.639051954087 2576.74376457987 15 20 13
-1252.77178608224 -198.68856960927 2569.70557616128 15 20 13
-1294.09229222189 -198.794841964422 2558.18948049007 11 14 7
-1250.14100001319 -198.794074061866 2555.07871638004 15 18 11
-1217.2294727474 -198.808411730266 2550.69723000406 23 22 17
-1256.10322408346 -199.071961914315 2517.3154297014 130 120 108
-1256.29260116672 -199.126093161803 2509.8557952849 111 93 81
-1251.46865913108 -199.174640804417 2502.78057552924 115 95 84
-1241.63267742451 -199.217918593369 2496.04875308246 107 88 74
-1162.94680989953 -203.798822733877 2906.89559017598 1 4 0
-1164.14661627611 -203.856398054405 2899.05866731735 17 20 13
-1176.41400660607 -203.907132707789 2888.87799828559 18 21 14
-1265.14464736165 -203.908771373226 2862.74543060807 14 17 8
-1297.52467600578 -203.943736512989 2848.73862491951 19 22 15
-1289.66107977261 -204.004623755899 2843.11656148426 16 19 12
-1244.58035158012 -204.091808510732 2844.94546955953 24 27 20
-1249.79748216437 -204.144732197009 2836.53524186859 25 28 21
-1257.02559388127 -204.195954344099 2827.75638056822 20 23 16
-1269.2813884369 -204.243057333823 2818.04213875618 17 20 13
-1292.597419553 -204.281036601837 2806.2830884941 17 20 13
-1299.82128399041 -204.330925437965 2797.67165719655 15 18 11
-1285.92894583507 -204.397854561889 2793.00892957635 14 17 10
-1276.06022084993 -204.461974540027 2787.53444914738 14 17 10
-1260.1607331097 -204.531700294003 2783.08942915235 14 17 10
-1279.44859942345 -204.570969336168 2772.32165663506 13 16 7
-1290.69200221337 -204.61670911312 2763.05916921631 12 15 6
-1303.94431020689 -204.660119655684 2753.50985665746 13 16 7
-1313.17459286014 -204.706754567165 2744.70979317848 14 17 8
-1316.37356398798 -204.758826649069 2736.96081901348 15 18 9
-1321.58189007772 -204.808768625953 2728.89790299845 15 18 9
-1326.78980114571 -204.858468204655 2720.86079252797 18 21 12
-1316.92491360222 -204.923414757056 2715.23544407388 18 21 12
-1301.03299716665 -204.99506617922 2710.49244363016 18 21 12
-1297.19938660411 -205.054446326383 2703.81749474151 17 20 11
-1295.37540755593 -205.111784999426 2696.81770020928 16 19 10
-1301.58808672302 -205.160229832887 2688.62028081977 19 22 13
-1305.79096381254 -205.210660094028 2680.74510866485 20 23 14
-1308.98900797553 -205.26204275102 2673.03310374887 21 24 15
-1293.10456687908 -205.335616799761 2667.99587678794 22 25 16
-1286.26068386678 -205.399013680375 2661.63468018621 22 25 16
-1285.4429270245 -205.455352825207 2654.42679595972 22 25 16
-1285.6293809949 -205.510438906913 2647.08038169254 27 30 21
-1281.79951620987 -205.570520558502 2640.24895683289 23 26 17
-1278.97461914143 -205.629421884028 2633.26799098222 23 26 17
-1268.1185755372 -205.698786313119 2627.25822471823 22 25 16
-1261.2796131224 -205.763260623003 2620.70355725952 17 20 11
-1303.6261220808 -205.762314228063 2608.32032703985 17 20 11
-1315.85578675478 -205.800394409597 2599.62769472972 19 20 14
-1317.04426229006 -205.853115054337 2592.23883297835 16 19 12
-1286.11853368853 -205.950572808612 2588.3725313781 11 16 9
-1284.29853733257 -206.007999613392 2581.22630959638 11 16 9
-1269.43417521115 -206.084177538724 2575.42622855422 14 19 12
-1302.91854095381 -206.144793660613 2557.33872322468 7 10 3
-1318.15263232501 -206.176246102549 2548.57293917323 14 17 10
-1204.98253758382 -206.401886629007 2551.86135200322 21 20 15
-1251.88523878003 -206.550954794785 2517.68724373089 92 82 70
-1251.07216351787 -206.607144866576 2510.29654719877 82 64 52
-1242.23733940468 -206.676438151195 2503.51624621969 70 52 40
-1230.39605165446 -206.750997892701 2496.90881886306 106 88 74
-1155.88409919622 -211.554423846405 2900.82764132721 13 16 9
-1169.15935322429 -211.569769930208 2890.41165170299 14 17 10
-1298.32887016014 -211.252685382222 2848.56830695754 17 20 13
-1306.56168267394 -211.281353746258 2839.66396119604 14 17 10
-1293.66764166474 -211.381841969328 2835.05645149031 21 24 17
-1269.71021451758 -211.520891882006 2832.57591362246 22 25 18
-1268.89080201521 -211.580954064546 2825.42874081667 14 17 10
-1277.12336691858 -211.60956837712 2816.52480577686 15 18 11
-1293.40065190332 -211.609678242947 2806.1292165845 17 20 13
-1288.5574594181 -211.68344363272 2799.78861899922 16 19 12
-1284.72048568816 -211.753857195047 2793.23326751161 15 18 11
-1256.75193493853 -211.910392434553 2791.06058872612 14 17 10
-1259.95577433886 -211.95638574846 2783.12787252052 14 17 10
-1269.19145022997 -211.980478883176 2774.1412262463 15 18 9
-1287.4733766964 -211.971374431262 2763.62352082064 13 16 7
-1293.69032206922 -212.005485140158 2755.27475421112 13 16 7
-1313.97857577103 -211.98770082758 2744.57779838776 14 17 8
-1321.19798016093 -212.017248693056 2736.16252176482 16 19 10
-1323.39149295729 -212.065125089129 2728.60668544447 16 19 10
-1311.51532437937 -212.165364024942 2723.32562453902 12 15 6
-1296.62643390957 -212.277373385183 2718.45504807554 16 19 10
-1290.78275701306 -212.355864065056 2712.09428685811 18 21 12
-1289.96352214272 -212.41549025062 2704.93131492941 19 22 13
-1287.13550280664 -212.482803273228 2698.06334628168 18 21 12
-1289.33057890536 -212.53091267245 2690.4368357204 17 20 9
-1312.62074184204 -212.497552138462 2679.76540270784 17 20 9
-1314.81412162509 -212.544972989261 2672.215254138 18 21 10
-1317.00702037897 -212.592262641126 2664.67472193755 17 20 9
-1298.10918739416 -212.722082914786 2660.02641051297 17 20 9
-1305.32445019343 -212.749755425715 2651.77501521061 15 18 7
-1296.47176368058 -212.840716617643 2645.6695733587 20 23 12
-1292.64105934227 -212.912004018032 2638.86825406794 23 26 15
-1284.79456557006 -212.999478916195 2632.54921943565 25 28 17
-1284.98118047287 -213.054892933174 2625.19616326046 15 18 7
-1275.12874505253 -213.150853386332 2619.05084235944 14 17 6
-1310.45059899433 -213.063557467372 2607.53239785101 18 19 11
-1311.63927933348 -213.114168815677 2600.12847166689 19 20 14
-1299.77996851692 -213.218253697801 2594.19374635607 17 20 13
-1303.98025669771 -213.256493567456 2586.43284682644 14 17 10
-1313.19794894895 -213.273698278739 2578.15645975594 12 17 10
-1307.36192569251 -213.353176242042 2571.49550770193 16 21 14
-1245.52481306961 -213.72383088545 2563.02289825622 18 21 14
-1247.72102835237 -213.770908144036 2555.35297266952 14 15 9
-1269.98152782961 -213.732519611435 2545.82159142646 15 16 10
-1232.05030529894 -213.950231156742 2541.85868392231 128 127 122
-1249.48313454349 -213.98780923203 2525.36835340642 64 56 45
-1244.65807401496 -214.064590655531 2518.30653296825 76 66 56
-1241.83956636746 -214.132774798805 2511.05655445012 69 57 45
-1230.99922125236 -214.236053684236 2504.40614690547 82 65 55
-1214.14401820232 -214.366120540273 2498.14084051605 72 58 47
-1177.81268607129 -219.113995267739 2896.11045016052 11 16 10
-1164.92268856479 -219.252164103942 2891.30444782167 1 6 0
-1219.45416971572 -218.981775653171 2872.30551598409 21 26 19
-1266.9351414472 -218.75199261325 2855.05485984261 17 20 11
-1322.4583389906 -218.47103782897 2836.41572306149 17 20 11
-1296.48343021946 -218.687508880981 2834.4859034359 17 20 11
-1274.53628253207 -218.880296238331 2831.61395444263 17 20 11
-1277.74006296835 -218.918711454128 2823.69167953453 16 19 10
-1292.0077444778 -218.88842682749 2813.645342576 16 19 10
-1291.18692809247 -218.951348782708 2806.54996777629 16 19 10
-1282.32043913984 -219.064503582592 2800.96014329879 16 19 10
-1266.41574443191 -219.222098922166 2796.6242820457 15 18 9
-1248.50228393176 -219.393002218407 2792.56733393451 14 17 8
-1250.70121577633 -219.43785426726 2784.79362496057 13 16 7
-1267.98156998858 -219.387199029523 2774.35728504577 11 14 7
-1284.25431891954 -219.342182329478 2764.18743397977 12 15 8
-1302.53558489629 -219.283667044188 2753.75792111444 14 17 10
-1308.75155027463 -219.301431745472 2745.46500716835 14 17 10
-1315.97181372192 -219.312467368351 2737.03603262702 14 17 10
-1314.14524966018 -219.381369225643 2730.12485372313 14 17 10
-1290.20866079246 -219.593003792205 2726.76127268361 12 15 8
-1286.37448336851 -219.675467899159 2720.08369292453 12 15 8
-1285.55532754509 -219.738468693642 2712.91400817267 14 17 10
-1292.77500491592 -219.749085702948 2704.50838900488 19 22 15
-1297.98440364056 -219.772502870804 2696.44135578777 21 24 17
-1300.17885440063 -219.815434196472 2688.84484544368 17 20 9
-1307.39645921358 -219.825157457638 2680.5305134436 17 20 9
-1316.62182100202 -219.821286046371 2671.96767941928 16 19 8
-1299.72998016423 -219.989989239112 2667.09281997314 16 19 8
-1312.97251108096 -219.959089086539 2658.00541854626 17 20 9
-1309.13968740988 -220.041418443877 2651.27507411896 18 21 10
-1301.29021832182 -220.150720907466 2645.04888837855 16 19 8
-1290.42953399622 -220.280500045679 2639.16495370847 25 28 17
-1282.58279713566 -220.390397998401 2632.84066845027 29 32 21
-1276.74516769192 -220.487011423215 2626.22409302144 25 28 17
-1277.93626692716 -220.536211098058 2618.72714374501 15 18 7
-1288.16256540437 -220.523908591442 2610.17077579025 15 18 7
-1271.28371516211 -220.6958301742 2604.78474320957 18 19 11
-1279.50177259406 -220.696825279199 2596.48679057575 17 18 10
-1292.73692465284 -220.663027234111 2587.68156722479 13 14 6
-1287.08837758154 -220.815107028946 2573.62476693524 20 23 14
-1282.25756490887 -220.905099246949 2566.77357548308 20 21 13
-1280.43802933859 -220.974322431065 2559.59667855685 20 21 13
-1274.6051734395 -221.071486480719 2552.79294524798 10 11 3
-1260.74671934094 -221.224842938282 2546.70378750503 12 13 5
-1246.890480967 -221.378672381972 2540.53684850059 109 110 102
-1248.08336593501 -221.427304638718 2532.97071585116 187 184 177
-1235.23328465486 -221.574738012215 2526.60402635047 62 49 41
-1232.41492488376 -221.651724305582 2519.33881723953 57 44 36
-1227.59103006959 -221.742958063893 2512.21591884186 64 51 42
-1217.75361361961 -221.869925566521 2505.45031156857 72 59 50
-1169.7429481874 -226.876803639575 2890.27538682192 20 25 19
-1182.0120348313 -226.830567113633 2880.14186493682 8 13 6
-1199.31073164298 -226.739510825215 2869.03201223059 15 18 9
-1229.68776354125 -226.532262585236 2855.34367971024 15 18 9
-1248.17498423331 -226.488755667021 2836.84862827513 15 18 9
-1269.48857690968 -226.359063803783 2825.30619291859 16 19 10
-1302.87051356729 -226.12085420011 2811.54282711613 16 19 10
-1290.98449352999 -226.285717374641 2806.58673162847 17 20 11
-1265.0189354523 -226.577225873098 2804.21088507944 17 20 11
-1252.1313716528 -226.752406672812 2799.27002444408 17 20 11
-1256.34165867522 -226.774237465763 2791.13595434834 14 17 8
-1256.5291541212 -226.832159129881 2783.74579097735 13 16 7
-1266.77180336234 -226.799099192207 2774.57266625733 13 16 9
-1289.07851752246 -226.656179741662 2763.34729235958 13 16 9
-1284.23691900509 -226.759032954141 2756.90383993717 12 15 8
-1287.43862745545 -226.788786474296 2749.07184567815 13 16 9
-1294.6608535546 -226.781648677119 2740.58567712211 14 17 10
-1263.68591128864 -227.123856826538 2738.38934667739 15 18 11
-1270.90889920452 -227.116846822843 2729.87326646955 12 15 8
-1276.1210427574 -227.127993115553 2721.71213137648 12 15 8
-1283.34230303997 -227.12035811432 2713.26424413756 13 16 9
-1297.59683913173 -227.047373861877 2703.77752321034 17 20 13
-1308.83498961356 -227.001649239207 2694.81852161425 19 22 15
-1312.03373382968 -227.030065922025 2687.10381529141 17 20 11
-1302.17120154343 -227.179838734609 2681.29533532023 17 20 9
-1304.36554326786 -227.217522509881 2673.71804567084 16 19 8
-1279.43673546201 -227.508660905988 2669.93096623858 16 19 8
-1265.56081807325 -227.697238927461 2664.49584095825 17 20 9
-1296.88501327638 -227.461786220682 2652.92753096739 18 21 10
-1307.11395542499 -227.423546579149 2644.2956884743 16 19 8
-1295.24781264414 -227.593281511667 2638.55749002709 22 25 14
-1286.39574465189 -227.734973420348 2632.37340351143 24 27 16
-1275.53684539382 -227.895995059446 2626.38615642704 21 24 13
-1281.7482507612 -227.895249632205 2618.28201346842 14 17 6
-1260.85139173358 -228.152288057268 2613.40031925601 16 19 8
-1254.01232051498 -228.275994709211 2606.78630509993 18 19 11
-1258.21654980504 -228.294284649461 2598.89279406485 17 18 10
-1282.49589900612 -228.119877991164 2588.82014142826 13 14 6
-1283.68677610002 -228.166185760866 2581.34430409807 13 14 6
-1295.9173118693 -228.10607411441 2572.72305718867 19 20 12
-1299.11421861647 -228.132516139238 2565.08228575291 18 19 11
-1272.39349593961 -228.505722878634 2553.02500464122 9 10 2
-1289.63861214999 -228.39577294019 2544.0295539939 18 19 11
-1209.75404376834 -229.289238041534 2536.35914452117 181 178 171
-1219.97800984066 -229.247873055408 2527.92514008175 50 37 29
-1217.16045210096 -229.333768132114 2520.61901923992 39 26 18
-1209.3283675535 -229.468933729081 2513.69494037686 63 53 44
-1173.55781387086 -234.485391498364 2889.45900182961 12 17 11
-1167.71190389222 -234.615159131516 2883.13045995442 18 23 16
-1147.7780583701 -234.907519187264 2879.68109809175 24 29 22
-1142.94103505246 -235.026490177084 2873.04152498625 15 18 9
-1202.50224217092 -234.400897405718 2853.40432829404 15 18 9
-1254.0063325088 -233.866030156875 2835.68580829335 15 18 9
-1237.09050878374 -234.123201027443 2831.65329338401 15 18 9
-1278.52503976734 -233.702403121281 2816.24663926042 16 19 10
-1270.66343307248 -233.854256873607 2810.45846973219 17 20 11
-1251.73829760701 -234.135645728438 2806.70516637558 18 21 12
-1246.89689168059 -234.253104833545 2800.23850414925 18 21 12
-1257.1422096179 -234.193919361354 2790.9891291245 15 18 9
-1262.35802151175 -234.193333237151 2782.69721992405 13 16 7
-1275.61778147758 -234.097855495898 2773.00578601487 14 17 10
-1268.76541255379 -234.238841027997 2766.89293951253 13 16 9
-1272.97391713352 -234.249476381309 2758.84055425297 11 14 7
-1276.17659776008 -234.271798781753 2750.97854294427 11 14 7
-1277.3681797889 -234.317788430373 2743.46617110128 13 16 9
-1263.48114720269 -234.542764761499 2738.4263845408 15 18 11
-1264.67356046185 -234.588908185859 2730.88136022419 13 16 9
-1269.8864799447 -234.587034355237 2722.70387910536 12 15 8
-1285.14885277055 -234.464854340401 2712.98839174533 12 15 8
-1305.43413477903 -234.281886702666 2702.58494112428 14 17 10
-1321.69714813352 -234.146185155613 2692.89296051695 15 18 11
-1320.87594231105 -234.214870293644 2685.80661820796 16 19 10
-1327.08819444346 -234.198921036601 2677.69503022805 16 19 8
-1289.09314411358 -234.715479414241 2675.89653072827 16 19 8
-1263.15892194441 -235.088020994288 2672.20896123888 16 19 8
-1251.29223292597 -235.291461246577 2666.45592147247 17 20 9
-1278.6018489007 -235.020604886417 2655.38731650987 17 20 9
-1292.85037922421 -234.907046857467 2646.17888680707 17 20 9
-1306.0927337804 -234.805052203178 2637.17471396165 18 21 10
-1276.14953470008 -235.228601078398 2633.67511011312 19 22 11
-1287.3828330056 -235.150764886532 2624.94022730634 15 18 7
-1297.61057716614 -235.084672567652 2616.38511239666 16 19 8
-1271.69055857477 -235.46086800383 2612.13849465386 20 23 12
-1255.81438010436 -235.714856495949 2606.59394529769 19 20 12
-1264.03441850232 -235.673237163565 2598.25500096224 19 20 12
-1268.23799742107 -235.680633053796 2590.39860588302 14 15 7
-1321.62675922139 -235.080964548609 2577.30649857408 13 14 6
-1319.80377484037 -235.161258366242 2570.25250632557 17 18 10
-1288.87495020453 -235.601861039183 2566.13876588555 19 20 12
-1294.26598565342 -235.651375507137 2550.9447189892 16 17 9
-1293.44875926295 -235.71953394551 2543.69408743321 21 22 14
-1179.44531386662 -237.258905630977 2539.04331034717 167 167 159
-1191.67843020963 -237.166035391504 2530.35637933104 38 31 25
-1196.88802837483 -237.160546464867 2522.31258842338 35 28 20
-1150.39018910109 -242.518896461681 2886.75127984418 19 24 17
-1128.44305284523 -242.895507070162 2883.67218402928 8 13 6
-1178.95644653592 -242.239965265529 2865.68560536494 15 18 9
-1195.24939326708 -242.070842198362 2854.8596101569 15 18 9
-1205.50283129415 -241.987372631579 2845.31894828542 15 18 9
-1234.8717638327 -241.629596868335 2832.08409399902 15 18 9
-1247.13345445979 -241.515933036684 2822.31203231988 16 19 10
-1248.32726643476 -241.560783310384 2814.71372982915 16 19 10
-1244.49140021704 -241.677968975223 2808.06487264618 17 20 11
-1238.6442852702 -241.824311173906 2801.76562861065 18 21 12
-1256.93720568466 -241.622336480492 2791.02533082147 16 19 10
-1280.25645677964 -241.346815725821 2779.47704481006 14 17 8
-1285.47073250082 -241.332466390285 2771.25995243535 14 17 10
-1264.53862246014 -241.697176510351 2767.63105556839 13 16 9
-1274.78112530589 -241.609838517604 2758.5312568704 11 14 7
-1286.0274284102 -241.50739066299 2749.31452758362 11 14 7
-1275.15388363628 -241.726805519702 2743.83697985402 12 15 8
-1266.29238234651 -241.917302303219 2737.96917636844 14 17 10
-1271.50559687646 -241.902382222614 2729.78484705702 14 17 10
-1268.67681423108 -242.004945148612 2722.89953776161 12 15 8
-1283.94061123238 -241.842274452568 2713.18118925465 12 15 8
-1304.22745549305 -241.60510539603 2702.77487771516 13 16 9
-1320.49173344556 -241.426114174554 2693.07995335459 13 16 9
-1320.67533738353 -241.483262391837 2685.84271406518 16 19 10
-1310.8106395806 -241.68859900042 2680.05920986317 16 19 8
-1285.87577085728 -242.117030394864 2676.36159743432 16 19 8
-1270.99159316321 -242.397755079837 2671.12567584755 17 20 9
-1259.12318789281 -242.634405968348 2665.39472934167 17 20 9
-1274.37973408291 -242.468859599994 2655.96285533006 17 20 9
-1287.62516899025 -242.332461343329 2646.87523162925 15 18 7
-1284.79809408844 -242.434713676387 2639.9235112899 16 19 8
-1281.97147094891 -242.537003755229 2632.95409398686 19 22 11
-1247.0082455634 -243.119241086147 2629.92466218838 18 21 10
-1309.45855231641 -242.24611237872 2614.97103875799 16 19 8
-1280.52327277158 -242.738845100703 2611.11232540428 18 21 10
-1264.64500719778 -243.036928983847 2605.59267625584 20 21 13
-1268.84904816209 -243.033974559664 2597.72933620622 20 21 13
-1293.13147476188 -242.728693529001 2587.68625577669 15 16 8
-1296.32929484014 -242.739901296235 2580.02614557091 14 15 7
-1293.50391845482 -242.841735546504 2573.00849022822 18 19 11
-1255.54848417194 -243.474421853207 2569.53696914777 21 22 14
-1255.73742542479 -243.531498041752 2562.09120644208 17 18 10
-1296.06985867908 -242.980154355888 2550.79035760723 21 22 14
-1283.21034178101 -243.234149683682 2544.66870193397 13 14 6
-1129.03948212838 -250.583365834522 2891.21519270879 0 4 0
-1102.05975180311 -251.106454322977 2889.11989627021 9 14 7
-1139.495104172 -250.537488253843 2873.73211568686 15 18 11
-1208.12269157455 -249.436625622864 2852.261109039 13 16 9
-1223.40754017237 -249.240487059852 2841.75592643096 11 14 7
-1198.44127381708 -249.729596422527 2839.22029089797 11 14 7
-1231.0183392648 -249.301312188566 2818.01000585072 12 15 8
-1237.24347002802 -249.258226888724 2809.42421295771 15 18 11
-1236.42597624162 -249.335512057986 2802.17423258005 17 20 13
-1256.73222566059 -249.05038484587 2791.06099400503 16 19 12
-1274.01854459131 -248.816191963881 2780.59792560451 15 18 11
-1273.198876487 -248.892658191641 2773.43380441955 12 15 8
-1256.28886414776 -249.246303847223 2769.07057322663 12 15 8
-1279.60524680681 -248.906849383973 2757.70304271997 12 15 8
-1292.86317600341 -248.7400092451 2748.15978506081 12 15 8
-1287.01549283169 -248.902945480882 2741.86493182321 12 15 8
-1266.08789220869 -249.327287815966 2738.0050875997 12 15 8
-1279.3442031461 -249.159754267102 2728.52582164613 14 17 10
-1280.53559773951 -249.201050041151 2721.02581534892 13 16 9
-1289.76852015972 -249.10244391315 2712.27852927448 12 15 8
-1286.9387363855 -249.213375550868 2705.42336188412 12 15 8
-1317.27599860519 -248.746205355455 2693.56845034958 13 16 9
-1303.39014521282 -249.049490376005 2688.39849496935 14 17 8
-1306.58969416949 -249.054766391129 2680.67718326474 15 18 7
-1286.67752167857 -249.464276775148 2676.25497726317 16 19 8
-1289.87766374744 -249.469640036909 2668.50106621195 17 20 9
-1288.05428000334 -249.562926690217 2661.44873174996 16 19 8
-1294.26817279755 -249.515018942218 2653.30733558937 16 19 8
-1284.40820991008 -249.74950997317 2647.30747071513 15 18 7
-1286.60345174321 -249.772057868733 2639.70192865294 14 17 6
-1277.75008985877 -249.989272519993 2633.49664620988 16 19 8
-1271.91086185966 -250.153596989508 2626.86984495768 17 20 9
-1237.95234185007 -250.815265990553 2623.59592082063 14 17 6
-1264.25182567499 -250.411586711521 2613.04123273001 15 18 7
-1267.45232169939 -250.416079534426 2605.28374726931 19 20 12
-1269.64843009517 -250.438186054605 2597.65413563975 19 20 12
-1295.94046136082 -250.031869985052 2587.39355056509 14 15 7
-1314.1972624051 -249.767267462188 2578.13216782716 14 15 7
-1273.22341834816 -250.557009009235 2575.13743768281 21 22 14
-1254.33877327324 -250.954443468256 2569.67702876485 18 19 11
-1277.61361861198 -250.599609216734 2559.94943426133 12 13 5
-1316.12494644146 -250.030452649344 2541.61717168947 13 14 6
-1291.90143849628 -255.144137216109 2857.09720759227 0 2 0
-1212.75660490266 -256.828501976086 2858.77435473429 14 17 10
-1209.92726592487 -256.949215098198 2851.89130055379 12 15 8
-1204.0792515933 -257.12965625361 2845.59059475546 9 12 5
-1182.13130381081 -257.6284596615 2842.41201499549 9 12 5
-1210.49804525053 -257.132997898667 2829.38593540112 10 13 6
-1212.70054533274 -257.154372160891 2821.49797597815 10 13 6
-1231.00052780928 -256.856449674415 2810.59401447771 14 17 10
-1230.18335584141 -256.937151578157 2803.32778769114 16 19 12
-1236.40823266154 -256.87792857101 2794.76924720081 16 19 12
-1261.7441641329 -256.438123995063 2782.8041497242 15 18 11
-1248.85561000269 -256.758579832546 2777.74600949698 12 15 8
-1254.07219849851 -256.718494725543 2769.45683417892 12 15 8
-1280.40748994127 -256.256451903952 2757.56532661568 13 16 9
-1265.50942189057 -256.617460235328 2752.78608588849 12 15 8
-1259.66313232326 -256.797940438724 2746.41792840137 12 15 8
-1285.99280079315 -256.333920469343 2734.74830900594 11 14 7
-1269.08670771305 -256.735979577841 2730.17991695187 15 18 11
-1266.25757760493 -256.856058087936 2723.28938081868 13 16 9
-1282.5289360541 -256.592156848606 2713.4088959582 12 15 8
-1308.85004334519 -256.125122416445 2702.07711378562 13 16 9
-1306.01894721943 -256.244347411925 2695.26433287072 13 16 9
-1295.14772656146 -256.525882399853 2689.61992603805 14 17 8
-1292.31808314894 -256.645419125127 2682.75003334586 15 18 7
-1297.52836303049 -256.602397220723 2674.7198986227 16 19 8
-1298.71840785888 -256.640482744073 2667.27609273846 17 20 9
-1304.93235601456 -256.576609663017 2659.14967520489 16 19 8
-1298.08428049555 -256.777436851788 2652.80477420869 15 18 7
-1288.22326862719 -257.039715022071 2646.81607145104 19 22 11
-1287.40487566093 -257.118444472723 2639.60900816756 15 18 7
-1281.56403482864 -257.29939997489 2633.02738490125 16 19 8
-1258.64875621592 -257.828593578223 2628.51465250045 17 20 9
-1260.845624997 -257.846277932535 2620.85074577246 15 18 7
-1255.00824841747 -258.027903771694 2614.14233253908 17 20 9
-1267.24742051124 -257.839977564252 2605.32078558233 19 20 12
-1272.45615098728 -257.795342783025 2597.35293877682 17 18 10
-1291.72111840098 -257.462246103173 2587.87062744529 13 14 6
-1321.02387798048 -256.922175948783 2577.41777531187 14 15 7
-1291.08976839852 -257.597643894757 2573.29243108382 21 22 14
-1295.29160794205 -257.572308972466 2565.53916063935 18 19 11
-1301.50063601963 -257.505325455128 2557.60837654905 10 11 3
-1331.79852299362 -256.941455084566 2547.39621522024 17 18 10
-1259.67110600841 -263.245662714938 2856.51703192042 15 18 11
-1204.49586246763 -264.546558936717 2860.45246154907 14 17 10
-1222.80370405977 -264.202233378695 2849.29116262987 12 15 8
-1221.98641130206 -264.286369224838 2842.02596962558 11 14 7
-1222.17582738858 -264.347945715829 2834.55681669725 11 14 7
-1221.35904695128 -264.432101053428 2827.28090429619 10 13 6
-1241.67328161924 -264.040435253217 2815.96996745854 10 13 6
-1248.90462069621 -263.942724073298 2807.22488288298 10 13 6
-1225.95214009026 -264.525843706197 2804.10823163495 12 15 8
-1232.17773173083 -264.450845937498 2795.53869120975 14 17 10
-1228.34294584034 -264.603040236168 2788.81002152101 14 17 10
-1252.67355229614 -264.117771723354 2777.06783732262 12 15 8
-1234.75657558334 -264.5887269332 2772.82614234733 11 14 7
-1233.93962304885 -264.67257823739 2765.54795776013 11 14 7
-1258.26526098524 -264.185449927152 2754.01128220773 11 14 7
-1273.53679349491 -263.902936819317 2744.10995599988 11 14 7
-1286.7953421617 -263.665499142003 2734.61828949908 11 14 7
-1267.87683457795 -264.160377226083 2730.37671727258 14 17 10
-1264.04219497465 -264.312160327693 2723.64277168591 14 17 10
-1283.33091951627 -263.936175986288 2713.28732375192 15 18 11
-1300.60642244211 -263.605215642968 2703.34155895023 15 18 11
-1295.7653839749 -263.779313655826 2696.80904543589 15 18 11
-1281.87859334365 -264.16073089972 2691.58250344576 18 19 11
-1290.10544073462 -264.035827940905 2683.07618840805 17 18 10
-1285.26606794122 -264.210261234916 2676.46888980368 17 18 10
-1276.4080222553 -264.477177595341 2670.39330068071 16 17 9
-1310.75971498512 -263.750925507161 2658.36069244204 16 17 9
-1298.88664172083 -264.086895559833 2652.70554603898 17 18 10
-1272.9493111677 -264.74737625019 2648.83029612258 16 17 9
-1283.18288972012 -264.574787919097 2640.16150018257 18 19 11
-1279.35110559686 -264.726325911683 2633.31621572288 18 19 11
-1276.52434634968 -264.854733055492 2626.32407548582 18 19 11
-1264.65826680348 -265.192283079742 2620.40321868853 17 18 10
-1266.85475355479 -265.204674079099 2612.75992660427 17 18 10
-1260.01247544853 -265.426355833216 2606.16605060808 13 16 7
-1269.23892443792 -265.27540772807 2597.72796941939 12 15 6
-1327.66784282533 -263.98118510943 2583.94497539288 13 16 7
-1279.65530883895 -265.158779830612 2581.85440163739 14 17 8
-1302.9349254698 -264.67939339851 2572.07406304871 17 20 11
-1285.04917569458 -265.15774368201 2566.59464612787 15 18 9
-1296.2788703359 -264.957900307559 2558.14093370592 21 24 15
-1227.20175710858 -266.631821044283 2557.45749931643 15 18 9
-1187.98922349643 -272.447320520957 2871.3286517983 17 20 13
-1192.20736939504 -272.409071337781 2862.95193884748 14 17 10
-1221.5897449536 -271.73804893293 2849.52802488831 11 14 7
-1229.83138683606 -271.597563493009 2840.46022114012 12 15 8
-1206.87192274416 -272.242519139201 2837.55011396679 12 15 8
-1225.17710596134 -271.84826709047 2826.53699598229 9 12 5
-1231.40427318576 -271.757903777083 2817.92237462056 9 12 5
-1262.78653879404 -271.031837944035 2804.61125461862 10 13 6
-1268.00429455732 -270.965748379045 2796.31370481689 10 13 6
-1217.88562731121 -272.299799592563 2798.14447547232 11 14 7
-1210.02716285389 -272.56575021093 2792.10166320009 12 15 8
-1218.26556023912 -272.423890831596 2783.16214087368 13 16 9
-1225.49682702136 -272.307164375684 2774.44029896513 12 15 8
-1249.82619344266 -271.755694823873 2762.81766118792 12 15 8
-1239.95656862816 -272.072623055738 2757.10690317532 11 14 7
-1248.1909003954 -271.929201140803 2748.32795701424 11 14 7
-1278.54765171584 -271.221726582537 2735.96936422579 11 14 7
-1290.80023978666 -270.974412107338 2726.68724095835 13 16 9
-1284.95287710993 -271.188430487987 2720.33433838115 14 17 10
-1287.14934085827 -271.197184210821 2712.69585075993 14 17 10
-1274.26553469731 -271.5914071043 2707.37293806296 16 19 12
-1268.42045842741 -271.806001046706 2700.92073200453 16 19 12
-1273.6336696391 -271.73750121177 2692.80338698429 18 19 11
-1280.85635579169 -271.617139919451 2684.42080861494 18 19 11
-1281.04266445475 -271.676988840149 2677.07495949187 17 18 10
-1285.24895404048 -271.633452492832 2669.16730927074 16 17 9
-1312.56810135605 -270.995281260762 2658.12058090969 16 17 9
-1272.55800573989 -272.088727718263 2656.24129000196 17 18 10
-1259.68278653714 -272.484921604375 2650.58065293111 17 18 10
-1252.83777686332 -272.726147571349 2644.07255098734 20 21 13
-1270.1053622612 -272.345229169778 2634.48987172126 21 22 14
-1266.27447223859 -272.508468835803 2627.59707835497 20 21 13
-1269.47573923634 -272.489939541704 2619.83417996111 16 17 9
-1268.65890082535 -272.575144783182 2612.5594060667 15 16 8
-1256.79394805642 -272.946497286554 2606.54889162378 13 16 7
-1269.0342076651 -272.693292930534 2597.76425625313 13 16 7
-1303.36588577442 -271.866072025866 2586.6223012571 13 16 7
-1299.5346501357 -272.028439431404 2579.74395233225 15 18 9
-1283.65474090599 -272.504109728951 2574.09786433603 17 20 11
-1262.75706665651 -273.110969716209 2568.87242036705 17 20 11
-1236.02853428168 -273.934480237625 2556.6275429982 20 23 14
-1249.2684810732 -273.65282274879 2547.91038205145 13 16 7
-1209.30270555633 -279.587312150075 2851.99423826113 10 12 7
-1234.65755554903 -278.94877641549 2839.4937968577 14 16 11
-1212.70268876366 -279.628949070952 2836.40022015769 15 17 12
-1159.55040405016 -281.181398790023 2839.21763583671 11 13 8
-1247.29983752299 -278.798295486997 2814.88643826474 11 13 8
-1235.41170816298 -279.198138723198 2809.75115413435 12 14 9
-1310.06281071364 -277.175553146511 2788.51760470093 11 13 8
-1262.95577620691 -278.561344221537 2789.91226631331 9 11 6
-1240.0020702481 -279.271978205482 2786.70659101053 11 13 8
-1202.96705741421 -280.378972986965 2785.87002191931 14 16 11
-1238.36720787828 -279.452576395476 2772.1924397635 13 16 9
-1255.65618151433 -279.033703298021 2761.8145868859 12 15 8
-1245.78537054466 -279.378389651899 2756.12038339287 10 13 6
-1229.88134406679 -279.893448790979 2751.37458829751 10 13 6
-1243.14479382197 -279.586883568604 2741.76559411796 10 13 6
-1291.60351584021 -278.286428237378 2726.55883695615 11 14 7
-1297.82191666507 -278.176562475598 2718.29845229659 11 14 7
-1281.91916912996 -278.691650140909 2713.51196584642 12 15 8
-1275.06727405288 -278.951374470515 2707.25310719737 13 16 9
-1244.08779540375 -279.894565398373 2704.57946051149 15 18 11
-1260.36104141804 -279.5000400648 2694.76545715943 15 18 11
-1280.65291075008 -278.99064950128 2684.45503891157 17 18 10
-1285.8650361637 -278.908281286111 2676.39502144002 17 18 10
-1284.04077624986 -279.025534224421 2669.34187278718 18 19 11
-1297.29201110845 -278.714051520347 2660.21555909456 19 20 12
-1271.3489542929 -279.517398544366 2656.41071248386 20 21 13
-1266.5116351412 -279.72069256271 2649.69216202488 20 21 13
-1258.6608733937 -280.01001876415 2643.33252705678 18 19 11
-1258.84897419755 -280.070254775152 2635.91621923569 17 18 10
-1247.98594710427 -280.445968456149 2629.85978247186 16 17 9
-1259.22528446842 -280.190380607325 2621.07972837247 15 16 8
-1268.45424165365 -279.991634873045 2612.59493961391 15 16 8
-1300.78411983705 -279.130987881258 2601.50050220247 12 15 6
-1311.01360553986 -278.90191546997 2593.06164204721 13 16 7
-1307.18094639723 -279.075529453767 2586.21752808837 15 18 9
-1266.1921831875 -280.315605788498 2583.32235530621 16 19 10
-1271.40089508414 -280.23051008645 2575.38935368023 18 21 12
-1212.34637588482 -281.992482958854 2574.00327379659 14 17 8
-1267.76015007376 -280.463652885401 2560.98997793724 22 25 16
-1258.91239608039 -280.782506667584 2554.44706262522 16 19 10
-1197.86351118801 -282.606035309272 2552.72528533856 27 30 21
-1173.85869180719 -288.209437312002 2859.12306891265 11 13 8
-1195.19120055484 -287.627113687772 2847.32732908598 14 16 11
-1174.24387258771 -288.3380466693 2843.93077884727 15 17 12
-1136.18825461693 -289.574201225082 2843.72682561692 13 15 10
-1198.78418727719 -287.725910470289 2824.12869115745 12 14 9
-1249.2950547209 -286.245337601003 2807.13602658055 12 14 9
-1266.59015327492 -285.782405629792 2796.56609771607 11 13 8
-1253.69533568453 -286.246575097914 2791.59844658238 10 12 7
-1239.79599359792 -286.742258114161 2786.73976916233 11 13 8
-1228.91722732294 -287.145591673177 2781.26881804495 12 15 8
-1246.20922420319 -286.681413814798 2770.82145107369 12 15 8
-1250.42142004815 -286.619661735563 2762.71184721998 11 14 7
-1240.54994512213 -286.992332128934 2757.00422154662 10 13 6
-1232.69189888932 -287.303261465142 2750.90609371706 10 13 6
-1236.90409862415 -287.241402252889 2742.78712807625 10 13 6
-1265.25281168697 -286.432552881489 2730.80215138288 11 14 7
-1291.58633334739 -285.684648314413 2719.28674937044 11 14 7
-1301.82723483967 -285.434019170451 2710.41554178725 10 13 6
-1267.82485066452 -286.554844718747 2708.36297425677 12 15 8
-1241.87074405038 -287.427512907192 2704.91556032649 13 16 9
-1227.98463962561 -287.926543243867 2699.54523991751 14 17 10
-1264.36485390468 -286.86362657976 2686.81811533667 16 17 9
-1267.56791328636 -286.830989840313 2679.00031185749 17 18 10
-1279.81700617973 -286.516456944826 2669.93629098345 17 18 10
-1269.95263238674 -286.89024074953 2663.95925772483 18 19 11
-1272.14965425826 -286.888339631778 2656.31039706348 20 21 13
-1257.26270276225 -287.41937052988 2650.91412573189 16 17 9
-1242.56681704152 -288.012008849205 2637.97486792151 13 14 6
-1291.98805562317 -286.532924985677 2624.44958853494 13 14 6
-1270.07122161949 -287.284559382981 2619.78350407095 13 14 6
-1284.3231739904 -286.904013007117 2610.73732521385 14 15 7
-1348.98135965103 -285.006028044575 2588.8088809819 14 17 8
-1303.96595469715 -286.483311248771 2586.58282515825 16 19 10
-1241.88368492481 -288.498951527669 2585.934872289 17 20 11
-1245.27527442372 -288.524096145025 2570.67729276549 9 12 3
-1252.49373387557 -288.362414961749 2562.51359940791 25 28 19
-1245.6542617437 -288.643344179052 2555.73711606088 15 18 9
-1241.82797031637 -288.829414979726 2548.64007934693 23 26 17
-1171.63422589442 -295.916836849303 2859.56164224193 14 16 11
-1163.77307690374 -296.249957448446 2853.56095366948 12 14 9
-1136.7861935247 -297.2208493215 2851.26440656617 12 14 9
-1136.98136718138 -297.286539460631 2843.56581093212 13 15 10
-1192.53592241209 -295.504483906622 2825.31287349757 12 14 9
-1190.71458201746 -295.636081544436 2818.13954247467 10 12 7
-1233.17501443796 -294.287509973121 2802.75076482783 11 13 8
-1255.50287107877 -293.610247238597 2791.26348141973 12 14 9
-1245.62755257937 -294.009926394624 2785.68640076773 9 11 6
-1224.68561753523 -294.780828703479 2782.01468597142 7 9 4
-1252.04037821507 -293.933444351849 2769.80070089743 9 12 5
-1269.33091872273 -293.422318988202 2759.46066262803 9 12 5
-1220.22414835695 -295.139837344006 2760.4394221661 9 12 5
-1236.5087779214 -294.662365347424 2750.26957197741 9 12 5
-1239.7152145821 -294.623785564149 2742.32615391736 10 13 6
-1232.86350023658 -294.923515691661 2736.01727650827 14 17 10
-1295.59168629264 -292.947722912024 2711.38712304421 11 14 7
-1299.79892884636 -292.873335399645 2703.47535313777 12 15 8
-1271.82977653909 -293.884775007442 2700.41757962834 13 16 9
-1272.01651771197 -293.946434612702 2693.05288234975 17 18 12
-1240.03160323973 -295.095555036049 2690.34587756716 16 17 11
-1255.29990902364 -294.64762565378 2680.74827423571 15 16 10
-1252.47248022211 -294.811463979401 2673.7535840158 13 14 8
-1264.72246649731 -294.464545439048 2664.68009510799 13 14 8
-1248.8285228581 -295.071102104805 2659.44198475143 16 17 11
-1264.09251198688 -294.621171369927 2650.02456494276 12 13 7
-1247.19604922451 -295.262389435106 2644.82299624195 12 13 7
-1249.3944915887 -295.255509792782 2637.12396336259 13 14 8
-1252.59767270325 -295.214217704713 2629.310695588 13 14 8
-1279.91417840821 -294.352147361423 2618.60761614199 13 14 8
-1261.01233149292 -295.062461092401 2613.49289385912 13 14 8
-1278.27860218205 -294.541063202769 2604.11243402057 12 15 6
-1285.4972342972 -294.361329108758 2595.95205141977 13 16 7
-1313.80857268791 -293.46132062716 2585.5163612291 16 19 10
-1249.71202597576 -295.715580480615 2585.11146919071 17 20 11
-1178.59390507456 -298.212792135142 2585.08805026083 18 21 12
-1254.2959624299 -295.758525014389 2562.35121460127 22 25 16
-1263.52194960973 -295.508737631186 2554.0373085342 16 19 10
-1223.54836837524 -296.944560836533 2550.36329131506 15 18 9
-1203.65991504683 -297.693304100271 2544.64981613568 21 24 15
-1174.63651176804 -303.518933613097 2851.39317414568 15 18 11
-1134.55905828566 -305.035572496789 2851.69207055643 15 18 11
-1099.52067094451 -306.372528598838 2850.79919425784 13 16 9
-1131.92982292847 -305.277125341877 2836.85852529793 12 15 8
-1187.4853383191 -303.344065536237 2818.739523011 11 14 7
-1175.59937581156 -303.845542724358 2813.41042407014 10 13 6
-1223.09327417736 -302.200035698687 2797.17464566011 9 12 5
-1234.35236473513 -301.863474343163 2787.70951144052 9 12 5
-1224.47844522408 -302.291704893311 2782.04709718953 9 12 5
-1199.51286103073 -303.267345227535 2778.96240091849 10 13 6
-1243.15594691964 -301.82610551433 2756.55909055582 10 13 6
-1227.24862607786 -302.474058191229 2751.80868455627 10 13 6
-1262.64523702074 -301.25806953071 2738.57105602211 14 17 10
-1288.98454485064 -300.369655321861 2726.98037889335 15 18 11
-1263.01946765992 -301.383523572572 2723.810123348 13 16 9
-1306.63661335919 -299.932541942608 2702.4311055781 14 17 10
-1340.00492292259 -298.783644030113 2690.1781607919 15 18 11
-1311.02717428079 -299.908504487113 2687.30055679175 13 16 9
-1262.95031470943 -301.73234945332 2687.03015599288 12 15 8
-1210.85846322121 -303.705258844962 2687.06819711267 11 14 7
-1256.28811891129 -302.11392477417 2673.2263581584 9 12 5
-1239.38720300289 -302.801462362612 2668.14909949408 9 12 5
-1241.58657198095 -302.790207944478 2660.41854863233 11 14 7
-1240.77063919946 -302.889263609712 2653.09350808144 13 16 9
-1246.99002004324 -302.730206195577 2644.85696388349 15 18 11
-1230.09464642785 -303.419054247753 2639.5616861338 16 19 12
-1224.25532112997 -303.702565650088 2632.81071390552 15 18 11
-1240.52289276021 -303.173827516166 2623.36259250777 11 14 7
-1260.80722208236 -302.496461911575 2613.52722262833 10 13 4
-1277.07015778375 -301.965889370973 2604.26225903421 11 14 3
-1295.33998151546 -301.360514601275 2594.85779955177 12 15 6
-1284.47590803393 -301.827658811158 2588.74408820515 19 22 15
-1295.71156283625 -301.480296742863 2580.20650146801 19 22 15
-1259.7389740598 -302.874195521842 2576.64682621002 15 18 11
-1214.73236925367 -304.603275749139 2573.80646987643 19 21 16
-1219.32373424278 -304.637607743413 2550.77445467635 19 22 13
-1106.56995050035 -313.633484108618 2880.37661876348 13 16 9
-1095.69047813086 -314.129644206717 2874.83359427705 14 17 10
-1131.12944454282 -312.832787532089 2860.02739712913 15 18 11
-1140.38639008993 -312.548568603267 2850.54050076471 15 18 11
-1150.64880885646 -312.2249079727 2840.9067391495 13 16 9
-1188.09039753096 -310.846039606746 2826.1448328488 12 15 8
-1180.22924801394 -311.224264381254 2820.09573545784 11 14 7
-1175.38866300376 -311.485507603372 2813.44260466969 10 13 6
-1191.6850478065 -310.925127878687 2802.90233897949 10 13 6
-1203.95366778108 -310.520588431084 2793.17177422981 9 12 5
-1204.14446797816 -310.585594383205 2785.64484317462 9 12 5
-1236.72479569474 -309.460187125096 2765.05557437247 11 14 7
-1298.28765514489 -307.130058920068 2747.2333930291 11 14 7
-1230.05955442296 -309.86315556713 2751.33850912369 11 14 7
-1257.41094091955 -308.866253876535 2739.42626381138 14 17 10
-1311.91842495371 -306.806393284113 2723.28661979381 13 16 9
-1302.22803314952 -307.324027000374 2710.35531274928 15 18 11
-1302.41252787917 -307.38615387664 2703.07791253474 15 18 11
-1322.7100928498 -306.659900343597 2692.77773975426 14 17 10
-1325.91004947898 -306.6030451387 2685.10720651443 13 16 9
-1290.89997579301 -308.045367056458 2682.98527600123 12 15 8
-1283.04198724956 -308.423187976816 2676.81307044012 11 14 7
-1258.0935468758 -309.47289454269 2672.97880769506 9 12 5
-1250.2390177668 -309.851621458182 2666.67042266403 10 13 6
-1219.2649209669 -311.140289382373 2663.4154880758 11 14 7
-1234.53315031691 -310.609861608109 2653.91877725363 13 16 9
-1234.72274377346 -310.672550658172 2646.4414975099 14 17 10
-1257.023113377 -309.863478714532 2636.17935410426 15 18 11
-1231.08224921922 -310.956116117976 2631.97819310329 14 17 10
-1233.28186661699 -310.939181012279 2624.24403262289 12 15 8
-1279.69358310266 -309.175742059064 2611.31281055222 11 14 5
-1315.04676065983 -307.846866170678 2599.90324359236 11 14 3
-1318.2451707894 -307.787768662572 2592.29556052731 13 16 7
