ply
format ascii 1.0
comment KinectMotionCapture
element vertex 753
property float x
property float y
property float z
property uchar red
property uchar green
property uchar blue
end_header
-394.939187901971 317.901660100113 1622.37412845411 143 148 142
-404.829920823011 317.8004378529 1617.10886109391 146 151 145
-415.104390347887 317.417949361807 1613.81230111269 154 159 153
24.1547949501049 293.005076326165 1993.19233295097 175 178 187
13.5027969774495 291.984158277202 1994.88901669261 145 148 153
2.55253847633408 290.819021944241 1997.55654617551 141 145 148
-5.58555222464752 290.958164190259 1991.50167811333 146 148 147
-14.0597781542804 290.950797264774 1986.41317555544 153 155 154
-21.64251123785 291.375126648421 1978.41148761412 146 148 147
-30.1707359412238 291.364110663456 1973.31625593817 114 115 120
-37.8237101240226 291.78390556375 1965.30581426432 115 115 123
-44.6255232901158 292.633066292937 1954.3771601704 140 136 135
-51.7767218865974 293.334841371738 1944.41298007337 110 109 107
-58.9777964898839 294.033379340455 1934.44258427036 249 253 255
-63.0531963193384 296.307050751167 1913.77282725614 248 255 255
-70.0979037262239 297.140558556579 1902.81390261836 152 161 168
-82.297692938198 295.393489749966 1909.35801921566 97 103 99
-95.859160283301 292.933652078527 1920.77299951198 114 117 110
-108.240429568291 291.049000827466 1928.30275815446 123 122 117
-120.024172249462 289.452340060987 1933.89071170675 125 126 121
-130.409145834155 288.570007320869 1934.6126664557 125 133 135
-140.514934426609 287.830346667665 1934.36115875236 124 135 137
-150.082493165939 287.374931320683 1932.16069620644 130 134 137
-162.037136497214 285.640672770617 1938.735371825 132 133 135
-174.211942624087 283.766666075621 1946.29086781696 133 134 136
-184.267107511448 283.028707527078 1946.04567317031 137 138 140
-192.523542409051 283.281347391601 1938.9680504619 140 141 143
-201.574931162708 283.107547705733 1934.81588705741 145 146 148
-213.40482452802 281.378996862275 1941.40611570317 148 149 151
-224.696427154795 279.934665342693 1946.0473971729 150 151 153
-234.237773936326 279.478020817651 1943.8499686926 151 152 154
-242.571459022703 279.724009962095 1936.76296340051 161 162 164
-249.497614525552 280.810903844533 1923.80255159114 162 163 165
-255.777339167942 282.314389819753 1907.89841188773 161 162 164
-261.200182157661 284.373154413663 1888.0689952495 156 160 161
-268.583659569028 285.30486077859 1876.0596081486 158 162 163
-277.633807034941 285.253249488498 1870.89935050377 153 157 158
-288.067108337676 284.361387998608 1871.61529933284 151 155 156
-297.818802903913 283.888446586093 1869.39166360984 150 154 155
-307.798444702556 283.275141670961 1868.14787842907 151 155 156
-315.8118788138 283.914315600968 1858.07650156392 150 154 155
-325.386471698529 283.576470487007 1854.86692421427 150 154 155
-333.267356723689 284.348616621954 1843.80381114694 152 156 157
-342.677019274014 284.145749365995 1839.60677357039 158 162 163
-350.441547615679 285.049659494215 1827.55014703529 160 164 165
-359.497258495552 285.119116296136 1821.38094891383 161 165 166
-365.545029340567 287.259491912385 1800.46540268714 162 166 167
-368.706515913605 291.463454227986 1764.78834574408 159 163 164
-365.951293381852 299.929370582383 1698.5974924137 163 167 166
-363.748247587216 308.234927601844 1633.34632062724 80 84 83
-371.860298023369 309.365518328026 1619.23011396886 79 83 82
-380.98804276796 309.804214258108 1610.02765250553 118 123 119
-391.649510887728 309.141918929189 1608.69890844531 135 140 134
-402.311915866969 308.478966695023 1607.37004920051 118 123 117
-413.698305026648 307.267893293442 1609.98351339796 129 134 128
27.9834385510314 284.62680132957 1983.61459713852 169 171 186
17.6198007400257 283.754425292486 1984.33894797653 144 146 158
6.01300425783369 282.313395353563 1988.94088642191 132 135 142
-2.14867982663502 282.436972493257 1982.88335530385 104 108 107
-11.2618243153015 282.133003454966 1979.73127477454 99 103 102
-19.4722867874153 282.253321322041 1973.66742471651 108 112 111
-28.6180835595673 281.946946177718 1970.51151598039 138 141 146
-36.5776128676913 282.205391611145 1963.47093004551 142 145 152
-44.2740508417856 282.60276901723 1955.45512338313 113 119 109
-52.5981776697086 282.715427757133 1949.37710885552 112 114 101
-60.3676255494605 283.108004707717 1941.35220363037 244 252 254
-69.441813517491 287.119374902828 1902.92216922812 176 190 190
-82.4936992007042 284.972174408795 1912.38430451922 97 107 96
-95.4880957851352 282.828250609943 1921.85384574966 118 124 110
-107.868472297299 280.967751634318 1929.38341193202 122 122 114
-119.100184854996 279.669712545934 1933.0240949742 126 127 122
-128.670360195603 279.211592313262 1930.82331301512 125 133 135
-139.057316802509 278.333968236932 1931.54476762578 124 135 137
-149.435182729942 277.456448015409 1932.26759669475 130 135 138
-162.185425968468 275.325567350016 1941.76733220197 133 134 136
-173.830183285739 273.75436351835 1947.37256326606 134 135 137
-183.105306112101 273.435837758532 1944.20054740116 138 139 141
-192.649234779681 272.977356531147 1942.00280155363 141 142 144
-201.692321034354 272.795393679255 1937.8514554806 146 147 149
-214.269461933228 270.67318410369 1947.37301057017 148 149 151
-224.552365384252 269.799113117689 1948.1074410426 147 148 150
-234.334275136914 269.20151042274 1946.88829030095 149 150 152
-241.686859380969 269.983274167178 1935.89108072018 163 164 166
-248.13324435952 271.312556541323 1920.97452891802 164 165 167
-253.230406987815 273.462667771267 1900.17758733845 160 161 163
-259.846772086082 274.780733241958 1885.23985256157 155 159 160
-269.095142602791 274.583005105722 1881.06292974358 156 160 161
-278.590651521888 274.246644623824 1877.86321769558 152 156 157
-287.871377126225 274.046019172117 1873.68226478392 151 155 156
-296.721250634526 274.117632477594 1867.5389885392 151 155 156
-306.485234816569 273.640297457274 1865.31407098396 152 156 157
-314.943207908518 273.981065844685 1857.20313805012 152 156 157
-323.440149414067 274.319025752326 1849.08758975341 150 154 155
-331.335934225707 275.062601171446 1838.02269252078 149 153 154
-340.972453656238 274.714244043838 1834.80565505607 157 161 162
-349.372976259692 275.179619596858 1825.69387635683 161 165 166
-356.791486178613 276.320112296123 1811.66419337834 162 166 167
-362.66076872374 278.53965313015 1789.76302585928 168 172 173
-366.246062461342 282.37558317833 1756.04942368387 166 170 171
-362.321152355731 291.471368586855 1683.95651885196 161 165 164
-362.286949586897 298.112275271032 1629.52411069295 94 98 97
-370.024634591807 299.476299997326 1613.43863369065 106 110 109
-379.356840417658 299.757256414666 1605.21899946146 102 107 103
-389.473310937427 299.49735727378 1600.93390662037 95 100 94
-400.341565212462 298.698432908113 1600.58740377638 123 128 122
-411.74809852169 297.496763977115 1603.19808906799 138 143 137
-429.550703180829 291.472163593298 1641.30290224644 181 186 179
27.0358832569764 274.095477320805 1988.56275746635 155 154 172
18.8967278792442 274.206574397625 1982.5080706635 132 134 147
9.47629324250765 273.757781975646 1980.32571062581 115 118 127
0.980624392896035 273.726503885516 1975.23459508748 122 126 125
-8.46178008862064 273.276015751258 1973.04973807738 121 127 125
-17.9109396978403 272.825035050516 1970.8637990957 109 115 113
-26.7621866576304 272.651115413175 1966.73661251975 91 96 100
-33.8321916201825 273.308224823028 1956.78268253367 107 111 120
-41.2490975671112 273.823720742036 1947.79352138788 120 134 135
-50.7719143731673 273.367393214882 1945.5986447729 181 198 205
-70.5042608282898 276.269482111725 1908.86475801798 220 247 255
-81.8401931854005 274.979104585118 1912.49217460014 108 128 126
-94.2747219064584 273.139733988983 1920.01516753488 118 130 120
-106.662408874841 271.302839842701 1927.54399952178 126 125 120
-117.900695341982 270.017548198058 1931.18358834025 133 132 130
-128.021993955462 269.281888774437 1930.93037480963 127 132 135
-137.869309224531 268.682986037935 1929.70306526982 124 134 133
-149.590658971127 267.126402124696 1935.29869955051 135 139 140
-161.805478025669 265.29860704264 1942.84884020027 137 138 140
-173.186969462769 263.882531017322 1947.47882966805 138 139 141
-181.943239857679 263.830649726188 1942.35524685533 143 144 146
-191.749361252917 263.232609471204 1941.13307579612 145 146 148
-201.811146312816 262.498170844363 1940.88704572149 149 150 152
-214.382482378313 260.405923416257 1950.4092463157 141 142 144
-224.409305230814 259.672965555285 1950.1675754183 152 153 155
-233.202418424892 259.616975361718 1945.0394056627 155 156 158
-240.072463328729 260.641391066729 1932.08616065843 161 162 164
-245.324690229435 262.607165488536 1912.278040517 162 163 165
-251.632364782073 264.026247744977 1896.37087537296 160 161 163
-258.257434789248 265.305267710107 1881.43215709987 159 163 164
-267.748946073445 264.963727181003 1878.23295757454 158 162 163
-277.022826725898 264.755505157159 1874.0528788777 154 158 159
-286.768403998145 264.277133041524 1871.83026112713 152 156 157
-295.623132795316 264.334429679265 1865.68617640476 152 156 157
-305.171204514969 263.987556486113 1862.48017278359 151 155 156
-313.198544822346 264.57606356049 1852.406953668 153 157 158
-321.491904716035 265.02745280917 1843.30858507382 150 154 155
-330.043307831676 265.342115431848 1835.18630164272 148 152 153
-340.109751227752 264.720891869083 1833.93170498923 157 161 162
-347.887602388863 265.563365093208 1821.87357763693 163 167 168
-354.493351501417 267.199288462546 1803.91302904153 166 170 171
-360.989264814092 268.961780128177 1784.95792662458 162 166 167
-364.58281368493 272.706824600125 1751.24353360127 163 167 168
-364.408978289948 279.089213271636 1697.83715893343 157 161 160
-361.213809280886 287.701804217317 1627.6700736674 86 90 89
-369.722535975733 288.495894948315 1615.52086478294 91 95 94
-379.237910185489 288.625960257741 1608.28645668688 135 140 136
-389.532760813282 288.226284766392 1604.98715825712 149 154 148
-399.655632512198 287.956900060435 1600.70129156662 151 156 150
-411.063450134003 286.765839583767 1603.31178864662 148 153 147
30.9675827837326 262.117231242642 2009.24013818431 193 190 209
27.6801174671268 264.27566813155 1988.66901420509 147 145 166
18.9095629208793 264.098824064235 1984.55166499794 133 134 152
10.7482659543405 264.194356435208 1978.49425604481 117 119 131
1.62628819765276 263.87808925627 1975.34110556258 112 118 116
-7.50790304600835 263.560954424825 1972.18643319432 118 124 120
-16.9598984936272 263.106510848215 1970.00038970488 118 124 122
-23.997130799531 263.740833771321 1960.05060956 98 106 109
-29.8845488906245 264.915858894701 1946.21190684998 97 104 112
-36.140672963713 265.95063114847 1933.33548853106 102 120 142
-38.3383700338997 268.880461249735 1906.85172662314 170 195 225
-69.2768262822467 266.532291816412 1907.02796267175 202 236 255
-81.1869541060792 264.984614284569 1912.60001510981 106 130 140
-92.7798659878791 263.573702887485 1917.20360695513 114 128 128
-105.177499485568 261.760392439155 1924.73113556715 130 128 129
-116.149235253522 260.62222606125 1927.3959137897 135 131 132
-127.100998716062 259.485003561772 1930.06318195222 128 132 133
-138.032732700094 258.348758444069 1932.73294710134 125 134 131
-149.212238063463 257.079277879824 1936.38007008487 133 137 136
-160.896236706993 255.54334843705 1941.9803111696 137 138 140
-172.019437075538 254.276648574534 1945.63445336073 139 140 142
-180.521065721567 254.346675140043 1939.53439992591 144 145 147
-190.849533043292 253.480991472192 1940.26336247768 146 147 149
-201.422908816072 252.482252238873 1941.96979939793 148 149 151
-213.490666803134 250.685833418694 1949.53820977123 142 143 145
-222.525463594968 250.486422273296 1945.38794412361 155 156 158
-231.085604354136 250.55105156388 1939.28084320526 157 158 160
-238.456918329978 251.276349227984 1928.28144496611 161 162 164
-245.161443493531 252.394960221136 1914.34092068875 161 162 164
-251.699388129035 253.641099341777 1899.4131617375 159 160 162
-258.07895172474 255.01415214827 1883.49690621406 159 163 164
-266.867206769546 255.062756194821 1877.36138018337 158 162 163
-276.833528374684 254.450628324522 1876.1192541843 154 158 159
-286.11939403921 254.23265459669 1871.93770550957 152 156 157
-295.198315975543 254.144511613991 1866.77395318585 149 153 154
-304.078121118747 254.18578783514 1860.62678127295 148 152 153
-313.424590897036 253.962699111395 1856.43768303327 150 154 155
-321.489733404749 254.523535481329 1846.35981929637 150 154 155
-329.81855010711 254.950033720825 1837.25733172042 149 153 154
-338.191789841547 255.373281398984 1828.14906870419 159 163 164
-345.776074373782 256.314931796308 1815.10714904507 165 169 170
-352.398191646575 257.903079804464 1797.14468361475 162 166 167
-358.910339292003 259.615176858034 1778.18768796147 161 165 166
-364.119422270804 262.229741186613 1752.33688050341 168 172 173
-361.958878621091 269.765078578148 1689.09756697415 159 163 162
-360.529681403672 277.019579973336 1627.78358003929 109 113 112
-369.613368653908 277.395209040625 1618.58678277513 122 126 125
-379.309559534899 277.379910560919 1612.33812000477 159 164 160
-389.407119406418 277.104255034265 1608.05542859467 151 156 150
-398.417888480433 277.600221094728 1597.85972708643 126 131 125
-406.934392881684 278.478691376835 1584.70163828146 161 166 160
29.599886278818 254.992416786638 1984.90204845372 147 145 166
19.8701212797234 254.403481147975 1983.68938224466 138 140 155
12.3340789469315 254.752937122831 1975.69371820945 126 128 140
1.96079528783488 253.894578526962 1976.41682838821 116 122 120
-5.93767661196365 254.106719669036 1969.38422426636 117 123 119
-14.7865889972554 253.915805984428 1965.25713351599 120 129 124
-19.7158734264857 255.458450631455 1948.5137305463 123 130 136
-26.5338899564458 256.195943752233 1937.58334844103 119 126 136
-32.8122976805674 257.196058505666 1924.70400025475 63 91 154
-41.2203184150268 257.261330802771 1918.61588132282 31 67 155
-71.2031505135799 255.325741139016 1915.88698553828 61 96 180
-81.1022752734123 254.724194784712 1914.65321744219 101 126 156
-92.1283093759204 253.593826924497 1917.31119901648 110 127 137
-103.134540836133 252.464272689808 1919.9716497008 134 133 141
-115.776392159084 250.544825659347 1928.47666797713 132 126 136
-127.273003516078 249.154860262074 1933.09222239808 129 129 131
-138.468285977371 247.89793154378 1936.73734343822 131 137 127
-148.298760835898 247.298877333141 1935.51213588099 134 139 135
-159.191430413767 246.174825698556 1938.18674392595 138 139 141
-169.801601427771 245.182611142738 1939.88857183512 143 144 146
-180.137336929988 244.321807082393 1940.61637424193 149 150 152
-189.692459108753 243.853238883807 1938.4174983428 150 151 153
-200.780936497117 242.600874679443 1942.07593600413 148 149 151
-211.843830079182 241.349749612238 1945.73732284128 154 155 157
-222.134225003977 240.490313594886 1946.47102015014 152 153 155
-230.198501580638 240.801071491432 1938.4095375142 153 154 156
-237.083879659745 241.758278473976 1925.45455601208 161 162 164
-243.55364917008 242.97035937176 1910.53539460451 161 162 164
-250.57671279881 243.918317217027 1897.56325511706 159 160 162
-257.194972068302 245.120490548472 1882.62558915664 157 161 162
-265.286987225789 245.54251288362 1873.55242453193 157 161 162
-275.724712678901 244.671212595052 1874.267767106 155 159 160
-285.243226920266 244.315559467705 1871.06523493628 152 156 157
-294.324575778405 244.215974381824 1865.90120987944 147 151 152
-302.540638513432 244.628633484505 1856.81282977689 148 152 153
-311.897794844158 244.39635355364 1852.62242212337 150 154 155
-320.62248660264 244.547107943684 1845.48663203881 151 155 156
-329.594760763212 244.567296563675 1839.32821634139 150 154 155
-338.172793069601 244.840963047681 1831.20247743785 158 162 163
-346.164289284705 245.494800170839 1820.12587231051 163 167 168
-352.153040560492 247.419725365748 1799.21825875815 171 175 176
-358.860278368296 248.955449341989 1781.24530884511 161 165 166
-362.654456210092 252.392555722462 1748.51437655453 169 173 174
-360.098988421644 260.009481763645 1683.30899843458 153 157 156
-359.650819957562 266.462466952574 1626.91337143518 100 104 103
-368.73632494112 266.815942730879 1617.71640566855 109 113 112
-378.434834718737 266.786521531164 1611.46749070528 93 98 94
-388.16138505445 266.754863566634 1605.21484206784 90 95 89
-396.99508356723 267.351762849147 1594.03328501657 134 139 133
41.2596795910234 246.276149819747 1982.34908704441 205 207 220
32.4781540816217 246.08137698665 1978.23041594069 136 137 155
23.3624489773026 245.753863584181 1975.07807786493 124 123 137
14.8621059302243 245.688275932362 1969.9864693674 132 132 142
4.78309253902953 244.964952950251 1969.73826002621 121 125 124
-3.44155219781039 245.028111524459 1963.6730309011 116 121 117
-11.388947332829 245.220321674656 1956.63413366754 116 122 120
-17.2488836616982 246.325341330035 1942.79904487589 121 125 134
-25.2827473721504 246.511893630221 1935.74937177506 119 122 137
-33.0529049916077 246.826577488721 1927.72458310729 65 99 171
-42.0421596443379 246.617705145173 1923.58002576512 33 75 177
-71.4115505443644 244.945382056052 1918.91161631599 75 98 192
-80.7343997000802 244.602940445058 1915.73346720014 98 117 134
-92.0403270620367 243.35359494866 1919.36476044066 118 133 130
-102.205562895092 242.622569381027 1919.10581133296 129 130 135
-115.40442131911 240.471433302789 1929.55754302605 130 128 141
-126.352759897484 239.355301894278 1932.22518305123 131 130 138
-138.9055590029 237.467537015901 1940.74123108402 134 137 126
-149.529654950814 236.482886052075 1942.44130132531 136 141 135
-160.40449060386 235.370302480115 1945.11810473793 135 139 138
-169.42058947013 235.156644313194 1940.9702099999 136 140 139
-179.49435855534 234.429056814671 1940.72266634755 146 150 149
-189.049636300464 233.95728356833 1938.52377947504 149 153 152
-199.884659882592 232.845862643362 1941.20554813695 148 152 151
-209.944019903103 232.118150450482 1940.96004324781 148 152 153
-220.248543210968 231.262888256494 1941.69172615763 152 156 157
-228.571875259914 231.426072681293 1934.60599065795 157 161 162
-235.710087037284 232.222428676668 1922.6278079673 158 162 163
-241.944787019357 233.522475171942 1906.73006309469 156 160 161
-248.738523830022 234.563527212787 1892.77860997992 156 160 161
-256.310915958176 235.219906044913 1881.75429987141 158 162 163
-264.637552941885 235.493134389862 1873.65993477172 159 163 164
-275.536651500498 234.374289582264 1876.33396707465 152 156 157
-285.049869279448 234.013061372939 1873.1321105539 150 154 155
-293.675633076188 234.154530549754 1866.00869054639 152 156 157
-301.224158130427 234.922388207859 1853.97937823389 153 157 158
-310.369840563969 234.806700543349 1848.80736713274 150 154 155
-319.755071090642 234.563703657334 1844.61348420826 148 152 153
-328.515531667188 234.695039099202 1837.47328152577 147 151 152
-337.309587129624 234.823876020873 1830.32889297989 153 157 158
-345.51118930201 235.324956652606 1820.23415724819 158 162 163
-351.908793266832 236.945632516145 1801.29193699226 163 167 168
-357.795004090159 238.933594616836 1779.38902650978 165 169 170
-360.987853595599 242.656288340873 1743.70932306188 170 174 175
-357.049900992138 250.965228637848 1671.62011798519 140 144 145
-357.600761022885 256.64302314211 1620.14053533261 82 86 87
-366.704337027767 256.973163402109 1610.94161613135 101 105 104
-376.231658340822 257.052509998672 1603.70585067335 124 129 125
-385.792443488136 257.129157396106 1596.46591623492 119 124 120
-394.280614450361 257.943917436003 1583.31153105429 104 109 103
-413.551407063115 251.480733710189 1628.28832800567 162 167 160
47.0565138664016 238.498134949752 1966.96878590199 174 174 184
39.5098981063571 238.808097911648 1958.97190636901 135 135 147
28.4407931504604 237.698397290232 1961.62445852899 131 131 141
18.9614411387378 237.233133170258 1959.43502959759 114 115 120
8.85276648417155 236.510279622027 1959.18311746985 126 128 125
0.599331952366722 236.557566901995 1953.11409707627 123 128 124
-8.90631926396801 236.090179455304 1950.92139175132 122 126 125
-15.3865957155204 236.902410831248 1939.02527369241 118 122 131
-23.7309148798022 236.94357976645 1932.94492754645 118 121 136
-30.0188597848889 237.876678372829 1920.06480592975 73 105 192
-69.8990227392238 235.342135107732 1916.10235908981 100 114 219
-79.7986156528838 234.739543652075 1914.86853532313 111 123 149
-91.1082263470278 233.503159606874 1918.49909450331 121 132 134
-102.113600705089 232.394535384589 1921.15983729921 123 126 133
-115.862029053039 230.023110706737 1933.55894023339 127 126 140
-126.253269461123 229.170446353909 1934.27979452045 137 136 144
-138.260935651976 227.561722799218 1940.84776287641 138 141 132
-148.349372938072 226.836515433781 1940.59838245131 137 142 136
-159.23053062406 225.73407007897 1943.27437021295 136 140 139
-169.040363069742 225.134718409313 1942.05173949015 136 140 139
-180.672743416029 223.65720343566 1947.65850866952 146 150 149
-190.209255986146 223.183398136398 1945.46172866251 149 153 152
-201.026453068093 222.083564245447 1948.14569145221 148 152 151
-209.807110504842 221.983725216408 1943.01919157584 151 155 156
-219.85761872926 221.258517904991 1942.774784742 154 158 159
-226.944219916839 222.027939857984 1930.80287340894 159 163 164
-233.115799952075 223.290888726779 1914.91310322781 156 160 161
-239.128462701102 224.672633364159 1898.03492477313 154 158 159
-246.66028011066 225.304184552493 1887.01574353234 153 157 158
-255.426785241031 225.312425877157 1880.88279778744 160 164 165
-264.221664890178 225.31856347505 1874.74655687917 161 165 166
-273.736288067074 224.951840875411 1871.54453944236 155 159 160
-283.490864374201 224.460503114715 1869.32083281 153 157 158
-291.676594943369 224.831076790876 1860.23610854416 153 157 158
-299.684564920351 225.321442642465 1850.16580545144 154 158 159
-308.181714484016 225.562549760884 1842.05048624869 152 156 157
-317.802764812881 225.187106169593 1838.83521029892 151 155 156
-327.007287388939 225.055606167466 1833.65589793707 151 155 156
-335.388435421901 225.411849380555 1824.54682446581 155 159 160
-344.23168885755 225.520411839792 1817.39634969581 159 163 164
-351.047083393103 226.847108555492 1800.41838029535 163 167 168
-357.136188120251 228.655540294293 1779.49830973818 165 169 170
-359.118945438083 233.013063462052 1737.92134371392 170 174 175
-353.996853084963 241.854189656415 1659.93190765817 139 143 144
-355.353168134605 246.905244397896 1612.38468840815 93 97 98
-364.284841237118 247.333179223493 1602.19903676738 109 113 114
-374.785606169342 246.789079272905 1599.88234915338 132 136 135
-384.356691051978 246.848437887544 1592.64117489827 126 131 127
-393.59220865901 247.146612305384 1583.425874346 117 122 116
49.6367013046861 229.367817547591 1961.26821927965 168 167 175
40.4775127605979 229.025798589666 1958.11049292754 139 137 148
30.9891433698637 228.556884317993 1955.91994829309 129 128 136
20.2371032544846 227.583522149957 1957.60402213004 111 112 116
11.991447540707 227.617270270101 1951.53600814186 115 117 114
2.79087595211069 227.27219942327 1948.37336573623 113 118 114
-6.1158142833746 227.05177510985 1944.23914236692 115 119 118
-13.826759759439 227.331202669093 1936.22183587079 118 125 133
-20.3741130320316 228.108610461337 1924.3171984591 115 121 135
-26.9823549890005 228.882141798811 1912.40521297681 28 59 126
-27.154132205883 232.397525071953 1879.1184416312 0 26 120
-38.0399303854349 231.41465633137 1880.78584828774 4 27 139
-53.5504310703661 228.440733783966 1898.00555769667 8 27 130
-67.81125819492 225.970006596187 1911.34866490062 96 111 192
-79.4318683074839 224.621173686342 1915.948636689 114 125 143
-91.8674984831915 222.902013416406 1923.4711755991 121 131 130
-103.697854507733 221.433114991247 1929.05297562413 124 128 131
-116.045069630925 219.718810879103 1936.58653542155 128 128 138
-126.154996525057 218.995131028622 1936.33446919776 136 134 145
-137.345651176126 217.778003358569 1939.98006294661 137 139 138
-147.168833513879 217.177950529649 1938.75576808269 138 143 139
-157.259219501095 216.454530130918 1938.50613976529 138 142 141
-168.134865526938 215.362528950981 1941.18278784517 139 143 142
-180.031787570739 213.78071806298 1947.76450554242 147 151 150
-191.629386433153 212.323721217508 1953.37532094285 149 153 152
-202.425978927687 211.235591618484 1956.06182424041 149 153 152
-211.436903704487 211.003599885682 1951.91462347896 148 152 153
-219.716871459531 211.136192020517 1944.83438015049 153 157 158
-225.809179622482 212.362952788802 1928.95459793045 158 162 163
-232.227962364303 213.462657168297 1914.04185504098 156 160 161
-237.75799516558 215.043345397635 1895.20800784325 155 159 160
-246.251412333052 215.161384024757 1888.10116561616 156 160 161
-255.486778588656 214.913391999124 1883.92599802124 160 164 165
-264.506383149039 214.784982756936 1878.76975419511 158 162 163
-273.779605349799 214.533922146213 1874.58987048305 156 160 161
-282.842430092756 214.40198314184 1869.42824232916 155 159 160
-291.027191027213 214.750372072686 1860.34369749074 153 157 158
-299.701637195484 214.854760479529 1853.21454013069 153 157 158
-308.629531331522 214.836625267451 1847.06152345367 152 156 157
-318.237081987909 214.45615904684 1843.84794541014 154 158 159
-326.570122008428 214.793641059053 1834.74516521012 153 157 158
-334.947588782835 215.127934498909 1825.63684921085 151 155 156
-343.787528286254 215.219955999725 1818.48683156003 154 158 159
-351.83579515918 215.786834186873 1807.40337079348 166 170 171
-357.902975177454 217.541661020294 1786.4864177457 168 172 173
-357.649981267699 223.097570660424 1734.09978519382 170 174 175
-351.336309924133 232.438569190966 1650.2111316289 127 131 132
-354.080509119041 236.528961255781 1609.54753273843 100 104 105
-362.440783027801 237.287127711751 1596.4090171224 102 106 107
-372.958148741939 236.73886464208 1594.09026879239 134 138 137
-382.170129345736 237.016948929617 1584.87795842561 130 135 131
-392.349848406675 236.701719130514 1580.58511825183 130 135 129
50.9789975393109 216.587424379243 1989.68678779272 22 20 23
48.6721907093597 218.842761722356 1966.21448744782 165 163 168
40.8054267581421 218.989822455863 1959.1857714087 135 133 138
31.6369305047326 218.641208463113 1956.02690087728 127 125 128
21.5129784272634 217.921950403067 1955.77307274889 138 136 137
12.3277069033734 217.571971622234 1952.61235262576 128 130 125
3.43914381575217 217.344072255392 1948.48041110262 129 131 128
-5.16105605980588 217.237603723367 1943.37644872159 115 121 119
-11.9627267049227 217.865114615441 1932.4483961204 99 108 113
-19.4217317480694 218.244210591961 1923.45434046068 104 113 122
-27.223537793591 218.498141488006 1915.4257622472 173 206 213
-45.4073466967553 214.476275278618 1941.38452300721 221 255 255
-39.431390458659 220.461287529923 1887.69533782853 218 244 255
-54.6364809181077 217.661362339644 1903.945015314 212 234 255
-66.8719287640303 216.083036370883 1910.48423754633 100 118 130
-79.0659766855528 214.507019342859 1917.02862016396 124 137 128
-91.5007361879108 212.811892999998 1924.55120443645 121 132 115
-103.32982840098 211.361678549768 1930.13311297409 127 132 126
-114.569510325083 210.155253248542 1933.77256022481 130 131 135
-126.331795904704 208.708578097984 1939.36279651474 133 132 146
-136.70164560903 207.866894232594 1940.08653158719 136 136 148
-147.062236807942 207.025469211191 1940.81118111598 138 142 143
-156.881771957228 206.424902201705 1939.58734275368 139 143 142
-168.545328702554 204.983053450823 1945.1898871083 144 148 147
-180.433133435496 203.423233793771 1951.77268467891 147 151 150
-192.021440507976 201.985432351531 1957.38460908938 149 153 152
-203.063343805423 200.788737514833 1961.04847204988 150 154 153
-212.313016077604 200.429430344892 1957.87973966007 148 152 153
-220.32634808492 200.665526103112 1949.82481122529 152 156 157
-225.414744111706 202.328434871357 1930.03793379428 156 160 161
-230.362888747859 204.103458345709 1909.26057655939 154 158 159
-237.11157993492 205.039969688559 1895.31502017635 154 158 159
-246.798947741493 204.548105858606 1893.09970215292 157 161 162
-255.54817781898 204.529288689644 1886.96898349007 162 166 167
-263.625299922876 204.863186651936 1877.89814977154 159 163 164
-272.208608125202 204.957761213124 1870.78015146651 157 161 162
-280.825629271924 205.049829733109 1863.6579525849 156 160 161
-289.251039865231 205.257225110448 1855.5516747602 154 158 159
-297.492805132522 205.579377688359 1846.46008521055 149 153 154
-307.31926517424 205.076114691556 1844.22743931777 148 152 153
-316.717660428657 204.806658316353 1840.03198319322 152 156 157
-325.918949840611 204.652789296667 1834.85313321914 152 156 157
-333.659732572048 205.315799778222 1822.80010439646 152 156 157
-342.716315547468 205.273878856307 1816.63109075191 155 159 160
-351.388161217075 205.463006850637 1808.4941073931 165 169 170
-359.487601168758 205.998525727517 1797.40434311248 165 169 170
-358.995148614153 211.530761188788 1744.03996883073 167 171 172
-353.394155605422 225.786857994407 1609.66147454585 110 114 115
-360.980886072143 226.975158864113 1592.58737117307 112 116 117
-371.509342613804 226.423232996559 1590.2672484192 123 127 126
-380.731279563251 226.678526074412 1581.05375557918 128 133 129
46.4152970353646 207.85977146975 1975.03142819505 153 151 154
39.2134116379392 208.233122875067 1966.06971494391 134 130 131
31.6499159021435 208.483094542978 1958.07088687469 123 119 118
23.418061796102 208.489413585623 1952.00466747906 111 110 106
14.5341671865695 208.253181770851 1947.87333049759 129 131 126
4.08683474786109 207.414743750916 1948.58738763504 138 140 137
-3.5933451164698 207.657013220281 1940.57401835988 135 141 139
-11.008991952481 208.016535263544 1931.58542509534 132 141 146
-18.1684326162055 208.492844142154 1921.62105046299 131 141 150
-30.4500665049454 206.933822373998 1928.1544581133 112 135 166
-47.1255650648701 203.586527477768 1949.26075459913 79 105 142
-56.3056058610882 206.675334482749 1911.82762702523 165 179 214
-67.083162901203 205.713903677796 1913.50848508001 117 128 156
-78.9858222023907 204.278262988823 1919.0811745005 128 135 143
-91.41694222497 202.607436545187 1926.60414896563 126 132 132
-104.360260400137 200.70245786197 1936.07919495738 132 134 129
-115.584939194896 199.510127228486 1939.72047739214 134 136 133
-126.510071333265 198.437130432485 1942.39089985036 138 138 146
-137.143832376332 197.48294914769 1944.08968370411 139 141 153
-147.494283520016 196.647127047959 1944.81558389675 139 143 146
-158.633638689483 195.458858408688 1948.4675035184 141 145 144
-168.167498882481 194.976266256123 1946.27131792098 146 150 149
-179.532903332508 193.672295837899 1950.90277945477 148 152 151
-190.867440877038 192.36990612835 1955.53832910189 149 153 152
-201.660700753099 191.302923968519 1958.22543286824 152 156 155
-211.676056094394 190.587060534502 1957.98514803089 152 156 157
-219.188768653288 191.036770491775 1947.97651693312 153 157 158
-224.773843901418 192.414380695486 1930.14402266037 155 159 160
-228.251830382385 194.832052007146 1903.50183695492 153 157 158
-236.707345318055 194.919180240696 1896.3998061037 156 160 161
-246.870275097201 194.192511996486 1896.14113330304 161 165 166
-255.610953417376 194.160117828967 1890.01175787222 160 164 165
-263.211526095417 194.703498676367 1878.98422857386 159 163 164
-272.022413950604 194.666061893796 1872.84586441896 153 157 158
-280.176829745061 194.972162204752 1863.76545810893 152 156 157
-289.052520399583 194.929940167822 1857.61901954958 154 158 159
-297.065016031393 195.345155941244 1847.54834958694 152 156 157
-306.888894194338 194.838979228149 1845.3157933018 150 154 155
-316.067045476834 194.675684940023 1840.13985565061 149 153 154
-324.838395145262 194.739348245639 1832.99847228599 150 154 155
-332.795167796306 195.257469056129 1821.92655785824 154 158 159
-341.644714345602 195.315406748118 1814.77567133212 160 164 165
-350.734519704025 195.256946460303 1808.60255528641 166 170 171
-359.444503538998 195.423787205689 1800.46087120271 161 165 166
-362.356712324373 198.881223737441 1763.80896123599 161 165 166
-353.491354788446 214.590302823106 1613.70981905348 106 110 111
-361.064987784632 215.735392960076 1596.63746396152 112 116 117
-371.202092617128 215.406815166077 1592.35021721172 125 130 126
-379.478924354267 216.20405020637 1578.21432470148 131 136 130
53.5140543940813 200.35500817485 1955.78189109673 154 154 156
43.6994636053221 199.757831842408 1954.55866083218 131 131 129
35.4699889872911 199.750240399711 1948.49301528409 120 119 115
27.8414819265471 199.976451732946 1940.48613675786 112 111 106
18.3018790160776 199.494237759833 1938.28899323859 115 116 111
7.20861527675032 198.424086953521 1940.93842637219 115 117 116
-1.71855171481083 198.176142614708 1936.80196036652 113 119 119
-9.7515436492579 198.278452577675 1929.75261790739 105 114 119
-18.1196759339421 198.261517703283 1923.66945303909 99 110 116
-26.8150072876121 198.125816539516 1918.5536957951 48 67 99
-60.9771706264484 187.956218219686 1996.95358982053 21 40 80
-59.8130093122442 191.675562444151 1959.8020099202 81 96 129
-57.1066372642417 196.080486316138 1916.79448022576 143 154 184
-68.4469931020562 194.895176935541 1920.42106809046 133 138 158
-78.336655372264 194.291097981043 1919.18848752665 120 124 136
-89.0751617518626 193.339232007072 1920.87419368435 129 132 137
-101.19755692178 191.809704649522 1927.42739571288 131 133 128
-113.555633543982 190.166882866881 1934.95941181327 135 137 132
-125.043823800177 188.872740699787 1939.57576479075 143 144 149
-135.958072616342 187.810530284363 1942.2475170177 142 145 154
-146.852349127091 186.749263747364 1944.92175918462 140 144 147
-157.992877038807 185.574089141072 1948.5734979723 141 145 144
-167.263207349681 185.202982186876 1945.40197838696 146 150 149
-178.632755495419 183.914606537381 1950.0331220125 148 152 151
-188.938722153028 183.085323634534 1950.76479665401 149 153 152
-200.512793392626 181.685307550264 1956.37839810587 152 156 155
-210.533987981225 180.971371427082 1956.13737948947 151 155 156
-217.550629547733 181.623538885554 1944.1747477578 153 157 158
-222.896492893 183.067368448062 1925.36400396306 154 158 159
-226.873058902621 185.18603333597 1900.67600036791 155 159 160
-237.029715979099 184.462362614283 1900.41810246958 161 165 166
-246.225273775998 184.19137537876 1896.24796329203 167 171 172
-254.965402505527 184.144951647047 1890.11869339324 165 169 170
-262.096802039944 184.886386445763 1877.13357809632 165 169 170
-270.681469714175 184.94719358825 1870.01573933127 157 161 162
-278.842916184427 185.230626845404 1860.93427505861 155 159 160
-288.403497247311 184.836818837896 1857.72659367778 160 164 165
-296.191698036274 185.339341156716 1846.6757570999 157 161 162
-305.798157463787 184.941866410553 1843.46260029536 154 158 159
-313.893029613464 185.326211002637 1833.38149125972 148 152 153
-323.112661053434 185.148598501827 1828.2004148366 146 150 151
-331.08161257682 185.638232351048 1817.12705557698 149 153 154
-339.52480846619 185.901387387643 1808.01048404447 154 158 159
-348.219382020769 186.050158477009 1799.87077065845 158 162 163
-358.177859532975 185.529915075052 1797.62169448313 162 166 167
-362.099531387535 188.334257649909 1765.88444542139 171 175 176
-354.663157519886 197.54702217524 1677.09732016537 158 162 163
-352.610051103751 203.966516253837 1612.84009080872 94 98 99
-359.990787327976 205.17783396235 1594.78394658736 99 103 102
-369.561295145929 205.170967567026 1587.54301874772 123 128 124
-378.037773876648 205.821636714692 1574.39028454724 130 135 129
59.3278089590212 192.278325541535 1940.40448803734 148 152 155
47.868942287127 191.100817447925 1944.01650617491 133 135 132
37.0704195279146 190.155310719894 1945.6947058964 116 117 111
30.0646936577371 190.59151171757 1935.74937931547 124 123 118
21.1360117474921 190.335077397844 1931.61250634624 107 107 105
10.6420774189755 189.503614315072 1932.3207294751 121 122 124
1.99805229509198 189.360100682059 1927.21115525038 127 131 134
-6.06101114784874 189.443821002687 1920.15884844502 121 129 132
-13.551030545967 189.753903025998 1911.16110412294 94 103 108
-58.491146181558 185.284480403341 1923.70442282015 118 129 123
-68.9498302036815 184.453677825418 1924.4168029707 121 125 124
-79.1141785170282 183.736447405989 1924.15816855991 131 135 134
-89.557367176194 182.906154194082 1924.87248109875 127 129 126
-102.230491460075 181.172541191133 1933.37310730714 138 141 134
-114.574181566059 179.554644233427 1940.90685312107 141 144 137
-125.498539568185 178.502480077249 1943.57731732491 145 146 148
-135.043974712219 178.013536647799 1941.37970396789 143 146 155
-144.865383580452 177.411655827817 1940.15563523642 144 148 151
-156.819755809751 175.912361652794 1946.72972591659 145 149 148
-166.359117997447 175.422968994826 1944.53287161165 149 153 152
-177.732610651659 174.150317743928 1949.16348157621 150 154 153
-188.300288211303 173.214112321617 1950.87046491921 151 155 154
-199.620196784829 171.944158017891 1955.50775475793 153 157 156
-209.644566879686 171.232199456751 1955.26633464928 155 159 160
-215.91161083963 172.187191104472 1940.3731492273 154 158 159
-222.255473938746 173.137166983862 1925.470150171 151 155 156
-227.452332885181 174.635949874419 1905.67040969725 161 165 166
-236.869550653858 174.247303405783 1902.48060561525 166 170 171
-245.5806353593 174.188931614802 1896.35475143501 166 170 171
-255.030453622911 173.797524006208 1893.16112654408 167 171 172
-262.854119847919 174.175943900557 1883.11387800697 167 171 172
-271.190480933464 174.331021993959 1875.01885081009 161 165 166
-279.33740685252 174.593076558647 1865.93949518513 161 165 166
-289.562316595215 173.865296639165 1865.67309057899 166 170 171
-297.773986274862 174.122567206713 1856.58542764522 160 164 165
-305.809740352699 174.485985336668 1846.51199157328 158 162 163
-313.45959606904 175.064217182521 1834.4702928973 151 155 156
-322.245979762338 175.093391227409 1827.32736447024 151 155 156
-330.641091575919 175.33769145105 1818.21684319959 150 154 155
-339.080659667506 175.578803725366 1809.10102271236 146 150 151
-347.357652749571 175.925208682018 1798.99728597372 159 163 164
-356.910376743166 175.618329027563 1794.78266908778 162 166 167
-362.851366090926 177.256176321952 1772.87408485291 164 168 169
-356.773393072311 185.471727698981 1690.97459582062 170 174 175
-350.355212400991 194.090315151526 1605.08551264942 97 101 100
-357.948541988307 195.146000546841 1588.01093498354 96 100 99
-367.72820525853 195.013880560054 1581.75192272903 115 120 116
-376.971719490985 195.201358102267 1572.53591576146 122 127 121
63.2080836877276 183.436431645139 1930.83441640826 126 134 137
49.4786039492532 181.481422383883 1941.21941320532 129 135 133
39.9422593102436 180.993058071776 1939.02293276451 114 115 109
30.7140476424828 180.616541959832 1935.85668358165 111 112 106
21.7857933848828 180.351355721774 1931.7198870288 104 104 104
12.5300852219985 179.972908758701 1928.55021153074 103 104 108
3.87582478386417 179.817249059306 1923.43963225429 117 120 125
-2.67157303077337 180.442006594476 1911.53563155177 133 140 146
-10.7878163797688 180.505150481524 1904.47600295074 104 112 115
-40.3300320412356 178.793120949821 1899.78613055862 246 255 255
-57.2612102167793 175.523351558187 1921.86800267751 106 114 116
-66.8614957945894 175.02921175882 1919.66355799509 120 124 127
-78.4668385836611 173.760513230927 1924.26522402414 120 121 125
-88.6277990096847 173.045496828917 1924.00676630239 126 127 129
-101.02554349039 171.448582673931 1931.53371119245 139 141 138
-113.098912674358 169.964402142981 1938.09291195494 143 145 140
-124.032357803533 168.922050746106 1940.76221629749 147 149 148
-133.585913750815 168.429335115404 1938.5635994462 147 148 152
-143.954204865281 167.607309559093 1939.28747725199 149 153 154
-155.912912885017 166.129059991966 1945.86097143092 148 152 151
-167.302290662334 164.871641203847 1950.48955891187 150 154 153
-177.616062315431 164.052041207881 1951.21999376776 152 156 155
-187.920579194418 163.232764548164 1951.95182298199 154 158 157
-199.495020812971 161.870021377687 1957.56528005585 154 158 157
-209.261324953455 161.269262157439 1956.34808511494 155 159 160
-215.52347853242 162.185775786633 1941.45561131408 153 157 158
-220.871650123083 163.530319461535 1922.64484092981 151 155 156
-227.543728724531 164.327962652951 1908.7094513176 161 165 166
-236.468156598026 164.149714236143 1903.56497596028 167 171 172
-245.415613130542 163.96964293232 1898.4178718317 169 173 174
-255.096859018382 163.465149665817 1896.2033510467 169 173 174
-263.14541720906 163.711699576411 1887.13607169492 169 173 174
-271.701638285057 163.740695336237 1880.0218666713 165 169 170
-280.520384606485 163.660146140097 1873.88263536127 164 168 169
-290.498119292061 163.042871748845 1872.63909863041 167 171 172
-297.796208024136 163.706111828454 1859.63338743009 171 175 176
-305.160507170257 164.364807956514 1846.61966579661 171 175 176
-311.718820203336 165.444684034297 1829.67418837244 163 167 168
-320.948557234311 165.243822899575 1824.49191205575 160 164 165
-329.775968908216 165.25333003685 1817.34367510263 157 161 162
-338.007335805674 165.578006239026 1807.24568946399 154 158 159
-346.91014417374 165.582023368943 1800.08805790692 140 144 145
-355.846571373841 165.583450869867 1792.92623773805 150 154 155
-362.395099330335 166.847197599928 1773.96612302038 157 161 162
-359.286882954944 173.260775450606 1706.81727916577 166 170 171
-347.901366670061 184.274069350825 1596.34768413364 94 98 97
-354.74202077731 185.703973667218 1575.33506176417 114 118 117
-365.702279283878 184.927317256503 1574.97701869414 123 128 122
-374.963801786592 185.091401051933 1565.75882600751 125 130 123
56.4234869714182 170.904439168161 1953.19922654394 128 145 153
48.2035638045792 170.854904145749 1947.13488341742 119 130 132
39.3192361909018 170.583826708049 1943.0035841643 134 139 133
29.1564146879415 169.872991742598 1942.74488317949 135 137 132
20.2473649540504 169.600160197373 1938.6105033713 135 133 136
13.4893427950986 170.091388623889 1927.68825673816 133 130 139
7.29012731712775 170.797342698656 1914.81980620644 119 118 126
2.54720674968301 172.044148494326 1897.09251205908 90 93 100
-6.81557252867293 171.652582299283 1893.90974953658 183 186 191
-41.1459092921291 168.197324513615 1904.7508933136 224 227 242
-54.8670324526754 166.182846871758 1916.14477666824 123 127 139
-65.636628603382 165.252441261387 1917.82654649121 120 120 128
-78.3910385766879 163.567817921859 1926.31689971358 131 132 137
-89.6788714313956 162.424527180102 1929.95017175022 125 126 131
-102.622618729743 160.637532211151 1939.42485348401 139 138 144
-113.565936927865 159.605242115531 1942.09289922985 142 141 146
-124.214609244997 158.681076853675 1943.78974319862 148 150 149
-133.215752791362 158.399661044289 1939.64389323344 148 150 145
-143.851525176525 157.475809943503 1941.34234621012 145 150 146
-156.606772964825 155.699094035524 1950.84076476757 147 151 150
-169.040245352222 154.032139180258 1959.37112257398 155 159 158
-179.069028142913 153.325364085658 1959.12913813651 157 161 160
-187.800489246117 153.149437657408 1954.00897804517 157 161 160
-198.602986672068 152.123640182219 1956.69458029277 153 157 156
-207.612480265872 151.839751455639 1952.54769480338 153 157 158
-214.635000578318 152.399990283543 1940.58457152975 154 158 159
-219.735133027778 153.800359144598 1920.79692085208 153 157 158
-227.881694963937 153.929694524356 1912.72564725948 160 164 165
-236.552378142283 153.845946556559 1906.60490177823 165 169 170
-246.210774893099 153.339982523804 1904.39323630366 168 172 173
-255.638873208123 152.938131102643 1901.20210916858 169 173 174
-263.672879476818 153.163274458174 1892.13694245277 170 174 175
-271.983162207794 153.280806273226 1884.04526855715 166 170 171
-280.332621801426 153.395543686315 1875.94871297964 165 169 170
-290.078962297702 152.88239199025 1873.72585130527 167 171 172
-298.04338805157 153.200635418778 1863.66143555244 171 175 176
-304.069737822151 154.450076666244 1844.76628298953 172 176 177
-311.285590134329 155.174555033483 1830.76298604119 167 171 172
-319.434873042501 155.480183385739 1820.67529416098 164 168 169
-328.910893413813 155.162127426428 1816.47051913477 163 167 168
-337.563838175447 155.255408450789 1808.33590663837 161 165 166
-347.292820126166 154.830778326409 1805.10753126001 143 147 148
-355.805698059868 155.022038000708 1795.98245315419 144 148 149
-362.747266664791 156.031572133083 1778.98933294345 146 150 151
-362.204736599877 160.930518355791 1724.62518868541 168 172 173
-354.438972349938 174.657066239494 1577.41734625021 103 107 106
-364.056451861774 174.597103062276 1570.17093671809 122 127 121
-376.722432903279 172.905243020802 1578.67234440596 132 137 130
53.5115417416798 159.78555174264 1963.95063334387 111 131 140
48.5296068014598 160.796201464814 1948.20974798957 116 131 134
42.193079455741 161.373326717547 1936.33218811284 128 134 130
32.641950573397 160.877329174869 1934.13364251896 135 140 136
23.3964055995728 160.48749814742 1930.96550557507 116 114 119
16.6185677046045 160.949633656235 1920.04086267039 108 105 114
10.3999056920847 161.621051249077 1907.16983600798 112 109 120
4.11512720343254 162.288316565113 1894.29056933509 110 110 118
-7.67096489835573 161.041368529694 1898.86962163935 154 155 160
-42.551859507012 157.416316547779 1911.65812066426 195 198 213
-56.2564992749688 155.437796614 1923.0539663555 138 140 153
-66.4311231097197 154.72663033151 1922.79403365071 127 128 133
-79.4598546065231 152.964321366254 1932.25804484924 135 136 138
-89.3168985822077 152.359871774443 1931.02953583181 131 132 136
-100.297243305844 151.33591314905 1933.69293894553 141 140 148
-110.702203057981 150.522182140285 1934.41221887873 143 142 150
-122.198287046484 149.29090234311 1939.02742121927 147 149 148
-132.574200500196 148.478481746643 1939.75008223912 149 152 145
-143.210687891751 147.562289258647 1941.44842581855 143 148 144
-154.90033257277 146.230787528087 1947.04742395807 147 151 150
-167.610819748827 144.486097418917 1956.5513440365 157 161 160
-177.386618318307 143.88458404357 1955.33296623302 157 161 160
-186.904945514129 143.386226853262 1953.13852030974 155 159 158
-197.967260968937 142.267336192502 1956.79987132789 152 156 155
-205.962676712663 142.387278933971 1948.74748462172 153 157 158
-212.492708898502 143.122391746025 1934.82974596519 155 159 160
-217.854066638692 144.366747520723 1916.01759386869 155 159 160
-226.994586830919 144.065194985823 1911.85440355145 149 153 154
-236.395494592428 143.659733126658 1908.6669194134 149 153 154
-245.568678011673 143.355472673712 1904.49966004974 152 156 157
-254.759435442989 143.049823905469 1900.33021120935 165 169 170
-262.560429502349 143.354587490145 1890.28598599573 168 172 173
-271.338951393932 143.248653338966 1884.15208157587 167 171 172
-279.916640480498 143.242267170935 1877.03505037975 165 169 170
-288.981120551617 143.03049358601 1871.87342589222 164 168 169
-297.173436111579 143.222167988941 1862.78835098333 162 166 167
-303.641861639166 144.219680183159 1845.85430789079 168 172 173
-310.634714868832 145.009496868856 1830.87098074527 170 174 175
-318.782798346286 145.290207894278 1820.78350416581 168 172 173
-328.471555405958 144.862974356694 1817.56015547204 172 176 177
-336.700495783512 145.137847528301 1807.46260380325 174 178 179
-346.432153923856 144.707191636554 1804.23367005214 174 178 181
-354.741953067162 144.976259200478 1794.12628324502 169 173 174
-362.293016122044 145.641608432914 1780.08130969221 155 159 160
-365.328494397569 148.597170016404 1743.41533809169 157 161 162
-353.018300139345 159.409855261074 1629.03067703824 123 127 126
-353.748792671379 163.818516497542 1577.53201952877 94 99 95
-361.835119392895 164.536074730598 1562.41242364607 121 126 119
