ply
format ascii 1.0
comment KinectMotionCapture
element vertex 753
property float x
property float y
property float z
property uchar red
property uchar green
property uchar blue
end_header
-440.72151184082 561.535835266113 1968.00005435944 92 70 46
-435.825318098068 562.125563621521 1970.00002861023 90 68 44
-430.917978286743 562.715411186218 1972.00000286102 88 66 42
-426.215320825577 563.590824604034 1975.00002384186 89 64 42
-421.70923948288 564.751803874969 1978.99997234344 91 66 44
-418.022632598877 567.054510116577 1986.99998855591 106 84 63
-415.538340806961 571.069777011871 2000.99992752075 120 101 86
-413.592487573624 575.941503047943 2017.99988746643 117 103 90
-413.576573133469 583.667874336243 2045.00007629395 106 96 84
-600.963234901428 523.240983486176 1853.00004482269 93 95 92
-595.609843730927 522.96257019043 1851.99999809265 166 166 164
-591.219186782837 523.531913757324 1853.99997234344 209 209 207
-584.605038166046 522.125244140625 1848.99997711182 210 210 208
-578.645586967468 521.28404378891 1845.99995613098 214 214 212
-574.256718158722 521.855294704437 1848.00004959106 183 183 181
-571.397602558136 523.839116096497 1855.00001907349 184 184 182
-569.416999816895 526.670753955841 1865.00000953674 183 183 181
-565.869510173798 528.091013431549 1870.00000476837 179 179 177
-563.194990158081 530.359148979187 1878.00002098084 184 183 181
-559.288740158081 531.498193740845 1881.99996948242 182 181 179
-556.539058685303 533.767521381378 1889.99998569489 177 177 175
-552.87092924118 535.190105438232 1894.99998092651 183 182 180
-548.887073993683 536.330819129944 1899.00004863739 174 174 172
-544.881761074066 537.472069263458 1902.99999713898 178 178 176
-540.571331977844 538.331389427185 1906.00001811981 177 179 176
-537.649393081665 540.603518486023 1914.00003433228 174 176 173
-533.849656581879 542.028725147247 1919.0000295639 172 174 171
-529.747486114502 543.171942234039 1922.99997806549 179 181 178
-525.078237056732 543.750762939453 1924.99995231628 175 180 176
-520.668268203735 544.612467288971 1927.99997329712 174 175 169
-515.440106391907 544.62718963623 1927.99997329712 177 178 172
-510.476648807526 544.924676418304 1929.00002002716 173 175 170
-505.245864391327 544.940114021301 1929.00002002716 159 163 162
-500.53346157074 545.520782470703 1930.99999427795 170 176 176
-495.040744543076 545.254290103912 1929.99994754791 37 42 45
-490.314841270447 545.835793018341 1932.000041008 46 51 54
-485.577911138535 546.417474746704 1934.00001525879 64 66 65
-480.581760406494 546.7169880867 1934.99994277954 27 26 24
-475.825756788254 547.299325466156 1937.00003623962 67 63 60
-470.815807580948 547.599375247955 1937.99996376038 144 137 131
-466.521054506302 548.747420310974 1942.00003147125 155 145 136
-461.966842412949 549.613118171692 1945.00005245209 147 131 115
-457.865864038467 551.044344902039 1950.00004768372 120 104 88
-453.505456447601 552.193224430084 1953.9999961853 97 82 63
-448.893755674362 553.059697151184 1957.00001716614 98 81 61
-444.718837738037 554.491698741913 1962.00001239777 97 80 60
-440.51668047905 555.923938751221 1967.00000762939 89 71 49
-436.065763235092 557.073771953583 1970.99995613098 88 67 46
-431.155949831009 557.658553123474 1973.00004959106 87 67 43
-426.450669765472 558.52609872818 1975.99995136261 88 66 45
-422.368258237839 560.241878032684 1981.99999332428 91 69 48
-419.09447312355 563.088536262512 1991.99998378754 109 88 69
-415.973752737045 566.218137741089 2003.00002098084 103 84 69
-413.407891988754 570.196151733398 2016.99995994568 161 149 137
-410.968005657196 574.457228183746 2032.00006484985 150 140 128
-615.318417549133 521.836459636688 1866.00005626678 120 122 119
-606.653153896332 518.763482570648 1855.00001907349 196 198 195
-599.345624446869 516.809821128845 1848.00004959106 208 210 207
-593.363225460052 515.975296497345 1845.00002861023 180 182 179
-588.673233985901 516.260087490082 1845.99995613098 181 183 180
-582.081496715546 514.867544174194 1840.99996089935 185 187 184
-576.457798480988 514.314591884613 1838.99998664856 181 183 180
-571.777701377869 514.601171016693 1840.0000333786 179 181 178
-568.632900714874 516.286790370941 1845.99995613098 180 182 179
-566.677391529083 519.091784954071 1855.99994659424 180 182 179
-564.365267753601 521.617710590363 1865.00000953674 182 184 181
-561.105132102966 523.305177688599 1871.00005149841 178 180 177
-557.218432426453 524.433851242065 1875 178 180 177
-554.488301277161 526.681840419769 1883.00001621246 178 180 177
-551.423251628876 528.650760650635 1889.99998569489 179 181 178
-546.875298023224 529.221594333649 1891.99995994568 179 181 178
-541.744112968445 529.233574867249 1891.99995994568 178 180 177
-537.464022636414 530.085146427155 1894.99998092651 176 178 175
-534.572303295136 532.335877418518 1902.99999713898 175 177 174
-531.637489795685 534.58708524704 1911.00001335144 175 177 174
-528.38397026062 536.559164524078 1917.99998283386 178 180 177
-524.001479148865 537.412643432617 1921.0000038147 178 180 177
-519.332647323608 537.986874580383 1922.99997806549 177 177 175
-513.851046562195 537.722110748291 1922.00005054474 177 177 175
-508.904218673706 538.017272949219 1922.99997806549 174 174 172
-504.213869571686 538.592576980591 1924.99995231628 167 167 165
-499.512702226639 539.168238639832 1927.00004577637 175 175 173
-494.80065703392 539.744198322296 1929.00002002716 166 166 164
-490.07773399353 540.320575237274 1930.99999427795 168 168 166
-485.594898462296 541.177034378052 1934.00001525879 157 157 155
-480.84744811058 541.754007339478 1935.99998950958 127 127 125
-475.84331035614 542.051374912262 1937.00003623962 127 127 125
-470.833569765091 542.349100112915 1937.99996376038 126 126 124
-466.058641672134 542.926907539368 1940.00005722046 134 135 130
-461.510092020035 543.784737586975 1942.999958992 130 133 126
-457.649558782578 545.482575893402 1949.00000095367 131 132 124
-453.292101621628 546.620965003967 1952.99994945526 136 136 128
-448.453933000565 547.199726104736 1955.00004291534 131 128 119
-443.831324577332 548.05862903595 1957.99994468689 120 116 105
-439.416170120239 549.197614192963 1962.00001239777 75 65 53
-435.421586036682 550.89670419693 1968.00005435944 78 66 52
-430.738538503647 551.756262779236 1970.99995613098 88 72 56
-426.686346530914 553.455829620361 1976.99999809265 94 77 61
-422.601342201233 555.155634880066 1983.00004005432 98 81 63
-419.325053691864 557.97553062439 1993.00003051758 104 87 71
-415.994137525558 560.795605182648 2003.00002098084 113 99 88
-412.198603153229 563.055992126465 2010.99991798401 105 95 86
-408.359378576279 565.316677093506 2019.00005340576 165 156 147
-403.478622436523 566.177487373352 2022.0000743866 160 156 147
-618.062198162079 514.825820922852 1858.99996757507 124 124 122
-611.6943359375 513.721168041229 1855.00001907349 184 186 183
-605.021834373474 512.340247631073 1850.00002384186 201 203 200
-598.377108573914 510.959982872009 1845.00002861023 190 192 189
-592.081785202026 509.857177734375 1840.99996089935 184 186 183
-586.765706539154 509.585976600647 1840.0000333786 183 185 182
-580.823123455048 508.761346340179 1837.00001239777 179 181 178
-575.524270534515 508.491277694702 1835.99996566772 176 178 175
-570.852994918823 508.775770664215 1837.00001239777 176 178 175
-567.100822925568 509.891629219055 1840.99996089935 178 180 177
-564.243495464325 511.839032173157 1848.00004959106 179 181 178
-561.953663825989 514.340937137604 1856.99999332428 183 185 182
-559.31556224823 516.566514968872 1865.00000953674 181 183 180
-555.445671081543 517.684698104858 1868.99995803833 180 182 179
-552.143394947052 519.35750246048 1875 180 182 179
-548.808753490448 521.030783653259 1881.00004196167 180 182 179
-544.285714626312 521.596610546112 1883.00001621246 180 182 179
-539.465725421906 521.885931491852 1883.99994373322 181 183 180
-534.640550613403 522.17572927475 1884.99999046326 178 180 177
-531.776547431946 524.405121803284 1893.00000667572 177 179 176
-529.147446155548 526.912033557892 1901.99995040894 177 179 176
-525.918781757355 528.865456581116 1909.00003910065 179 181 178
-521.833837032318 529.988169670105 1912.99998760223 179 181 178
-517.187118530273 530.55727481842 1914.99996185303 180 180 178
-512.262284755707 530.849635601044 1916.00000858307 175 175 173
-507.067382335663 530.865371227264 1916.00000858307 168 168 166
-502.658426761627 531.712651252747 1919.0000295639 164 164 162
-498.75146150589 533.114433288574 1924.00002479553 164 164 162
-494.560837745667 534.23947095871 1927.99997329712 176 176 174
-490.094780921936 535.087883472443 1930.99999427795 178 178 176
-485.110074281693 535.382330417633 1932.000041008 167 167 165
-480.368316173553 535.954236984253 1934.00001525879 159 159 157
-475.615501403809 536.526322364807 1935.99998950958 150 150 148
-470.851749181747 537.098824977875 1937.99996376038 137 137 135
-466.31720662117 537.948608398438 1940.99998474121 136 137 132
-461.528688669205 538.521528244019 1942.999958992 125 128 121
-457.433581352234 539.926171302795 1947.99995422363 126 127 121
-452.8469145298 540.776789188385 1950.99997520447 133 133 125
-448.014378547668 541.350424289703 1952.99994945526 137 134 125
-443.397402763367 542.201519012451 1955.9999704361 137 133 122
-439.211845397949 543.607175350189 1960.99996566772 141 133 122
-434.998869895935 545.013070106506 1965.99996089935 127 117 105
-430.539906024933 546.141922473907 1970.00002861023 87 73 60
-426.490634679794 547.825515270233 1975.99995136261 79 66 50
-422.621637582779 549.786567687988 1983.00004005432 85 69 53
-418.503850698471 551.470577716827 1988.9999628067 106 90 75
-414.560884237289 553.431987762451 1996.00005149841 109 96 87
-410.579532384872 555.393636226654 2003.00002098084 124 115 108
-406.762152910233 557.632803916931 2010.99991798401 169 162 154
-402.302235364914 559.040248394012 2016.00003242493 179 176 169
-400.964230298996 564.884722232819 2036.99994087219 80 81 76
-621.773481369019 508.675873279572 1855.00001907349 193 192 190
-616.402864456177 508.404552936554 1853.99997234344 201 201 199
-610.049188137054 507.311344146729 1850.00002384186 192 192 190
-604.045033454895 506.493031978607 1847.00000286102 191 193 190
-597.733378410339 505.401015281677 1843.00005435944 192 194 191
-591.765880584717 504.583954811096 1840.0000333786 175 177 174
-586.134135723114 504.04167175293 1838.00005912781 174 176 173
-580.513775348663 503.499984741211 1835.99996566772 178 180 177
-575.218260288239 503.233075141907 1835.00003814697 174 176 173
-570.550262928009 503.515303134918 1835.99996566772 171 173 170
-566.185295581818 504.072308540344 1838.00005912781 171 173 170
-562.420606613159 505.178332328796 1842.00000762939 177 179 176
-559.84503030777 507.381975650787 1850.00002384186 181 183 180
-556.626677513123 509.037733078003 1855.99994659424 181 183 180
-553.376078605652 510.694086551666 1861.99998855591 182 184 181
-548.915386199951 511.253833770752 1863.9999628067 181 183 180
-545.902848243713 513.185501098633 1871.00005149841 178 180 177
-541.696548461914 514.020621776581 1873.99995326996 179 181 178
-537.187695503235 514.581859111786 1876.00004673004 180 182 179
-532.668232917786 515.143513679504 1878.00002098084 180 182 179
-529.261767864227 516.802966594696 1883.99994373322 178 180 177
-526.101231575012 518.737196922302 1891.00003242493 178 180 177
-523.178279399872 520.946264266968 1899.00004863739 177 179 176
-519.666433334351 522.607088088989 1904.99997138977 177 179 176
-515.581965446472 523.719787597656 1909.00003910065 171 171 169
-511.208534240723 524.558484554291 1911.99994087219 174 174 172
-506.818830966949 525.397539138794 1914.99996185303 173 173 171
-501.888871192932 525.688290596008 1916.00000858307 179 179 177
-497.472018003464 526.528120040894 1919.0000295639 179 179 177
-493.551820516586 527.91702747345 1924.00002479553 179 179 177
-489.604532718658 529.306411743164 1929.00002002716 180 180 178
-484.87663269043 529.872834682465 1930.99999427795 174 174 172
-479.889422655106 530.165135860443 1932.000041008 173 173 171
-474.650979042053 530.183374881744 1932.000041008 172 172 170
-470.384240150452 531.299471855164 1935.99998950958 173 173 171
-466.09565615654 532.415926456451 1940.00005722046 164 164 162
-462.022691965103 533.807098865509 1945.00005245209 153 155 150
-457.452714443207 534.649550914764 1947.99995422363 139 141 136
-452.634155750275 535.217881202698 1950.00004768372 120 119 114
-448.03386926651 536.060810089111 1952.99994945526 121 121 113
-443.643778562546 537.178516387939 1957.00001716614 127 124 115
-439.455687999725 538.570880889893 1962.00001239777 127 120 110
-435.018867254257 539.689004421234 1965.99996089935 132 124 113
-430.560141801834 540.807366371155 1970.00002861023 147 137 125
-426.295161247253 542.200326919556 1975.00002384186 154 142 130
-422.002732753754 543.59358549118 1980.00001907349 156 144 130
-417.682826519012 544.98702287674 1985.00001430511 156 144 132
-413.750857114792 546.929717063904 1991.99998378754 155 145 136
-409.985452890396 549.147129058838 2000 168 161 153
-406.378597021103 551.639378070831 2009.0000629425 162 157 151
-402.323335409164 553.582668304443 2016.00003242493 174 173 168
-400.591880083084 558.821380138397 2035.00008583069 65 67 62
-627.828419208527 504.448175430298 1858.00004005432 159 158 156
-621.105968952179 503.093481063843 1853.00004482269 203 202 200
-614.079117774963 501.467943191528 1847.00000286102 196 196 194
-607.415437698364 500.114619731903 1842.00000762939 190 192 189
-601.433575153351 499.304860830307 1838.99998664856 181 183 180
-596.441686153412 499.310344457626 1838.99998664856 176 178 175
-590.807199478149 498.773396015167 1837.00001239777 179 181 178
-585.503041744232 498.508542776108 1835.99996566772 178 180 177
-580.521047115326 498.515784740448 1835.99996566772 176 178 175
-575.539648532867 498.523652553558 1835.99996566772 173 175 172
-570.558667182922 498.532027006149 1835.99996566772 170 172 169
-566.194295883179 499.084115028381 1838.00005912781 168 170 167
-561.51407957077 499.365091323853 1838.99998664856 170 172 169
-557.736814022064 500.461339950562 1843.00005435944 174 176 173
-553.938150405884 501.558125019073 1847.00000286102 182 184 181
-550.712466239929 503.198504447937 1853.00004482269 185 187 184
-546.2766289711 503.753244876862 1855.00001907349 184 186 183
-542.705535888672 505.123138427734 1860.00001430511 180 182 179
-539.396643638611 506.765127182007 1866.00005626678 180 182 179
-536.055386066437 508.407652378082 1871.99997901917 182 184 181
-531.830847263336 509.235858917236 1875 176 178 175
-527.871131896973 510.33616065979 1878.99994850159 175 177 174
-524.168074131012 511.708617210388 1883.99994373322 177 179 176
-520.71350812912 513.352990150452 1889.99998569489 179 181 178
-517.772138118744 515.541136264801 1898.00000190735 180 182 179
-514.517307281494 517.458200454712 1904.99997138977 179 179 177
-510.689795017242 518.832325935364 1909.9999666214 179 179 177
-506.57045841217 519.935250282288 1914.00003433228 174 174 172
-501.11973285675 519.680321216583 1912.99998760223 172 172 170
-496.711254119873 520.512282848358 1916.00000858307 174 174 172
-492.799669504166 521.888017654419 1921.0000038147 172 172 170
-489.114552736282 523.535668849945 1927.00004577637 169 169 167
-484.392374753952 524.09702539444 1929.00002002716 176 176 174
-479.410827159882 524.386942386627 1929.99994754791 174 174 172
-474.178075790405 524.405419826508 1929.99994754791 174 174 172
-469.916999340057 525.511026382446 1934.00001525879 174 174 172
-466.114580631256 527.160286903381 1940.00005722046 165 165 163
-461.566746234894 527.994751930237 1942.999958992 166 168 163
-457.002401351929 528.829336166382 1945.99997997284 161 163 158
-452.421605587006 529.664278030396 1949.00000095367 150 151 146
-448.512494564056 531.314611434937 1955.00004291534 142 143 138
-444.570511579514 532.965302467346 1960.99996566772 134 135 130
-440.371781587601 534.344434738159 1965.99996089935 125 124 119
-435.481727123261 534.908413887024 1968.00005435944 124 123 118
-430.799126625061 535.744369029999 1970.99995613098 129 126 119
-426.099866628647 536.580383777618 1973.99997711182 132 129 122
-421.597182750702 537.688493728638 1978.00004482269 142 137 131
-416.861891746521 538.524866104126 1980.99994659424 144 139 133
-412.940949201584 540.448784828186 1988.00003528595 155 150 146
-409.596562385559 543.188512325287 1998.00002574921 154 150 147
-406.399846076965 546.200394630432 2009.0000629425 164 163 159
-402.544230222702 548.396825790405 2016.99995994568 180 181 176
-399.825930595398 552.22475528717 2030.99989891052 195 197 192
-397.225379943848 556.32495880127 2046.0000038147 202 204 199
-397.03157544136 563.960433006287 2073.99988174438 166 171 165
-633.218288421631 499.666601419449 1858.99996757507 176 175 173
-626.817405223846 498.594135046005 1855.00001907349 187 186 184
-620.103895664215 497.253566980362 1850.00002384186 187 186 184
-613.085806369781 495.644867420197 1843.99998188019 188 188 186
-606.101095676422 494.036823511124 1838.00005912781 184 186 183
-600.13073682785 493.235737085342 1835.00003814697 180 182 179
-595.150351524353 493.24169754982 1835.00003814697 181 183 180
-589.848875999451 492.979407310486 1833.99999141693 173 175 172
-584.553480148315 492.717802524567 1832.99994468689 173 175 172
-579.580307006836 492.725491523743 1832.99994468689 172 174 171
-574.921011924744 493.002682924271 1833.99999141693 173 175 172
-569.946110248566 493.01153421402 1833.99999141693 177 179 176
-565.895736217499 493.827342987061 1837.00001239777 174 176 173
-561.218798160553 494.10617351532 1838.00005912781 163 165 162
-556.839466094971 494.654297828674 1840.0000333786 163 165 162
-551.549792289734 494.396358728409 1838.99998664856 174 176 173
-548.049211502075 495.752036571503 1843.99998188019 181 183 180
-544.227242469788 496.839314699173 1848.00004959106 181 183 180
-540.675520896912 498.196005821228 1853.00004482269 176 178 175
-536.518931388855 499.015510082245 1855.99994659424 176 178 175
-533.491551876068 500.910937786102 1863.00003528595 177 179 176
-530.142843723297 502.537965774536 1868.99995803833 177 179 176
-526.480734348297 503.896653652191 1873.99995326996 174 176 173
-522.791683673859 505.25575876236 1878.99994850159 176 178 175
-519.075572490692 506.615281105042 1883.99994373322 179 181 178
-516.150891780853 508.782148361206 1891.99995994568 182 184 181
-513.45282793045 511.218249797821 1901.00002288818 192 192 190
-509.636640548706 512.579202651978 1906.00001811981 177 177 175
-505.793154239655 513.940513134003 1911.00001335144 183 183 181
-500.350892543793 513.688564300537 1909.9999666214 181 181 179
-496.46931886673 515.0505900383 1914.99996185303 186 186 184
-492.304146289825 516.144096851349 1919.0000295639 178 178 176
-488.624840974808 517.775893211365 1924.99995231628 183 183 181
-484.159409999847 518.60100030899 1927.99997329712 178 178 176
-479.180902242661 518.888533115387 1929.00002002716 173 173 171
-474.19673204422 519.176244735718 1929.99994754791 173 173 171
-469.449996948242 519.733190536499 1932.000041008 175 175 173
-465.172708034515 520.828545093536 1935.99998950958 176 176 174
-460.873514413834 521.924078464508 1940.00005722046 171 176 172
-456.317514181137 522.750794887543 1942.999958992 174 179 175
-451.745003461838 523.577749729156 1945.99997997284 163 165 162
-447.844266891479 525.212109088898 1952.00002193451 153 155 152
-444.137334823608 527.115821838379 1958.99999141693 148 150 147
-440.168231725693 528.750717639923 1965.0000333786 132 133 128
-435.502290725708 529.578626155853 1968.00005435944 131 132 127
-430.819809436798 530.406594276428 1970.99995613098 132 133 128
-425.904840230942 530.965745449066 1973.00004959106 137 138 133
-421.404927968979 532.063186168671 1976.99999809265 151 152 147
-417.093366384506 533.429861068726 1981.99999332428 157 156 152
-413.585245609283 535.873353481293 1991.00005626678 162 161 157
-409.617841243744 537.778794765472 1998.00002574921 173 172 170
-406.016618013382 540.222644805908 2006.99996948242 176 176 174
-401.966959238052 542.128384113312 2013.99993896484 174 174 172
-398.863285779953 545.380294322968 2026.00002288818 195 197 194
-395.888119935989 548.901677131653 2039.00003433228 187 189 186
-395.139247179031 555.653750896454 2063.99989128113 196 198 193
-392.933130264282 560.521841049194 2082.00001716614 146 147 141
-391.000807285309 565.928757190704 2101.99999809265 91 92 86
-637.240171432495 493.815362453461 1855.99994659424 143 142 138
-630.836546421051 492.753595113754 1851.99999809265 180 179 177
-624.455332756042 491.69248342514 1848.00004959106 178 177 175
-617.091000080109 489.833891391754 1840.99996089935 191 190 188
-610.763132572174 488.774180412292 1837.00001239777 188 188 186
-604.127705097198 487.448930740356 1832.00001716614 183 185 182
-598.828434944153 487.188696861267 1830.9999704361 179 181 178
-593.535125255585 486.929029226303 1830.00004291534 177 179 176
-588.569581508636 486.936002969742 1830.00004291534 177 179 176
-582.96662569046 486.411422491074 1827.99994945526 175 177 174
-578.323721885681 486.685663461685 1828.9999961853 172 174 171
-573.675930500031 486.960530281067 1830.00004291534 175 177 174
-569.023072719574 487.235903739929 1830.9999704361 176 178 175
-564.365327358246 487.511843442917 1832.00001716614 174 176 173
-560.007810592651 488.054364919662 1833.99999141693 164 166 163
-555.337190628052 488.331377506256 1835.00003814697 158 160 157
-550.061583518982 488.076508045197 1833.99999141693 165 167 164
-546.277821063995 489.152878522873 1838.00005912781 181 183 180
-542.76704788208 490.495830774307 1843.00005435944 184 186 183
-538.645803928375 491.306990385056 1845.99995613098 165 167 164
-534.21950340271 491.85249209404 1848.00004959106 165 167 164
-530.928075313568 493.463099002838 1853.99997234344 184 186 183
-528.171479701996 495.606541633606 1861.99998855591 183 185 182
-524.809718132019 497.218132019043 1868.00003051758 181 183 180
-521.415531635284 498.830139636993 1873.99995326996 174 176 173
-517.437875270844 499.910235404968 1878.00002098084 178 180 177
-514.257073402405 501.789450645447 1884.99999046326 185 187 184
-511.03812456131 503.669023513794 1891.99995994568 189 189 187
-507.514119148254 505.282878875732 1898.00000190735 188 188 186
-503.692746162415 506.630897521973 1902.99999713898 184 184 182
-499.320238828659 507.446825504303 1906.00001811981 182 182 180
-495.449900627136 508.795559406281 1911.00001335144 181 181 179
-491.295844316483 509.87845659256 1914.99996185303 182 182 180
-487.373918294907 511.228024959564 1919.99995708466 185 185 183
-482.922315597534 512.04526424408 1922.99997806549 180 180 178
-477.957606315613 512.330234050751 1924.00002479553 179 179 177
-473.724335432053 513.41438293457 1927.99997329712 182 182 180
-469.46918964386 514.498770236969 1932.000041008 182 182 180
-464.951813220978 515.317142009735 1934.99994277954 180 182 179
-459.942817687988 515.603125095367 1935.99998950958 177 181 180
-455.397933721542 516.421973705292 1939.00001049042 178 182 181
-451.300740242004 517.773687839508 1944.00000572205 178 182 181
-447.635024785995 519.658386707306 1950.99997520447 178 182 181
-443.477600812912 521.010637283325 1955.9999704361 178 182 181
-439.292818307877 522.363126277924 1960.99996566772 180 184 183
-434.637844562531 523.182988166809 1963.99998664856 178 182 181
-430.184960365295 524.26952123642 1968.00005435944 171 177 175
-425.709933042526 525.35617351532 1972.00000286102 170 174 175
-421.426028013229 526.709318161011 1976.99999809265 168 172 173
-417.114585638046 528.062760829926 1981.99999332428 168 172 171
-413.191139698029 529.949128627777 1988.9999628067 176 177 179
-409.024238586426 531.569361686707 1995.00000476837 185 187 186
-405.431240797043 533.989012241364 2003.99994850159 185 187 186
-400.990664958954 535.343050956726 2009.0000629425 181 183 180
-397.703796625137 538.296103477478 2019.99998092651 180 182 177
-394.356667995453 541.24927520752 2030.99989891052 182 184 179
-392.863988876343 546.867847442627 2052.00004577637 182 184 179
-389.935612678528 550.621211528778 2065.99998474121 182 183 177
-386.744767427444 554.108262062073 2078.9999961853 186 187 181
-383.299440145493 557.329058647156 2091.00008010864 189 188 183
-637.585997581482 489.036053419113 1856.99999332428 167 168 163
-630.839586257935 487.722337245941 1851.99999809265 178 178 176
-623.445451259613 485.882639884949 1845.00002861023 182 182 180
-615.419507026672 483.516782522202 1835.99996566772 185 185 183
-609.438180923462 482.731759548187 1832.99994468689 181 181 179
-603.14416885376 481.683969497681 1828.9999961853 178 180 177
-598.180711269379 481.690287590027 1828.9999961853 175 177 174
-592.569053173065 481.170415878296 1827.00002193451 174 176 173
-587.290585041046 480.914503335953 1825.99997520447 176 178 175
-581.699132919312 480.395793914795 1824.00000095367 177 179 176
-576.751470565796 480.40434718132 1824.00000095367 178 180 177
-572.431147098541 480.940282344818 1825.99997520447 174 176 173
-568.411231040955 481.740087270737 1828.9999961853 170 172 169
-564.067542552948 482.277125120163 1830.9999704361 174 176 173
-559.713244438171 482.814610004425 1832.99994468689 166 168 165
-554.743051528931 482.825815677643 1832.99994468689 156 158 155
-549.773335456848 482.837498188019 1832.99994468689 168 170 167
-545.398354530334 483.376622200012 1835.00003814697 180 182 179
-541.896224021912 484.706312417984 1840.0000333786 186 188 185
-537.491858005524 485.246300697327 1842.00000762939 171 173 170
-533.076822757721 485.786736011505 1843.99998188019 168 170 167
-528.93739938736 486.590981483459 1847.00000286102 176 178 175
-525.916635990143 488.449543714523 1853.99997234344 182 184 181
-522.857904434204 490.308552980423 1860.99994182587 183 185 182
-519.483208656311 491.904646158218 1866.99998378754 175 177 174
-515.249311923981 492.710679769516 1870.00000476837 177 179 176
-511.817753314972 494.307696819305 1876.00004673004 181 183 180
-508.623719215393 496.168553829193 1883.00001621246 191 191 189
-505.659162998199 498.293340206146 1891.00003242493 190 190 188
-502.386510372162 500.155091285706 1898.00000190735 186 186 184
-498.813837766647 501.753687858582 1904.00004386902 184 184 182
-494.690030813217 502.825677394867 1907.99999237061 183 183 181
-490.031242370605 503.370821475983 1909.9999666214 183 183 181
-485.615402460098 504.179894924164 1912.99998760223 186 186 184
-481.183111667633 504.989206790924 1916.00000858307 184 184 182
-476.982831954956 506.06244802475 1919.99995708466 183 183 181
-473.006397485733 507.399559020996 1924.99995231628 184 184 182
-469.002574682236 508.736908435822 1929.99994754791 184 184 182
-464.250653982162 509.283840656281 1932.000041008 184 184 182
-459.487557411194 509.830892086029 1934.00001525879 179 183 182
-454.948246479034 510.641813278198 1937.00003623962 178 182 181
-450.624525547028 511.716604232788 1940.99998474121 178 182 181
-446.508288383484 513.055264949799 1945.99997997284 178 182 181
-442.137867212296 514.130413532257 1950.00004768372 179 183 182
-438.193470239639 515.733122825623 1955.9999704361 180 184 185
-433.773577213287 516.808807849884 1960.00003814697 179 183 184
-429.768800735474 518.411934375763 1965.99996089935 176 182 182
-425.731092691422 520.015358924866 1972.00000286102 176 182 182
-421.447366476059 521.355271339417 1976.99999809265 177 183 183
-417.136013507843 522.695243358612 1981.99999332428 179 183 184
-412.797152996063 524.035453796387 1986.99998855591 178 179 181
-408.225744962692 525.11203289032 1991.00005626678 184 186 185
-404.23908829689 526.979982852936 1998.00002574921 184 186 185
-399.814784526825 528.320550918579 2003.00002098084 181 183 180
-396.544307470322 531.243920326233 2013.99993896484 181 183 178
-393.213659524918 534.167528152466 2025.00009536743 182 184 179
-390.780091285706 538.410246372223 2040.99988937378 179 181 176
-387.126713991165 541.070580482483 2051.00011825562 180 181 175
-383.976578712463 544.522285461426 2063.99989128113 182 183 177
-380.572110414505 547.710597515106 2075.99997520447 189 188 183
-376.921325922012 550.6352186203 2086.99989318848 186 185 181
-371.965050697327 551.712989807129 2091.00008010864 183 182 178
-644.36262845993 485.291421413422 1861.99998855591 167 168 163
-637.588918209076 483.991146087646 1856.99999332428 169 170 165
-630.502581596375 482.430875301361 1850.99995136261 179 179 177
-622.435927391052 480.089366436005 1842.00000762939 185 185 183
-614.083707332611 477.48789191246 1832.00001716614 184 184 182
-607.448935508728 476.190268993378 1827.00002193451 179 181 178
-601.831316947937 475.675016641617 1825.00004768372 177 179 176
-596.879243850708 475.681751966476 1825.00004768372 174 176 173
-591.603398323059 475.428432226181 1824.00000095367 172 174 171
-586.012005805969 474.914968013763 1822.00002670288 175 177 174
-580.75088262558 474.662750959396 1820.99997997284 179 181 178
-576.444268226624 475.193083286285 1822.99995422363 180 182 179
-571.813762187958 475.463300943375 1824.00000095367 175 177 174
-567.799866199493 476.255387067795 1827.00002193451 169 171 168
-563.46207857132 476.78741812706 1828.9999961853 174 176 173
-559.419095516205 477.580606937408 1832.00001716614 169 171 168
-554.754793643951 477.852791547775 1832.99994468689 160 162 159
-549.785494804382 477.864921092987 1832.99994468689 149 151 148
-544.816493988037 477.87743806839 1832.99994468689 161 163 160
-541.320264339447 479.193985462189 1838.00005912781 176 178 175
-537.213504314423 479.989528656006 1840.99996089935 178 180 177
-533.379733562469 481.046348810196 1845.00002861023 172 174 171
-528.379023075104 481.060653924942 1845.00002861023 160 162 159
-524.513065814972 482.118308544159 1848.99997711182 162 164 161
-520.906388759613 483.437120914459 1853.99997234344 167 169 166
-517.551004886627 485.01718044281 1860.00001430511 174 176 173
-513.336598873138 485.815405845642 1863.00003528595 172 174 171
-509.105801582336 486.61395907402 1866.00005626678 176 178 175
-505.669116973877 488.195240497589 1871.99997901917 183 183 181
-503.269553184509 490.820169448853 1881.99996948242 185 185 183
-500.815749168396 493.445485830307 1891.99995994568 187 187 185
-497.259706258774 495.028108358383 1898.00000190735 185 185 183
-493.152409791946 496.089428663254 1901.99995040894 186 186 184
-488.510280847549 496.629506349564 1904.00004386902 187 187 185
-484.364748001099 497.691422700882 1907.99999237061 184 184 182
-480.197370052338 498.753637075424 1911.99994087219 189 189 187
-476.008266210556 499.81626868248 1916.00000858307 188 188 186
-471.797168254852 500.879108905792 1919.99995708466 185 185 183
-467.807203531265 502.203166484833 1924.99995231628 184 184 182
-463.549584150314 503.266572952271 1929.00002002716 185 185 183
-459.270030260086 504.330217838287 1932.99996852875 185 186 188
-454.968482255936 505.394160747528 1937.00003623962 183 184 186
-450.644940137863 506.458282470703 1940.99998474121 181 182 184
-446.528881788254 507.783591747284 1945.99997997284 182 183 185
-441.931873559952 508.587241172791 1949.00000095367 183 187 186
-437.766373157501 509.912967681885 1953.9999961853 183 187 186
-433.352023363113 510.977983474731 1957.99994468689 183 187 186
-429.571479558945 512.826025485992 1965.0000333786 182 186 185
-425.320714712143 514.152348041534 1970.00002861023 182 186 185
-420.829296112061 515.217840671539 1973.99997711182 184 188 187
-416.105270385742 516.022443771362 1976.99999809265 184 188 187
-411.572307348251 517.088174819946 1980.99994659424 185 187 186
-406.812131404877 517.893016338348 1983.99996757507 185 187 186
-402.642279863358 519.481062889099 1990.00000953674 187 189 188
-398.239761590958 520.808160305023 1995.00000476837 189 191 188
-395.187973976135 523.96285533905 2006.99996948242 187 189 184
-391.682207584381 526.595652103424 2016.99995994568 186 188 183
-388.696104288101 530.011892318726 2029.99997138977 184 185 180
-385.261356830597 532.906115055084 2040.99988937378 183 184 179
-381.766468286514 535.800635814667 2052.00004577637 182 182 180
-378.027945756912 538.434147834778 2062.00003623962 185 186 181
-373.692750930786 540.28445482254 2069.00000572205 186 186 184
-368.607431650162 541.090190410614 2072.00002670288 190 192 189
-363.855600357056 542.41818189621 2076.99990272522 177 179 176
-359.593510627747 544.529795646667 2085.00003814697 157 159 156
-645.749628543854 481.264382600784 1866.00005626678 166 167 162
-638.27908039093 479.46235537529 1858.99996757507 168 170 165
-630.166172981262 477.145224809647 1850.00002384186 182 184 181
-620.751261711121 473.797023296356 1837.00001239777 186 188 185
-613.08354139328 471.738934516907 1828.9999961853 181 183 180
-606.457531452179 470.455318689346 1824.00000095367 179 181 178
-601.50820016861 470.461845397949 1824.00000095367 177 179 176
-596.232354640961 470.211029052734 1822.99995422363 174 176 173
-590.962529182434 469.960868358612 1822.00002670288 171 173 170
-585.377097129822 469.453305006027 1820.00005245209 173 175 172
-580.759823322296 469.720065593719 1820.99997997284 178 180 177
-576.453745365143 470.245361328125 1822.99995422363 180 182 179
-571.82377576828 470.513254404068 1824.00000095367 178 180 177
-567.499577999115 471.039682626724 1825.99997520447 172 174 171
-563.473105430603 471.824586391449 1828.9999961853 173 175 172
-559.735953807831 472.867906093597 1832.99994468689 172 174 171
-554.766833782196 472.87991642952 1832.99994468689 166 168 165
-549.498021602631 472.634345293045 1832.00001716614 145 147 144
-544.234871864319 472.389250993729 1830.9999704361 152 154 151
-540.155589580536 473.176509141922 1833.99999141693 167 169 166
-536.060094833374 473.964303731918 1837.00001239777 179 181 178
-532.81581401825 475.526571273804 1843.00005435944 177 179 176
-527.820885181427 475.541174411774 1843.00005435944 169 171 168
-523.676991462708 476.330190896988 1845.99995613098 159 161 158
-519.516944885254 477.119714021683 1848.99997711182 157 159 156
-516.17556810379 478.683739900589 1855.00001907349 172 174 171
-511.975049972534 479.474067687988 1858.00004005432 170 172 169
-507.212400436401 479.748547077179 1858.99996757507 173 175 172
-503.25483083725 480.797678232193 1863.00003528595 180 180 178
-501.147449016571 483.653694391251 1873.99995326996 184 184 182
-499.245226383209 486.768454313278 1886.0000371933 189 189 187
-495.967745780945 488.593071699142 1893.00000667572 187 187 185
-491.874277591705 489.643722772598 1896.99995517731 185 185 183
-487.502485513687 490.436643362045 1899.99997615814 186 186 184
-483.114302158356 491.229802370071 1902.99999713898 183 183 181
-478.96072268486 492.281436920166 1906.99994564056 189 189 187
-475.033849477768 493.591576814651 1911.99994087219 189 189 187
-471.079617738724 494.901984930038 1917.00005531311 185 185 183
-466.854959726334 495.954424142838 1921.0000038147 185 185 183
-462.608397006989 497.007191181183 1924.99995231628 186 186 184
-458.577483892441 498.318374156952 1929.99994754791 185 186 188
-454.519212245941 499.629884958267 1934.99994277954 184 185 187
-449.736922979355 500.167012214661 1937.00003623962 182 184 183
-445.631861686707 501.478850841522 1942.00003147125 184 186 185
-441.045850515366 502.274513244629 1945.00005245209 186 188 187
-437.115341424942 503.845036029816 1950.99997520447 188 190 187
-432.930558919907 505.157589912415 1955.9999704361 187 189 186
-428.937017917633 506.72858953476 1962.00001239777 187 189 186
-424.478620290756 507.78329372406 1965.99996089935 187 189 186
-419.998109340668 508.838057518005 1970.00002861023 187 189 186
-415.074497461319 509.376287460327 1972.00000286102 187 189 186
-410.762965679169 510.689616203308 1976.99999809265 185 187 186
-405.808687210083 511.228144168854 1978.99997234344 184 186 185
-401.854813098907 513.058364391327 1985.99994182587 186 188 187
-397.662818431854 514.630377292633 1991.99998378754 191 191 189
-394.42241191864 517.494380474091 2003.00002098084 189 190 185
-391.12177491188 520.358502864838 2013.99993896484 187 188 183
-387.76096701622 523.222982883453 2025.00009536743 187 188 183
-384.528636932373 526.34584903717 2036.99994087219 186 188 185
-380.486488342285 528.435528278351 2045.00007629395 184 186 183
-376.766979694366 531.041979789734 2055.0000667572 179 180 182
-372.270196676254 532.614946365356 2061.00010871887 179 180 182
-367.206424474716 533.412456512451 2063.99989128113 182 184 183
-362.476378679276 534.727096557617 2069.00000572205 182 184 183
-357.718497514725 536.041557788849 2073.99988174438 188 190 189
-354.291081428528 539.423823356628 2086.99989318848 199 201 200
-350.458323955536 542.289257049561 2098.00004959106 191 193 192
-650.122702121735 475.681632757187 1863.9999628067 152 154 149
-644.022524356842 474.919140338898 1860.99994182587 169 171 166
-637.253046035767 473.647087812424 1855.99994659424 179 181 176
-628.126978874207 470.589220523834 1843.99998188019 184 189 185
-619.066834449768 467.531979084015 1832.00001716614 181 186 182
-611.748576164246 465.751320123672 1825.00004768372 177 182 178
-605.134010314941 464.481681585312 1820.00005245209 175 180 176
-600.525856018066 464.743822813034 1820.99997997284 172 174 171
-595.258831977844 464.496225118637 1820.00005245209 171 173 170
-589.9977684021 464.249193668365 1819.00000572205 168 170 167
-585.064232349396 464.25786614418 1819.00000572205 169 171 168
-580.450236797333 464.522361755371 1820.00005245209 174 176 173
-576.147437095642 465.042591094971 1822.00002670288 179 181 178
-571.207165718079 465.052932500839 1822.00002670288 180 182 179
-566.888928413391 465.574264526367 1824.00000095367 176 178 175
-562.560260295868 466.096073389053 1825.99997520447 175 177 174
-558.526396751404 466.873675584793 1828.9999961853 175 177 174
-553.871154785156 467.141270637512 1830.00004291534 173 175 172
-549.210846424103 467.409312725067 1830.9999704361 147 149 146
-544.248163700104 467.422515153885 1830.9999704361 145 147 144
-539.580225944519 467.691451311111 1832.00001716614 154 156 153
-534.906923770905 467.960774898529 1832.99994468689 175 177 174
-531.384825706482 469.251692295074 1838.00005912781 179 181 178
-527.262985706329 470.032513141632 1840.99996089935 180 182 179
-523.408651351929 471.069067716599 1845.00002861023 175 177 174
-519.251763820648 471.850723028183 1848.00004959106 159 161 158
-515.3568983078 472.888112068176 1851.99999809265 158 160 157
-510.889172554016 473.415076732636 1853.99997234344 178 180 177
-505.865037441254 473.431795835495 1853.99997234344 163 165 162
-501.92129611969 474.470317363739 1858.00004005432 175 175 173
-499.025583267212 476.530641317368 1866.00005626678 191 191 189
-496.88059091568 479.357600212097 1876.99997425079 194 194 192
-493.88986825943 481.41884803772 1884.99999046326 191 191 189
-490.596324205399 483.225017786026 1891.99995994568 184 184 182
-486.494958400726 484.26541686058 1896.00002765656 183 183 181
-482.371687889099 485.306084156036 1899.99997615814 186 186 184
-477.975398302078 486.091643571854 1902.99999713898 187 187 185
-474.059551954269 487.38831281662 1907.99999237061 189 189 187
-470.116406679153 488.685339689255 1912.99998760223 191 191 189
-465.659826993942 489.471733570099 1916.00000858307 191 191 189
-461.667329072952 490.769267082214 1921.0000038147 185 185 187
-457.885086536407 492.322593927383 1927.00004577637 185 185 187
-453.835159540176 493.620693683624 1932.000041008 185 185 185
-449.293315410614 494.40798163414 1934.99994277954 186 186 186
-444.734871387482 495.195418596268 1937.99996376038 187 187 187
-440.386652946472 496.238619089127 1942.00003147125 189 189 187
-436.688542366028 498.048692941666 1949.00000095367 184 184 182
-432.509362697601 499.34783577919 1953.9999961853 185 186 181
-428.302675485611 500.647127628326 1958.99999141693 185 186 180
-423.420667648315 501.179933547974 1960.99996566772 187 186 181
-419.380277395248 502.735137939453 1967.00000762939 187 188 183
-414.675384759903 503.523826599121 1970.00002861023 186 188 183
-410.369336605072 504.823684692383 1975.00002384186 184 186 183
-405.420482158661 505.356848239899 1976.99999809265 182 184 183
-401.674509048462 507.423877716064 1985.00001430511 184 186 183
-397.684901952744 509.235382080078 1991.99998378754 189 189 187
-394.050717353821 511.558413505554 2000.99992752075 188 189 184
-390.367209911346 513.881623744965 2009.99999046326 186 187 182
-387.01730966568 516.716241836548 2020.99990844727 187 188 183
-383.607178926468 519.551157951355 2032.00006484985 187 189 186
-379.578560590744 521.619081497192 2039.99996185303 184 185 187
-375.139266252518 523.175716400146 2046.0000038147 180 184 185
-370.666891336441 524.732410907745 2052.00004577637 178 182 185
-365.983426570892 526.033401489258 2056.99992179871 183 184 186
-361.097097396851 527.078807353973 2061.00010871887 181 183 182
-356.015890836716 527.868211269379 2063.99989128113 185 187 186
-352.106332778931 530.447959899902 2073.99988174438 190 192 191
-348.308891057968 533.283650875092 2085.00003814697 192 194 193
-344.451099634171 536.119341850281 2095.99995613098 195 197 196
-340.53298830986 538.95515203476 2107.00011253357 184 186 185
-649.777054786682 470.365136861801 1863.00003528595 156 158 153
-644.026339054108 469.863831996918 1860.99994182587 172 174 171
-635.540723800659 467.343389987946 1850.99995136261 182 184 181
-625.747680664063 463.813632726669 1837.00001239777 181 186 182
-617.72084236145 461.546838283539 1827.99994945526 177 182 178
-611.419677734375 460.543096065521 1824.00000095367 178 183 179
-605.473458766937 459.792464971542 1820.99997997284 175 180 176
-599.544048309326 459.042340517044 1817.999958992 169 171 168
-593.958616256714 458.545356988907 1815.99998474121 169 171 168
-589.033305644989 458.553910255432 1815.99998474121 167 169 166
-584.430158138275 458.815455436707 1817.00003147125 168 170 167
-579.503178596497 458.82511138916 1817.00003147125 173 175 172
-574.892818927765 459.087789058685 1817.999958992 180 182 179
-569.963932037354 459.0984582901 1817.999958992 180 182 179
-566.278636455536 460.119724273682 1822.00002670288 176 178 175
-561.955809593201 460.636526346207 1824.00000095367 176 178 175
-557.927906513214 461.406320333481 1827.00002193451 176 178 175
-553.581178188324 461.923986673355 1828.9999961853 172 174 171
-549.224078655243 462.442249059677 1830.9999704361 146 148 145
-544.261753559113 462.455719709396 1830.9999704361 141 143 140
-538.710594177246 461.964547634125 1828.9999961853 149 151 148
-533.170342445374 461.473673582077 1827.00002193451 168 170 167
-529.375791549683 462.498724460602 1830.9999704361 173 175 172
-526.132524013519 464.029401540756 1837.00001239777 173 175 172
-522.573173046112 465.308010578156 1842.00000762939 178 180 177
-518.705725669861 466.334342956543 1845.99995613098 139 141 138
-514.816641807556 467.361152172089 1850.00002384186 151 153 150
-510.630369186401 468.135714530945 1853.00004482269 183 185 182
-505.609154701233 468.152672052383 1853.00004482269 160 162 159
-501.128137111664 468.675196170807 1855.00001907349 167 167 165
-497.973531484604 470.461428165436 1861.99998855591 187 187 185
-494.78080868721 472.247987985611 1868.99995803833 193 193 191
-492.33615398407 474.79310631752 1878.99994850159 192 192 190
-488.799810409546 476.327806711197 1884.99999046326 185 185 183
-485.230922698975 477.862924337387 1891.00003242493 185 185 183
-480.613738298416 478.387504816055 1893.00000667572 185 185 183
-476.739019155502 479.670524597168 1898.00000190735 185 185 183
-473.085433244705 481.206566095352 1904.00004386902 187 187 185
-469.644904136658 482.995688915253 1911.00001335144 192 192 190
-465.436935424805 484.026819467545 1914.99996185303 191 191 189
-461.207121610641 485.058277845383 1919.0000295639 184 184 184
-456.955224275589 486.089944839478 1922.99997806549 184 184 186
-452.681332826614 487.121820449829 1927.00004577637 185 185 185
-448.153227567673 487.901091575623 1929.99994754791 187 187 187
-443.608552217484 488.680571317673 1932.99996852875 188 188 188
-439.500749111176 489.965885877609 1937.99996376038 189 189 187
-435.813665390015 491.757035255432 1945.00005245209 189 189 187
-431.866824626923 493.295639753342 1950.99997520447 189 190 185
-427.88702249527 494.834333658218 1957.00001716614 188 189 184
-423.226475715637 495.614737272263 1960.00003814697 189 188 184
-418.975740671158 496.900975704193 1965.0000333786 187 186 182
-414.276331663132 497.681587934494 1968.00005435944 186 187 182
-409.97576713562 498.968064785004 1973.00004959106 185 185 183
-405.85270524025 500.507533550262 1978.99997234344 186 186 184
-402.303725481033 502.806007862091 1988.00003528595 187 187 185
-398.106396198273 504.345834255219 1993.99995803833 189 190 185
-393.876105546951 505.885779857636 2000 190 190 188
-389.612644910812 507.425725460052 2006.00004196167 190 191 186
-386.273682117462 510.230720043182 2016.99995994568 190 190 188
-382.874488830566 513.035893440247 2028.00011634827 187 189 188
-378.67072224617 514.829277992249 2035.00008583069 184 188 189
-374.061584472656 516.116678714752 2039.99996185303 184 188 191
-369.605481624603 517.657160758972 2046.0000038147 183 187 190
-364.938288927078 518.94474029541 2051.00011825562 186 187 189
-360.418528318405 520.48522233963 2056.99992179871 182 184 183
-355.348169803619 521.266639232636 2059.99994277954 180 182 181
-351.10992193222 523.313343524933 2068.00007820129 182 184 183
-347.161650657654 525.866091251373 2078.00006866455 184 186 185
-343.322813510895 528.671979904175 2088.99998664856 191 193 192
-339.262038469315 531.22490644455 2098.99997711182 190 192 191
-334.669560194016 533.018589019775 2105.99994659424 191 193 192
-330.35084605217 535.318434238434 2115.00000953674 192 194 193
-647.68785238266 463.805556297302 1856.99999332428 159 159 159
-640.916049480438 462.560921907425 1851.99999809265 185 185 187
-631.425380706787 459.318786859512 1838.99998664856 188 188 190
-622.687339782715 456.576734781265 1827.99994945526 179 179 179
-616.037368774414 455.333918333054 1822.99995422363 175 177 176
-610.420703887939 454.841017723084 1820.99997997284 179 181 178
-604.815721511841 454.348713159561 1819.00000572205 175 177 174
-598.892331123352 453.607141971588 1815.99998474121 170 172 169
-593.640029430389 453.365713357925 1815.00005722046 168 170 167
-588.393568992615 453.12488079071 1814.00001049042 167 169 166
-584.118068218231 453.633934259415 1815.99998474121 170 172 169
-578.875362873077 453.394114971161 1815.00005722046 177 179 176
-573.95476102829 453.404635190964 1815.00005722046 174 176 173
-569.034457206726 453.415632247925 1815.00005722046 174 176 173
-565.046966075897 454.17657494545 1817.999958992 180 182 179
-561.351716518402 455.187886953354 1822.00002670288 181 183 180
-557.329654693604 455.94984292984 1825.00004768372 173 175 172
-552.988886833191 456.462442874908 1827.00002193451 171 173 170
-548.337578773499 456.725656986237 1827.99994945526 161 163 160
-544.2755818367 457.489043474197 1830.9999704361 137 139 136
-539.019346237183 457.253456115723 1830.00004291534 143 145 142
-533.768653869629 457.018136978149 1828.9999961853 144 146 143
-528.8125872612 457.033157348633 1828.9999961853 152 154 151
-525.288760662079 458.297967910767 1833.99999141693 180 182 179
-522.021651268005 459.813117980957 1840.0000333786 184 186 183
-518.721878528595 461.328655481339 1845.99995613098 153 155 152
-513.998329639435 461.595118045807 1847.00000286102 149 151 148
-509.820520877838 462.361752986908 1850.00002384186 185 187 184
-504.534840583801 462.12899684906 1848.99997711182 180 182 179
-500.06502866745 462.646335363388 1850.99995136261 176 176 176
-496.386647224426 463.913828134537 1855.99994659424 186 186 186
-492.681115865707 465.181767940521 1860.99994182587 191 191 191
-490.258485078812 467.699825763702 1871.00005149841 193 193 193
-487.262815237045 469.718426465988 1878.99994850159 191 191 191
-483.967036008835 471.487432718277 1886.0000371933 190 190 190
-479.363590478897 472.00670838356 1888.00001144409 186 186 186
-475.251495838165 473.026275634766 1891.99995994568 187 187 187
