ply
format ascii 1.0
comment KinectMotionCapture
element vertex 784
property float x
property float y
property float z
property uchar red
property uchar green
property uchar blue
end_header
-75.9949819836927 -478.116548143315 1933.0322953865 16 19 10
-87.1777695676101 -480.346051404967 1934.17821136523 14 17 8
-74.1130806407981 -477.448960060673 1945.9501046759 14 17 8
-81.4220029869737 -478.859097761159 1948.81663336437 14 17 8
-118.868534864579 -486.635010631414 1938.76488912793 14 17 8
-123.299088140743 -487.43379540822 1943.02046401101 14 17 8
-130.654017654884 -488.849658432265 1946.0541936274 14 17 8
-128.277015391322 -488.210806649847 1953.21839823318 14 17 10
-203.286475852814 -515.051665122778 1692.62381817949 14 16 11
-209.648597789051 -516.263523507472 1695.99656607789 17 19 14
-211.263788940434 -516.449577469273 1701.87598952264 15 18 11
-212.87896305198 -516.636033825099 1707.7550956513 15 18 11
-218.303014052147 -517.645372896358 1711.67007952022 14 17 10
-205.626991506339 -514.748167835224 1724.88415769937 13 16 9
-211.048896303448 -515.758240716096 1728.79070984801 12 15 8
-204.069571502454 -514.093556922357 1738.99850949826 12 15 8
-190.391711447337 -510.986342092273 1752.52279994088 13 16 9
-150.883967551996 -502.314615903182 1778.86701792561 12 15 8
-58.7052769143426 -482.300986071662 1831.12843260153 18 21 14
-48.7096453174527 -480.002345894708 1842.22648432379 16 19 12
-41.570523100934 -478.320682657909 1851.8517074211 13 16 9
-38.253194537798 -477.463280492121 1859.55989545308 13 16 9
-33.010033488714 -476.19247896986 1868.1714843981 13 16 9
-25.836794236296 -474.507787052701 1877.6710207556 13 16 9
-22.4937038079094 -473.648156361647 1885.28496700528 12 15 8
-19.1437131194301 -472.788067082357 1892.87265444774 14 17 10
-30.2204417770859 -475.028699489438 1893.61776806044 15 18 11
-34.5704588721942 -475.823318200835 1897.57788714603 17 20 11
-47.5984080524154 -478.481318875698 1897.51042586439 17 20 11
-44.2485076551873 -477.621933235785 1905.09800429951 18 21 12
-50.5425707987635 -478.833032684801 1908.21947141468 18 21 12
-53.9464969080998 -479.423670352279 1912.69111441323 19 22 13
-68.952010684441 -482.50215102208 1911.90785305995 19 22 13
-73.337552509408 -483.302142069575 1915.99554767058 17 20 11
-66.1113063221579 -481.613290830114 1925.30183466899 16 19 10
-65.6534343478743 -481.375907210321 1931.54435812777 15 18 9
-69.070187690615 -481.968670978822 1936.06321284351 15 18 9
-90.9230618198586 -486.508620905857 1932.50313349694 15 18 9
-103.097165632241 -488.97418997335 1933.28425236339 14 17 8
-90.0257173601813 -486.036631363534 1945.05659846292 14 17 8
-122.631354973191 -492.87129541285 1937.10834878586 14 17 8
-147.498605944592 -498.047115870931 1932.64964333458 14 17 8
-122.739644576412 -492.611718787301 1949.364180126 14 17 10
-169.077377084244 -502.372560575346 1936.00087046944 14 17 10
-214.355045894213 -523.114216408394 1693.55930603472 18 20 15
-219.777858034622 -524.132077158608 1697.46431011819 18 20 15
-225.206611554543 -525.151080053145 1701.38972326668 19 22 15
-235.403916934072 -527.2126127632 1702.88003418945 17 20 13
-219.873984530154 -523.650792438715 1717.60759787607 16 19 12
-243.434827937973 -528.631974304772 1712.31766219195 15 18 11
-229.792086092766 -525.485554041109 1725.99709192332 12 15 8
-203.704924609135 -519.625299785777 1745.84208437388 10 13 6
-88.2483160170193 -494.113194843922 1816.46036353935 16 19 12
-43.7939731561734 -484.266056066982 1844.66345399034 14 17 10
-38.5637329943596 -482.977166101915 1853.33443575321 12 15 8
-32.3642424893913 -481.478338187154 1862.43657419766 14 17 10
-29.9926491049611 -480.814810287544 1869.63644012013 15 18 11
-28.5758113945767 -480.360128757751 1876.35295168439 14 17 10
-25.2323693138425 -479.486759623634 1883.97333702905 13 16 9
-32.4629254007185 -480.915568881511 1886.53804793475 15 18 11
-33.9262844086556 -481.089088373864 1891.861661997 16 19 12
-40.2067070359395 -482.310445202984 1894.92507955333 15 18 9
-48.4224016200649 -483.95212751645 1897.1157703074 15 18 9
-51.8241556909973 -484.546730923684 1901.57684519259 15 18 9
-45.5732386905663 -483.044092634455 1910.49045280968 17 20 11
-60.568750692521 -486.157340109822 1909.64717786492 17 20 11
-82.3529028857415 -490.742609755075 1905.80426396397 18 21 12
-79.9751414132346 -490.08096797305 1912.98003818842 18 21 12
-62.0971543960185 -486.056750031832 1927.07523874148 16 19 10
-57.7581893748611 -484.972252915554 1935.02998708755 14 17 8
-59.2297071330332 -485.148564532771 1940.38213018889 14 17 8
-90.7883854552893 -491.846562551144 1932.53025904784 15 18 9
-101.023716055013 -493.919937795778 1934.15334438158 14 17 8
-151.123492896635 -504.627411539943 1918.57390357591 14 17 8
-112.778752524886 -496.175775517443 1941.30360250092 14 17 8
-146.40855966583 -503.310439838162 1933.07216869889 14 17 8
-155.732102948665 -505.180754084712 1935.33541792105 14 17 8
-136.79641093528 -500.936591899848 1949.53874879335 14 17 10
-173.422488944938 -519.875161461641 1715.07988857177 18 20 15
-221.637407488136 -530.383656902758 1696.52428319442 17 19 14
-225.163552002513 -530.990805298551 1701.44020418972 18 21 14
-224.880690111048 -530.755177222601 1708.33139742648 18 21 14
-228.409691739883 -531.363638086671 1713.25709770403 17 20 13
-232.896162134841 -532.184082519514 1717.7066071168 16 19 12
-216.372832648007 -528.359621388838 1732.80894919747 13 16 9
-36.9572838042527 -488.076090091414 1848.04806049769 13 16 9
-27.8834639600469 -485.920676112381 1858.58187267983 11 14 7
-35.1050924655905 -487.362309648663 1861.10441162527 13 16 9
-32.7333259275671 -486.687728341499 1868.31061320526 14 17 10
-29.394750371406 -485.8007764155 1875.95857148808 13 16 9
-27.9724126755645 -485.337313723198 1882.66020665062 12 15 8
-34.2447285315834 -486.56963284113 1885.68660433885 13 16 9
-42.4502393366954 -488.227236202652 1887.82943300114 14 17 10
-64.1587715381824 -492.857020634463 1883.67765258615 13 16 7
-68.536469882591 -493.66962188072 1887.7282644714 12 15 6
-52.648958088386 -490.023640814732 1901.18134065186 12 15 6
-52.1904392284027 -489.773654208684 1907.43034823908 13 16 7
-56.5624827297553 -490.586294640836 1911.45994006046 14 17 8
-67.7104133438806 -492.887787095851 1912.43098873412 17 20 11
-70.1598627312863 -493.276954124962 1917.3832941572 16 19 10
-56.1413293892452 -490.049227571625 1929.71788722633 16 19 10
-60.5204145834741 -490.863267211743 1933.77366910906 15 18 9
-94.9816406896695 -498.279733515454 1924.55396654503 15 18 9
-121.723868396092 -503.997660172055 1918.92085496029 16 19 10
-105.749572997355 -500.342631314474 1932.05836195071 16 19 10
-108.225009030259 -500.735728091269 1937.10466965833 16 19 10
-146.707094549787 -509.021025280907 1926.67888513193 16 19 10
-120.971214553953 -503.229744816854 1943.88732104964 16 19 10
-139.049484876793 -507.039685500836 1942.36090677377 16 19 10
-156.176983208769 -510.639218724029 1941.3336230821 16 19 12
-201.601515545423 -531.73310524675 1707.00852391052 14 16 11
-203.207389127876 -531.91582869575 1712.85545575945 17 20 13
-232.462915886016 -538.293694878001 1704.44718951702 17 20 13
-228.364617730058 -537.197750938161 1713.3027136893 17 20 13
-222.348117780275 -535.673866541998 1723.09915052811 15 18 11
-216.319897236998 -534.148980336081 1732.85363261318 14 17 10
-32.4785105739995 -492.530733116088 1844.19303546675 16 19 12
-20.5298912297762 -489.702973373914 1856.16765464309 13 16 9
-35.4178478961753 -492.872530684764 1854.89042575793 11 14 7
-36.8875230381196 -493.044065648993 1860.23874331499 13 16 9
-50.8450735517316 -496.003491319734 1859.53608524047 13 16 9
-21.5617730412114 -489.312128517982 1879.72904851282 12 15 8
-24.94204264105 -489.912218901347 1884.10689157821 11 14 7
-34.1015297625129 -491.800818558215 1885.7494879765 12 15 8
-19.1858527557069 -488.321987752073 1898.80894594024 13 16 9
-52.4551982143946 -495.583178621368 1889.15930632156 14 17 8
-52.0003503584623 -495.32748621033 1895.42461695138 12 15 6
-64.6105610921048 -497.827039629598 1901.69977978546 12 15 6
-59.3218099880908 -496.496145080737 1910.18004138301 13 16 7
-55.9584544182377 -495.59477394334 1917.74509986696 15 18 9
-43.8717176796601 -492.754563984682 1929.21477664326 15 18 9
-38.5493300822279 -491.420125805706 1937.57238979587 16 19 10
-48.7355478436797 -493.533290195317 1938.98893702631 16 19 10
-90.9660863489323 -502.763531900988 1926.29762470061 16 19 10
-125.486090633008 -510.275352078372 1917.23595254683 16 19 10
-116.31118549835 -508.082663704552 1927.41891698174 17 20 11
-127.549343227647 -510.421626049081 1928.70130472334 17 20 11
-121.278779336844 -508.875116557262 1937.56873624528 17 20 11
-107.202827265585 -505.598933508028 1949.72166674387 17 20 11
-115.527661038463 -507.291075302685 1952.28571244024 17 20 13
-146.302780040845 -513.957440091597 1945.44093106727 17 20 13
-140.018693622606 -512.409597717512 1954.25899760727 11 13 8
-211.072575760781 -539.666236747595 1702.094479762 11 16 9
-181.231983525068 -532.714371059311 1724.27911635423 15 20 13
-227.650888056556 -543.059655430756 1706.95187567679 13 19 9
-220.682202239695 -541.297190487361 1717.26090968892 13 19 7
-226.11912578417 -542.347530546965 1721.1978009143 12 18 8
-180.894726432865 -531.923503513591 1750.80235997207 12 18 8
-28.5110249694869 -496.920610021548 1846.17353150188 17 20 13
-16.5529604119052 -494.054274639863 1858.13836611407 14 17 10
-32.4026605927747 -497.477035224079 1856.37479370332 12 15 8
-92.4471492933248 -510.885497831219 1833.14961563294 12 15 8
-46.8683990471919 -500.423383803604 1861.46351442589 12 15 8
-35.8414262370779 -497.772046828218 1872.85232206222 12 15 8
-78.6924029934704 -507.285807091065 1858.38925620154 12 15 8
-17.5841661562364 -493.333246136492 1893.59467170151 14 17 10
-25.781615688024 -495.025270205328 1895.68583900326 15 18 11
-40.7412337032014 -498.241414629126 1894.64526199662 13 16 9
-46.0681066482962 -499.284276392083 1898.17734929833 12 15 8
-65.8907207101553 -503.593147585062 1895.01970207081 12 15 8
-72.2065178488518 -504.856837006731 1898.187731672 12 15 8
-80.4642992045546 -506.557282912254 1900.49758210444 13 16 9
-70.3367638342947 -504.118156997356 1911.19552533153 13 16 9
-45.6588095611838 -498.40687832959 1928.38500277962 14 17 10
-37.4254420536155 -496.398971561255 1938.04980104853 14 17 10
-47.6140092508115 -498.535391563064 1939.45945987481 13 16 9
-67.5259275555986 -502.85620155984 1936.62491523991 13 16 9
-108.84367299548 -511.984530438318 1924.50617299571 14 17 10
-142.440527502464 -519.372386314409 1915.99254062901 16 19 12
-139.103499188164 -518.461633143608 1923.66034135506 17 20 13
-93.8809217520662 -508.149245506672 1949.30579019466 20 23 16
-79.77769290259 -504.82739169494 1961.38628149038 19 22 15
-115.394272349479 -512.66150791832 1952.29617675795 18 20 15
-112.99461511397 -511.965331199008 1959.4124598573 20 22 19
-214.54137306873 -546.080488025324 1707.02750144986 14 20 10
-174.168055639948 -536.629157657486 1734.54653620264 13 19 7
-215.857472418784 -546.007554879085 1719.75353634953 13 19 7
-216.513454592806 -545.971596583754 1726.10809216212 13 19 7
-183.694320114904 -538.264276333525 1749.40082982465 14 20 10
-54.6849639343257 -508.355900938352 1827.02818994667 18 21 14
-21.663681250242 -500.626934230153 1849.58405737999 16 19 12
-0.101926188162071 -495.526555794636 1866.2677911393 13 16 9
-4.42497091775085 -496.351841221341 1870.10747673703 12 15 8
-50.0619790676216 -506.624670549874 1853.81927274744 11 14 7
-49.617331247332 -506.356416558918 1860.13131385691 11 14 7
-69.3745669286932 -510.705145488983 1856.7048364053 12 15 8
-42.9426147716636 -504.500354501851 1875.4872111184 12 15 8
-44.4123116928501 -504.671776452167 1880.83568088859 14 17 10
-40.0963296568992 -503.522755115354 1888.91649776915 14 17 10
-40.5968198492843 -503.473954604796 1894.70185023191 13 16 9
-49.7873312227519 -505.407669272448 1896.4302213188 12 15 8
-64.7876960574712 -508.665207930398 1895.51479511453 12 15 8
-77.8737774103164 -511.484406359143 1895.56232439576 12 15 8
-84.2023219954 -512.762220927205 1898.76876488898 13 16 9
-89.5693353910012 -513.820476820334 1902.44109579072 13 16 9
-75.5562710315294 -510.465899485076 1914.87701008571 14 17 10
-51.8201768307376 -504.900858900285 1931.57478192858 14 17 10
-44.5493770770689 -503.086346980936 1940.7940568195 13 16 9
-53.7799599482953 -505.026436246385 1942.66810995894 13 16 9
-96.0756882347624 -514.483325412759 1930.07574117249 14 17 10
-134.539964359256 -523.062911601161 1919.39896420778 14 17 10
-109.775249904899 -517.270950383757 1936.3172568455 14 17 10
-72.305767592773 -508.597849414093 1958.54011838952 17 20 13
-91.3305091875656 -512.757668134727 1956.41055138283 17 19 14
-107.454048395783 -516.256233096256 1955.61583069419 15 17 14
-183.965384522222 -544.787224985204 1722.90921019344 14 19 12
-180.781470846549 -543.857621296124 1731.15832581597 14 20 10
-159.438802619446 -538.715630095468 1748.68175817514 14 20 10
-161.007386792056 -538.893001042837 1754.39362104318 15 21 11
-213.285787263498 -550.829756503844 1734.43698847885 15 21 11
-3.77335125775424 -501.905487901112 1852.49196870174 18 21 14
1.49179648346576 -500.516206352977 1861.09672745396 14 17 10
2.92839592176475 -500.014932455544 1867.76928357745 13 16 9
-15.7984689762194 -504.181314388792 1864.52961510891 10 13 6
-41.2789895954568 -509.907564423805 1858.10309783619 11 14 7
-67.7570891211536 -515.860784287475 1851.34077827096 11 14 7
-49.9963211754524 -511.58249160861 1866.0315997506 11 14 7
-49.5451493926666 -511.308341879633 1872.32314092632 11 14 7
-65.4786063136541 -514.819813777817 1870.81453319621 12 15 8
-67.9279449971659 -515.215206774148 1875.76249684767 13 16 9
-45.2784968326105 -509.816846541591 1892.49321881341 13 16 9
-51.576707917804 -511.102821700691 1895.58188479677 12 15 8
-71.4176263608741 -515.512178920701 1892.42782750967 12 15 8
-82.5778452262211 -517.917108027216 1893.3791955649 12 15 8
-74.3872235344822 -515.860075680133 1903.23371598869 13 16 9
-73.9340103667256 -515.587769445013 1909.51651401661 12 15 8
-81.2356316837928 -517.102313117005 1912.29001895027 13 16 9
-72.0487017647771 -514.819389301041 1922.48530765194 13 16 9
-51.1926122154791 -509.852546765815 1937.80841119252 12 15 8
-49.7406950170278 -509.35434653304 1944.42122590131 12 15 8
-87.1867071575592 -517.803582161561 1933.9424512423 13 16 9
-132.471940126762 -528.049434536449 1920.26245619597 16 19 12
-146.654012715546 -531.139442248375 1920.31096191668 14 17 10
-140.385856379738 -529.528801671706 1929.22782122812 13 16 9
-97.0397989245049 -519.403550919899 1953.9287027452 16 18 13
-97.5544963236801 -519.356046945403 1959.76598521725 13 15 12
-159.703741831824 -544.615616389203 1742.04416268212 15 21 11
-155.538700193008 -543.445399207879 1750.69784459782 14 20 10
-155.190662878095 -543.172490712188 1757.37152018923 14 20 10
-0.749621974992287 -506.403003182714 1854.0121693683 19 22 15
-5.07198075689641 -507.241675983275 1857.84178511221 13 16 9
-20.9196387573292 -510.779733169455 1855.99783824713 13 16 9
-38.7102342130514 -514.770427312138 1853.28922530114 12 15 8
-44.9874132092696 -516.064021357847 1856.29499309416 11 14 7
-46.4606196742965 -516.233307483052 1861.65784156094 11 14 7
-39.2674391600225 -514.376078829851 1871.19319960678 11 14 7
-56.1525322086602 -518.149759054234 1869.15596530838 11 14 7
-58.5950790316825 -518.545983997036 1874.07818686556 12 15 8
-62.9693030576393 -519.393651987641 1878.09375998073 12 15 8
-49.9636599604942 -516.182663425475 1890.28212813242 13 16 9
-55.300052074732 -517.256036360092 1893.83122410946 12 15 8
-65.478213191132 -519.458731133288 1895.16133379866 12 15 8
-81.4772211274999 -523.01787421209 1893.86600705318 12 15 8
-65.53193899887 -519.126463207126 1907.25954491965 13 16 9
-73.7951812556799 -520.880916842275 1909.55557295445 12 15 8
-71.397285019418 -520.150348857676 1916.70103616586 13 16 9
-55.4025808569789 -516.253915144368 1929.91425078237 13 16 9
-52.983430364405 -515.521286226564 1936.98117324864 12 15 8
-59.3086211769349 -516.824657162565 1940.15995591137 12 15 8
-77.3166346872651 -520.845464699306 1938.23956156881 13 16 9
-151.822632116127 -538.003355359196 1911.78773697086 16 19 12
-167.972383255854 -541.582127765482 1911.03969726482 15 18 11
-166.591484114173 -541.084465332227 1917.91677758328 12 15 8
-128.124578538547 -531.971666038452 1940.61125394967 16 18 13
-139.403007756569 -534.418225698005 1941.97523052399 15 17 14
-184.46890339154 -556.147086935707 1729.29654510417 13 19 9
-167.889085416356 -552.010219566774 1744.3863934432 13 19 9
-216.349648580087 -563.315706923 1726.2396394247 13 19 9
-223.70395692083 -564.859566203322 1729.19025261049 13 19 9
1.31832194737869 -511.108270828204 1855.05352939831 19 22 15
-12.6007292154271 -514.228455746887 1854.10643580662 13 16 9
-33.2616112604178 -518.943945496409 1849.90714622779 16 19 12
-49.1451767347972 -522.525097248718 1848.17023814528 16 19 12
-49.6601305913353 -522.465838590183 1854.01589408539 13 16 9
-28.9961242213161 -517.395685057448 1870.11738997878 13 16 9
-49.7222486034825 -522.120280101835 1866.15458380422 12 15 8
-61.8005777845911 -524.796884144218 1866.44687380075 12 15 8
-78.7186223379823 -528.615967179246 1864.50331702341 12 15 8
-51.2475680547877 -521.944872431303 1883.61842936807 12 15 8
-47.8885160579412 -520.973979015621 1891.24242987959 13 16 9
-49.3567321671657 -521.143958841943 1896.58631216678 12 15 8
-52.760079372961 -521.770871755953 1901.03383254083 12 15 8
-48.419631800285 -520.570843684038 1909.05601666095 12 15 8
-73.1427132429112 -526.226080880583 1903.75843035241 13 16 9
-71.7159633559854 -525.71300646045 1910.47500616196 12 15 8
-81.9307405991205 -527.943909125604 1911.92325536689 13 16 9
-74.6769308143005 -526.058692055903 1921.25025021267 14 17 10
-78.1011505561064 -526.689405376449 1925.77286684428 12 15 8
-104.871994259586 -532.815641812566 1919.98821542853 12 15 8
-92.7455444463274 -529.78506211159 1931.43063483141 14 17 10
-86.4436032192009 -528.127189347102 1940.2518773938 14 17 10
-100.600879943519 -531.281165012647 1940.16793491245 14 17 10
-156.723995336269 -544.296646050819 1922.11503427457 11 14 7
-160.210723106597 -544.935917364197 1926.86432789618 14 16 11
-150.023312562719 -542.363351043905 1937.42328460262 18 20 15
-154.770932914815 -554.724411192909 1744.62354687537 12 18 8
-176.423155777911 -559.722233337656 1740.02941215583 12 18 8
-201.934323079866 -565.643126186882 1733.59472174875 13 19 9
-198.741719323293 -564.672073832862 1741.83681229877 14 20 10
-64.1983753032365 -532.195064924013 1816.12547149538 13 16 9
9.14525291185608 -514.418890803139 1858.97318715078 19 22 15
-13.4139308839023 -519.643427007159 1853.70696484206 13 16 9
-36.9654492198985 -525.102240498822 1848.08085538985 17 20 13
-46.1261534858697 -527.110846194503 1849.65220527664 17 20 13
-38.9393341638389 -525.204847444303 1859.24197206862 14 17 10
-22.1097027389634 -520.993272013608 1873.45054976773 13 16 9
-76.1330024935218 -533.548098436482 1859.5821686017 12 15 8
-62.1821934998337 -530.027941957316 1872.35376287142 12 15 8
-59.7990889287268 -529.274757913256 1879.56749420994 13 16 9
-49.677356516268 -526.674383933763 1890.38878626854 13 16 9
-52.1135108456456 -527.074664163542 1895.28471345381 12 15 8
-39.0628022694677 -523.778861461073 1907.35930952256 12 15 8
-65.7091720150373 -529.956671085458 1901.07995008615 12 15 8
-72.0339168377095 -531.283790195313 1904.24208352221 13 16 9
-75.4555111345177 -531.918236380635 1908.75166663321 13 16 9
-91.5014634827585 -535.560973884887 1907.57878716666 14 17 10
-110.484019248927 -539.900816697581 1905.17800563664 15 18 11
-95.4606951556123 -536.14040233308 1918.01556818409 13 16 9
-88.1973008406098 -534.23022638044 1927.3236643024 13 16 9
-83.8423197475358 -533.013787003526 1935.30224954861 15 18 11
-74.6064767762928 -530.637682923003 1945.37383379254 12 15 8
-117.04023238936 -540.548758649969 1933.00811282225 15 18 11
-125.377507474861 -542.348911206602 1935.54922931078 12 15 8
-139.58422138691 -545.542462774486 1935.62478028764 14 16 11
-101.032947326481 -536.204083454603 1958.14750340246 17 19 16
-201.547084021716 -571.718547292495 1720.52770639791 15 21 11
-145.368390754866 -557.657725269162 1762.41401120638 14 20 10
-112.420346174633 -549.45794113282 1785.53904684155 12 17 10
-48.2891516611088 -533.508318721931 1830.26418397283 17 20 13
-45.4779521322921 -532.442870824 1843.8791994788 13 16 9
-44.0658832612018 -531.910005237682 1850.662778129 13 16 9
-39.7614053607982 -530.678033241064 1858.83867831417 12 15 8
-57.6068325644878 -534.807353994229 1856.24612331699 12 15 8
-61.9788718545642 -535.67504531392 1860.24094325428 11 14 7
-73.1091193755695 -538.176617247571 1861.02001836046 11 14 7
-86.1849308337703 -541.146950758695 1860.93306973423 11 14 7
-50.9638988960575 -532.446941823569 1883.72740532386 11 14 7
-56.3021548322193 -533.54947128248 1887.26501340332 13 16 9
-44.2271595216823 -530.447904850469 1898.94421961827 11 14 7
-39.8799188221695 -529.214041604408 1906.96161492502 12 15 8
-73.320707319402 -537.096986555145 1897.55596672874 13 16 9
-68.9840024259294 -535.864811095902 1905.61234286062 12 15 8
-83.0798422492176 -539.07707283628 1905.26349843072 13 16 9
-89.4237955899904 -540.419410946117 1908.48734084986 13 16 9
-83.1389328369565 -538.719322100166 1917.39864546306 13 16 9
-116.724603541224 -546.620409795354 1908.51946212629 13 16 9
-85.1364911872339 -538.830378729408 1928.64139314921 14 17 10
-92.4660661464554 -540.409279362895 1931.47898188358 14 17 10
-90.0556528110506 -539.645022927693 1938.59831166075 8 11 4
-82.7614178137912 -537.707711406865 1947.80903434764 8 11 4
-107.673007880636 -543.511258972863 1943.11770821101 11 14 7
-242.335960900274 -587.270228633521 1706.28633074709 14 19 12
-134.742046942363 -560.640745444516 1767.8367172628 13 18 11
-105.606339780504 -553.283762155668 1788.9969746186 12 17 10
-38.0439439256275 -536.509397512596 1829.29700252728 18 21 14
-69.2820878321481 -543.970215398509 1819.77344539342 16 19 12
-43.8689194465105 -537.543279640512 1838.58136574564 13 16 9
-49.1887045588559 -538.650142692641 1842.04765927257 13 16 9
-61.250872550394 -541.407656856994 1842.22886352441 13 16 9
-48.2884464784199 -538.038765325299 1854.67737968889 13 16 9
-48.7976201175711 -537.968967239235 1860.50915788003 13 16 9
-66.6673163494935 -542.145510047569 1857.97596647205 12 15 8
-70.082306785396 -542.785496137521 1862.45846215857 12 15 8
-88.9558941998572 -547.203140624451 1859.60398259173 12 15 8
-62.4209841092769 -540.525986102131 1878.30232028435 12 15 8
-42.6162939417327 -535.497960452609 1893.67137109183 12 15 8
-43.1106614786116 -535.428811252001 1899.44683843234 11 14 7
-39.7280848493866 -534.414305624353 1907.01196008455 12 15 8
-67.3642614079459 -540.965945497739 1900.27429309218 13 16 9
-100.860594042278 -548.941559633372 1891.01636291855 12 15 8
-60.6094246873661 -538.939737723589 1915.44014068599 13 16 9
-99.0043042069799 -548.10398106239 1904.13658581116 13 16 9
-98.5569670478497 -547.803297920251 1910.45911600098 13 16 9
-60.1546947810621 -538.264718690697 1933.66144931439 13 16 9
-115.183437284901 -551.467022561871 1915.32372685904 13 16 9
-127.409842967505 -554.24907720954 1916.09921989164 13 16 9
-107.467622541302 -549.208380416735 1930.96564770046 15 18 11
-84.5660607750633 -543.45251065959 1946.98510505154 12 15 8
-201.299525619663 -571.624450888924 1902.80804248854 12 15 8
-153.015221492227 -559.701114668551 1929.79285898196 15 17 12
-65.7456891079544 -548.667914714893 1815.36749880041 20 23 16
-38.4178652537703 -541.690471132557 1835.20781027205 15 18 11
-56.230374148492 -545.901941114863 1832.44117132277 14 17 10
-64.4466111162858 -547.734488560944 1834.51337358828 13 16 9
-37.0499125973009 -540.750754505038 1854.10193840429 13 16 9
-45.2598891693705 -542.58343726395 1856.14988259554 13 16 9
-45.7658038142168 -542.509911807996 1861.97191404579 13 16 9
-49.1653161215848 -543.152317584854 1866.39448578855 13 16 9
-69.9493176848311 -548.090872240201 1862.51148334629 13 16 9
-83.9974536745389 -551.362141857333 1861.94826944773 12 15 8
-71.9529770221596 -548.188250646674 1873.7855185154 12 15 8
-32.7898466054226 -538.323693790868 1898.26598925702 12 15 8
-24.5591835849051 -536.099533594492 1908.07735984974 11 14 7
-61.8681903192844 -545.109201421594 1896.73608341883 11 14 7
-72.5812030512021 -547.359958117889 1903.91796893044 12 15 8
-91.5458938862797 -551.836836241623 1901.36434149121 12 15 8
-67.763728356143 -545.784580008977 1918.19866197194 13 16 9
-92.5852480689553 -551.701106645741 1913.10252221585 13 16 9
-72.6587234776117 -546.603065228933 1928.06250095426 13 16 9
-85.8249811758132 -549.648738098345 1928.26472518591 12 15 8
-141.907310919606 -563.243751393193 1909.69450909925 12 15 8
-118.063555990738 -557.185642899624 1926.30385502487 18 21 14
-163.090791058212 -567.852658436461 1919.19270473183 17 20 13
-191.028978443528 -574.51212856128 1913.50826637093 12 14 9
-64.7548419193413 -553.3638133686 1828.20646375702 12 15 8
-64.3173308791416 -553.046532382883 1834.57595541009 13 16 9
-55.208439586014 -550.560451017321 1845.1883202534 13 16 9
-37.408584501488 -545.903484774109 1859.97309351218 13 16 9
-33.0846472034974 -544.619814166693 1868.10938456445 13 16 9
-28.752110522404 -543.335784428012 1876.21397452938 12 15 8
-105.1370303267 -562.008694083226 1851.88539638697 12 15 8
-72.7848222472587 -553.727265221199 1873.37695296768 12 15 8
-56.8416387885149 -549.546983267142 1886.96158980129 12 15 8
-60.2512629456979 -550.196970599806 1891.4169182631 11 14 7
-61.7244037203384 -550.364169537364 1896.78084057537 11 14 7
-86.4859631558592 -556.334878314628 1891.42787229455 13 16 9
-94.7737715782235 -558.197943419087 1893.74653809137 13 16 9
-74.8897415583896 -553.045497760968 1908.89956785745 12 15 8
-87.0670529645916 -555.877207479844 1909.46050482901 12 15 8
-94.393919130662 -557.500441114277 1912.25911778687 12 15 8
-94.9116349934576 -557.429435856032 1918.12337372549 12 15 8
-87.6310062146017 -555.42021197062 1927.4290863144 13 16 9
-116.425965120369 -562.377601240296 1920.84219077272 13 16 9
-127.691586599548 -564.975645035274 1922.06297557015 10 13 6
-130.180253829107 -565.39268542738 1927.14329137245 12 15 8
-147.333302839479 -569.449506412145 1925.92216478853 13 16 9
-133.7393821582 -565.675102801875 1944.07565412682 8 10 7
-28.9880526520956 -550.079335831012 1833.86646517719 17 20 13
-14.1061342034212 -546.100744171295 1847.36678489091 13 16 9
-52.1183409948089 -555.513309151991 1834.48473487061 12 15 8
-76.7046428394513 -561.521977039743 1828.45710410924 13 16 9
-70.4905026479263 -559.73753298331 1837.68517421843 13 16 9
-48.8361869267868 -554.052251477256 1854.39452557072 12 15 8
-27.1474610201443 -548.363798990893 1870.97812063942 12 15 8
-45.019458364886 -552.672149153272 1868.37118557168 12 15 8
-82.2448987246016 -561.863474412501 1856.60495457746 12 15 8
-65.3617694103914 -557.39316414106 1870.77918575478 11 14 7
-65.4153117269583 -556.992941712512 1882.91961852437 11 14 7
-67.8619734814714 -557.403795334512 1887.84788223344 10 13 6
-62.5498711998578 -555.860045959702 1896.37583087929 11 14 7
-79.5550972319634 -559.93847396338 1894.59222500898 14 17 10
-88.8113762529339 -562.063383728889 1896.44499692785 13 16 9
-93.2182855168322 -562.966648386997 1900.54682310002 13 16 9
-81.0901355598785 -559.710583114762 1912.12528998795 11 14 7
-91.3350348786564 -562.082973466483 1913.59604863764 11 14 7
-89.9009055114566 -561.518499976824 1920.317676565 12 15 8
-87.4875037035303 -560.708840121616 1927.45457607192 13 16 9
-98.7291333211879 -563.329526351837 1928.57198854153 14 17 10
-131.467999112137 -571.344978161526 1920.37290140026 11 14 7
-102.688701624241 -563.917485393083 1939.00463363104 17 20 13
-128.628494177082 -570.22155182575 1933.91942903103 13 16 9
-123.28780390923 -568.678077624027 1942.34106235719 18 20 15
-135.327491845041 -583.017057647141 1767.57208848512 20 23 14
-29.8076514865278 -555.548249805431 1833.45668903024 17 19 14
-30.3083626903451 -555.461002436768 1839.26713539863 13 15 10
-35.6202829172247 -556.60513946281 1842.68069531148 11 13 8
-54.423874980869 -561.198154708822 1839.45561680927 11 13 8
-76.1450449054006 -566.5336886463 1834.9051844916 12 14 9
-7.21405482655202 -548.708616036324 1874.68357267316 10 12 7
-50.1673718593598 -559.467409467365 1859.81442743657 10 12 7
-62.2658129531053 -562.342803062869 1860.05588370582 10 12 7
-72.4464338757471 -564.726988369523 1861.27961352931 11 13 8
-29.4233584045571 -553.542050486941 1887.84869482943 12 14 9
-29.9074517173779 -553.457329188601 1893.595847397 13 15 10
-43.9561476611314 -556.829639225967 1892.97092086626 12 14 9
-67.7207080277193 -562.674189828851 1887.8922605001 12 14 9
-80.8432358978455 -565.80509400085 1887.87831386838 13 15 10
-67.7620138386299 -562.265511824147 1899.9935289531 12 14 9
-81.4109432456696 -565.319533941417 1905.8788677448 12 14 9
-78.0274292062257 -564.250677252534 1913.47482339134 12 14 9
-71.7148887220218 -562.43907534778 1922.35376952094 12 14 9
-80.0118823399347 -564.339711127731 1924.68281799093 12 14 9
-72.7115565862042 -562.279634787506 1933.94843417295 13 15 10
-70.27930394228 -561.456876890264 1941.02361363852 14 17 10
-92.2637440010536 -566.828917668302 1937.42667419926 7 10 3
-116.233364356755 -572.700246102196 1933.09245526134 14 17 10
-75.6664838269128 -562.210004108591 1956.65242218579 11 14 7
-130.005004858561 -575.773486046927 1939.42126316699 18 20 15
-16.6743244201124 -557.62976184933 1834.0369430442 24 25 17
-49.857783514742 -565.993831368083 1823.3721243462 17 19 14
-34.9765723418052 -561.923761771999 1836.9328244162 14 16 11
-31.6265093976216 -560.838028596457 1844.66270333088 12 14 9
-29.2326520659199 -560.001059900287 1851.89033804246 12 14 9
-29.7264346718298 -559.911104913626 1857.67676933304 13 15 10
-56.2766493947862 -566.547492288425 1850.75088315878 11 13 8
-49.0601740469525 -564.466901841824 1860.34077099649 10 12 7
-34.0985266289875 -560.391110908704 1873.60643920647 10 12 7
-33.6212738543811 -560.053405600607 1879.84127243678 10 12 7
-53.4687533294789 -564.953785032522 1876.4015692564 12 14 9
-22.9714330987481 -556.883339804736 1896.8541160812 12 14 9
-34.1113692047665 -559.540268546735 1897.57107884886 11 13 8
-53.0267655041039 -564.196413508495 1894.7212507631 12 14 9
-90.413785051588 -573.601041193233 1883.42026363946 12 14 9
-74.92534863841 -569.188054611335 1902.73652502926 11 13 8
-93.9181682187984 -573.854482589385 1900.16766225332 11 13 8
-81.7777690380703 -570.521853690179 1911.74991746258 12 14 9
-76.4385052890746 -568.938512360638 1920.20201719109 12 14 9
-87.6666014667942 -571.608178976698 1921.23825899923 13 15 10
-76.4642710611039 -568.522664798061 1932.25011500901 13 15 10
-59.384008510587 -563.932962533336 1945.7668779488 14 17 10
-95.0500712872024 -572.866095682957 1936.16756239071 16 19 12
-102.404200718595 -574.538984398321 1939.03604889064 13 16 9
-101.936974550578 -574.207984291297 1945.30387563312 16 19 12
-145.541993945967 -585.159531670965 1932.73267878622 16 18 15
-3.07086382437438 -559.299461809824 1840.92432076675 19 21 16
-21.827862144352 -563.978828429216 1837.47266011234 17 19 14
-40.6108791951265 -568.661717005293 1834.11444930426 14 16 11
-30.5186828535442 -565.801055426003 1845.2097349694 13 15 10
-11.7327707680395 -560.67461996606 1860.52619051614 13 15 10
-73.9591802045174 -576.689104715618 1835.96410977116 13 15 10
-73.0733581347538 -576.00638735859 1848.69339762303 12 14 9
-42.6509827619599 -567.85501419909 1869.475293676 11 13 8
-23.7932723249887 -562.723163220908 1884.52859509055 10 12 7
-40.7353485663744 -566.916405795222 1882.43803851504 10 12 7
-60.6076468295156 -571.869161444608 1879.05741502854 10 12 7
-53.352377915858 -569.762075331777 1888.51999793628 11 13 8
-62.5831122016851 -571.943703407271 1890.24211828851 11 13 8
-58.2282040873203 -570.593247296864 1898.30465661752 12 14 9
-94.6868465435027 -579.847188567635 1887.54824320833 11 13 8
-108.825290204367 -583.297876560966 1887.20797764539 11 13 8
-85.020404865987 -576.897253656877 1904.1769553877 11 13 8
-83.5825821104268 -576.305895999418 1910.90184374411 11 13 8
-85.0649659020428 -576.472835310971 1916.30024748108 12 14 9
-91.4249488723557 -577.904658949004 1919.52710829511 14 16 11
-69.4807150730901 -572.001052270865 1935.29788972991 14 16 11
-53.3637340082027 -567.612178008067 1948.36894437911 13 16 9
-87.5847759343023 -576.046406595727 1945.40849299462 13 16 9
-91.0219442388787 -576.721357477604 1949.95032679909 20 23 16
-162.0711633874 -594.881094103909 1925.61878844251 12 14 11
0.928693504239408 -563.431175626535 1842.94966045791 17 19 14
-9.17119380195919 -565.87083758254 1843.83861713474 15 17 12
-17.3577773625726 -567.804050508044 1845.7371671975 13 15 10
-24.5906860556857 -569.484755136871 1848.15065029622 12 14 9
-68.4821936380544 -580.830870810507 1832.49769778828 13 15 10
-62.2468256221627 -578.956044059646 1841.7030870253 13 15 10
-95.6022307130206 -587.513761308436 1831.55441107163 13 15 10
-87.439907953037 -585.131484384859 1841.71934228142 12 14 9
-52.1774593751654 -575.618598443488 1864.87404301318 11 13 8
-58.4874079253122 -577.052773275554 1867.91272238828 10 12 7
-57.0541447905593 -576.449812018033 1874.6618656287 10 12 7
-59.4944948858891 -576.866289968589 1879.56314447766 10 12 7
-92.0130028821351 -585.186737845325 1870.35335348364 10 12 7
-78.943535761443 -581.526577462844 1882.58926814048 11 13 8
-57.1078966055405 -575.568521279274 1898.79761676937 11 13 8
-53.7125627218571 -574.455608200334 1906.37750254918 11 13 8
-106.749011631677 -588.147397842903 1888.12638953553 11 13 8
-91.6952808044837 -583.974141248649 1901.11263383346 10 12 7
-84.4136469642347 -581.841989766742 1910.49222487549 11 13 8
-97.5986179865371 -585.07415949254 1910.64618365992 13 15 10
-90.3062322335821 -582.941515461357 1919.98616592722 14 16 11
-62.490632488339 -575.438717701757 1938.34807126424 13 15 10
-73.7276759766488 -578.161286204781 1939.38320417849 12 15 8
-122.146403426278 -590.606939737834 1924.25853052426 13 16 9
-113.862880230558 -588.218328308996 1933.97746754581 13 16 9
-107.524171902146 -586.340272460451 1942.80121313982 13 16 9
-157.052731672664 -611.013401751164 1756.52348748022 19 24 17
-17.6832554621773 -573.338907308832 1839.55486437453 15 17 12
-20.0979173962381 -573.749518838401 1844.36354284404 13 15 10
-74.5784540413696 -588.03474344633 1823.30766904169 13 15 10
-86.6834272195831 -591.020930355765 1823.50249953949 14 16 11
-93.9758009198224 -592.723943174277 1826.12360935423 12 14 9
-116.738057405695 -598.543102098316 1821.23594248621 12 14 9
-81.5100473528627 -588.932234319868 1844.57943829168 12 14 9
-52.0338250327368 -580.85977800004 1864.92807084277 11 13 8
-56.4080481314542 -581.791553754767 1868.89053927612 10 12 7
-57.8789886077644 -581.951855081388 1874.25064710238 10 12 7
-41.8916335922601 -577.476823760779 1887.85737292284 10 12 7
-54.0265598167542 -580.470576303696 1888.15863666593 11 13 8
-75.8903267115949 -586.043500988214 1883.98776286065 11 13 8
-91.952081424806 -590.073534132799 1882.62810726342 12 14 9
-89.552509137194 -589.206963509453 1889.85321257094 11 13 8
-92.0149574355031 -589.629975971777 1894.83148314529 11 13 8
-89.6074979106709 -588.763244113185 1902.02740648237 11 13 8
-83.294917264185 -586.86406370839 1910.96149597742 11 13 8
-86.7271956883404 -587.545843149752 1915.48086341929 12 14 9
-60.8716484762966 -580.480266968905 1933.05045104522 14 16 11
-58.4257229892535 -579.610927717223 1940.10427495272 13 15 10
-116.596606049483 -594.763268787018 1920.51166296369 13 16 9
-89.7210538390802 -587.435548841089 1938.35599618039 13 16 9
-138.203502427655 -600.014329484441 1923.38385713791 16 19 10
-161.276719774656 -605.876037954446 1919.62386344475 18 21 14
-46.4277556490269 -586.301268290701 1825.09215131759 15 17 12
-82.598162002768 -595.799325612397 1813.11145165787 14 16 11
-54.1943799342117 -587.909691587498 1833.42917083755 14 16 11
-81.7323237428496 -595.07772490599 1825.9385553677 14 16 11
-89.0230639893952 -596.795503166712 1828.54334933929 14 16 11
-95.3554954047355 -598.254814285618 1831.65056247322 12 14 9
-50.4214229357021 -585.940098786556 1859.63040967654 11 13 8
-80.9339744163107 -593.897964750578 1850.99538032605 10 12 7
-70.7971060110175 -590.938035166245 1861.98747999575 10 12 7
-18.950953118835 -576.790263621799 1892.73845270154 10 12 7
-23.3034025983854 -577.727666210423 1896.61652746608 11 13 8
-91.7472228199898 -595.846101641841 1870.430369719 12 14 9
-109.759774184259 -600.43591309889 1868.16758425117 12 14 9
-98.6232107597678 -597.215033372114 1879.50908289277 13 15 10
-112.770347720115 -600.76659774914 1879.13647675674 12 14 9
-60.7121923868412 -586.598632405955 1909.11214623497 12 14 9
-89.4667376114056 -594.060154040149 1902.05691983257 12 14 9
-128.99006215334 -604.395147959251 1890.3066601228 12 14 9
-111.95923095292 -599.607081140022 1904.13311799492 12 14 9
-133.971408368529 -605.253947472004 1900.46565145776 12 14 9
-163.833073524113 -612.992424992807 1893.44976853737 13 15 10
-139.936564049902 -606.375730232117 1910.21498027994 14 16 11
-89.5720416875854 -592.703263769945 1938.37423323651 16 19 12
-133.17531239929 -604.103562191783 1925.51229693171 11 14 5
-82.3683756353817 -601.625440732197 1800.78642603606 17 23 13
-106.028810506837 -607.810785843113 1795.10600830296 17 19 14
-54.5105941617372 -593.546936588948 1827.14783052341 15 17 12
-58.8816654867956 -594.488745776438 1831.0922624547 14 16 11
-54.5657844598662 -593.070313654767 1839.34354622768 13 15 10
-82.1324935294649 -600.312379887062 1831.91299002784 13 15 10
-92.3298708417537 -602.833792051361 1833.11229518792 12 14 9
-48.3413840400215 -590.651361686547 1860.62307835137 11 13 8
-56.5871831053253 -592.646994453115 1862.70207535719 10 12 7
-57.0889458411332 -592.542192182459 1868.52750910387 10 12 7
-37.2194220155562 -586.91825969536 1884.03206962726 11 13 8
-66.8242645736126 -594.699928453508 1876.03445702945 11 13 8
-134.907661637939 -612.645749526582 1856.41266820078 11 13 8
-137.40365850747 -613.075075374408 1861.51244112615 11 13 8
-62.0156077572027 -592.447205397067 1902.46634846425 12 14 9
-81.0201519055123 -597.3476146533 1899.79329318108 12 14 9
-70.8002188453123 -594.349888225857 1910.5008530154 9 11 6
-112.276413022419 -605.314039446347 1897.81042873467 10 12 7
-126.471054252482 -608.905988832141 1897.58869966116 12 14 9
-139.707011598759 -612.236770445238 1897.86970229023 12 14 9
-121.668490591325 -607.131488639849 1912.05139873084 11 13 8
-174.0595643531 -621.015419603165 1895.18007571815 12 14 9
-100.194864581834 -600.870394907019 1933.69240267083 11 14 7
-111.481907384782 -603.676037517273 1934.86072459841 17 20 13
-195.930098493651 -625.93116623563 1910.93176613189 9 11 8
-65.8711410506236 -602.484278879579 1809.13254299909 19 25 15
-62.5378585715797 -601.313605790322 1816.97835110682 14 16 11
-30.749832907659 -592.082604380149 1845.06136622248 12 14 9
-48.6300302848217 -596.74110077602 1842.26381226652 12 14 9
-89.7377720584949 -607.766105386342 1828.16790580444 12 14 9
-138.644555627958 -620.919619718356 1810.51113320852 12 14 9
-77.242482481779 -603.838356038622 1846.60089119474 11 13 8
-53.5366675622437 -597.097047178419 1864.1527892625 10 12 7
-93.7915472207744 -607.871382703281 1850.94495264544 10 12 7
-97.2289283239771 -608.562655456878 1855.47820077667 10 12 7
-50.1719405060272 -595.444013249191 1883.87720639831 11 13 8
-53.5779742401798 -596.133039779395 1888.29455701752 11 13 8
-118.256702551045 -613.565074995793 1864.14891866562 11 13 8
-128.526141405255 -616.121401116215 1865.59466038556 11 13 8
-69.6566127948728 -599.800274604702 1898.91745887835 11 13 8
-76.9770789702622 -601.556959384215 1901.60805585843 12 14 9
-78.4536556846693 -601.718490233878 1906.98831367559 9 11 6
-63.3362008653862 -597.356181191765 1919.8563920765 11 13 8
-80.4300437105243 -601.776783879159 1918.18577188233 12 14 9
-107.322335671903 -608.86327996579 1912.24577637185 12 14 9
-156.752187263058 -622.081160075844 1896.49041563925 12 14 9
-136.743948261232 -616.388559299699 1911.52330746354 13 16 9
-123.104481574487 -612.19268118921 1929.77379034527 14 17 8
-138.342018422877 -616.093959645303 1929.33251373496 12 15 8
-43.5780230928866 -601.644445149858 1820.41098478518 21 27 17
-38.2967930856668 -599.922475462208 1829.16607511063 15 17 12
-16.5993507416244 -593.650794516496 1846.08645669498 14 16 11
-26.7381472977839 -596.209622816025 1847.04464040005 12 14 9
-39.7892957658428 -599.573785764749 1846.61747963556 12 14 9
-63.4967832508575 -605.886402072868 1841.03140666336 12 14 9
-107.563502540459 -617.829001647455 1825.65239217508 11 13 8
-66.4532074235717 -606.197075676731 1851.81188712368 11 13 8
-103.361909912952 -615.894452933305 1846.34374554786 10 12 7
-98.0696256626987 -614.177096939536 1855.05488079071 10 12 7
-91.7958384296211 -612.190901216841 1864.18793954285 10 12 7
-53.4269826916882 -601.348189427081 1888.33863192725 10 12 7
-117.158274209427 -618.685446873324 1864.63150456169 11 13 8
-68.0369435075658 -604.885589310275 1893.58966315991 11 13 8
-83.1496892769921 -608.805130834388 1892.67353138673 11 13 8
-75.8556582676357 -606.547983238686 1902.08601017226 11 13 8
-120.266227363667 -618.53335461355 1887.95663874695 11 13 8
-24.1206081337664 -591.815535522115 1937.51493995524 12 14 9
-46.0775616262792 -597.619616499703 1933.54410974078 12 14 9
-92.5136288345292 -610.151736248922 1918.79625772734 12 14 9
-126.292883745506 -619.193974699803 1909.91535176147 12 14 9
-121.923143297252 -617.745340413021 1917.98573412518 13 16 9
-99.9029779248919 -611.450249501179 1933.72175916197 16 19 12
-107.273099378863 -613.230526977807 1936.58182126539 12 15 8
-34.7619907736276 -604.460346497021 1824.86696289293 12 19 11
-42.5130285172071 -606.110183533067 1833.12089519437 14 16 11
-24.6550192119848 -600.853461650959 1848.06840754241 13 15 10
-36.7420495123274 -603.978176782774 1848.10916018382 12 14 9
-74.5195436791932 -614.022621910095 1841.75030193684 11 13 8
-71.6702331513934 -612.709280929133 1855.3803254884 9 11 6
-59.5639603373535 -609.073967752103 1867.27945519337 9 11 6
-96.9682403166163 -619.252581796999 1855.55389820086 9 11 6
-108.184051588732 -622.121045928006 1856.41901821851 10 12 7
-87.8314383763366 -615.93529268295 1878.27823653747 10 12 7
-76.6555314737962 -612.569252143514 1889.56437847153 10 12 7
-69.3597936926675 -610.286728139897 1898.98747070599 11 13 8
-109.850313572404 -621.299626106941 1886.50390420895 11 13 8
-103.540250898897 -619.290634169112 1895.51667169741 11 13 8
-105.03401753996 -619.452824492571 1900.96033598587 12 14 9
-90.8854512704442 -615.270149102932 1913.41597600659 12 14 9
-88.4541208175316 -614.345431778487 1920.55988025384 12 14 9
-163.917732768388 -634.784478237774 1899.48826107187 13 15 10
-144.41440501539 -628.866707566333 1920.43427027146 12 15 6
-51.9774796076979 -614.591930211501 1816.14605558261 8 15 7
-51.5212717083109 -614.19496433831 1822.49643832839 14 16 11
-68.4477602466746 -618.712379884829 1820.14334182269 13 15 10
-64.1323709291188 -617.225378154346 1828.43974247755 12 14 9
-77.2197418216449 -620.65478948709 1828.10587406183 12 14 9
-50.6357444499526 -612.884967517662 1847.31181332476 12 14 9
-39.5098067626591 -609.484219061625 1858.8063229454 11 13 8
-56.4790741815533 -614.009354986336 1856.60718179606 10 12 7
-26.9034661650118 -605.41284298995 1876.91767605494 9 11 6
-58.4474265499229 -614.04303504567 1867.79034491113 9 11 6
-68.6606441797977 -616.659687482808 1868.98833234342 9 11 6
-78.886520474406 -619.278273225975 1870.23302735111 10 12 7
-129.563359408231 -633.009327617148 1858.78349484286 10 12 7
-68.7146909646679 -615.642506530963 1893.21097261607 10 12 7
-113.093300102031 -627.854149596118 1878.82008402844 10 12 7
-126.30650467685 -631.303948628702 1878.94053968597 11 13 8
-112.191675244704 -627.08092601413 1891.54691109721 11 13 8
-116.623167934881 -628.065480632924 1895.68868848734 12 14 9
-141.597834357494 -634.810644107027 1890.6379945294 13 15 10
-121.583827629457 -628.939975664979 1905.761894519 12 14 9
-153.450859698202 -637.611056324863 1897.8082502928 12 14 9
-192.223424704062 -648.208782578089 1887.00194153567 14 16 11
-179.062367275495 -644.260108054783 1899.07902303269 15 18 11
-15.6572693846089 -609.257725465172 1840.52793486 12 17 11
-30.630328815088 -613.262838188306 1839.03914991274 12 17 11
-93.9725444708137 -631.058588967847 1813.59799144012 11 16 10
-64.0489364187819 -621.984159850875 1840.71173141503 9 14 8
-84.9083438056346 -627.655306264223 1836.64617593234 8 13 7
-69.9121503981899 -623.116450372466 1850.07593662734 8 13 7
-39.3625037940966 -614.157629418447 1870.89507981001 9 14 8
-66.071044235396 -621.490158834331 1864.11751835571 9 14 8
-52.9648389587114 -617.500004798251 1876.42537215733 8 13 7
-100.14560684936 -630.641715006801 1860.16033490997 7 12 6
-85.0940667052353 -626.100155037768 1873.38631123217 11 13 8
-26.1814335286366 -609.114177735869 1906.96882290253 11 13 8
-101.711128378363 -630.286393274818 1877.88703122869 11 13 8
-108.083445164242 -631.828764100701 1881.08989137536 11 13 8
-107.629064285733 -631.435179546277 1887.44399368142 11 13 8
-101.309472963324 -629.381074716546 1896.45079410484 12 14 9
-143.429118340194 -640.780123555875 1889.77205583319 13 15 10
-142.990475056848 -640.390380956775 1896.18216313614 12 14 9
-126.870573134153 -635.566823356926 1909.51680951582 12 14 9
-161.716257551003 -645.154943920334 1900.35345649543 14 16 11
-144.600778847691 -640.053524787961 1914.06346902609 9 12 5
44.8211788032882 -597.299854052497 1865.12239945108 12 17 11
45.3519452030651 -596.882621619143 1871.20829183186 12 17 11
13.9857342547949 -605.652301430951 1861.33341111208 11 16 10
-47.4137123252922 -623.059042666073 1836.71830188646 11 16 10
-63.4012534893351 -627.384870916171 1834.89728540459 10 15 9
-91.0361103896449 -635.056802302193 1827.44835438922 10 15 9
-93.5020267232103 -635.488129856256 1832.43425138514 8 13 7
-99.850048017045 -637.035084885703 1835.54401290548 8 13 7
-67.366858087853 -627.431080496666 1857.38426449987 9 14 8
-62.0404503325847 -625.631388950846 1866.02068821387 8 13 7
-71.2898151679053 -628.015621133681 1867.68406651796 7 12 6
-99.0398917216226 -635.703362203162 1860.65294208676 7 12 6
-31.3932001160295 -616.042927019769 1898.56486083926 11 13 8
-59.1503725578044 -623.732528559263 1891.5589074463 11 13 8
-113.8049000335 -638.846625269186 1878.41836181183 11 13 8
-90.888970610095 -632.020595946385 1895.06104661653 11 13 8
-106.0567331963 -636.091544721386 1894.2526618666 11 13 8
-71.8478124366908 -625.784676105863 1921.82018399664 12 14 9
-87.0282103432656 -629.858537515718 1921.05780185212 12 14 9
-110.071037839102 -636.173201302235 1916.89900432351 12 14 9
-123.335417388915 -639.693212974129 1917.16513404838 13 15 10
-65.9330734468773 -623.058653674704 1948.34054593973 16 19 12
-73.3283632641331 -636.431859216337 1811.49070207136 12 17 11
9.31919620429289 -612.126016351449 1858.98597701991 11 16 10
-9.5257151239696 -617.328740066996 1855.52937083985 11 16 10
-40.0182502379784 -625.909323433933 1846.42687347475 10 15 9
-50.6956208635989 -628.454899037579 1853.29029360719 8 13 7
-45.3657527665654 -626.633895850899 1861.92732480479 8 13 7
-72.0809523626098 -634.102253263192 1855.08873280065 8 13 7
-99.8798738062381 -641.320782582054 1860.22508578336 7 12 6
-88.7101335937373 -637.812779392124 1871.62468023709 11 13 8
-57.047803656324 -628.383997020325 1892.50567770381 11 13 8
-87.7794500503848 -636.99570078493 1884.27130586708 11 13 8
-113.672247253825 -644.202354799246 1878.44084117509 11 13 8
-112.241876218425 -643.514349295406 1885.25441469857 11 13 8
-128.407843630637 -647.905755687828 1884.05445729955 11 13 8
-125.024821358157 -646.654869059628 1891.76623393224 10 12 7
-57.9828719531266 -627.052010630569 1927.99169963893 11 13 8
-50.6190616048789 -624.666003173466 1937.22645678613 12 14 9
-107.967411694948 -640.92315472445 1917.77967099747 12 14 9
-82.9526997253951 -632.923888146028 1946.8532390857 13 15 10
-135.468583817813 -660.322039597181 1773.84274718244 12 15 6
-78.9973462122866 -643.449890515713 1808.62424713724 12 17 11
