ply
format ascii 1.0
comment KinectMotionCapture
element vertex 750
property float x
property float y
property float z
property uchar red
property uchar green
property uchar blue
end_header
-943.750979179312 496.239299562901 2356.60077791298 202 206 207
-951.591261632832 498.24336372033 2344.53180049609 203 207 208
-959.49041814855 500.243077536287 2332.45524713203 203 207 208
-967.198304383684 503.397926458323 2315.36084540131 207 209 208
-975.323208927404 504.923980577725 2305.27322211778 208 210 209
-983.585410306598 505.983256503563 2297.18482817227 216 218 215
-992.34602512907 504.493753276826 2300.12670671863 209 211 208
-719.363811770971 480.426149625314 2481.38954242972 114 118 104
-726.641612872928 481.550887223379 2473.42406369685 190 195 189
-735.884274390901 479.1583333137 2480.33891221004 187 192 188
-744.329308029099 478.172522107289 2481.30323250237 194 198 199
-753.625084671378 475.549155054696 2489.21998776719 183 187 190
-762.029771345535 474.564717233728 2490.1890992366 159 165 165
-770.541391405065 473.346515515273 2492.15340902753 164 170 170
-777.772258706159 474.696479143633 2483.18550713262 205 211 211
-785.495373994906 475.109957228538 2478.18963046184 203 207 208
-793.459190110188 475.05532774898 2475.18032269192 192 196 197
-801.968096348807 473.834671140033 2477.14497761652 192 196 197
-810.252409383234 473.079958722018 2477.12081893266 194 198 199
-818.226867262611 473.02256352817 2474.11043068564 188 192 193
-826.113234426289 473.1962387908 2470.1024997564 202 206 207
-834.30387058258 472.671581593337 2469.08173845269 191 195 196
-842.494347821842 472.146217853494 2468.06099884155 193 197 198
-850.321977904908 472.547779689346 2463.0518704546 193 197 198
-858.171024272556 472.947263022536 2458.04031518435 191 195 196
-865.870906422632 473.807825565102 2451.0305460258 197 201 202
-873.93324046494 473.740173824326 2448.00921836341 196 200 201
-881.766465840871 474.364750007372 2441.99111731846 197 201 202
-889.317732511422 475.910864826554 2431.97502782105 202 206 207
-896.619388580446 478.376691402993 2417.9564372926 204 208 209
-904.062644822068 480.606602826937 2404.92848427208 204 208 209
-911.984744653447 481.448768552166 2397.891032108 203 207 208
-920.138022418052 481.597437303857 2393.84985816748 199 203 204
-927.733982807672 483.815413379923 2380.80312027213 198 202 203
-935.272314872623 486.48857507755 2365.74652060201 198 202 203
-943.060610848218 488.466806642177 2353.68409881943 198 202 203
-951.074561809525 489.751833354531 2344.61864372233 199 203 204
-959.131157408695 491.033364466312 2335.54763576332 199 203 204
-967.28064305689 492.0822652105 2327.47357566609 203 205 204
-975.324852284878 493.81532839102 2316.38755016297 204 206 205
-983.556860277512 494.857538655627 2308.30320938415 204 206 205
-991.994431580288 494.981825447086 2304.22662149982 209 211 210
-1001.11733163548 491.219295148597 2317.20662644623 212 214 211
-709.555632160257 474.595808039864 2474.5669219338 96 100 85
-718.041693994132 473.614845872055 2475.52586911135 154 157 146
-727.305146130282 471.243365806652 2482.43830784983 194 199 193
-735.753720216077 470.263537657515 2483.40193029032 191 196 192
-744.191653989535 469.283613472732 2484.36712110053 197 201 202
-753.235024389907 467.147431895874 2490.2984777214 185 189 192
-761.999633476361 465.475213113821 2494.24802608033 152 158 158
-770.85508976261 463.573236318464 2499.19428913481 151 157 157
-778.06635467166 464.902709853725 2490.22888746247 200 206 206
-785.658098456943 465.537115636168 2484.2408960065 206 210 211
-793.496303820239 465.708364640215 2480.23898177468 196 200 201
-801.992879230723 464.496735238321 2482.20515174091 191 195 196
-810.681862901426 462.825273120221 2486.16413571199 198 202 203
-818.835594312848 462.304340577238 2485.14797009352 188 192 193
-826.692412363564 462.471776069812 2481.14374315109 201 205 206
-834.469070683355 462.866972330467 2476.14123277112 188 192 193
-842.454237690001 462.801546570214 2473.1292889678 191 195 196
-850.540869756395 462.505571941428 2471.11321743405 186 190 191
-858.192043082062 463.353650023491 2464.10955972619 188 192 193
-865.619055656519 464.885401660139 2454.10877396158 194 198 199
-873.342646279301 465.727492734325 2447.09609476975 193 197 198
-881.098381730479 466.566762113839 2440.07965179295 195 199 200
-888.963540172625 467.175149817729 2434.0576083219 201 205 206
-896.482174717481 468.921628465438 2423.03713610291 202 206 207
-903.982541726598 470.891984715365 2411.0106668925 203 207 208
-911.957360982512 471.491355841498 2404.97496214504 204 208 209
-919.75916825281 472.770905667405 2395.93599574957 199 203 204
-927.348390502491 474.956879347382 2382.88994274268 195 199 200
-934.573971237781 478.728833278859 2362.83080319959 193 197 198
-942.544490665235 479.995485173133 2353.77081649057 192 196 197
-950.613490545298 481.031954998169 2345.70683327776 195 199 200
-958.931975638671 481.158453267344 2341.64510082447 196 200 201
-967.266099495967 481.283178869003 2337.58142141417 200 201 203
-975.615924950728 481.406426411247 2333.51578642974 201 202 204
-983.756594913541 482.658894297097 2324.43460329291 200 202 201
-992.024335329483 483.455928244931 2317.35413608021 204 206 205
-1000.32388119211 484.250279059154 2310.26970680173 207 209 206
-701.235973368879 466.198040082647 2478.65058295198 90 94 79
-710.130837276242 464.535138863746 2482.58361147311 188 192 178
-718.864696143164 463.102401502301 2485.52843924492 194 197 188
-727.445640735667 461.899491736657 2487.48405747317 178 183 179
-736.010521716679 460.696888648952 2489.44167953754 179 183 182
-744.433242792383 459.723368319821 2490.40875193816 197 201 202
-753.462254282792 457.607152867265 2496.34184788603 195 199 202
-761.850025858821 456.634602351926 2497.31303895488 176 182 182
-770.345066819741 455.433760975689 2499.27937200147 158 164 164
-778.132116194464 455.601400857702 2495.28385123908 179 185 183
-785.935409438434 455.767351471787 2491.28654805522 193 197 198
-793.974653661622 455.476423771239 2489.2761366845 198 202 203
-801.912091124618 455.411891161821 2486.27038716271 182 186 187
-810.173744529049 454.66399728959 2486.24903831032 190 194 195
-818.226337929867 454.370191119162 2484.23720889024 180 184 185
-826.284187392842 454.075271215021 2482.22448620891 191 195 196
-834.154530853679 454.233125621275 2478.21859660671 186 190 191
-842.134626594384 454.162471269777 2475.20753970545 189 193 194
-850.216328696962 453.864180427635 2473.19184923296 184 188 189
-858.126671060392 454.017398901384 2469.18122048149 184 188 189
-865.539341236339 455.52575729889 2459.18228616869 191 195 196
-873.083268823529 456.804353878847 2450.1752638747 190 194 195
-880.670143592489 458.079440592225 2441.16313153818 193 197 198
-888.377399632752 459.125458360589 2433.1442666738 199 203 204
-895.972535551973 460.619445422167 2423.12259956136 200 204 205
-903.255412525554 463.235783615845 2408.09826908782 201 205 206
-911.376952330119 463.370767321187 2404.06109189616 204 208 209
-919.314195184506 464.178882254434 2397.02183964388 205 209 210
-926.899376179763 466.33262451293 2383.97637584195 198 202 203
-934.426267892299 468.930491179826 2368.9216424157 194 198 199
-942.555770636674 469.503467536595 2362.86694386178 192 196 197
-950.879508958413 469.401602014516 2359.81284432276 193 197 198
-959.000715147471 470.194533540361 2352.75067451886 196 200 201
-967.05272639924 471.432284227394 2343.68059422224 198 199 201
-975.195209606457 472.443050531072 2335.60750841394 199 200 202
-983.510246185405 472.780296514651 2330.53772395133 201 203 202
-991.676607410252 474.008791619758 2321.45339782835 203 205 204
-999.6471865864 476.572599796088 2306.34338452151 206 208 207
-1007.65563397965 479.353959680265 2290.22014520344 213 213 211
-694.642052867207 455.089201681143 2494.61898752612 100 104 87
-701.554371965434 456.618088097473 2484.68244000996 120 124 110
-710.982857399012 454.062830583668 2492.58245463814 188 191 180
-718.750427608224 454.22818779098 2488.5893707718 185 188 181
-727.061062300812 453.486549913754 2488.56189286928 182 186 185
-735.366479993721 452.744470504739 2488.53530744897 182 186 185
-744.424227871396 450.646132702826 2494.46477018543 194 198 199
-753.073563709727 449.227021605941 2497.42011004723 190 194 197
-761.459643916874 448.259836897313 2498.391738327 177 183 183
-769.834952936509 447.292858093723 2499.36446997632 157 163 163
-778.199516474957 446.325730232153 2500.33878325943 167 173 171
-786.214976740072 446.034170211205 2498.33158192001 188 192 193
-794.1257330916 445.966557062453 2495.32892988694 201 205 206
-801.832531509969 446.347212142647 2490.33517590334 183 187 188
-809.560871894167 446.725837931865 2485.33873895382 188 192 193
-817.820570782306 445.980218572461 2485.31762802365 180 184 185
-826.174039015935 445.009915602992 2486.29333429675 192 196 197
-834.323432170738 444.487885821433 2485.2777129566 185 189 190
-842.003314690689 445.084904454343 2479.27882076534 188 192 193
-849.801211023285 445.455814409867 2474.27372396405 184 188 189
-857.708967720418 445.601072883367 2470.26319858209 183 187 188
-865.032328478844 447.308630506689 2459.26719787433 191 195 196
-872.575568860377 448.565531987613 2450.26031847282 190 194 195
-880.001005403432 450.26515346499 2439.25160021017 193 197 198
-887.79085069161 451.069104035422 2432.23099353819 199 203 204
-895.537755794161 452.093064270206 2424.20699852422 200 204 205
-903.177592967202 453.558943621927 2414.18006724897 200 204 205
-911.283077400193 453.686887650633 2410.1449122115 203 207 208
-919.003164327911 455.146338240281 2400.10774290247 205 209 210
-926.643078520212 457.045992064753 2388.06404522091 200 204 205
-934.034583501946 460.050549151793 2371.00952178839 196 200 201
-942.276026005185 460.167084650267 2366.95743003149 193 197 198
-950.589273474151 460.060452736226 2363.904652241 193 197 198
-958.69929469842 460.837732927848 2356.84391947181 193 197 198
-966.537143867608 462.939189628897 2343.76730213643 199 200 202
-974.679081121296 463.930999055813 2335.69433438216 200 201 203
-983.039374026367 464.036558936607 2331.62743970164 196 197 199
-991.244940643054 465.023060641871 2323.54654535674 195 196 198
-999.168543927905 467.769871436093 2307.4339850656 206 208 207
-1007.13525318195 470.731036101953 2290.30779381287 203 203 203
-1015.46354825422 471.925266492491 2281.20334953797 215 215 213
-700.615270875726 449.086414379229 2481.79616710539 177 180 171
-709.779560131229 447.002911217549 2487.71253531001 190 193 186
-718.233464654596 446.040242091273 2488.67544735573 183 185 180
-727.072319696714 444.406592005097 2492.61562868904 184 188 189
-735.367714532689 443.667895826549 2492.59004488367 172 176 177
-744.290070516097 441.812423503816 2497.52807705232 174 178 181
-753.056359413891 440.181482683478 2501.47706680795 194 198 201
-761.311587760003 439.443317290215 2501.45673441398 177 183 183
-769.443115521 438.927681189695 2500.44332573182 162 168 166
-777.805936112956 437.966156301619 2501.41760150039 154 160 158
-786.045069051429 437.227164890242 2501.39927989343 154 158 159
-794.058268421162 436.932401954653 2499.3921288664 197 201 202
-801.431616830298 437.969113793109 2491.41495820718 187 191 192
-809.157233072558 438.337043686815 2486.41888938173 188 192 193
-817.210783583442 438.037682101296 2484.40695514996 166 170 171
-825.567919270586 437.072637431789 2485.38194963025 193 197 198
-833.527203313747 436.993215854381 2482.37351299398 182 186 187
-841.026929036452 438.018768674753 2474.38036031129 187 191 192
-848.838287186875 438.377832151847 2469.373614752 184 188 189
-856.848350386526 438.293204818387 2466.35885488637 178 182 183
-864.78303582363 438.428028336529 2462.34499643695 187 191 192
-872.317483568141 439.663810803111 2453.33926992073 190 194 195
-880.055948948701 440.455444572483 2446.32486732458 190 194 195
-887.515161646203 442.125083773381 2435.31201295479 198 202 203
-895.253463311627 443.130602943243 2427.28938043155 196 200 201
-902.956814837934 444.352880552568 2418.26285155521 205 209 210
-910.842431710921 445.132392706472 2411.2301172446 203 207 208
-918.558967502526 446.567702869436 2401.19345466932 201 205 206
-926.13066472977 448.657089991299 2388.15008330763 202 206 207
-933.828334689554 450.522603619968 2376.09902768598 201 205 206
-941.761729215485 451.726642838381 2367.04383883345 195 199 200
-950.019036140019 451.833388519907 2362.98979307169 193 197 198
-958.131415992806 452.594333739257 2355.92880897718 192 196 197
-966.021442725651 454.444669253943 2343.85402860722 199 200 204
-974.162834025811 455.417521804099 2335.78117890698 200 201 205
-982.432386741555 455.951234796345 2329.70886607454 195 196 198
-990.642786399445 456.918317507628 2321.62741973389 196 197 199
-998.610008601052 459.406492358352 2306.5180245353 201 203 202
-1006.65212017968 461.889119937443 2291.39929819374 208 208 208
-1014.83838267693 463.931469891126 2278.27911632159 208 208 208
-1023.34439504562 464.23140908177 2273.18583772432 214 214 212
-698.69426070087 443.087240096268 2471.97410464212 186 189 180
-708.574451471347 439.914557535721 2482.84267664492 185 188 181
-718.255283519845 436.96641718243 2492.72760874678 184 186 183
-727.348869914186 434.9050959677 2498.65274183512 180 184 185
-735.758175687771 433.949269424635 2499.62120152144 181 185 188
-743.903605596694 433.434718509846 2498.60605507561 163 167 170
-752.792623431609 431.596957510688 2503.54820100596 180 184 187
-761.043237476131 430.861830791876 2503.52819617858 184 190 190
-769.644044351268 429.466176536027 2506.48953039532 162 168 166
-777.644246481981 429.170810770433 2504.48424320316 148 154 152
-785.876058973536 428.434970708303 2504.46658657699 148 152 153
-793.219207921498 429.455331434935 2496.49322769205 197 201 202
-801.030956917262 429.59512004474 2492.49469790832 192 196 197
-808.753847634086 429.95235413107 2487.49899737936 185 189 190
-816.907473876658 429.431368565754 2486.48284502497 168 172 173
-824.762182013342 429.566389877188 2482.47896674894 188 192 193
-832.536064046028 429.918464413888 2477.4769163927 181 185 186
-840.237201425447 430.487017618869 2471.47568695208 186 190 191
-848.239640600875 430.398035978049 2468.46164971778 183 187 188
-856.25269007767 430.307840900406 2465.44629157614 177 181 182
-864.448516107265 429.780225301768 2464.42489039777 185 189 190
-871.976901327214 430.994717334063 2455.42021678511 186 190 191
-879.871009628284 431.335071658371 2450.40319376612 186 190 191
-887.396407752768 432.760938954148 2440.39040890916 198 202 203
-895.195987453134 433.531061343878 2433.36843625666 196 200 201
-903.027638231823 434.298483677738 2426.34246843368 201 205 206
-910.541797673767 436.147859941929 2414.31459660568 198 202 203
-918.249370061595 437.55931474853 2404.27911543243 200 204 205
-925.618124904362 440.266643169997 2388.2361411908 200 204 205
-933.191017547498 442.535307176897 2374.18422116204 200 204 205
-941.129114989975 443.717365132862 2365.12826303146 195 199 200
-949.166350067297 444.68001137399 2357.06843829001 192 196 197
-957.348258314346 445.207664498316 2351.0073191963 190 194 195
-965.607644153581 445.517340491255 2345.9445522216 195 196 201
-973.93634672722 445.609327869181 2341.88187583913 197 198 202
-982.05267066778 446.776747053736 2332.80371464593 197 198 202
-990.082765207333 448.586208072384 2320.7115622833 197 198 202
-998.091228791738 450.821330657775 2306.60537390628 202 203 205
-1006.13164712579 453.266142514188 2291.48695845799 202 202 204
-1014.03802761655 456.99341900223 2270.33504941979 205 205 205
-1022.18013779242 459.855023282045 2253.18747162645 205 205 205
-687.224277015802 439.521225289258 2454.26762555989 144 147 138
-697.751762929633 435.501375848997 2469.08839833216 181 183 178
-707.78032080693 432.142095629548 2480.94663349365 183 185 180
-718.008642928027 428.349568228607 2494.79669466466 183 184 186
-727.363004257218 425.870998087332 2502.7057575894 183 187 190
-735.762487464742 424.921291739786 2503.67542695658 183 187 190
-743.897756940431 424.407328380717 2502.66154692544 169 172 177
-752.529485063993 423.021830372789 2505.61923587582 149 153 156
-760.654139836221 422.507229343022 2504.6066821762 196 202 202
-769.016193819085 421.557339397641 2505.58102297284 178 184 182
-777.019571403845 421.259024116556 2503.57534727023 146 152 148
-785.481465652028 420.091588804897 2505.54572885692 146 150 151
-793.153106305372 420.442532263655 2500.55644059903 193 197 198
-800.846292396793 420.79150342854 2495.56422852308 192 196 197
-808.455889182045 421.354959133574 2489.57443623151 179 183 184
-816.297341454955 421.483359645579 2485.57222964454 172 176 177
-824.154885379833 421.610018360692 2481.56801950151 188 192 193
-831.737288559986 422.383046980035 2474.57314154134 181 185 186
-839.729451149083 422.290004467447 2471.56063772716 185 189 190
-847.732209272742 422.195746954876 2468.54657458383 183 187 188
-855.834552405658 421.884557559228 2466.5285824694 177 181 182
-864.114579234751 421.14176402458 2466.50492729067 184 188 189
-872.138273537977 421.044201924866 2463.48826013842 184 188 189
-880.172489493219 420.945135928729 2460.47052417539 184 188 189
-887.435524911019 422.992729939669 2447.46554177465 198 202 203
-894.763042133597 425.035499423254 2434.45252513112 196 200 201
-902.227805052093 426.858997544063 2422.43088584638 199 203 204
-909.9617868375 428.035189130016 2413.40065586069 197 201 202
-917.873308481263 428.779905184649 2406.36478042213 199 203 204
-925.170136009892 431.660956333861 2389.32239742452 199 203 204
-932.924715983488 433.253370640035 2378.27288633388 199 203 204
-940.851342346061 434.414482717729 2369.21865515522 195 199 200
-948.820665043077 435.572215345866 2360.15886435735 191 195 196
-956.778805851146 436.939757520022 2350.09222936896 189 193 194
-965.14320279656 436.812311270134 2347.03336350875 192 193 198
-973.566266483624 436.470773746652 2344.97518701723 195 196 200
-981.673782993353 437.616957918819 2335.89842112972 197 198 202
-989.823848273885 438.759774545968 2326.81635427547 196 197 201
-997.814585850403 440.960850008565 2312.71246766132 199 200 202
-1005.72409061503 444.005216185368 2294.58526871553 204 204 206
-1013.44483261983 448.738802135816 2268.41544069178 208 208 210
-1021.46117813148 452.40389241915 2247.25021270297 209 209 209
-1029.70300491941 455.21500697451 2230.09008356011 206 206 204
-677.394380646052 433.26040621341 2448.45653593246 112 116 101
-688.130271853118 429.064231278447 2464.25969267006 173 176 167
-698.493669175147 425.305379620182 2478.09256830194 181 183 178
-708.500790817034 421.982581661 2489.95338250415 184 186 183
-718.167770280578 419.094988770815 2499.84012414587 182 183 185
-726.451941870309 418.365786739727 2499.81591593277 186 190 193
-734.99018680125 417.205551334205 2501.77675044494 184 188 191
-743.004527169689 416.906415712608 2499.76946854333 177 180 185
-752.018426845391 414.886123758939 2505.70443801395 152 156 159
-760.265265087013 414.156612577744 2505.68488959612 183 189 189
-768.625600090518 413.212266860708 2506.65943031069 184 190 188
-776.510609758397 413.125871437614 2503.66028104273 159 165 161
-785.087089664237 411.752132216887 2506.62459340896 142 146 147
-792.866741728182 411.878378093289 2502.63010479687 190 194 195
-800.662553650684 412.002758383262 2498.63360444292 196 200 201
-807.947814504162 413.194576352236 2489.65933102521 183 187 188
-815.892040330108 413.101181017741 2486.65257009607 174 178 179
-823.747028112806 413.219880355636 2482.6486999052 188 192 193
-831.618090069148 413.336958454491 2478.64282802197 180 184 185
-839.788829470781 412.813031294764 2477.62454779309 184 188 189
-847.500194021866 413.353102428627 2471.62211706842 184 188 189
-855.684044767586 412.826966390609 2470.60220643831 177 181 182
-863.521908796388 413.150538530313 2465.59224656727 182 186 187
-871.716070685985 412.622372002829 2464.57105451459 184 188 189
-879.504784719826 413.155004694741 2458.55875035189 181 185 186
-886.928533792289 414.745561506255 2447.5505298935 198 202 203
-893.952150922662 417.603406635165 2430.54230305062 196 200 201
-901.499462473978 419.184777919376 2419.51868691513 196 200 201
-909.521776598867 419.492538420259 2414.48575040194 196 200 201
-917.56531522275 419.79840929901 2409.45017017301 196 200 201
-924.852035722882 422.636686290184 2392.40916111703 196 200 201
-932.286805320467 425.257748396854 2376.35793553481 198 202 203
-940.218164123703 426.396879835132 2367.30317166076 197 201 202
-948.419143753754 426.689913875143 2362.24797753039 193 197 198
-956.533124436869 427.401964081349 2355.18692242499 189 193 194
-964.730281067947 427.900932195007 2349.12373569532 192 193 198
-973.002523028411 428.187515305418 2344.05966543571 195 196 201
-981.249842937562 428.681916623823 2337.99047092073 202 203 207
-989.393768221648 429.803502466504 2328.90898594351 198 199 203
-997.337058175713 432.179311718142 2313.80287325873 198 199 203
-1005.09034509505 436.015671455402 2291.66233529686 202 202 204
-1013.02650866484 439.425471229973 2271.51547293703 197 197 199
-1021.12945609038 442.409858193514 2253.36453171264 200 200 200
-1029.32333408306 445.387673465656 2235.20201992862 202 202 202
-680.517651605812 419.603469364951 2473.29659457436 151 155 141
-689.039633305517 418.659996379455 2474.25120070732 184 187 180
-699.379216913654 414.943332604359 2488.08693704963 188 190 187
-708.672548866329 412.72313644626 2494.99524856286 181 183 180
-717.78761826181 410.718076052688 2500.91731227005 180 181 183
-725.539795393767 410.842966685949 2496.92625593603 182 186 189
-734.087281506844 409.69020506004 2498.88591752136 186 189 194
-742.237337833503 409.175359415889 2497.87019450211 179 182 187
-751.258442713883 407.173657324766 2503.8039755813 167 171 174
-759.754945239912 406.022172813621 2505.76999625365 160 166 166
-768.116254450752 405.083140031289 2506.74440140149 182 188 186
-776.117875690569 404.779561642155 2504.73895874055 166 172 168
-784.579367622571 403.628456118829 2506.70934753 144 148 149
-792.802794585462 402.90055581484 2506.69271645916 185 189 190
-800.587937071604 403.017493590999 2502.69756718739 189 193 194
-808.17822684759 403.555065388054 2496.71025246079 181 185 186
-815.795414308755 404.090204477993 2490.71934719979 170 174 175
-823.539634753307 404.412217255245 2485.72107760098 186 190 191
-831.20794017523 404.942907897741 2479.72404510426 179 183 184
-839.37660981768 404.418993149169 2478.7060231364 183 187 188
-847.177045634537 404.735451348333 2473.7005125505 183 187 188
-855.266843004779 404.419745914661 2471.68409796592 176 180 181
-862.928770872026 405.152531983783 2464.67940177227 181 185 186
-871.126271626762 404.62421247362 2463.65779345183 183 187 188
-878.755104361829 405.562172146706 2455.64899991945 179 183 184
-886.421431441891 406.496966826323 2447.63553564937 196 200 201
-893.594625764685 408.893109215065 2432.62547280003 194 198 199
-901.354801473168 409.82061131019 2424.60031598072 195 199 200
-909.15240516472 410.745072083866 2416.5704963796 196 200 201
-917.258191015174 410.8317885979 2412.5354122982 194 198 199
-924.664774847805 413.210253288435 2397.49603010266 195 199 200
-931.835027986755 416.624833201496 2377.444976517 197 201 202
-939.703392892703 417.950734917424 2367.38965468911 199 203 204
-947.904331444849 418.232902135345 2362.33449430242 194 198 199
-956.180551885951 418.30535682281 2358.27817854972 191 192 197
-964.163403201148 419.621815098468 2348.20859436375 190 191 196
-972.291878500035 420.519703010076 2340.13755392082 193 194 199
-980.54980004537 420.999988946267 2334.06683328793 203 204 209
-989.051043097727 420.442465146735 2333.00739663291 198 199 204
-997.022532096558 422.574175222972 2318.90609479874 197 198 202
-1004.98751747465 425.114221791143 2302.78915504199 199 199 201
-1012.89153088748 428.474648907712 2282.64643485281 200 200 202
-1020.99519982567 431.208624676398 2265.50375013507 195 195 197
-1029.00502947697 435.173596730283 2242.32317136276 205 205 205
-1037.54098149533 436.039790201858 2234.20112343165 192 192 192
-674.141187026767 408.492057970872 2490.24579607775 117 119 106
-679.994370975842 411.354412279474 2473.3836205016 173 176 167
-689.521842655049 408.940661199511 2481.27090957938 183 185 182
-699.845725405302 405.265728194286 2495.10849539943 178 182 181
-709.260229344975 402.857859919465 2503.00986669108 178 182 183
-717.949310542608 401.503882058892 2505.96007504095 171 175 176
-725.290043424948 402.251757598595 2498.99566261369 174 178 179
-734.093244829699 400.687563816136 2502.93987013072 179 183 184
-742.105841752342 400.383107046437 2500.93306008264 177 181 182
-751.245247264623 398.191168539548 2507.86026602137 170 174 175
-759.366419333893 397.67684910014 2506.84814620094 142 146 147
-767.487644622514 397.161809604047 2505.83602163529 161 165 166
-775.492432070065 396.855222566274 2503.83019177352 159 163 164
-783.730188564865 396.12987327601 2503.81176574381 152 156 157
-791.851455545005 395.612920013776 2502.79964101514 166 170 171
-799.864309411382 395.303848266483 2500.79281105538 172 176 177
-807.671141560672 395.410684846547 2496.79498164301 170 174 175
-815.391122875669 395.724029300596 2491.79975977198 163 167 168
-822.932052386061 396.451563943786 2484.81017728738 174 178 179
-830.505257709506 397.176325766136 2477.81657427425 179 183 184
-838.585096984761 396.85970194327 2475.80140481959 180 184 185
-846.393652573472 397.164895375648 2470.79515086827 182 186 187
-854.491978580695 396.845837171928 2468.77744052087 175 179 180
-862.335209660619 397.147507688271 2463.76686855073 178 182 183
-870.536049280493 396.619035195427 2462.74484396253 184 188 189
-878.085669748421 397.744561964525 2453.73775460333 176 180 181
-886.071528176627 397.833424101978 2449.7176311048 193 197 198
-893.31360113609 399.985623012684 2435.70730212347 191 195 196
-901.211677777527 400.482144249004 2429.68144525212 191 195 196
-908.57183816062 402.625267536079 2415.65640355877 196 200 201
-916.544741217075 403.115591071579 2409.62146538336 195 199 200
-923.957759381949 405.45566504784 2394.58162159052 190 194 195
-931.133604137346 408.818345987047 2374.52976660954 195 199 200
-938.770138427222 410.941115449205 2360.47028868761 198 202 203
-947.161121036169 410.595470288723 2358.41612654229 194 198 199
-955.502627122866 410.454014270122 2355.36015422015 191 195 198
-963.596061478192 411.335740055737 2347.29352924219 181 186 189
-971.530855921832 413.033557292654 2335.21332350931 185 189 192
-979.570698684645 414.522157098247 2324.12848670082 201 202 207
-987.968869424642 414.576092857151 2320.05700104073 196 197 201
-996.26000148892 415.240847525604 2312.97420331012 196 197 201
-1004.35381351646 417.127239963831 2299.8659694186 197 198 200
-1012.29887908519 420.231822430759 2280.72672728778 210 210 212
-1020.43871500569 422.718563644233 2264.58786732605 196 196 198
-1028.41813022575 426.827320775108 2240.40277807514 199 199 199
-1036.82205495276 428.690911422724 2227.25590399979 197 197 197
-671.085708134818 403.828104929024 2473.50750212102 122 124 113
-679.178264573799 403.520403163288 2471.49048187486 177 180 173
-689.288001882864 400.298269332237 2483.33822515306 181 185 184
-699.891661563076 396.248240183665 2499.15773900248 178 182 183
-709.574049189867 393.449903433643 2509.04208247491 185 189 190
-717.841522524114 392.730424895142 2509.01993249891 172 176 177
-725.838073983007 392.425497258768 2507.01512606985 166 170 171
-734.230673857946 391.497851356494 2507.98583660959 180 184 185
-742.102739753596 391.398541917876 2504.98809638773 186 190 191
-750.609545724863 390.263362120732 2506.95278831315 173 177 178
-758.367861989232 390.368929721082 2502.96101673821 142 146 147
-766.500533465006 389.853280481559 2501.94746536181 143 147 148
-774.749886783355 389.13047712765 2501.92758541246 160 164 165
-782.879907870225 388.613623122689 2500.91436796163 149 153 154
-791.009916367986 388.096112975613 2499.90115380978 163 167 168
-799.031346311632 387.783807384325 2497.89326212248 166 170 171
-807.058115959254 387.470504679133 2495.88470669757 164 168 169
-814.574466674237 388.18395791829 2488.8982285842 165 169 170
-822.022688377423 389.099979123043 2480.91203201501 178 182 183
-829.606328223132 389.807772047954 2473.91717152217 174 178 179
-837.602404235502 389.692858290361 2470.90399666431 177 181 182
-845.793766706634 389.166900656437 2469.88314814546 179 183 184
-853.984937102768 388.640358036871 2468.86232513697 173 177 178
-862.175863750315 388.113174001373 2467.84153423601 183 187 188
-870.366528202634 387.585349725102 2466.82077774151 182 186 187
-877.986178310607 388.485851347776 2458.81322879115 174 178 179
-885.643344945529 389.383306008248 2450.80100602408 191 195 196
-893.109570867506 390.889098508514 2439.78770792979 190 194 195
-900.849780065156 391.779889270707 2431.76513949098 191 195 196
-908.132307372674 394.091726281863 2416.74165454672 196 200 201
-915.558057550829 396.194718362817 2402.70853331882 192 196 197
-923.118936305216 398.089620055348 2389.66678394029 187 191 192
-930.61893022088 400.385393474331 2374.61620275189 193 197 198
-938.373767213295 402.067501436261 2362.55849601484 198 202 203
-946.35926006486 403.137489813496 2353.49715861738 195 199 200
-954.660011951804 403.192077548583 2349.43782853726 189 194 197
-962.924608436975 403.447315791184 2344.37479493336 184 189 192
-971.161033125435 403.902454547179 2338.30682320533 182 187 190
-979.052481392033 405.970224823207 2324.21567836453 197 201 204
-987.494500125313 405.814303076188 2321.14720075331 197 201 204
-995.864588207321 406.060073677772 2316.07102735449 192 196 197
-1004.10225589286 407.109276513682 2306.97803449784 194 198 199
-1011.91918772003 410.769880402328 2284.8300168745 200 204 205
-1019.84878763692 414.422527794627 2262.66771962407 187 188 190
-1027.73969459218 419.07104587271 2235.46895267679 193 194 196
-1035.96297135286 422.305547749649 2215.28696219764 193 195 194
-659.739110288038 399.589143802187 2457.80277159219 130 133 122
-669.516782871895 397.013542372481 2466.66695040156 131 134 125
-678.947641971696 394.851829630371 2473.55770505716 177 179 174
-688.910984728746 391.870455267911 2484.41539638029 175 179 178
-699.092021433335 388.482340370047 2497.26236611887 164 168 169
-708.228559036148 386.533424799585 2503.18160286531 169 173 174
-717.056010281963 384.996116430468 2507.1229536125 173 177 178
-725.324476850268 384.278664893986 2507.10067434873 167 171 172
-733.848371756863 383.151892262148 2509.06321153607 156 160 161
-742.100925746215 382.434140560044 2509.04291885855 169 173 174
-750.223267562492 381.920343822961 2508.03065168409 172 176 177
-757.979005525718 382.017893735555 2504.03922298019 172 176 177
-765.511976324072 382.521492099345 2498.05915079095 131 135 136
-773.656128713724 382.004394793408 2497.04417047781 134 138 139
-781.800295630765 381.486699340069 2496.02918992693 118 122 123
-789.944445646927 380.968228574915 2495.01421352694 153 157 158
-797.87111347456 380.855526795937 2492.00969457503 160 164 165
-805.808559431507 380.741483948034 2489.00407437669 159 163 164
-813.963339534509 380.220484597379 2487.98777806365 154 158 159
-821.514326489742 380.914710484452 2480.99702818681 166 170 171
-829.29340013847 381.201294869786 2475.99426214483 167 171 172
-836.998763664114 381.688177496968 2469.9927203827 171 175 176
-845.193464977392 381.162007159636 2468.97145575624 171 175 176
-853.118558614931 381.241123703174 2464.95894100902 169 173 174
-861.320918513989 380.713271026128 2463.93672506671 175 179 180
-869.52302355049 380.18465819679 2462.91454293157 173 177 178
-877.398047765608 380.461250541742 2457.90006940859 166 170 171
-884.978361270703 381.540863950834 2448.88903038226 187 191 192
-892.448967054842 383.019263553463 2437.87525784529 188 192 193
-899.899664135569 384.694411990447 2425.85576456756 191 195 196
-907.267578158072 386.76650941715 2411.82994230993 194 198 199
-914.637136579298 389.034102066284 2396.79571291315 192 196 197
-922.278327602196 390.694962443028 2384.75224447599 185 189 190
-929.978510764781 392.351469963862 2372.70166590038 190 194 195
-937.85776784791 393.603338933513 2362.64517975577 196 200 201
-945.727748917882 395.051398818508 2351.58164744277 194 198 199
-953.924648840224 395.496874705622 2345.51887388745 189 194 197
-962.199988131229 395.740499408654 2340.45453022874 187 192 195
-970.693498903209 395.184901532374 2339.39605344475 179 184 187
-978.720485638605 396.620152312334 2328.31296148524 197 201 204
-986.888590576577 397.653421426955 2319.22869160912 198 202 205
-995.016859914002 399.080846313445 2308.13298078887 193 197 198
-1003.27543035281 400.106981149915 2299.03768040968 194 198 199
-1011.32587965521 402.51867240007 2282.91017301086 198 202 203
-1019.19185565953 406.510732711149 2258.73954762034 186 187 189
-1027.15072405941 410.692057168211 2233.54914428946 190 191 193
-1035.32146907884 414.270635318481 2211.35694861457 192 194 193
-1044.25482344591 412.700302548135 2215.28517024691 192 194 191
-669.439611325673 388.129440373842 2469.72327848402 136 142 132
-680.038084838963 384.367010151257 2484.53451451921 176 178 173
-689.974382615849 381.41996702622 2495.39549048588 169 173 172
-699.280852769675 379.286486623134 2502.30193406644 165 169 170
-707.43541837526 378.773742599725 2501.28564278129 167 171 172
-716.269725913587 377.249551879176 2505.22586309011 180 184 185
-724.677611378054 376.332339135838 2506.19463860329 174 178 179
-733.205350002419 375.213443855264 2508.15667537266 161 165 166
-741.589195334097 374.296565658627 2509.12820980253 151 155 156
-749.461968819077 374.1856275411 2506.13065217016 161 165 166
-757.223233958512 374.274703122702 2502.13855602419 175 179 180
-764.881053779485 374.56327874233 2497.15091649923 141 145 146
-773.14555207079 373.845007512295 2497.12937488034 121 125 126
-781.747512032263 372.523992260727 2500.09036863956 108 112 113
-789.546716682184 372.608142545687 2496.09355083758 148 152 153
-797.035430650181 373.291942531124 2489.11059971764 156 160 161
-804.662716817111 373.772750528604 2483.11881754561 155 159 160
-812.937818831641 373.050576278273 2483.09572265447 148 152 153
-820.804286903598 373.127873442933 2479.09052882252 159 163 164
-828.784900698529 373.003732222461 2476.07930785818 164 168 169
-836.680809091286 373.077782763184 2472.07068886685 166 170 171
-845.241447566345 371.754383263311 2475.03684558213 163 167 168
-852.970498223969 372.224883554479 2469.03215067952 164 168 169
-860.900871599801 372.294884586126 2465.01900105756 170 174 175
-868.424350503599 373.357636477463 2456.01533932642 167 171 172
-876.318259895185 373.622156289296 2450.99854083764 163 167 168
-884.075099382068 374.281708477239 2443.98219309379 179 183 184
-891.940487926821 374.740298264122 2437.96051539478 180 184 185
-899.168690395745 376.980286394866 2422.94399908069 189 193 194
-906.685318759058 378.620656868316 2410.9163695552 192 196 197
-913.987508300035 381.04800546477 2394.88219931787 195 199 200
-922.026880808713 381.492707035445 2388.83908629161 185 189 190
-929.652076065672 383.317578097388 2375.78949501697 187 191 192
-937.64288909288 384.151016478104 2367.73580373724 193 197 198
-945.383224069105 385.967178868679 2354.67186664032 192 196 197
-953.626661518589 386.20268312943 2349.61152552772 189 194 197
-961.734702194978 387.026682603737 2341.54322978744 192 197 200
-970.473378191703 385.488218893698 2345.49542193469 177 182 185
-978.623406585077 386.308169899028 2337.42189703706 193 197 200
-986.766541213749 387.321412835961 2328.34103631489 200 204 207
-994.662672964722 389.703757241714 2312.23286411803 196 200 201
-1002.87106939043 390.904859276149 2302.13567729098 194 198 199
-1010.98349123475 392.885153692758 2288.01718661863 195 199 200
-1018.99906961309 395.838086103435 2268.86930400232 185 186 188
-1026.9276530802 399.956242694983 2243.68284640232 184 185 187
-1034.95706735628 404.260527429671 2217.4753881847 194 196 195
-1043.69948740674 404.070060069034 2214.36951323969 187 189 186
-655.180753487741 387.594472175849 2435.22472997334 139 145 133
-669.961777358969 378.45874164257 2476.73787291581 158 164 154
-680.691617968825 374.540600637123 2492.54105253971 177 182 178
-689.888015318613 372.627228581911 2498.45272554103 172 176 175
-699.329839709867 370.315982288149 2506.3504329513 148 152 153
-707.196624554744 370.203213456366 2503.35338721819 148 152 153
-716.027041368126 368.692770316662 2507.29429713146 162 166 167
-724.163705846783 368.17985280955 2506.28024025799 174 178 179
-732.561875496296 367.268153735264 2507.24997345864 180 184 185
-741.077383158954 366.157443188986 2509.21351502551 173 177 178
-749.075705299057 365.842309699567 2507.20851450266 163 167 168
-756.956939771517 365.724798123272 2504.2096780313 150 154 155
-764.369588197631 366.399648093886 2497.23624301084 153 157 158
-772.400545423444 366.080584174243 2495.22718017287 95 99 100
-780.78030658354 365.166118665585 2496.19945819822 112 116 117
-788.366913874357 365.637272587647 2490.21253766436 137 141 142
-795.980535083176 366.105991405671 2484.22249263474 138 142 143
-803.72744262979 366.374856910691 2479.22378739418 147 151 152
-812.221470706241 365.259900851263 2481.19002066683 146 150 151
-820.09346408675 365.328664081719 2477.18415978286 158 162 163
-828.079801613449 365.198666288884 2474.17248022244 160 164 165
-835.885691778844 365.461208712185 2469.16667122011 160 164 165
-844.455731134809 364.14802003904 2472.13162787118 152 156 157
-852.192668023474 364.604401272197 2466.1259859956 156 160 161
-859.956418730065 365.058479593223 2460.11724424744 163 167 168
-867.407955562412 366.29495515243 2450.11417559947 161 165 166
-875.400062525844 366.35158729386 2446.09335719724 160 164 165
-883.487382623371 366.210677167269 2443.06910434623 176 180 181
-891.431901233468 366.459846772504 2438.04579028166 175 179 180
-898.732306873201 368.46642962791 2424.02856520139 187 191 192
-906.245038900555 370.077246946393 2412.00149974278 192 196 197
-914.15937959356 370.707833468607 2404.96557305959 192 196 197
-922.039893367347 371.530680498102 2396.92567436655 183 187 188
-929.326502992859 374.29844244405 2378.87717774774 186 190 191
-937.066994624497 375.891943225508 2366.8217348395 193 197 198
-945.039531331996 376.897717012237 2357.76194313033 193 197 198
-953.274844408181 377.1229291254 2352.70264299549 188 193 196
-961.269580060688 378.316677583999 2342.63189886642 190 195 198
-969.907750808907 377.179758259951 2344.58020182528 177 182 185
-978.200679412976 377.399448545352 2339.51372615472 187 191 194
-986.381915694892 378.197882272204 2331.43636336208 198 202 205
-994.101998571818 381.31369917044 2311.31724078871 195 199 200
-1002.15691630004 383.263077779973 2297.20600770576 199 203 204
-1010.28131489593 385.207373115344 2283.08611720792 199 203 204
-1018.50856719241 386.953577208677 2269.96159994074 186 187 189
-1026.43110094759 391.007081734241 2244.77606756794 180 181 183
-1034.31421101438 396.206294051807 2213.54583473106 192 194 193
-1042.99166217771 396.586636639691 2207.42326274807 182 184 183
-726.267229314779 261.428047279972 3033.35741512962 146 154 139
-658.460544502011 374.282911145449 2460.04434630285 141 147 137
-668.090077324427 371.986103956267 2467.91859078576 164 169 162
-679.288949731797 367.52008546252 2486.68798239341 178 183 179
-689.658260349563 364.046510842773 2500.51960908275 169 173 172
-699.096803277344 361.759957192 2508.41742070432 148 152 153
-707.792218009309 360.460343603117 2511.36693576892 156 160 161
-716.057441325571 359.751818120472 2511.34503773738 141 145 146
-723.516160964393 360.222519224277 2505.3740780189 140 144 145
-731.656311605413 359.708722684499 2504.35958840788 175 179 180
-739.924791872331 358.99808110914 2504.33752976955 193 197 198
-748.313374543971 358.091113611633 2505.30844690793 179 183 184
-755.709348537648 358.751318902734 2498.33713132429 151 155 156
-763.377903322988 359.01747426943 2493.34845145092 156 160 161
-771.185444303654 359.085983767639 2489.3506345136 78 82 83
-779.582388781121 358.17591802473 2490.3207565759 109 113 114
-787.07307173278 358.827641201755 2483.33764421157 133 137 138
-794.81461450953 359.086578760227 2478.33987487621 134 138 139
-802.684230701958 359.1486253791 2474.33432833921 135 139 140
-810.985251418039 358.430234678216 2474.3079889835 136 140 141
-818.876293363114 358.489662187638 2470.29977553657 147 151 152
-826.980248546662 358.158721493863 2468.2816342621 157 161 162
-834.802308542869 358.409364367148 2463.27383869752 152 156 157
-843.389854257088 357.105929877496 2466.23658497128 137 141 142
-851.323431324558 357.160079601229 2462.2230772914 145 149 150
-859.360589980445 357.018901159215 2459.20508499835 155 159 160
-867.153550973461 357.456842509513 2453.19250020653 154 158 159
-875.137667437064 357.505921195689 2449.1726988632 157 161 162
-883.13766987258 357.553271187972 2445.15091959694 173 177 178
-890.923155324186 358.177912369049 2438.13108894294 168 172 173
-898.444299071279 359.57085495466 2427.11123461498 183 187 188
-906.090507388692 360.767160507471 2417.08421817158 191 195 196
-913.922289180942 361.574894271358 2409.05020047324 185 189 190
-921.461487220312 363.340806108087 2396.01173667871 182 186 187
-928.748625116265 366.062428867763 2377.96329564078 185 189 190
-936.430009308461 367.817846793996 2364.90687522157 190 194 195
-944.754567585593 367.651249901851 2361.85284382473 188 192 193
-952.923829894814 368.057935095009 2355.79362143404 184 189 192
-960.962064664932 369.036470771877 2346.72570272564 182 187 190
-969.242021348189 369.24677494821 2341.6608705921 178 183 186
-977.590083075061 369.264127958809 2337.59573457997 176 180 183
-985.82054271515 369.852418956447 2330.52046950482 192 196 199
-993.832625424642 371.582053939828 2317.42308803293 190 194 195
-1001.9087951483 373.306827320201 2304.31748141467 194 198 199
-1009.90389052962 375.788167200107 2287.18901134256 198 199 201
-1018.01819173589 378.073004394149 2271.054109938 181 182 184
-1025.78026115782 383.011526363073 2240.84735587496 171 172 174
-1033.64168323317 388.3186745216 2208.6118582278 188 190 189
-1042.20491353695 389.632745770565 2197.46192509444 173 175 174
-659.612017585516 363.836011729745 2471.01367996232 154 159 152
-668.614213818306 362.344961624892 2474.93286147999 165 170 164
-678.178668707159 360.076189150481 2482.81515347585 176 180 179
-688.272890258934 357.031582562496 2494.66436551715 163 167 168
-697.729830189551 354.768226075379 2502.56006048137 157 161 162
-707.138332711999 352.507415325545 2510.46155317491 151 155 156
-715.270625543507 351.995313817177 2509.44803970826 149 153 154
-723.001950700926 352.064318980723 2505.45973274978 146 150 151
-730.74966726824 352.131563251076 2501.46938487749 121 125 126
-739.027039851111 351.423042682805 2501.44621094511 165 169 170
-747.173484026426 350.907650764927 2500.43094013958 184 188 189
-754.828397231876 351.164343239298 2495.44398757492 182 186 187
-762.38477988956 351.612160156641 2489.46090035376 153 157 158
-769.850731814373 352.250289405187 2482.4809100745 85 89 90
-777.69354679571 352.307832307035 2478.47872003057 108 112 113
-785.552565492363 352.363626272911 2474.47451246453 134 138 139
-793.646573278396 352.033199841065 2472.45761121217 133 137 138
-801.74591970779 351.701716640689 2470.44004651164 132 136 137
-810.058544396152 350.985274198823 2470.41225391813 140 144 145
-817.960514671129 351.035823570571 2466.40270006049 142 146 147
-825.977170648799 350.893144323796 2463.38727033279 155 159 160
-833.620922287491 351.514930045961 2456.38513474048 151 155 156
-842.04231701764 350.603722233085 2457.35196829465 135 139 140
-850.181293224682 350.265951890312 2455.32947458913 140 144 145
-858.500949246665 349.545299014028 2455.30081561478 153 157 158
-866.474673664623 349.587514736933 2451.28232921067 153 157 158
-874.464309902785 349.628059841452 2447.26186150498 163 167 168
-882.469854258322 349.666877345172 2443.23965337861 170 174 175
-890.491247774966 349.70420488494 2439.21523102566 167 171 172
-898.305702681488 350.310039442875 2432.19183468153 183 187 188
-906.009050588543 351.292948232362 2423.16569635738 192 196 197
-913.548647172488 352.841615265852 2411.1354420315 187 191 192
-920.882620929441 355.144033257574 2395.09787458096 180 184 185
-928.360568080122 357.251292106795 2380.05030087615 185 189 190
-935.913699763586 359.352987385154 2364.99359950635 187 191 192
-944.180505607846 359.370022420146 2360.93860458536 180 184 185
-952.186207175496 360.329610940949 2351.8750359937 179 184 187
-960.339819966784 360.90846419777 2344.80938580493 176 181 184
-968.425321191054 361.861652630329 2335.73563527356 175 180 183
-976.647942349565 362.43473855156 2328.66162870535 178 182 185
-984.857767384402 363.193424914806 2320.58056260989 192 196 199
-993.021011699411 364.324840934259 2310.48919401495 192 196 197
-1001.23212483318 365.452667431601 2300.39162085857 190 194 195
-1009.19952847109 368.07750199716 2282.25854156599 198 199 201
-1017.12297188196 371.445607015026 2260.09776194332 178 179 181
-1024.8794866763 376.490857870463 2228.88373290005 174 175 177
-1032.88225305769 380.963783357242 2200.66378187634 182 184 183
-1041.61994184429 381.127906546709 2195.54194909837 162 164 163
-748.136748395059 213.624163929261 3212.15077045159 153 160 144
-653.166199298165 353.191215907294 2486.96238021607 152 158 148
-659.544709918056 354.986037157415 2474.06844694892 160 165 158
-668.840512844704 353.124623759951 2479.96781815939 170 175 169
-677.951337636505 351.457032565987 2484.88159548797 175 177 176
-687.608896817039 349.023398259807 2493.76038987461 161 165 166
-696.360700463827 347.742528473312 2496.70281857486 157 161 162
-705.92688556658 345.313461054278 2505.59300387948 152 156 157
-713.800098024244 345.183202199689 2502.59520207765 135 139 140
-722.219912054821 344.286908694013 2503.56243388623 147 151 152
-730.104321118156 344.154622663151 2500.5632401527 161 165 166
-738.256661047087 343.63939265166 2499.54723316561 117 121 122
-746.157583093705 343.504862709032 2496.54622488739 101 105 106
-753.82321698252 343.750000271467 2491.55772460553 139 143 144
-761.029077176992 344.754391892524 2482.59385350126 187 191 192
-768.395893810672 345.565292178342 2474.61809263569 113 117 118
-776.375407744355 345.423304367671 2471.60705592588 105 109 110
-784.814806464721 344.52068681851 2472.57186033511 132 136 137
-792.914647418203 344.18719877788 2470.55399893183 136 140 141
-800.913001541282 344.042042410557 2467.5408596908 134 138 139
-809.026231931465 343.706330279429 2465.52157349079 133 137 138
-817.347650062308 342.991537365921 2465.49267918366 136 140 141
-825.564775642048 342.465312084536 2464.46861628601 145 149 150
-833.397548457161 342.693533611796 2459.45954287078 142 146 147
-841.625125421241 342.165388351207 2458.43418075834 135 139 140
-849.852484485024 341.636659750195 2457.40884737478 135 139 140
-858.079588732236 341.107290438347 2456.38354747811 151 155 156
-865.965472142925 341.329617679885 2451.36762142819 157 161 162
-873.790169124301 341.737768950074 2445.3513948925 165 169 170
-881.881046895556 341.580504683453 2442.32650086415 169 173 174
-889.982387335559 341.421859722365 2439.30054506134 166 170 171
-897.79645967665 342.011474215623 2432.27723917408 179 183 184
-905.212180845782 343.721466432459 2419.25409155656 186 190 191
-912.623339433421 345.613792354352 2405.22334605471 183 187 188
-920.236910035728 347.12716905588 2393.1839531445 177 181 182
-928.036700250115 348.262804748709 2383.1376900915 181 185 186
-935.579988939705 350.327143768003 2368.08231544552 186 190 191
-943.780569537926 350.522856055273 2363.02742740534 178 182 183
-951.502563749448 352.391856354582 2348.95795288248 178 183 186
-959.663903118993 352.953972947731 2341.89138253783 175 180 183
-967.857036890228 353.513466833091 2334.82085134662 172 177 180
-976.129393707176 353.88461905117 2328.74885694567 174 178 181
-984.428051483436 354.253436299188 2322.67334622082 189 193 196
-992.669062234351 354.990489855973 2314.58868557032 193 197 198
