ply
format ascii 1.0
comment KinectMotionCapture
element vertex 765
property float x
property float y
property float z
property uchar red
property uchar green
property uchar blue
end_header
-451.885274849609 60.1855238653673 1882.50987160149 129 133 132
-443.171274651692 60.777126284655 1871.7169723629 121 125 124
-430.476439637585 61.6634381516353 1860.39267700541 121 125 124
-418.778582468939 62.4752746914115 1849.12190492063 118 122 121
-404.095995458436 63.5077577919586 1837.40781766383 116 120 119
-419.03006176353 61.9482462419905 1760.50169185961 104 106 103
-421.268763271148 61.7252600658861 1750.99170476566 99 101 98
-427.486096787572 61.2079376901493 1742.10893268736 100 102 99
-429.723642288256 60.984932306498 1732.63478093724 102 104 101
-430.966563275396 60.8353856023036 1723.01403795262 108 110 107
-429.225414477371 60.9062828587601 1712.9146401692 107 112 106
-431.462574032078 60.6829719610485 1703.4645692756 122 124 119
-432.70484569133 60.5331211093024 1693.85955291575 145 147 142
-144.751709444784 74.2609072426811 2207.27768958861 143 145 142
-283.016677926773 64.2170900653289 2189.93744463584 174 176 175
-327.185901058975 60.9918671315184 2181.07786661495 140 144 145
-339.416240556311 60.062774554693 2171.40215938354 135 139 142
-342.664702803821 59.779117208199 2161.47024239423 142 146 149
-340.924114877327 59.8537182333255 2151.36222541822 146 150 153
-343.174222894687 59.6414128077517 2141.40857578832 166 170 173
-353.405053167903 58.8558834833368 2131.81843917348 172 176 179
-370.617226190657 57.569205281563 2122.61093068718 172 176 179
-385.832218952974 56.4261455100938 2113.39802809454 172 176 179
-392.06843759894 55.9276529475104 2103.79737773519 173 177 180
-401.295817123351 55.2144841375037 2094.3951058223 174 178 181
-415.508108512298 54.1437835725671 2085.33145355116 177 181 184
-422.738119606415 53.5740313433575 2075.92160034316 176 180 183
-436.946959212176 52.5038446127525 2066.99340743226 175 179 182
-447.165671473532 51.7199209336178 2057.87860871828 175 179 182
-453.395089642366 51.221993456302 2048.54435130842 171 175 178
-455.636051142327 51.009884249086 2038.95771473619 173 177 180
-461.86379584569 50.5119702930751 2029.67955188405 173 177 180
-465.100577198316 50.2282867378899 2020.2041365908 146 150 153
-469.333786025446 49.8731340189522 2010.82563233715 143 147 150
-479.546022268341 49.0897790735276 2001.96454952128 166 170 173
-493.743046914941 48.0212373450485 1993.49989242025 155 159 162
-495.980072487998 47.8089637431155 1984.0575842036 143 147 150
-489.249139433563 48.2382697905323 1973.81093842556 138 142 145
-480.526584818001 48.8096843747844 1963.34002410843 136 140 143
-478.77898847054 48.881697961892 1953.49381752243 136 140 143
-481.016693949145 48.6684899763578 1944.0332577607 135 139 140
-485.246239546083 48.312710139258 1934.78792709365 139 143 142
-485.490938744052 48.241742401382 1925.14803506089 137 141 140
-477.767409394512 48.7400571863872 1914.65210066431 137 141 140
-471.041062705066 49.1666867509824 1904.22333005335 136 140 139
-462.324063795298 49.7351517815431 1893.53211250418 133 137 136
-451.616351888611 50.4453096767041 1882.56202068594 132 136 135
-447.880449134361 50.6571387645634 1872.35951575942 128 132 131
-436.179649114075 51.4372584600385 1861.16970540669 124 128 127
-421.493926504195 52.4298953004801 1849.54470917883 116 120 119
-398.845946389128 53.9900749547912 1836.82843360286 119 123 122
-402.839141855811 53.2489044773665 1758.18103350329 117 119 114
-410.053718913001 52.6773312116143 1749.3817654243 99 101 98
-420.251544137691 51.8934465035106 1741.083346304 101 103 100
-425.474040371343 51.4639152519677 1732.05903824857 97 99 96
-428.706564209102 51.1759934634941 1722.74547069668 103 105 102
-423.98154279312 51.4542249105938 1712.15496066387 100 105 99
-423.235554519372 51.4491137537532 1702.1971168273 114 119 113
-419.506198794315 51.6560188265186 1691.73344429161 136 141 135
-280.739109489741 54.1656913566304 2189.94396757676 164 166 165
-322.915414791686 51.1992002370569 2181.01735522174 144 148 149
-334.14929550916 50.3719485267082 2171.29722084425 145 149 152
-336.400280015889 50.1654266644062 2161.31552491829 135 139 142
-337.653460993172 50.0276730687709 2151.30644850798 144 148 151
-341.89954091498 49.6830362576094 2141.42686367002 162 166 169
-357.11951107683 48.5805778019021 2132.05369683859 168 172 175
-373.335158615546 47.4095957512816 2122.80992018591 170 174 177
-383.563243046933 46.6521361250236 2113.35723966187 168 172 175
-391.795110223018 46.0325017924077 2103.85530723084 172 176 179
-397.033367923 45.6194359476864 2094.2326657562 170 174 177
-412.244510798988 44.5184091409 2085.21536181828 173 177 180
-428.450740041012 43.3489892088577 2076.34136210971 173 177 180
-443.657358150876 42.2487650302763 2067.49243871868 175 179 182
-451.882238566883 41.6300304672334 2058.26453917824 179 183 186
-455.120578858394 41.3550397688729 2048.73752887308 177 181 184
-460.352312142206 40.9425705474715 2039.37052479236 179 183 186
-467.577258229305 40.3927426630038 2030.18002283165 178 182 185
-474.801206578669 39.843015352329 2021.02862390634 167 171 174
-481.027448304632 39.36200363493 2011.83667572791 155 159 162
-488.24946691477 38.8124149566956 2002.76084654936 155 159 162
-497.463861103467 38.1257355227303 1993.89452879177 160 164 167
-491.72830805975 38.4679193487738 1983.75960073074 140 144 147
-486.990230989327 38.7411157471133 1973.68326944144 134 138 141
-473.284637802721 39.6308123317822 1962.73972774353 133 137 140
-477.515842645116 39.286396368978 1953.45107445734 137 141 144
-480.750003157847 39.0104777990026 1944.08642810939 138 142 143
-487.968554729383 38.4605817545995 1935.1457727838 137 141 140
-486.220661219275 38.5269576404215 1925.30512701402 135 139 138
-477.500458564115 39.072136071907 1914.70479478832 134 138 137
-468.781712379621 39.6167585617874 1904.05626650442 133 137 136
-459.068077384004 40.2292895793573 1893.24686774901 128 132 131
-454.33504777521 40.499344763575 1882.96056659185 130 134 133
-455.577551794423 40.3588700464855 1873.35653617107 124 128 127
-447.858434169477 40.8333349737311 1862.67189294213 128 132 131
-422.218271112655 42.5370102997024 1849.72075647429 123 127 126
-396.581686868726 44.2394927676394 1836.62846680181 128 132 131
-402.816578577635 43.296100673968 1748.37633039063 97 99 96
-411.026003521329 42.6761841163896 1739.7512151142 100 102 99
-413.265001147995 42.464930988183 1730.23292791702 96 98 95
-417.493533659527 42.1174902900891 1721.04547085062 99 101 98
-416.747642810493 42.1102706693368 1711.07223062433 98 103 97
-417.991426085052 41.9668264093858 1701.42433879489 112 117 111
-414.261895302155 42.1632778891955 1690.94695907472 135 140 134
-298.42455793751 42.7775424986995 2190.50119661465 171 173 172
-319.642579114259 41.3176781359849 2180.98728348896 137 141 142
-322.893051332144 41.0503510310101 2170.99434405015 127 131 132
-327.141233305297 40.7167351351806 2161.05376196199 137 141 144
-331.388609946181 40.3830816960403 2151.13528994943 153 157 160
-346.611478837416 39.3215797600523 2141.69280668839 171 175 178
-365.823476871178 37.9958643019294 2132.50894229249 170 174 177
-380.044241357152 37.0013228452497 2123.19590582195 172 176 179
-392.267940387571 36.1393107447285 2113.86108167882 169 173 176
-397.507117412313 35.7401915194556 2104.22680940193 172 176 179
-402.745344871719 35.3411031593435 2094.62035778026 172 176 179
-416.959637138417 34.3475645630294 2085.56135485426 182 186 189
-436.158790599782 33.0242033574829 2076.88202865875 179 183 186
-454.358076041369 31.7674023036969 2068.24431372097 176 180 183
-455.602173715998 31.6330003722622 2058.58451821533 172 176 179
-458.840472200442 31.3664984948357 2049.06825651733 167 171 174
-458.090125909595 31.3637479471509 2039.28327372628 176 180 183
-471.297524743549 30.4377127074737 2030.53214748658 169 173 176
-472.540381146417 30.3029628883219 2020.92981643458 174 178 181
-483.751382264947 29.5091591952794 2012.13048515984 178 182 185
-484.992978099222 29.37435798682 2002.56804152916 156 160 163
-495.204918044219 28.6467195829587 1993.77836319276 147 151 154
-491.4624488667 28.8410007152324 1983.8136551917 144 148 151
-488.717015131641 28.9691607084288 1973.91851424518 146 150 153
-478.000016345708 29.6233893649541 1963.26065811873 147 151 154
-479.241617034539 29.4877015830977 1953.69707282094 145 149 152
-478.490457884895 29.4833968796048 1943.9421906348 147 151 152
-478.735633822052 29.4131574916416 1934.2844480291 150 155 151
-474.99591449255 29.6056261932328 1924.2103203931 150 155 151
-474.244982490363 29.6006939709353 1914.43656192784 140 145 141
-471.50236054914 29.7269168730927 1904.43877122668 138 143 139
-465.771801636946 30.0498254234848 1894.08795889864 135 140 136
-458.050049787062 30.5036280101295 1883.4747598875 140 145 141
-456.30494033586 30.5632276505153 1873.52735242893 133 138 134
-440.618535899124 31.5409585106064 1861.87897701194 127 132 128
-419.955493963423 32.8457674219004 1849.52656745291 128 133 129
-401.287010685122 34.0184530065233 1837.3130054621 127 132 128
-407.519239733386 33.0914797750235 1749.18256436256 97 99 94
-410.753939410986 32.8208944022582 1739.80257196016 93 95 92
-409.013522276145 32.8769972354297 1729.65869313257 101 103 100
-416.226956478264 32.3450888570298 1720.93735610178 105 107 104
-414.486616915395 32.4009428316201 1710.79950307587 119 124 118
-416.725025538139 32.1955483226957 1701.31052672655 115 120 114
-409.017045119933 32.6425604364831 1690.16112616001 128 133 127
-277.919932179101 33.9701571032125 2200.21712527173 173 175 172
-312.119748962576 31.7416672626428 2190.94778082647 178 180 177
-323.356780205214 30.9746311706618 2181.16916790493 138 142 141
-326.607207006949 30.7156588046003 2171.18697416174 136 140 139
-330.855181174635 30.3931448728377 2161.25710947691 150 154 155
-336.100492700939 30.0071602900638 2151.38785780717 154 158 159
-347.332818788598 29.2406566156459 2141.79371031074 159 163 164
-364.550427077588 28.0939962903456 2132.52411320308 186 190 191
-383.761281116948 26.8210270403478 2123.44159488736 171 175 176
-394.987755995196 26.0555140787002 2114.06787188725 182 186 187
-408.208032855139 25.1635591125093 2104.85934534109 183 187 188
-409.455697965638 25.0318085710781 2095.06296894176 185 189 190
-422.67315659302 24.1402737938251 2085.96503985351 177 181 182
-435.888785455604 23.2490610996467 2076.93897014018 174 178 179
-448.105307903061 22.4214449201324 2067.92156341116 173 177 178
-452.341768091164 22.1001057373466 2058.44296629002 178 182 183
-457.575025211187 21.7154966642852 2049.05564428114 180 184 185
-459.815887132409 21.5205675463591 2039.48202145943 170 174 175
-470.033148633587 20.8200364459462 2030.51346400729 161 165 166
-475.264112550852 20.4355577363245 2021.21590828048 161 165 166
-486.475750118601 19.6722543365417 2012.42445123135 169 173 174
-491.704855940447 19.2879552047895 2003.19970912722 152 156 157
-495.936285189698 18.9668450486848 1993.91798443575 148 152 153
-492.193455495565 19.1504637461675 1983.95591817161 141 145 146
-488.450918757227 19.3337675095638 1973.97273923992 144 148 149
-483.712638936188 19.5798142518263 1963.87518093736 147 151 152
-480.967908657371 19.6994293123479 1953.94337159341 144 148 149
-477.227195153278 19.8817944007535 1943.89725126272 142 146 147
-475.479613163169 19.9378691079561 1934.03336959996 144 149 145
-470.743581993459 20.1826419809392 1923.84655843094 144 149 145
-471.985428315571 20.0493195760069 1914.27591269321 133 138 134
-472.231012622895 19.9788514301854 1904.60196394413 132 137 133
-468.492229265861 20.1598924013517 1894.47898504488 136 141 137
-461.765868472019 20.5292825527409 1883.98930640908 146 151 147
-453.048441845175 21.0240411584938 1873.22634045445 130 135 131
-438.356864926192 21.8954107336623 1861.69061866876 118 123 119
-425.659065995809 22.6403596966944 1850.32105403979 117 122 118
-415.950302274736 23.1961962599209 1839.26039486155 113 118 114
-401.276119552048 23.6027043174794 1748.3293914236 113 115 110
-406.501682290013 23.2155522506213 1739.24006204946 84 86 81
-409.736445153194 22.9536828277184 1729.86695865139 94 96 91
-416.950358092147 22.4415583155294 1721.14815331848 102 104 99
-418.194137274603 22.3048854280926 1711.49836721262 109 114 108
-411.479628029073 22.6683744885502 1700.53915287583 110 115 109
-398.797760176652 23.4065013261487 1688.53962145893 122 127 121
-294.610849111307 22.734647939142 2200.69982207857 185 188 181
-300.858905978288 22.301312885633 2190.70645414711 166 168 163
-309.102499438997 21.7465463956348 2180.80654319609 134 139 135
-318.343328401937 21.13116913649 2170.98362166977 128 133 129
-330.577281961372 20.33381337604 2161.31743800736 136 140 139
-338.817157349262 19.7795340832971 2151.56336533712 151 155 154
-352.045935032902 18.9219950973804 2142.05955038139 181 186 182
-367.268809114834 17.9434799845158 2132.71529389744 192 196 195
-386.480901861787 16.7228101590942 2123.640517692 170 174 173
-402.696752817758 15.6845692347005 2114.52199319808 173 178 174
-411.926701410613 15.0709632825306 2105.12621611934 181 186 182
-421.15538020393 14.4575228323674 2095.78024490875 177 181 180
-429.385059404678 13.9048552047735 2086.42640503551 170 174 173
-440.606349033476 13.1706615719918 2077.29829261805 169 174 170
-449.830908297607 12.5578333382358 2068.10465944146 170 174 173
-448.083604619784 12.6107023225666 2058.23578310033 167 171 170
-457.306621571137 11.9980114753613 2049.11190115331 163 167 166
-459.547644921034 11.8088012092537 2039.53810960242 163 167 166
-476.745668188334 10.7128043990992 2031.08836156931 167 171 170
-475.994032565247 10.704980389156 2021.34832285571 165 169 168
-486.209509537752 10.0325106365592 2012.47964108011 158 162 161
-490.441904183143 9.72261460531176 2003.17222622674 160 164 163
-493.676921072092 9.47307148718529 1993.80242965839 155 159 158
-490.930664947482 9.5856053948882 1983.92265245729 150 154 153
-485.194594890844 9.8788762965058 1973.75541212112 147 151 150
-483.446153835038 9.93050259270578 1963.9296541489 146 150 149
-482.694480291666 9.92162334009777 1954.18996445309 141 145 144
-480.946233995915 9.9728708161379 1944.34686304705 137 141 140
-476.208863808451 10.204626563437 1934.18908375526 122 127 123
-470.47609047049 10.4962814160924 1923.90058583206 119 124 120
-471.718026789539 10.3660785491174 1914.32977222185 131 136 132
-472.959793541108 10.2358082901138 1904.76551353581 134 139 135
-472.209187649526 10.2257445124783 1894.98282445778 123 128 124
-460.50140954498 10.8772030476451 1883.92759536653 107 112 108
-447.799305518679 11.5881720011657 1872.68980368255 116 121 117
-431.115175456876 12.5389456464722 1860.8988955705 126 131 127
-422.4004152038 13.0081765107943 1850.00430876946 130 135 131
-383.089831121016 14.7991901548515 1745.66647129067 142 144 139
-396.277975179398 13.9470147652239 1737.75651818928 91 93 88
-404.488852842717 13.3944910989568 1729.13766210545 105 107 102
-415.683571285523 12.6627006238658 1721.04129922168 117 122 116
-412.947883692392 12.7685721662004 1710.74131366416 114 119 113
-405.238429477598 13.1731380501969 1699.60393868135 92 99 92
-392.556011242396 13.8761127120293 1687.58817443113 111 118 111
-261.640860980799 14.4247063657497 2189.69600824596 127 130 123
-290.113122871425 12.6619552720292 2170.12112884297 96 101 97
-313.330041130112 11.2594287038047 2160.77060659735 148 152 151
-332.551043258095 10.0894019081187 2151.39267271413 181 185 184
-347.777442120993 9.15165413508323 2141.95442840925 187 192 188
-357.013763808497 8.56177705348149 2132.33504694774 128 133 129
-380.219625893289 7.16160126527091 2123.41916236512 180 185 181
-393.443784611752 6.34088327552013 2114.13540811935 178 183 179
-410.657184492387 5.28908560079305 2105.13214639708 125 130 126
-418.888747493029 4.75831105980037 2095.72818820839 159 164 160
-427.119418439089 4.22768834765014 2086.36858241331 192 197 193
-435.348719883167 3.69723080688972 2077.05335406001 182 187 183
-440.584603248959 3.34026654846356 2067.59307214149 178 183 179
-442.827220501077 3.15664134752924 2057.96298218305 183 188 184
-453.048566260291 2.51101317194308 2048.8937483104 169 174 170
-464.2659568454 1.8079196168298 2039.9514168955 151 155 154
-477.476093229482 0.989696878645752 2031.21838326234 160 164 163
-482.707041312714 0.6333069324303 2021.942281147 167 171 170
-487.93750883108 0.276966767166376 2012.69433941059 161 165 164
-491.173136540814 0.0359712956826685 2003.30984765457 152 156 155
-493.411213926449 -0.14740556838666 1993.85745805028 158 162 161
-490.664741455872 -0.0428266063019489 1983.97759499111 153 157 156
-481.938032609128 0.407015015896905 1973.53850673617 150 154 153
-480.189424109652 0.453429856458687 1963.70437259468 151 155 154
-479.437896336158 0.442073521886244 1953.95632600725 150 154 153
-482.672809964857 0.20045039954969 1944.59906908865 146 150 149
-481.920986416341 0.188853341595602 1934.85299915521 127 132 128
-480.173127042888 0.234562948674133 1924.99815413646 125 130 126
-481.414457782522 0.107687309019555 1915.45458118809 137 142 138
-478.670400412259 0.210505447880427 1905.47843700591 135 140 136
-471.941791121189 0.542794747924902 1895.03680139423 121 126 122
-461.22946114649 1.10431890539894 1884.09693299982 95 100 96
-448.52631879827 1.7800780269091 1872.86191692755 121 126 122
-440.805018566336 2.16836212349231 1862.16071841383 109 114 110
-429.101208030338 2.78557821188355 1850.92298088547 111 116 112
-372.862886159888 5.43939293922457 1744.21148617527 146 148 143
-385.057353914801 4.68033387630756 1736.12033979608 89 91 86
-390.284431666494 4.32139255139857 1727.00208895912 110 112 107
-400.485978745199 3.67713410979145 1718.70812682206 104 109 103
-399.74097193355 3.66093885908636 1708.69069801215 110 115 109
-396.01149113075 3.81572067733027 1698.17594801158 157 164 157
-391.287736707015 4.02729813274633 1687.47367639813 139 146 139
-388.554060282317 4.12456918507093 1677.08585286737 146 151 145
-304.035179747056 1.86922303857073 2201.07023979241 134 137 130
-148.529259223003 10.4241670495664 2186.65444185372 132 135 128
-255.411651311441 4.28536241960659 2148.49247211757 10 12 7
-338.517541296181 -0.365183571179289 2141.64355229077 24 29 23
-346.757186648184 -0.875275751160753 2131.95523972664 25 30 26
-357.989474003303 -1.55062705234704 2122.45115364191 32 37 33
-385.187050863835 -3.10777234128756 2113.79865800367 27 32 26
-414.376654444438 -4.77426173297246 2105.39910060351 21 26 20
-396.666336869913 -3.85051286438892 2094.57797642062 24 29 25
-407.892087357777 -4.52464903216771 2085.33067846985 11 16 10
-432.085701758875 -5.91420095368123 2076.9295805469 11 16 10
-415.375421410894 -5.04657645804363 2066.07143705527 19 21 18
-439.565168379961 -6.43533883528852 2057.82233952548 16 18 15
-452.779823049529 -7.21836291629513 2048.95050925046 14 19 13
-457.016514104259 -7.50623105387327 2039.5081524805 5 10 4
-477.209187538855 -8.67338971510123 2031.27450410374 8 13 9
-482.440525583381 -9.01581651544858 2021.99815350077 19 24 20
-481.688388744125 -9.02867622799847 2012.27229710175 86 91 85
-485.921689248539 -9.3161862431389 2002.9535145197 185 190 184
-485.169436444018 -9.32927016339444 1993.23194970797 177 182 178
-485.414175303602 -9.39736754595818 1983.59358952837 159 164 160
-479.677566885602 -9.13655116333517 1973.41254305629 154 159 153
-482.913123688283 -9.36946269760405 1964.03950250271 158 163 159
-489.138478624271 -9.76679684309162 1954.97205968062 155 160 156
-489.382900799318 -9.835320077138 1945.34561938324 145 150 146
-488.630527099115 -9.84917143102559 1935.61863079423 140 145 141
-482.895965815475 -9.58948087245517 1925.36569118477 150 155 151
-483.140785786961 -9.65847762791058 1915.72319519368 148 153 149
-478.403498283217 -9.45405256076781 1905.53283875624 141 146 142
-473.666874925126 -9.24992434619656 1895.3162064685 152 157 153
-466.93855057737 -8.936789461443 1884.84286774914 0 2 0
-454.234019128698 -8.29616178947812 1873.6244210898 106 111 107
-447.507990454917 -7.9839231689505 1863.06039713932 156 161 157
-429.826487850956 -7.07138678944613 1851.10104497898 133 138 134
-415.135161315334 -6.3234230196095 1839.42303369477 146 151 147
-374.830491537947 -4.70144479523796 1734.63852500679 46 48 43
-381.053795244453 -5.10067862131996 1725.64921160797 79 81 76
-389.266366509286 -5.60842881891599 1717.01223801234 79 84 78
-389.517303405061 -5.68133479756169 1707.12647400708 70 75 69
-391.758295431182 -5.86293994756124 1697.57139727401 128 135 128
-390.019043003467 -5.82739611930319 1687.35992298115 152 159 152
-386.290438828071 -5.68348606069605 1676.79923808666 182 189 182
-130.532862838273 0.740202957196845 2175.61519861579 123 126 119
-144.780377940332 -0.0667766191075336 2165.4673696893 149 152 145
-290.326266870916 -7.88668857428548 2139.72717180742 23 26 19
-313.54184597325 -9.16195584377583 2130.56562966501 25 27 22
-356.715603198085 -11.4845367262289 2122.4640086619 26 28 23
-408.865425418623 -14.2770733821906 2115.04350155657 25 28 21
-414.105041774375 -14.6066168160703 2105.45743903989 29 32 25
-396.393366488756 -13.7321422398645 2094.63647196973 26 28 23
-363.717203813358 -12.0735473066272 2082.85238823604 25 28 21
-366.963400392911 -12.2994151834065 2073.06174649276 34 37 30
-427.075752950675 -15.5057759776345 2066.88690678923 34 35 30
-430.317344197545 -15.7305859714613 2057.28671806247 26 27 22
-443.533620747444 -16.477902873153 2048.38983870471 29 32 25
-456.748066357454 -17.2248298574967 2039.56493748375 27 30 23
-467.965840163809 -17.8669454167641 2030.66377714239 26 28 23
-463.225161606718 -17.6736663788504 2020.59398706924 13 15 10
-469.454893126624 -18.0546026212456 2011.37309899173 6 9 2
-471.695158614068 -18.2268014219177 2001.8565177205 1 4 0
-476.926189836342 -18.5554321847021 1992.60697191666 0 1 0
-478.168687545544 -18.6755318899558 1983.03439001967 69 71 66
-478.413900105808 -18.7435903327358 1973.37755778704 126 129 122
-488.627938551622 -19.3325282182711 1964.65478870333 172 175 168
-490.865888672606 -19.5047151600942 1955.21938791915 168 170 165
-486.126573085023 -19.3126723949443 1945.10432564981 164 166 161
-483.381135685669 -19.2249567630042 1935.16590187644 150 152 149
-482.629396079768 -19.2414558519009 1925.42061253974 158 160 157
-484.867161525991 -19.4140362685354 1915.99200700199 166 168 165
-479.132971493582 -19.1709616556263 1905.69739189738 151 153 150
-474.396149970636 -18.9801530624261 1895.48352778332 164 166 163
-466.670744804751 -18.6338622905692 1884.89767511084 0 1 0
-456.954044576551 -18.1841796657093 1874.03322220136 4 6 3
-453.215883996345 -18.0462931394643 1863.83956710692 145 147 144
-439.517047596985 -17.3900120500798 1852.39064796306 153 155 152
-435.780622980987 -17.2528352654867 1842.12838330774 153 155 152
-369.578985028319 -14.3966510869798 1733.92549174917 119 120 114
-377.793539386785 -14.8822045280228 1725.23484515221 106 107 101
-379.040449363019 -15.0062666548324 1715.47623724337 118 119 114
-383.272876577514 -15.2851371413522 1706.21018710526 115 116 111
-384.519211450952 -15.4092112118167 1696.47404338178 99 99 97
-383.775487005771 -15.4302224194163 1686.41064903256 85 85 83
-379.051908534764 -15.2452546040065 1675.66360440667 120 121 116
-117.25845267864 -9.22024673043961 2175.28696574621 98 101 94
-128.512433096797 -9.83975942121421 2165.00431959655 99 100 94
-328.978480727575 -19.9955776361648 2141.39337291041 25 28 21
-322.246390374608 -19.7165856540739 2131.02123791328 26 29 22
-329.489733509836 -20.1332031569271 2121.26407141733 23 26 19
-349.706862680962 -21.1949446067539 2112.18779702029 22 25 18
-341.976873418133 -20.8666995326384 2101.76173065615 21 24 17
-393.126549631654 -23.4653166300836 2094.53044823493 22 25 18
-392.379695095968 -23.4838333570004 2084.58274225888 21 24 17
-420.569388390622 -24.9398556739523 2076.3809641954 31 32 26
-404.854968206925 -24.2149613388579 2065.55606483376 31 32 26
-479.422547647766 -28.0819858725128 2041.26307813672 28 31 24
-505.601172017932 -29.4352575774187 2033.53619277879 29 32 25
-437.27337765873 -26.1581486163928 2008.88281561405 22 25 18
-450.485597266305 -26.8687266269658 2000.1839430081 21 24 17
-453.724283359307 -27.0849982216654 1990.70646563387 14 17 10
-464.9394730232 -27.6962168550475 1981.94880205953 5 8 1
-476.15286763928 -28.3071045079614 1973.25232576523 8 11 4
-488.361830750975 -28.9670105870281 1964.71043825407 2 5 0
-497.57816131772 -29.4785791642435 1955.94713589758 0 2 0
-479.879285072439 -28.6589483819934 1944.56705095064 0 2 0
-477.134049554274 -28.5792390205933 1934.61214044433 117 119 116
-474.389203554278 -28.4997233885883 1924.64179820693 139 141 138
-475.631148325812 -28.6173695198051 1915.08413670011 122 124 121
-466.907728048683 -28.2428945508916 1904.43559684463 153 155 152
-467.153625492641 -28.3116304863572 1894.75126954521 176 178 175
-464.410254397923 -28.2329201470731 1884.72241823889 22 24 21
-453.696449501875 -27.7611262930743 1873.73452460285 0 1 0
-454.939653051734 -27.8795308155278 1864.13617616461 197 199 196
-437.254658577214 -27.0646954704485 1852.19906976785 150 152 149
-424.552881012657 -26.4961486055696 1840.79559695816 137 139 136
-378.262450624876 -24.8042342300862 1735.36282009624 119 120 114
-375.528095427125 -24.7293796410911 1724.97745629595 116 115 110
-375.780015626943 -24.8012945056033 1715.05432554435 119 118 113
-380.01297385961 -25.0686701711036 1705.77986363006 102 98 95
-379.269207122591 -25.0917976603798 1695.70652510385 98 94 93
-380.516036644807 -25.2126679960926 1685.96381350445 104 103 99
-91.9985236521717 -18.6881574296035 2174.59726414142 119 120 112
-107.249080774383 -19.4659083623614 2164.37729887009 60 59 54
-141.469357335955 -21.1359843506821 2154.91722199551 46 45 40
-317.718312840007 -29.5431825916691 2141.00117891326 28 31 24
-330.95252649 -30.2221566531389 2131.47663682453 26 29 22
-332.206163674289 -30.3377990134251 2121.46414681737 21 24 17
-340.446927439281 -30.781762864043 2111.80312630629 25 28 21
-355.672876661454 -31.5536301854467 2102.55124038366 23 26 19
-404.829330606964 -33.9181353926974 2095.24771192028 17 20 13
-431.02623479319 -35.2036387857983 2086.88847720809 21 22 16
-390.362038846728 -33.351440291758 2074.62833796696 25 26 20
-379.637400561805 -32.9048511963831 2064.03678776848 26 27 21
-497.112413129946 -38.5794951206617 2042.6039743868 26 29 22
-465.435441209686 -37.1508994626301 2030.62926090063 25 28 21
-483.6358839182 -38.0588252878004 2022.32091131342 22 25 18
-472.909320620733 -37.6122713731287 2011.80455949946 20 23 16
-470.162934237056 -37.5395629378213 2001.88711174893 17 20 13
-463.428007657466 -37.2804655597036 1991.61378980822 24 27 20
-491.595314228169 -38.6536960082748 1984.37585800049 20 23 16
-467.909065945826 -37.6022863367684 1972.58425928369 23 26 19
-481.116472787684 -38.2756841583297 1964.11340745773 22 25 18
-476.376491249306 -38.1103870088048 1953.98633068202 15 18 11
-476.621784752553 -38.1781368961394 1944.3266662203 15 18 11
-453.939985445018 -37.1757209945792 1932.33327808178 22 24 19
-453.190136831854 -37.1975550530182 1922.50835391879 12 14 9
-420.54626338022 -35.7317173801907 1909.25532756372 17 19 14
-469.629814883077 -38.0780967897412 1904.82054119281 20 22 17
-448.947810964989 -37.1708249341717 1892.78238692017 1 3 0
-427.272526298672 -36.2180233984501 1880.51513440104 10 12 7
-447.449362136305 -37.2156056576696 1873.08255225823 11 13 8
-441.718473621197 -37.0061653987342 1862.62278844151 0 2 0
-428.018309444494 -36.4260325978528 1851.14400126844 6 8 3
-424.281837034257 -36.3100716924559 1840.85149981224 0 1 0
-353.353811859255 -33.6649835058502 1721.59540133531 38 35 30
-359.579533882568 -34.0134923529313 1712.56603631394 104 99 95
-368.790060952711 -34.5001084449993 1704.05634676582 123 116 110
-377.004372388217 -34.9403684923457 1695.43315178572 125 118 112
-380.241612675939 -35.1500356985594 1686.01927277409 126 119 113
-70.729370430727 -28.4707471486687 2174.02898858577 145 146 138
-75.996310973268 -28.7650897118493 2163.42212296531 110 110 102
-132.189867498696 -31.315656434142 2154.66025183897 83 80 73
-302.463004829532 -38.9746637591367 2140.44493821291 28 31 24
-348.645391852906 -41.0762831211319 2132.32670402689 25 28 21
-347.901165493424 -41.1004023494296 2122.2702642858 21 24 17
-377.104134016702 -42.4491041284543 2113.68957449059 24 27 20
-396.321468415768 -43.3554992414398 2104.74738034412 18 21 14
-410.545581007521 -44.0407048472892 2095.63562931374 18 21 14
-411.793465284921 -44.1522648104544 2085.85236620061 21 24 17
-395.078212837022 -43.4705685315217 2074.98891419869 25 28 21
-433.248781761504 -45.2125564494587 2067.502485926 27 30 23
-408.054336144143 -44.2707416822133 2036.31314068176 26 29 22
-463.172583396385 -46.7575759162377 2030.53835021195 25 28 21
-479.379382647839 -47.5279759093837 2022.07050943923 26 29 22
-497.578710109401 -48.385718356511 2013.85030582447 27 30 23
-493.833044331447 -48.2765822421996 2003.91910987942 24 27 20
-489.090425125834 -48.12376080309 1993.88172681962 22 25 18
-471.384418687403 -47.4007305226717 1982.67659234238 18 21 14
-476.615874037387 -47.687314569433 1973.4556166837 18 21 14
-468.884357119287 -47.4038040014981 1963.05054870045 19 22 15
-467.135995385494 -47.3836231624454 1953.17860205086 19 22 15
-479.59077050897 -48.0443083711601 1935.02869300998 15 18 11
-444.94649946084 -46.5798763878509 1921.7309766685 16 19 12
-406.320060307691 -44.9418704225322 1907.81458303255 17 20 13
-412.550407575917 -45.2732860754672 1898.62280077265 6 9 2
-435.72249528924 -46.3476221016127 1891.37679726917 18 21 14
-425.008502890369 -45.9356129540019 1880.34136446799 21 24 17
-419.278319264436 -45.7424604665788 1869.83656258585 10 13 6
-403.584772720979 -45.1130543314153 1858.09332117851 11 14 7
-401.84246410293 -45.0952233726652 1847.99159946425 1 4 0
-432.977341306703 -46.5167907392151 1842.04331218617 15 18 11
-333.421930478469 -42.8798219283841 1708.48900393897 55 48 42
-358.560999668799 -44.0354793887949 1702.49555732914 83 72 66
-373.743740962118 -44.7567892689327 1694.9959964215 93 82 76
-378.971764307094 -45.044316457629 1685.90814273448 106 97 90
-63.7143787755945 -39.0235386876018 2163.09260637833 31 28 19
-277.220047784897 -48.0741726387869 2139.47814947616 33 34 28
-335.389081239075 -50.547178265665 2131.81672417135 34 35 29
-376.577458885818 -52.3139061762671 2123.68179842936 34 35 29
-394.799343480106 -53.1269035008326 2114.63735258013 26 27 21
-400.04140659223 -53.4012918686807 2105.01488361046 22 25 18
-375.338078626712 -52.4346055304566 2093.77515102655 19 22 15
-423.747914787217 -54.5543644183028 2076.79733513371 23 26 19
-406.033830256301 -53.878020269896 2065.85779252191 26 29 22
-457.176148671341 -56.0514285439709 2059.36131005204 27 30 23
-491.837058560985 -57.6537080294028 2032.74322615318 14 17 10
-489.088703534041 -57.5963349030815 2022.89557871583 18 21 14
-511.278806660187 -58.5690160721832 2015.02059717576 20 23 16
-526.483815796834 -59.2526917097435 2006.69114056202 17 20 13
-526.725633921904 -59.3184847750975 1997.16940700353 21 24 17
-474.109037182101 -57.2039789059053 1982.99690022488 20 23 16
-470.365278884657 -57.1064022405372 1972.96941689937 18 21 14
-452.661699547846 -56.4336463749676 1961.6154420882 19 22 15
-447.922931914169 -56.29568097357 1951.41157498545 25 28 21
-471.102351955685 -57.3077224331382 1943.94588580347 27 30 23
-476.333005619574 -57.580164261726 1934.78075242748 17 20 11
-466.609166500517 -57.23709550196 1924.08083834594 14 17 8
-429.97202760769 -55.7873155446257 1910.43924512554 25 28 19
-458.129985403454 -57.0031110212194 1903.72641258788 16 19 10
-424.488689425113 -55.6779198143856 1890.19693664197 12 15 6
-409.787926513916 -55.132090014734 1878.67069571526 21 24 15
-415.02069307464 -55.4054769780265 1869.42196819861 14 17 8
-398.329804057895 -54.7787023105208 1857.54733831113 16 19 10
-396.5874685655 -54.7659889392928 1847.43184727985 10 13 4
-354.991245766817 -53.1185312834469 1832.26122455705 22 25 16
-307.003674967592 -51.8174581515695 1714.52259525929 156 151 147
-309.251265477534 -51.9702071553559 1704.73128563925 43 32 28
-347.335024708772 -53.5852771657142 1700.77395557829 61 47 38
-366.501156995423 -54.4274822726847 1693.90183964367 110 93 83
-374.716021434587 -54.8225682767071 1685.2962109852 115 101 92
-373.972717106532 -54.852322820958 1675.2070090818 134 124 115
-57.4234528268556 -49.5807250278545 2162.96067111789 46 42 33
-83.6649267115335 -50.6615266574852 2153.07929118029 41 37 28
-264.954964420779 -57.8144463681057 2139.0464987775 26 27 21
-337.10845303496 -60.6700794386106 2131.96485022124 31 32 26
-349.344949938065 -61.2025055095628 2122.48372497405 35 36 30
-397.521465982374 -63.1262073160641 2114.84470327018 22 23 17
-370.817702863126 -62.1502413960835 2103.56389679977 19 22 15
-345.116099645168 -61.2139677050601 2092.19007789712 18 21 14
-357.348716766192 -61.7455821878564 2082.8614593948 18 21 14
-387.545358824799 -62.9712828298595 2074.68479656549 21 24 17
-432.70838282351 -64.7743699375156 2067.61917974039 24 27 20
-431.958865024393 -64.80274411586 2057.77430394136 26 29 22
-494.07640676405 -67.2583516208489 2052.24282463149 15 18 11
-466.627602996353 -66.3124651213291 2030.9496536348 8 11 4
-508.02162565434 -68.0219873033735 2014.83883156518 21 24 17
-538.191013462296 -69.2407621930278 2007.73479560475 18 21 14
-514.492695857817 -68.384145919084 1996.20575365956 17 20 13
-521.71713742893 -68.7186974539041 1987.26611709558 21 24 17
-450.151134410606 -66.0213753723793 1971.2168112557 20 23 16
-430.452970493689 -65.3213531954325 1959.62173942647 20 23 16
-448.651102666773 -66.0789726303628 1951.56508099366 19 22 15
-464.85235612119 -66.7593155602424 1943.41068551947 18 21 14
-478.060165586136 -67.3241898436222 1935.04062200559 23 26 17
-430.449842270756 -65.5534866220815 1920.3865923657 19 22 13
-472.062868609699 -67.323973410479 1895.65088867459 18 21 12
-467.324952330063 -67.2000234244039 1885.40802382133 16 19 10
-405.779136384919 -64.8997134417296 1868.41840720678 16 19 10
-397.060048093897 -64.6246360679061 1857.48450805686 18 21 12
-381.366949628146 -64.082916400687 1845.63892803287 16 19 10
-321.914183633986 -62.5946309210616 1706.85629259324 32 21 15
-331.129613934934 -63.006158780704 1698.24491654867 43 26 16
-349.302931148643 -63.7581170672945 1691.16419119712 97 79 69
-364.487281941225 -64.3958744032219 1683.68211298149 113 96 86
-364.739861415304 -64.4657515828637 1673.735403417 141 128 119
-71.1093199438442 -60.8915291550377 2163.48579327637 46 39 31
-64.3912423743367 -60.7124626899102 2152.46802262281 45 38 30
-317.601355225313 -69.9587188082292 2141.28535941449 29 28 23
-323.849321117994 -70.2429348211367 2131.45565961486 27 28 22
-380.022685772973 -72.3235109304735 2123.98759645705 26 27 21
-414.222360410027 -73.611977723476 2115.74245672514 24 25 19
-390.510548669499 -72.8173778655957 2104.66489912359 21 22 16
-344.839270502775 -71.2344741722244 2092.25027167768 21 24 17
-347.09034358312 -71.374427864319 2082.34591455049 19 22 15
-374.295411539288 -72.4102801618654 2073.96036520979 20 23 16
-425.451447455138 -74.3048132640591 2067.23651475789 24 29 22
-436.678647569931 -74.7654668598457 2058.16178150892 23 28 21
-422.955238780852 -74.3312208232263 2047.4348323396 16 21 14
-454.139029035824 -75.5068411677279 2039.83893254661 10 13 6
-402.498755585841 -73.7146103230137 2026.27045718456 9 12 5
-424.699995937687 -74.5680177509057 2018.0975860281 15 18 11
-481.817122956054 -76.6703426078766 2012.82883005957 17 20 13
-494.03356513039 -77.1646366312972 2004.1724563419 16 19 12
-507.245791005487 -77.6941782264545 1995.66772173945 18 21 14
-480.557010120336 -76.7972767158402 1983.72578917394 19 22 15
-453.871968270731 -75.9014250351563 1971.63659492002 20 23 16
-438.161331667064 -75.3983518300246 1960.42564569846 19 22 15
-488.272790145837 -77.2450678285666 1955.46135578452 18 21 14
-482.533970675921 -77.097764640363 1945.24484315513 18 21 14
-456.853338134543 -76.2396088368075 1932.96754059412 19 22 13
-433.915171999093 -75.6555062775604 1891.43654169025 16 19 10
-379.340141375173 -73.7725237726965 1875.33217503882 17 20 11
-400.523243650332 -74.585261175695 1867.88717343077 18 21 12
-413.730095820172 -75.1138466631973 1859.59348844002 15 18 9
-409.993128490005 -75.0400805549007 1849.27502464578 17 20 11
-429.176554009674 -75.7803708050173 1841.83645758186 14 17 8
-316.913059212312 -72.5851836322477 1696.04033972838 47 30 20
-326.12886714637 -72.9713714540806 1687.44141265468 96 78 66
-354.257008704425 -74.0241435276867 1682.06894395037 94 78 65
-355.505622009125 -74.128657780853 1672.26475306561 120 107 98
-63.8192014547605 -71.4267511473994 2163.3211856578 48 41 31
-310.331368905614 -79.818744557845 2141.05889059844 29 28 23
-331.56045714385 -80.5845984670074 2131.86693813397 28 27 22
-342.800363352269 -81.0178356362762 2122.325044377 29 30 24
-362.02711735436 -81.7160266385841 2113.23825305178 28 29 23
-370.267971310765 -82.0489029761615 2103.68365997546 21 22 16
-374.51441785526 -82.2490021217467 2093.95426445448 19 22 15
-342.820424139444 -81.256981028418 2082.17606156154 18 21 14
-388.99468542995 -82.8473648915399 2074.92433446987 18 23 16
-404.218698565866 -83.4107770244571 2065.97194063194 24 29 22
-411.455800141528 -83.7092196075417 2056.57627824485 22 27 20
-375.030460538666 -82.6215111686189 2034.26807054853 10 13 6
-434.407464330269 -84.7027391521341 2018.92380233057 15 18 11
-425.675742057742 -84.472720496455 2008.4353023632 17 20 13
-483.790998229715 -86.4502176068435 2003.4077184241 16 19 12
-507.978717147001 -87.3061517429692 1995.80999411184 18 21 14
-491.263379609986 -86.8120973730541 1984.74839225709 18 21 14
-444.625823781893 -85.3321140647469 1970.88057335124 19 22 15
-457.839740726877 -85.8259687764137 1962.34806370636 19 22 15
-517.927069079498 -87.8632490951589 1958.39720041557 18 21 14
-460.327240147886 -86.0243425686427 1943.13129436742 18 21 14
-447.85713534064 -85.7307606540529 1922.37801145654 18 21 12
-428.162997680732 -85.1419134515067 1910.50620843056 16 19 10
-362.609658451153 -83.0471004208759 1893.48186559431 16 19 10
-310.025568337575 -81.3803574827529 1877.55811390363 16 19 10
-370.093899368185 -83.4127020874505 1874.355031357 17 20 11
-425.170019075609 -85.279322482471 1870.8926691298 18 21 12
-431.399115896111 -85.5425687002513 1861.82295378799 14 17 8
-296.72025398145 -82.0466882864071 1692.86689908128 43 26 16
-317.885302476568 -82.7965045552917 1686.18573681853 164 146 136
-354.976054429722 -84.0632984367788 1682.29503659392 75 58 48
-349.256670381656 -83.9380398746686 1671.30457531714 107 94 85
-68.5161777689069 -82.3668931201143 2163.55053226352 88 80 69
-73.7847436997639 -82.5923792289835 2152.9540735945 46 36 26
-299.806295346739 -89.5572152709996 2150.84921342037 32 23 14
-331.027308370926 -90.5706570167413 2141.98197853669 26 25 20
-318.298962765967 -90.242785302863 2131.35845834165 26 25 20
-339.527379089201 -90.950362505392 2122.24601489413 30 29 24
-342.778030068078 -91.1095931907022 2112.36215446664 29 28 23
-364.001825958768 -91.8159684365298 2103.43158409755 20 21 15
-358.264325069078 -91.7012177714999 2093.13790918107 18 21 14
-396.45686051211 -92.9227689444028 2085.34243337325 17 20 13
-403.695990071984 -93.2021702197871 2075.88795542755 18 23 16
-414.92735323537 -93.6026417566382 2066.724459466 23 28 21
-404.447014845354 -93.4027755343134 2046.31991105373 11 16 9
-421.164494457569 -94.0872389961631 2017.98518471651 15 18 11
-493.258209930826 -96.3294428621805 2013.89833060838 17 20 13
-532.415426197916 -97.5724453320669 2007.49424024915 16 19 12
-528.666035710175 -97.5163037909925 1997.65171737445 16 19 12
-467.054441786046 -95.7110070068849 1982.70142499802 16 19 12
-452.336821890782 -95.3246961393553 1971.66273426085 16 19 12
-457.571339902147 -95.5414206317656 1962.40639378308 17 20 13
-501.704426293716 -96.9320402655572 1956.91969571008 17 20 13
-530.871192937004 -97.8697388735848 1950.19520434588 19 22 15
-488.22944511197 -96.6415214158008 1936.32901186157 19 22 15
-432.629864122431 -95.024284546205 1920.87412368679 18 21 14
-502.678177541084 -97.1929095129366 1918.58202239552 16 19 12
-385.266688747731 -93.7168140301519 1896.063312755 16 19 12
-340.653169104074 -92.4345932630108 1881.10245442355 16 19 12
-399.727039389984 -94.2713405624282 1877.86819825005 16 19 12
-452.81142668239 -95.9261592260691 1874.25140643433 16 19 12
-347.730415014105 -93.8600920238517 1681.18490025015 85 68 60
-347.984157608286 -93.9283741921492 1671.19444452314 117 104 95
-81.2068622437061 -93.5019308168731 2164.04207739551 102 92 82
-325.011936252578 -100.526661139316 2131.72594817724 24 23 18
-315.280206248505 -100.317832139646 2121.19030090205 27 26 21
-332.514271737026 -100.856617877515 2111.9301883411 26 25 20
-327.776614882251 -100.786318377792 2101.61957850534 22 23 17
-346.005925205252 -101.351885037317 2092.54125665734 19 22 15
-363.234312219792 -101.889164278928 2083.50469609049 18 21 14
-417.401469917762 -103.44706960272 2076.79103062412 17 22 15
-450.842973970069 -104.48952703788 2059.32448305117 18 25 17
-421.144191314425 -103.728956803006 2047.54365452412 10 17 9
-419.396977276946 -103.740256251558 2037.59305081845 10 13 6
-397.939689616643 -103.268251750886 2016.28015250598 15 18 11
-506.208697099007 -106.366751799203 2005.41454307489 16 19 12
-445.587349887721 -104.758033553615 1990.65906971583 15 18 11
-460.80048286537 -105.235182941291 1982.23385723427 15 18 11
-438.101150826339 -104.670673114834 1970.45551916225 15 18 11
-536.351903245731 -107.484061163332 1960.33456114594 17 20 13
-543.574925796101 -107.739672440733 1951.53514479702 19 22 15
-505.915695706886 -106.765480570728 1938.21227974891 19 22 15
-420.890164548966 -104.614828163584 1900.06942308161 16 19 12
-437.092551984847 -105.117173628387 1892.0618276526 16 19 12
-379.513955472991 -103.603881883988 1875.62578980036 19 22 15
-396.713844886346 -104.133609186146 1867.71112289996 19 22 15
-385.001999851783 -103.87409574606 1856.39400306582 13 16 9
-313.343929407295 -102.90129598417 1685.64937972448 109 94 87
-336.500985051011 -103.587784311977 1679.40732256278 52 39 31
-339.742394619338 -103.736215305258 1669.89624435115 90 80 71
-118.879061275188 -105.191630521403 2165.35258421831 120 114 102
-136.133975483844 -105.688891919089 2155.32221708889 105 97 86
-265.27880945145 -108.986004811626 2149.6710832468 29 22 12
-300.502724095096 -109.929647958402 2140.87350282196 25 22 17
-287.033886066344 -109.717293245656 2119.94947185474 24 23 18
-267.317154181487 -109.287392236441 2108.79006522971 22 21 16
-365.44862555909 -111.797802765458 2103.65633746488 19 20 14
-336.741582232061 -111.143129069802 2092.10935870688 20 23 16
-350.97645647551 -111.559131829744 2082.87537911869 18 21 14
-437.595734528366 -113.895960140408 2058.52918474063 18 25 17
-397.912882867246 -112.969777097423 2046.02858904574 11 18 10
-422.120394315979 -113.631111507969 2037.86625023722 10 13 6
-397.666824765599 -113.144674903931 2016.34011361336 15 18 11
-416.879495551061 -113.681016999562 2007.97752407181 17 20 13
-438.085199399913 -114.266051458316 1999.8843397639 16 19 12
-445.318071907905 -114.504641379166 1990.71822917069 15 18 11
-441.574408762697 -114.471573333929 1980.62708736641 14 17 10
-452.797095682095 -114.808430237929 1971.87099356944 14 17 10
-446.060266751248 -114.701440453095 1961.49937589892 15 18 11
-479.227809717437 -115.579329882104 1954.92620186392 17 20 13
-504.410318724991 -116.259197578362 1947.7458431178 17 20 13
-460.015285431792 -115.282884590509 1923.90799633041 18 21 14
-467.242907579263 -115.519938243811 1914.95806232864 16 19 12
-384.718759054697 -113.549593941768 1896.18339168779 16 19 12
-440.811111067218 -114.988499430621 1892.57055973319 16 19 12
-451.029620491986 -115.298935097413 1883.97208353663 20 23 16
-423.360169531738 -114.679197883002 1870.95237520579 19 22 15
-387.718866147315 -113.864872595709 1856.81594012251 12 15 8
-402.923457726611 -114.297855661513 1848.77197747245 16 19 12
-442.049033968346 -115.316172570835 1843.83641417329 18 21 14
-311.072645157979 -112.970155927272 1685.38222152291 68 53 48
-324.273942829147 -113.351635804193 1677.4635762571 76 63 57
-323.533692619829 -113.394952800737 1667.24044649672 81 70 64
-184.801522197467 -117.367509215922 2157.12610070081 92 90 78
-240.279815770357 -118.731841952813 2138.47538361813 26 26 18
-296.484063891192 -120.045760433437 2130.62346554431 20 21 13
-281.758373287349 -119.78114679238 2119.77886173611 24 25 17
-251.053130543659 -119.162096241181 2108.06454044102 22 23 15
-356.43809549558 -121.626040015226 2093.2648312799 21 22 14
-349.701344719604 -121.538364670263 2082.87874547653 20 21 13
-382.161128508764 -122.379947794701 2064.88874816425 21 24 15
-389.401838442678 -122.601146204299 2055.43499748098 20 23 14
-442.565536851105 -123.836606506372 2049.1687272131 15 18 11
-421.10032949798 -123.483206020486 2028.04733486318 9 11 6
-445.304684459478 -124.077071437284 2020.0808055197 11 14 7
-419.602299609595 -123.570937490108 2008.27568457161 15 18 11
-436.8174497465 -124.010153434919 1999.86175985335 22 25 18
-461.015684390513 -124.602329429982 1992.13624769007 19 22 15
-463.257810346333 -124.711215788574 1982.61493289388 14 17 8
-411.120754051572 -123.74683549677 1948.46540803735 18 21 12
-415.360798627137 -123.900096546934 1939.02718999104 17 20 11
-450.523242588095 -124.730054498138 1932.75416319921 17 20 9
-426.831486609333 -124.271534652319 1920.53190011781 16 19 10
-397.159008319886 -123.683078034336 1907.53820349028 15 18 9
-434.558186756358 -124.620230022091 1891.95639671473 18 21 12
-467.712635006738 -125.403014802375 1885.98780079505 23 26 17
-457.987459166249 -125.250400104784 1875.13563551401 18 21 12
-422.341002434282 -124.533757725882 1861.09572672117 15 18 9
-375.732871836104 -123.57982834283 1845.5037069176 20 23 14
-307.805202547405 -123.028531678942 1684.95147822568 97 86 84
-312.045304231337 -123.181237136101 1675.52094952779 67 58 53
-235.474878648354 -128.816038016739 2158.99936628616 80 80 68
-266.971651248535 -129.559475187438 2139.64440200626 24 25 17
-278.220909068802 -129.842618594017 2129.8981739851 22 23 15
-281.476882119915 -129.969660187834 2119.84087070526 23 24 16
-268.749817801913 -129.7855160354 2109.01294979131 18 19 11
-268.010740167359 -129.834862956952 2098.73751727806 15 16 8
-326.19910184579 -131.028937374448 2091.68457105749 20 21 13
-329.450926322938 -131.154715074216 2081.79076549175 19 20 12
-373.646371965334 -132.074334578794 2074.38190032394 18 19 11
-358.920225349386 -131.85080322754 2063.50168326155 22 23 15
-403.107250620351 -132.768174103146 2056.41500499543 21 22 14
-399.36395707872 -132.75699043397 2046.28592004542 16 17 9
-455.769047060283 -133.968449243553 2030.69441960326 9 11 6
-475.979983785767 -134.418530978955 2022.51692052679 10 13 6
-430.310605276059 -133.598204274318 2009.20925146491 13 16 9
-459.50326421805 -134.220911174716 2001.8110132074 19 22 15
-460.747607963766 -134.304908223665 1992.19572127199 18 21 14
-466.981582090093 -134.484739782264 1983.02494815931 15 18 9
-505.389674034485 -135.34139202402 1967.20590270631 17 20 11
-399.873934364211 -133.377741943181 1947.4714021983 18 21 12
-434.044726900051 -134.093136919947 1940.96107062667 19 22 13
-438.28317879339 -134.234542199496 1931.59782993257 19 22 11
-494.391992548757 -135.36751209452 1927.67010611924 18 21 10
-458.72778787614 -134.745431220929 1914.22231546773 16 19 8
-408.108032633533 -133.839091504403 1898.93473826883 18 21 10
-463.209750397575 -134.950414937397 1895.27357023119 22 25 14
-497.362097025878 -135.660720291184 1889.49895825963 21 24 15
-483.645222866018 -135.458644585064 1878.25800173518 14 17 8
-399.136571177537 -133.910671994697 1858.38408030478 15 18 9
-427.303790085661 -134.506507368567 1851.97495682458 19 22 13
-432.537224291523 -134.66597211423 1842.8224563264 18 21 12
-291.589682222865 -132.860524438401 1682.38546076282 48 38 36
-255.437225680457 -139.533158974229 2149.51365761103 20 20 8
-244.706703894306 -139.418007348534 2138.80550778177 22 23 15
-298.179317066375 -140.442162008755 2120.69266213486 18 19 11
-287.448150633582 -140.326669956202 2110.01007285374 15 16 8
