ply
format ascii 1.0
comment KinectMotionCapture
element vertex 781
property float x
property float y
property float z
property uchar red
property uchar green
property uchar blue
end_header
-206.07431277162 -119.123891390982 1949.60309774235 22 25 18
-210.32924541781 -119.281125447204 1939.57873641302 13 15 10
-231.543612159173 -119.809991717968 1931.20728533017 12 14 9
-255.747790803251 -120.403617007737 1923.24790491217 12 14 9
-214.113119801917 -119.555247723952 1908.73129637871 13 16 9
-210.386677791499 -119.537400613864 1897.9414251134 12 15 8
-236.582127579081 -120.173609600397 1890.33619566549 16 19 12
-288.703809638149 -121.375106323051 1885.7238396963 17 20 13
-319.876426852574 -122.117681221882 1879.03891666932 16 19 12
-304.177868455001 -121.837165069916 1867.11694468943 18 21 14
-274.522256287334 -121.253058023878 1853.45939135989 16 19 12
-268.799290690758 -121.190973170447 1842.53175355489 18 21 14
-261.08312534208 -121.085697389993 1831.32599348202 21 24 17
-267.324599178293 -121.284062708446 1821.84220560261 23 26 19
-281.539623808712 -121.655391237988 1813.42266061418 20 23 16
-280.80161280321 -121.701676064552 1803.10882838432 22 25 18
-252.156662798749 -121.142748207606 1789.03222296961 20 23 16
-272.349449173834 -121.643089663614 1781.51013744594 21 24 17
-262.643335845231 -121.495313624158 1769.90774778575 20 23 16
-253.935208104307 -121.369438823685 1758.39459492471 18 21 14
-252.202808936054 -121.394645105296 1747.85004272186 13 16 9
-224.566086620981 -120.860278320755 1733.45019657841 12 15 8
-197.929638611863 -120.348408967968 1719.04949604944 15 18 11
-200.186439673184 -120.460630200703 1708.95104656189 17 20 13
-227.922871049096 -121.499610589397 1640.68645347499 107 92 87
-224.202418648647 -121.482742272769 1629.67076133811 109 94 89
-93.5745281826059 -126.776283649741 2036.05300407119 28 29 21
-70.8827537082306 -126.403904757888 2023.77299479134 22 23 15
-101.10687473037 -127.05480382593 2015.13953653533 18 21 12
-138.314750923972 -127.839464719238 2007.18889252335 13 16 7
-137.585450461095 -127.891028229497 1996.5289542687 14 17 8
-114.897020556791 -127.51936720261 1984.11745681616 14 17 8
-129.14047806849 -127.859588723847 1974.6200566401 14 17 10
-260.148642652461 -130.445676154318 1975.13260025312 21 24 17
-234.462630004086 -130.015366760369 1962.60618238819 23 26 19
-190.818750004946 -129.241024863992 1948.31128836985 22 25 18
-203.057541693074 -129.540379579463 1938.99072904537 13 15 10
-231.258051314274 -130.145278577231 1931.27075735144 13 15 10
-195.604720750871 -129.526152720015 1917.39479597283 12 14 9
-224.799587144782 -130.149182847998 1909.90993579034 13 16 9
-180.173986450867 -129.359764431725 1894.88278875572 12 15 8
-235.299533812857 -130.477339461752 1890.29288978475 16 19 12
-249.524766676519 -130.81240146542 1881.5133118803 16 19 12
-255.769654037036 -130.994765194065 1871.91329292071 15 18 11
-278.966696204188 -131.499858277472 1864.30319214507 18 21 14
-289.197292639915 -131.757317140119 1855.2891961007 17 20 13
-236.60922685102 -130.819700014568 1838.73794843158 17 20 13
-262.793871843037 -131.380610096176 1831.63585798906 20 23 16
-280.999046234244 -131.789111710429 1823.66949631594 21 24 17
-257.332447523761 -131.402769612139 1810.39582592246 19 22 15
-250.615074757627 -131.338388375694 1799.22736894565 19 22 15
-254.862826525248 -131.481813776776 1789.49848789709 21 24 17
-249.143172313395 -131.436506178261 1778.42341558169 21 24 17
-224.488857014899 -131.033496293541 1764.66286581826 18 21 14
-244.682263907493 -131.478157099261 1757.17631391463 17 20 13
-278.823420505672 -132.185249515085 1751.83317210185 17 20 13
-305.985014582057 -132.759600652938 1745.64225698671 19 22 15
-261.40692518294 -131.981947074117 1728.754896575 20 23 16
-234.767710327844 -131.543295830408 1714.38371800528 13 16 9
-222.395408734151 -131.689381744008 1650.21837860501 146 135 129
-220.666437708243 -131.720097162809 1639.5432522246 98 85 79
-75.5777444158126 -137.258528640423 2024.18109330723 27 28 20
-87.8319444132174 -137.528891223359 2014.28012860968 24 27 18
-126.042064328058 -138.228509564686 2006.36712679256 15 18 9
-131.303073059326 -138.381830519509 1996.13419025932 14 17 8
-127.579559929509 -138.3864875651 1985.21500975296 13 16 7
-167.310687282159 -139.239270403927 1956.79947381824 22 25 18
-196.517823134402 -139.785171494444 1948.91789592053 20 23 16
-179.818791213228 -139.57551828074 1936.91364605513 14 16 11
-178.089001683989 -139.612164607927 1926.25481667947 14 16 11
-184.341457880219 -139.779739917843 1916.37486006541 11 13 8
-172.634998389317 -139.652808801553 1904.70489784028 12 15 8
-213.802828338551 -140.391648713272 1898.48603905453 12 15 8
-236.011683422654 -140.819052539171 1890.46364285256 14 17 10
-249.240536467696 -141.098973253942 1881.57708452516 15 18 11
-237.533086244176 -140.971530181946 1869.95571804966 14 17 10
-232.808209481066 -140.95824257288 1859.07507819343 15 18 11
-277.946439234633 -141.756975823776 1854.05690417952 18 21 14
-251.281715985042 -141.386214097133 1840.60978749783 19 22 15
-260.516303292161 -141.599621963411 1831.45309049061 16 19 12
-256.788360389349 -141.602266913061 1820.7092012921 15 18 11
-235.115412903622 -141.314022690943 1807.6277284098 18 21 14
-232.38682702736 -141.333324090125 1796.92510687944 14 17 10
-257.569436767333 -141.804303547441 1789.96509926445 21 24 17
-241.881561586633 -141.613751097373 1777.5289940661 21 24 17
-239.1528363058 -141.63294472638 1766.82261187639 15 18 11
-270.309695145063 -142.19877140637 1760.94335936552 14 17 10
-261.600025615753 -142.121120939688 1749.42936057189 9 12 5
-209.161961346346 -141.847797507694 1648.07661798383 81 72 65
-199.466784093233 -141.756524346921 1635.98614016939 52 43 36
-141.186425811559 -148.928547193434 2028.76135433908 30 31 23
-88.5342895676411 -148.267416481231 2014.41733218815 24 27 18
-45.8738708633035 -147.745975452841 2000.52198025057 18 21 12
-183.456457109479 -149.842527540293 1979.26727151123 15 18 11
-166.753493137132 -149.678694877732 1967.36750124821 19 22 15
-189.9763153701 -150.063118371082 1958.87939190555 20 23 16
-200.22167594089 -150.268872083603 1949.34387932513 18 21 14
-180.527219326309 -150.064487641411 1937.07173565086 14 16 11
-151.854562981579 -149.738015937732 1923.82839647972 14 16 11
-178.065440811194 -150.16163353088 1915.84844996845 10 12 7
-177.333778471841 -150.216987144906 1905.276752507 11 14 7
-204.536836991177 -150.652661654765 1897.61416360322 12 15 8
-297.577645090937 -151.982656022356 1897.14917288315 13 16 9
-271.89948546796 -151.697003200703 1884.16051049495 15 18 11
-260.449753632941 -151.668785564121 1862.36007598046 12 15 8
-250.736745803707 -151.600925584223 1850.94133957897 15 18 11
-250.000183194606 -151.654637615751 1840.55359945133 18 21 14
-249.263964257517 -151.708320488539 1830.16178352754 15 18 11
-251.51920880795 -151.802299800565 1820.14375464704 14 17 10
-256.765052777626 -151.936402396034 1810.52414472457 18 21 14
-284.940782562939 -152.378579128604 1803.95669828338 13 16 9
-252.301367013827 -152.003090211371 1789.35870913654 20 23 16
-233.622118915513 -151.815869273612 1776.49843277492 19 22 15
-183.04895412196 -151.202025898769 1759.066554596 16 19 12
-236.139188657499 -151.97662108748 1756.16634843775 14 17 10
-192.549482984361 -151.457639033502 1739.47994835729 15 18 11
-192.814219732897 -151.525276087332 1729.06049566647 17 20 13
-247.885723085762 -152.323258696469 1726.92597751842 18 21 14
-204.626891647615 -152.128752730132 1657.84198204731 34 30 21
-185.966537915869 -151.945751753282 1644.23871731743 56 52 43
-164.321203384963 -151.723962028354 1630.01600557145 59 52 46
-117.196692758869 -159.309814824095 2016.54613861402 21 24 15
-94.7730569697352 -159.197216249621 1993.50740853389 22 25 16
-122.999421555927 -159.576004009846 1985.02904086217 16 19 10
-172.186116186544 -160.184371468731 1978.42920712671 16 19 12
-138.512486857254 -159.880668507913 1965.05731035008 18 21 14
-189.687684747474 -160.508703859817 1958.94441130122 14 17 10
-193.945209950811 -160.621101804098 1948.86686542131 14 17 10
-193.212160979142 -160.678704588165 1938.34694736871 14 16 11
-179.5058178242 -160.594638484318 1926.57701785677 15 17 12
-167.797024028995 -160.532746749644 1914.92845405144 10 12 7
-172.054939542754 -160.64493725685 1904.83587621805 10 13 6
-183.296691801867 -160.832774739147 1895.49464847701 13 16 9
-262.378632197827 -161.756055215336 1893.47569675267 12 15 8
-275.6075964432 -161.96332996857 1884.66279396968 17 20 13
-270.878949218389 -161.975900831019 1873.90175198315 17 20 13
-255.178921987815 -161.870119841569 1861.84956992534 11 14 7
-239.48109281513 -161.764822755535 1849.71096057249 13 16 9
-249.715983370981 -161.939088693024 1840.61846159382 15 18 11
-261.94405957669 -162.134347884071 1831.82847019975 14 17 10
-250.237755332307 -162.072349944605 1820.08272015854 14 17 10
-268.446847902673 -162.331105590543 1812.13333294658 16 19 12
-280.929506014747 -162.591010101685 1793.31466277711 16 19 12
-249.287215756363 -162.316709250151 1778.7544017264 15 18 11
-218.645868313819 -162.054075294205 1764.16013802715 15 18 11
-214.921787182499 -162.078436173353 1753.24200052825 15 18 11
-206.214605513093 -162.049992203027 1741.5779334051 16 19 12
-223.421080061271 -162.296253576156 1733.7102605065 10 13 6
-78.501200142544 -169.769319665126 1992.34854293388 24 27 18
-116.527681950609 -170.355170649244 1952.61742247061 13 16 9
-166.706377587621 -170.834123552101 1946.49387016112 12 15 8
-195.918088291017 -171.139647169105 1938.69159005006 13 15 10
-164.245825490943 -170.946904557801 1925.20586401403 15 17 12
-161.518876154772 -170.991021253995 1914.40331128465 10 12 7
-191.722690546453 -171.302931994729 1906.92748605098 9 12 5
-223.918033194754 -171.629854235294 1899.82536781763 13 16 9
-252.117939608281 -171.923243208252 1892.47277183045 12 15 8
-243.399530969795 -171.917280883277 1881.223354492 18 21 14
-243.660915799329 -171.983928029925 1870.93596929359 18 21 14
-236.93950589406 -171.994321065611 1859.84501084505 12 15 8
-229.221404086758 -171.996854750638 1848.5991767826 13 16 9
-303.548827598824 -172.720005411753 1837.06796536031 14 17 10
-246.961762462144 -172.331744209348 1819.77031242831 14 17 10
-236.253766337374 -172.310517462857 1808.08093241767 15 18 11
-220.824394093388 -172.316363842475 1785.33075901154 14 17 10
-254.984884648379 -172.650719206787 1779.64152031698 14 17 10
-300.106365662958 -173.070328919051 1775.6756939121 16 19 12
-262.483598208751 -172.836793200355 1760.14180803051 16 19 12
-256.762763859325 -172.855116085797 1749.04453806662 19 22 15
-231.108597216884 -172.717285767847 1734.95942646323 14 17 10
-198.481569038132 -172.525695791427 1719.67983945121 15 18 11
-69.9417848533166 -180.402466859152 2002.56982017008 17 20 11
-78.47716596183 -180.587889278909 1981.67173513955 17 20 11
-155.630956545025 -181.081348140278 1977.24741842785 11 14 7
-155.167810403471 -181.2134588303 1956.09876192818 8 11 4
-134.472110810836 -181.167820424321 1943.67072642368 7 10 3
-146.257671250911 -181.433442607471 1912.9920718938 9 11 6
-191.434170088892 -181.743467700498 1906.9936218823 10 13 6
-227.623482053122 -182.003608458551 1900.30702392569 15 18 11
-235.86872535832 -182.113010826508 1890.83015381849 16 19 12
-175.533470718192 -181.922550503091 1863.37037557244 17 20 13
-237.65191306202 -182.317358013032 1860.02575063759 19 22 15
-238.911142335083 -182.38875463098 1849.84221009953 18 21 14
-294.291978327331 -182.808271634086 1836.02426803623 15 18 11
-233.238706758008 -182.681542977278 1797.45048672178 15 18 11
-314.268361069576 -183.165083449153 1798.00593536729 16 19 12
-260.683220803487 -182.951533081197 1780.52887856265 17 20 13
-262.937321743465 -183.02675582513 1770.57568529866 15 18 11
-294.101654576947 -183.249909769624 1764.76293400579 13 16 9
-205.697921587562 -183.118143947877 1700.04221051839 16 19 12
-51.6669940181798 -191.121987255572 2001.30862065038 15 18 9
-76.9083747362069 -191.262427095004 1992.40654760357 16 19 10
-131.3751703747 -191.5512210969 1975.34466741233 12 15 8
-190.553559259966 -191.781435186162 1969.75043393397 10 13 6
-176.841023375873 -191.811212672964 1958.09097646205 10 13 6
-153.147459666185 -191.814393257155 1945.45295219291 8 11 4
-152.952481445394 -192.016014781485 1913.74872898437 10 12 7
-199.394599036252 -192.271615214258 1897.46143741566 14 17 10
-230.593929920447 -192.418747050203 1890.36246774614 16 19 12
-149.033877707755 -192.273839165927 1871.06504703004 16 19 12
-123.359957164302 -192.2748405298 1857.60291954195 17 20 13
-112.655137292332 -192.314711015233 1845.72379906663 17 20 13
-279.528877412636 -192.803621153203 1854.73359237902 19 22 15
-317.694623559924 -192.963604027097 1849.12496533265 17 20 13
-324.933119369778 -193.045064435021 1839.90779019178 16 19 12
-246.392930999154 -192.913848128803 1819.90273852992 15 18 11
-211.747063690212 -192.893127658866 1805.12658814649 13 16 9
-253.896195540879 -193.060954104943 1800.27632377083 17 20 13
-286.0671566756 -193.203050557461 1794.31624645865 18 21 14
-252.422841313871 -193.185545801744 1779.50068547833 17 20 13
-222.771440010095 -193.178635771126 1765.0588072996 14 17 10
-223.034082981654 -193.243614735217 1754.72404071831 12 15 8
-235.259673653476 -193.336668093415 1746.13160856241 11 14 7
-155.310596487015 -193.34402063961 1702.82570343232 12 15 8
-68.3478366042314 -201.9420183262 2002.6311661822 13 16 7
-153.514806585451 -202.01579672453 1998.36792916498 13 16 7
-126.818061868557 -202.083682514185 1985.69201164614 15 18 9
-149.056995121211 -202.152710853802 1976.88817720502 18 21 14
-188.798391019324 -202.355497804195 1948.76922646552 11 14 7
-186.068596920445 -202.422924782339 1938.05282813215 7 9 4
-123.983329757506 -202.631357915069 1900.34497687591 10 13 6
-185.133843065559 -202.690989751775 1896.07277093188 13 16 9
-180.409509903666 -202.758399315353 1885.09356363626 14 17 10
-233.564404441835 -202.816007061257 1880.43606647633 13 16 9
-124.064243257891 -202.902138304829 1857.78369199874 14 17 10
-235.08614978069 -202.946767085792 1859.92874882717 15 18 11
-234.350433697652 -203.012268791284 1849.50458947277 16 19 12
-311.429817218192 -203.059025385125 1848.4679930211 17 20 13
-211.930406215257 -203.148370729993 1826.05779880855 17 20 13
-204.214068628521 -203.215867704412 1814.68258510614 16 19 12
-240.38526789364 -203.270715219724 1808.92432224959 15 18 11
-306.471952606037 -203.314964108512 1807.30541385318 16 19 12
-292.766671416711 -203.382849483434 1795.32150046279 17 20 13
-239.175068757493 -203.464788607179 1777.78906729842 17 20 13
-242.428028604765 -203.527962984412 1767.91810616132 13 16 9
-219.756595441495 -203.600704709847 1754.36515174035 11 14 7
-260.89648308698 -203.648935622057 1749.97057294932 13 16 9
-199.874818990878 -203.866818478328 1709.7914447853 11 14 7
-111.430337239124 -203.972155564473 1685.51690310581 16 19 12
-191.973677191627 -212.653813487294 1970.05247702455 16 19 12
-207.216885944026 -212.679350587724 1960.93670556963 16 19 12
-207.010055753838 -212.881879935824 1929.68539884317 9 11 6
-113.707804961154 -213.283230988128 1899.40132846729 13 16 9
-154.901187932701 -213.232838056429 1893.02186170354 14 17 10
-141.464504385414 -213.407015941666 1870.43541806555 12 15 8
-240.526515240518 -213.183638957627 1870.97647629026 12 15 8
-242.783829429149 -213.242604228383 1860.91515416018 17 20 13
-249.031889045988 -213.289507365553 1851.33659958459 16 19 12
-183.44421749443 -213.550762278473 1833.1243185249 15 18 11
-148.792335329017 -213.721188523877 1818.36868615936 14 17 10
-227.867997205814 -213.548804011049 1817.77156139408 13 16 9
-302.942695220494 -213.385716179619 1817.09401019968 13 16 9
-304.19715211034 -213.44567652688 1807.10927031688 11 14 7
-295.477864526126 -213.536148382696 1795.7906616261 15 18 11
-243.87640374345 -213.759411985312 1778.54117006133 14 17 10
-235.162781181344 -213.850967530781 1767.0093138876 10 13 6
-240.410168356837 -213.899027282337 1757.42177631487 11 14 7
-304.741685644104 -213.824085748426 1746.31254491625 14 17 10
-341.885294202637 -213.768966914218 1741.77539351214 14 17 10
-149.472500859047 -223.24985133162 1977.10445083028 14 17 10
-184.694573459114 -223.125097322498 1969.52602643081 18 21 14
-199.939412773753 -223.109287764357 1960.39092181252 19 22 15
-189.219630891744 -223.236685846957 1948.99326333987 20 23 16
-159.530457908111 -223.469804293617 1935.76990916571 16 18 13
-147.816924532435 -223.603546374004 1924.10585284877 12 14 9
-135.106537766041 -223.743137975502 1912.2785129244 10 12 7
-130.383990519384 -223.838178485032 1901.19051310473 11 14 7
-176.5704180719 -223.646514102603 1895.37671250522 13 16 9
-109.961798980503 -224.090317740554 1877.76242944446 13 16 9
-271.438975329074 -223.374610275236 1864.31443459065 19 22 15
-161.93452833084 -224.066202405926 1841.17014252446 18 21 14
-183.155076274343 -224.011449167755 1833.19307911731 15 18 11
-171.447933969914 -224.145336605005 1821.26975673496 11 14 7
-200.645908393294 -224.043357558277 1814.44188300761 11 14 7
-278.97946413809 -223.720149785136 1803.89329243712 12 15 8
-265.274199472064 -223.864274389206 1791.83619823467 15 18 11
-263.539304828161 -223.93879842711 1781.34554904486 14 17 10
-236.136431679415 -224.228280039062 1756.92148242534 11 14 7
-9.78798271748804 -234.80076326527 1987.63069526235 11 14 3
-52.019603954832 -234.526265875893 1980.03139316429 15 18 7
-126.207835658611 -233.986872629446 1975.28657741912 11 14 7
-204.380974128656 -233.411703932802 1971.28751068469 13 15 14
-212.634735913312 -233.411918787999 1961.59494603249 14 15 17
-193.924331093043 -233.635170955404 1949.51164789082 15 16 18
-180.209438424112 -233.817447733627 1937.78988452891 12 13 15
-108.855040353153 -234.549460204683 1909.78816898098 7 8 3
-186.996527442362 -233.965426736344 1907.02634137692 8 11 4
-171.289597560731 -234.164834895145 1894.92557502016 8 11 4
-157.84821422941 -234.413607502304 1872.4333963676 16 19 12
-297.104509544865 -233.37233539975 1867.36846638603 14 17 10
-276.405439614733 -233.612653257403 1854.76511753406 13 16 9
-240.741533373004 -233.980555391438 1840.24269566172 12 15 8
-217.319250171998 -234.311474664398 1816.65018878305 12 15 8
-186.655067242589 -234.639144285807 1802.31459249919 14 17 10
-213.855090042377 -234.472656623502 1795.42653018352 19 22 15
-232.073435404703 -234.382104594381 1787.48124669888 10 13 6
-256.273924198266 -234.239369767103 1780.45672520264 11 14 7
-287.452841202158 -234.035592832742 1774.54170429275 10 13 6
-257.791939583129 -234.355335525697 1760.12039680832 9 12 5
-268.024395643502 -234.331205568778 1751.336068578 17 20 13
-397.914751255932 -233.270454734954 1760.33466651976 17 20 13
-80.6911693920349 -245.022359939977 1982.39801152568 12 15 4
-55.9910436071465 -245.36512956189 1969.61780888215 12 15 8
-107.206373003066 -244.873544069342 1963.13859420005 14 16 11
-171.398350084229 -244.236920847964 1958.07684319863 13 14 16
-182.650329231494 -244.182056240174 1948.58718326458 14 15 19
-175.193082335161 -244.402287112722 1926.92181394471 8 10 9
-93.854703580289 -245.44305009615 1897.68754451692 8 11 4
-116.090266135112 -245.265455570177 1889.28025326262 11 14 7
-195.489389867703 -244.517460785916 1876.6591646166 19 22 15
-261.631419373167 -243.845464530728 1873.64623885457 19 22 15
-292.831596705401 -243.562207544189 1866.97630543369 12 15 8
-306.063485190959 -243.479213438927 1858.36078155865 11 14 7
-200.803744907888 -244.79329072967 1825.1015669575 11 14 7
-161.156233581745 -245.306582673047 1809.67415117004 12 15 8
-219.291092167354 -244.717561635442 1806.62684173262 14 17 10
-209.577458738165 -244.893246203599 1794.97105656602 17 20 13
-282.664964501596 -244.131763850485 1794.38604880717 11 14 7
-238.035128547858 -244.702236106064 1778.06428452964 12 15 8
-230.579290586397 -244.917065243683 1756.34964912109 10 13 6
-42.1549917638222 -256.207249037342 1990.29380953126 14 17 8
-50.4229197781112 -256.166791240056 1980.09125071222 8 14 2
-78.669152235717 -255.851590817637 1971.57220407282 17 23 11
-44.9789398518607 -256.386496174078 1957.95732227995 11 17 7
-122.165095209238 -255.396302833742 1953.86110954292 12 17 10
-131.423920837542 -255.339321399242 1944.05674297237 13 15 10
-165.183951525706 -255.082340780652 1915.53630753589 12 13 5
-78.8544136720963 -256.417906387495 1885.50715560613 9 12 5
-108.350111707079 -256.147938230177 1867.21426074638 15 18 11
-230.92777612883 -254.643890302234 1849.61019685018 11 14 7
-245.162216452907 -254.511496961245 1840.98200183152 14 17 10
-188.540623665628 -255.37022721117 1823.69488571358 14 17 10
-212.754740705654 -255.097836442646 1816.28626448694 15 18 11
-215.013564295582 -255.132525092089 1806.18269130334 14 17 10
-221.525932009689 -255.173127733377 1786.28082565981 12 15 8
-243.735736812723 -254.926045883003 1778.95484671242 12 15 8
-257.9621345584 -254.790607957751 1770.63492777053 11 14 7
-240.268239407719 -255.10521535541 1757.84230678935 14 17 10
-251.50072683577 -255.011340763035 1749.15633668225 17 20 13
-42.1308316038385 -267.113540464204 1979.52773651641 9 15 3
-104.618968827658 -266.229116523154 1963.10769518685 11 19 6
-107.886742176889 -266.246703955796 1952.70671882649 13 19 7
-86.1826985676122 -266.676734158664 1940.06936241734 14 17 6
-69.4757266922212 -267.024610976494 1927.77680065979 11 12 4
-162.896256216495 -265.618424981733 1915.40888098213 13 14 6
-98.2561303307312 -266.760936475673 1898.33449402127 7 10 3
-28.9084451267327 -268.05529232025 1869.51601069894 8 11 4
-56.1407010469801 -267.673004816371 1861.59987562361 10 13 6
-128.292000365069 -266.540637597985 1858.87647512026 11 14 7
-156.511699026338 -266.138685966561 1851.49693271498 11 14 7
-221.921905136339 -265.181208534993 1838.28456626999 15 18 11
-203.222295432728 -265.561133483295 1825.61113440736 16 19 12
-205.482312334712 -265.590231085298 1815.47625047911 15 18 11
-235.682435744103 -265.150260856665 1808.95199349673 14 17 10
-225.020399428915 -265.658550771292 1755.78030406246 15 18 11
-266.178513621061 -265.02901495494 1751.40110240109 17 20 13
-195.623534474817 -266.285962878037 1730.70917731821 15 18 11
-70.5350045149928 -277.325619479901 1992.64993457964 18 21 14
2.13364833498719 -278.794034511319 1976.11499441823 12 17 10
15.8430823685798 -279.13190845678 1964.01282042301 9 17 6
-87.3400764164827 -277.221588593224 1961.7384226449 15 23 10
-92.607113673715 -277.192503610677 1951.46572388016 14 22 7
-22.9540873923684 -278.606845987981 1934.46152011104 14 21 5
-165.068483371973 -275.938399247898 1936.76373553457 13 15 4
-146.626511218906 -276.435038051949 1913.90494212971 12 13 5
-96.0511769001453 -277.765510428584 1855.36203814889 12 15 8
-123.276768015754 -277.30633158866 1847.77962193345 12 15 8
-180.445459216939 -276.263401680682 1843.87269140017 12 15 8
-149.768200674188 -276.928786627074 1829.69484746425 12 15 8
-227.887150909937 -275.474647085832 1828.75741584161 13 16 9
-249.107815341835 -275.127486409943 1821.08043946244 13 16 9
-280.305037914284 -274.584565618197 1814.80479528525 13 16 9
-269.587032085674 -274.859508849777 1803.18862466393 11 14 7
-180.107743549144 -276.941612240735 1739.00976899227 16 19 12
-143.467109805162 -277.727646766769 1723.10412126568 14 17 10
-159.693523118339 -277.475142268108 1714.96801107607 14 17 10
-37.9828097729389 -288.714556663101 2001.11948131404 25 25 17
-58.245407214113 -288.344974936024 1991.80299400362 15 16 10
-54.5225088820418 -288.50068354802 1980.69759753314 17 19 14
21.1431454182103 -290.236170799462 1963.67528430365 8 13 6
-17.1040969248382 -289.47053524934 1955.88468617191 11 19 8
-118.287332013547 -287.318752617841 1953.80785019271 13 21 6
-94.5813311513604 -287.912615603512 1941.02168365787 14 20 6
-37.913864418885 -289.233406566004 1925.04067981604 13 15 4
-132.082517876503 -287.229584748092 1923.18334235168 11 12 4
-134.349236401047 -287.250533360088 1912.79528555594 10 11 5
-154.592578952752 -286.874039866768 1904.23876735088 14 15 9
-199.799574588883 -285.944676267727 1898.38848173247 9 12 5
-104.199526580955 -288.129061727423 1877.76082823064 8 11 4
-185.350321753135 -286.402511655255 1875.95469739958 11 14 7
-110.732149875637 -288.125166146021 1857.11508309344 11 14 7
-126.976694878869 -287.834845284767 1848.31092794245 12 15 8
-103.286767844978 -288.43021169993 1834.89492624821 8 11 4
-136.499570528784 -287.762004135142 1828.20360074806 9 12 5
-158.727993573634 -287.336655838055 1820.34136519425 10 13 6
-246.827505713157 -285.444471726307 1820.8996064361 11 14 7
-291.001837829187 -284.527174606178 1816.28827061747 12 15 8
-312.216733441107 -284.119854499912 1808.9013542704 12 15 8
-295.509035815123 -284.557461642781 1796.54081184793 11 14 7
-241.884186501446 -285.819613819408 1779.0312264448 9 12 5
-248.131972501976 -285.745828330332 1769.5929518942 17 20 13
-182.545904642041 -287.277723339856 1749.95367753577 18 21 14
-180.816182898937 -287.382876335278 1739.2279664472 15 18 11
-166.118421923619 -287.77828796987 1726.57376690671 14 17 10
-48.7775360086102 -299.582988667511 1958.66409270156 12 16 15
-93.0150497776943 -298.562384174414 1951.69432250889 11 18 10
-62.3152156651452 -299.395330816751 1938.20957041456 12 18 8
-50.6011482365123 -299.758736154141 1926.31979201987 13 16 9
-92.8311271396436 -298.784651493728 1919.52651617539 13 14 9
-110.083870062526 -298.428578877075 1910.50657954718 13 13 11
-200.246345642993 -296.260966126313 1908.95844557307 14 15 10
-188.525756813993 -296.621836893658 1897.31694273402 9 12 5
-76.2151705130512 -299.556120721092 1864.1137804406 10 13 6
-117.697352172339 -298.664240239322 1847.35058502817 9 12 5
-110.978695244653 -298.901758049658 1835.90816158836 10 13 6
-201.361578098397 -296.783494160475 1825.7020856229 13 16 9
-212.60552708957 -296.57018708767 1816.69639532304 13 16 9
-218.857522671426 -296.481137108501 1807.10998558524 12 15 8
-292.974809272636 -294.692780847721 1806.47899050913 11 14 7
-302.2142531938 -294.526821500824 1797.54914028469 9 12 5
-280.517535154472 -295.135858174093 1784.43327186343 11 14 7
-217.44125581225 -296.91573546366 1744.6621520679 16 19 12
-204.001410011963 -297.385265475079 1721.88217386592 16 19 12
-198.280297230965 -297.594944991614 1710.5903219597 16 19 12
-81.9097908708377 -309.330943059589 1983.05426925856 15 14 12
-143.143343110082 -307.724526425355 1977.32548875456 27 27 29
-98.7148452457043 -309.090994369858 1952.28938039391 10 16 12
-76.0056169677501 -309.788705510515 1939.54254595966 12 17 10
-77.2775444825662 -309.826968672709 1928.8982902977 14 17 10
-52.5748948585467 -310.580286892583 1915.77591256527 14 15 10
-86.8137510344851 -309.709931434909 1908.3173996278 13 13 11
-128.039711633513 -308.645314441185 1901.75368201207 14 15 10
-170.258910027862 -307.551505748986 1895.51962102928 10 13 6
-173.054886549168 -307.684245527085 1864.31697073638 8 11 4
-128.387425935824 -308.989645597051 1848.68592439849 7 10 3
-198.81297338867 -307.178304061833 1835.92359174397 13 16 9
-159.411617895929 -308.407721181945 1810.10663319528 11 14 7
-193.616668968549 -307.526757198901 1803.97140663212 8 11 4
-235.065677299501 -306.509866293833 1788.64829116267 11 14 7
-233.331356669435 -306.624625237776 1778.08268159207 14 17 10
-159.017553900229 -308.826597857498 1746.83261324978 14 17 10
-228.130109371368 -306.967951230446 1746.32918640617 12 15 8
-279.274681174003 -305.607688325469 1743.54814248991 13 16 9
-254.59257066928 -306.361042919443 1729.62298576818 14 17 10
-25.6409396546879 -321.740417722345 1978.69597747434 31 23 10
-89.8813596766002 -319.876892895311 1973.05826098448 5 3 6
-194.087837523585 -316.803347353857 1971.15547808029 11 15 16
-96.6925009148567 -319.892859486475 1941.50574330164 12 17 11
-88.9705333156523 -320.199875952999 1930.08406761819 13 16 9
-110.223585262527 -319.629472298638 1921.39030086215 13 15 10
-117.487215445896 -319.481869366708 1911.43673790656 13 13 11
-54.8232951000993 -321.453984718155 1894.45095146938 12 14 9
-156.983632245665 -318.427532615773 1894.24222159534 11 14 7
-194.206873222828 -317.368383803483 1887.67080947208 10 13 6
-185.279966894554 -317.918119756927 1844.86537625904 12 15 8
-204.573346956762 -317.672140524367 1795.0802231254 7 10 3
-221.805122184843 -317.213401763263 1786.98068685679 13 16 9
-171.16726030066 -318.827688076331 1769.68500104823 15 18 11
-235.827340995369 -317.050744016673 1747.56185270883 10 13 6
-298.948294960542 -315.183393653757 1746.57269347273 14 17 10
-257.302071405502 -316.524139513455 1730.14777072856 15 18 11
-198.701999928478 -318.38597259679 1710.89307736007 16 19 12
-198.232803923383 -318.531875029479 1689.96606197439 24 27 18
-30.3381760191521 -332.449461808577 1979.16329552477 26 14 0
-121.570202456594 -329.52137051938 1975.74743885819 36 30 30
-92.1283193865503 -330.639967221715 1951.90837984739 14 19 15
-39.4368663247944 -332.452205089208 1936.44528244954 12 17 10
-87.6755079773983 -330.934839719274 1930.06360488306 11 14 3
-89.9460007991304 -330.933460751203 1919.55200911418 10 13 4
-128.183468377335 -329.743240814897 1912.59000387958 12 13 7
-118.462441471905 -330.136926844684 1900.9891081972 14 17 10
-98.7532186483593 -330.861123434058 1888.29704032723 13 16 9
-217.892155879878 -326.989919020122 1890.29820740695 11 14 7
-168.281370517033 -328.982918879132 1832.46350450453 10 13 6
-211.010449613349 -327.769773980678 1806.42967339172 13 16 9
-224.251250836778 -327.397205039685 1797.77673200168 13 16 9
-240.484572143992 -326.924300975828 1789.59795676477 17 20 13
-251.725386401227 -326.616877875664 1780.82516205643 18 21 14
-212.063833997511 -328.004705436674 1765.00751122951 15 18 11
-204.343101068436 -328.328975979403 1753.5190542621 14 17 10
-232.548588355671 -327.455032272789 1747.2017303238 13 16 9
-226.823293633471 -327.712168853151 1736.02236742668 16 19 12
-268.992067051379 -326.370216100485 1732.02552718581 17 20 13
-106.741343432097 -340.498327963627 1995.97284294141 25 12 0
-130.273315992745 -339.809513068423 1976.55442856087 19 14 10
-174.521234581786 -338.304710943336 1969.6885712974 20 20 20
-43.8589946375405 -343.043803553349 1947.79088025182 17 19 16
-67.1198813664371 -342.28818960013 1939.03916295321 12 17 10
-32.4173411179438 -343.603414346035 1925.03422750305 11 15 1
-92.6479825589732 -341.524246957887 1919.91144155197 12 16 2
-97.9154237729953 -341.409367255932 1909.7150745185 16 17 9
-112.174140442653 -340.972055006332 1900.45614946846 18 21 14
-115.44159877935 -340.92766392916 1890.13403263964 15 18 11
-100.727377625674 -341.527382765286 1877.91310934099 12 15 8
-180.442332028425 -338.881927178369 1854.98561127997 11 14 7
-285.569866993439 -335.176209975242 1856.87166458146 10 13 6
-266.85433140292 -335.91651072327 1844.43372777088 10 13 6
-238.678948635729 -337.133370211171 1810.09810436799 15 18 11
-239.938663085284 -337.155612855114 1799.94837920345 13 16 9
-244.193270417369 -337.0696806626 1790.20715025443 16 19 12
-266.414505345677 -336.335793231327 1782.94781196733 15 18 11
-260.685412280402 -336.608727053733 1771.90926440216 12 15 8
-220.024736003282 -338.141921641544 1755.8672651442 12 15 8
-213.827774769459 -338.565264588394 1723.83564201444 18 21 14
-199.124032207632 -339.162863431313 1711.19813054371 18 21 14
-189.675750593453 -339.636829452901 1688.85120556501 22 25 18
-110.134759764076 -342.582114364266 1665.54950904431 24 27 20
-120.983680586018 -350.738575316017 1975.88934496295 28 29 13
-65.2759318620153 -352.954453710455 1960.54632261 17 19 6
-115.525841316398 -351.098171068934 1954.14688369369 22 23 15
-57.1020696049192 -353.495465218123 1927.42684789868 21 24 15
-36.3906313738545 -354.367990115321 1914.63740465326 21 24 15
-163.837421644403 -349.60544051402 1905.77989719742 15 18 11
-125.677636429975 -351.293739899914 1870.05352055404 8 11 4
-137.933892823219 -350.892285939099 1860.80285443485 9 12 5
-179.154591154936 -349.37096660793 1854.94450103941 9 12 5
-114.500686941597 -351.940555883858 1836.86700784992 17 20 13
-121.302349075559 -351.89007858028 1805.75630873718 15 18 11
-264.354883017479 -346.419937565308 1813.50924809196 15 18 11
-268.86746784337 -346.379545844362 1793.62714236225 16 19 12
-215.220089736391 -348.526971226589 1776.05684684677 16 19 12
-188.592909628879 -349.897014312109 1720.15578533787 21 24 17
-255.714259621261 -347.353407592382 1719.99470020653 18 21 14
-117.551587697796 -352.861778751876 1677.52061258403 19 22 15
-79.700869326861 -363.032442725897 1972.60855427814 20 23 6
-144.952223151051 -360.422378209336 1967.37910619168 25 27 16
-274.205654244504 -355.458849689921 1927.24509915267 16 19 10
-254.479578591219 -356.343822028463 1915.03906963337 12 15 8
-53.7278638149012 -364.927950146948 1851.47704318884 9 12 5
-28.0306323279351 -366.064517857197 1837.70670444222 9 12 5
-147.168333313834 -361.205986059766 1840.81630438661 18 21 14
-122.466892125134 -362.29991900385 1827.28097095797 17 20 13
-360.186761061789 -352.719786915311 1815.95713797314 14 17 10
-258.600947305224 -357.001923484915 1792.36324627424 14 17 10
-255.865889944662 -357.182683147992 1781.73086653185 15 18 11
-243.148429136158 -357.778006678978 1769.69067483229 18 21 14
-188.508092226743 -360.115837313212 1751.61604476605 19 22 15
-186.776576809232 -360.255485747118 1740.9140733536 19 22 15
-165.08390036531 -361.225262560575 1727.25291040367 18 21 14
-292.354272466761 -356.061696186093 1725.73034185662 17 20 13
-209.054631747738 -359.661934967647 1692.17516768974 22 25 18
-120.127539711202 -371.887360927717 1986.64235901675 0 2 0
-103.671240540514 -372.762170013061 1963.98686029507 14 17 10
-84.9481452238234 -373.660558960654 1951.67464083844 13 13 11
-171.452854493894 -370.008823856205 1938.23624955277 11 13 10
-253.197115568548 -366.629961728549 1915.00954080212 7 10 3
-164.523347758972 -370.606539393909 1895.53965257121 8 11 4
-99.8424848767749 -373.528945762249 1878.13696972982 10 13 6
-150.06965770058 -371.388271641856 1872.93151476752 11 14 7
-198.614102416988 -369.670825215799 1815.70466388103 11 14 7
-279.544964168612 -366.364159493283 1785.08273765163 11 14 7
-206.923327485478 -369.646860288722 1764.75287770642 14 17 10
-234.402486898987 -368.564357419643 1747.93873612392 16 19 12
-193.739965501703 -370.433992721541 1731.60760642673 17 20 13
-184.288769776865 -370.987638459427 1709.28902104497 18 21 14
-279.358028748197 -366.834413494662 1713.65825043536 19 22 15
-283.607893682689 -366.710664004693 1704.13365132604 20 23 16
-73.3820545208528 -384.812686794319 1961.52548194001 13 18 14
-101.648021165151 -383.570599325251 1953.2303748461 12 14 13
-90.466298937482 -384.320214566248 1920.11069461402 11 11 9
-94.7361650726304 -384.195851214491 1909.81436320079 12 13 8
-154.971973295242 -381.453825417592 1905.19204304634 8 11 4
-135.521186745681 -382.510488780872 1882.04241310005 11 14 7
-87.8282442859004 -384.816475858691 1866.24018976362 12 15 8
-94.0950063688382 -384.596584367298 1856.21714154835 10 13 6
-243.010597200234 -377.901063842049 1831.69668390089 12 15 8
-295.208289228075 -375.520428864292 1827.95981217322 10 13 6
-234.544335136585 -378.436493135423 1810.01120031038 8 11 4
-277.266398742527 -376.633518902822 1784.88487217643 9 12 5
-213.625560861627 -379.6931535244 1765.80455095166 9 12 5
-216.883525672828 -379.607789664268 1755.88814261707 10 13 6
-239.892675845342 -378.792443397022 1717.93113610955 18 21 14
-136.36054516171 -383.737984643392 1691.4774157781 19 22 15
-64.0861625279774 -395.989552538733 1960.83885509305 6 10 9
-110.622312800888 -393.84441974208 1943.45416300657 15 15 13
-102.979088113738 -394.599175073586 1889.36603217533 14 17 10
-75.2684922164617 -396.046286184529 1875.73518796858 14 17 10
-187.112958446132 -391.284063251397 1772.67666539942 10 13 6
-185.38079250306 -391.439173459208 1761.98351711745 9 12 5
-263.524054465007 -387.617798008808 1762.63765461593 9 12 5
-146.049046822973 -393.808168305234 1693.11421329897 20 23 16
-165.278957598524 -392.916504231221 1685.60178347782 21 24 17
-66.5153494058202 -406.525058489912 1971.919412214 17 26 25
-40.0646698828355 -408.060621999916 1948.05985998871 18 20 15
-72.3345080577769 -406.455569458363 1940.11127944506 19 20 15
-107.599431255877 -404.692592427562 1932.61710294113 20 21 16
-79.9687571574297 -406.513764638484 1876.3435133289 14 17 10
-243.486663402956 -398.667276898333 1790.79320728904 18 21 14
-210.056910006513 -400.558902445649 1765.54194433799 18 21 14
-229.291798771876 -399.617097319477 1757.88879503036 19 22 15
-222.564688049382 -400.038318508317 1746.57952863773 19 22 15
-139.038266550771 -404.769164602614 1681.56561203851 17 20 13
-32.2139281075189 -419.136594107906 1969.21641188734 12 21 18
-72.4919514966098 -417.006619163371 1961.74642652269 20 27 20
-78.7645937966639 -416.740784940372 1951.53356403087 22 25 18
-57.0391983601013 -418.011252360909 1938.83763903088 22 23 17
-108.305095683003 -415.273814279586 1932.78415333769 19 20 12
-77.5826954187893 -417.038043787657 1919.19074959568 23 25 14
-114.384796129697 -415.243082308419 1890.76085510543 12 15 8
-143.640225815467 -413.708529953631 1883.22561757331 10 13 6
-155.238713560716 -413.507334881502 1821.24215778598 19 22 15
-157.503759963971 -413.454026766162 1810.9898596493 29 32 25
-190.735694344447 -411.692038835991 1804.72521828391 17 20 13
-254.709752195923 -408.437341595229 1771.88343008358 18 21 14
-235.996933351185 -409.539203277512 1758.96042193998 18 21 14
-213.292464833222 -410.862064613655 1745.35632146396 18 21 14
-206.566161881717 -411.301953576476 1733.98611577656 18 21 14
-87.839499207655 -418.144605278955 1673.57315769286 19 22 15
-26.9133893475293 -430.263270091217 1968.88272692391 17 27 18
-67.1945487350429 -428.023571814755 1961.39866355221 14 20 8
-27.4655607888188 -430.391337832445 1947.16444489346 22 24 11
-47.7413745322597 -429.302120141798 1938.10410838001 22 22 10
-90.0126699057302 -426.943610347145 1931.19185561937 21 23 10
-131.278082987493 -424.641010474619 1924.41544897671 22 24 11
-178.536482672765 -421.990654837939 1918.45337907396 16 20 6
-117.979237630268 -426.154134607228 1816.77850551742 15 18 11
-178.194132917875 -422.741263176048 1813.70316247307 19 22 15
-213.424990137296 -420.772471233643 1807.75206583957 26 29 22
-281.874639144022 -416.946486456821 1796.16153439222 21 24 17
-206.750957347004 -421.506862997948 1754.92390968542 21 24 17
-190.038383424679 -422.545057962345 1742.10908486918 21 24 17
-162.145594231916 -424.437762527339 1696.00305522719 20 23 16
8.39628383314617 -443.225831779203 1966.10063632485 9 19 10
2.11649372256506 -442.928352993541 1955.65171491873 11 17 3
-46.1681204940394 -440.095308499616 1948.89526999502 19 21 7
-92.4458102664873 -437.381047368189 1942.22319579658 20 20 8
-101.717105656312 -436.899236716147 1932.37829185453 20 22 9
-165.983291967571 -433.094581477486 1927.8271006415 19 23 9
-238.853765753071 -429.489693072453 1821.43434970818 23 26 19
-199.151564401762 -431.967433084843 1806.03513652063 17 20 13
-263.352749802258 -428.14381909482 1804.03543773463 21 24 17
-322.550373153651 -424.621173714879 1801.71898615156 20 23 16
-301.344524687663 -426.111135088225 1768.48169002947 19 22 15
-330.562694589029 -424.403318140752 1762.57940733391 15 18 11
-120.92107872255 -437.417172580796 1689.70778180075 20 23 16
-58.2961536135795 -441.296001443769 1669.15064430243 20 23 16
-49.5958705143269 -450.577364227684 1960.1140728825 16 20 6
-77.8760825203424 -448.873681571612 1951.75783306512 16 16 4
-83.1494040813046 -448.620106002596 1941.4898874309 15 15 5
-111.423390841391 -446.914075789835 1933.37947241544 16 17 9
-175.693726584123 -442.933679119378 1928.85480466034 13 16 9
-206.957183532258 -441.035065928501 1921.44612971938 8 13 7
-277.539675799376 -437.295551948853 1826.40384939567 20 23 16
-227.840096854022 -440.515024389424 1809.83077735152 17 20 13
-239.092111907391 -439.872132706086 1800.97109226809 15 18 11
-315.279266547603 -435.110949306024 1800.86012512863 14 17 10
-243.871311516195 -439.777431662367 1770.72707038549 12 15 8
-226.153631673483 -440.970627759909 1757.92067668414 12 15 8
-360.500673019903 -432.576441421503 1757.06193256642 15 18 11
-78.6922131796488 -450.68322985907 1683.25937016646 21 24 17
-55.0028056701359 -452.259037586868 1668.76101650083 20 23 16
-118.591789746795 -456.882906771957 1955.40311674706 15 15 3
-88.8550022613366 -458.919382767509 1942.1043958035 14 14 6
-89.1267272187037 -458.980500121651 1931.41882005445 15 16 11
-112.670288359026 -457.585825426705 1912.30538172476 9 14 10
-98.9410769145182 -458.56800209227 1900.27505003415 10 12 7
-32.2211116002027 -463.044206434218 1882.68288177785 9 12 5
-240.545169174935 -449.959570254326 1811.57511554727 19 22 15
-201.838633939491 -452.589554302018 1796.20651530818 16 19 12
-238.853967928499 -450.420274768509 1759.84463952656 12 15 8
-133.315452282584 -457.756995858775 1691.89679412899 21 24 17
-162.581179161997 -464.520670393782 1948.82489222739 19 23 8
-79.829414138787 -470.274264754437 1930.66221718888 14 16 5
-92.375144523122 -469.571216826289 1910.42173307866 14 14 16
-27.6457487213562 -474.092753993412 1893.19886137015 15 17 12
-237.478371156317 -460.202948073663 1842.21200740764 15 18 11
-157.050752433587 -465.881696563904 1811.51033109814 13 16 9
-234.26517757929 -460.638790438488 1810.88479734636 22 25 18
-226.532642246759 -461.242143419762 1799.55796196342 20 21 16
-305.729701290517 -455.857748809124 1799.81247039902 19 21 16
-209.073009443387 -462.585964984819 1776.50446601393 18 21 14
-252.294907624961 -459.677543043509 1772.13797760707 17 20 11
-160.984585613512 -466.389702066459 1696.33453233348 20 25 18
-108.731594974065 -478.651718478179 1965.39858157777 19 17 4
-105.000177174602 -478.998060189717 1954.4214682658 18 21 10
-97.080804253614 -479.880510865327 1910.98905761762 14 14 16
-219.201488255752 -471.761645522807 1840.131529364 13 16 9
-188.478509009143 -474.032068462787 1826.00791794986 14 17 10
-219.726699120351 -471.868881257582 1819.48932787133 12 15 8
-229.245541467495 -471.330625818378 1800.0300373524 19 20 15
-207.524048648111 -472.957054874255 1786.79938036478 21 23 18
-294.716250015879 -466.78224604216 1788.30866039987 22 25 18
-143.108413682842 -477.713852261437 1757.06104393302 22 25 18
-97.0487601989416 -481.512022934637 1675.82203757206 19 24 17
-96.4309343219361 -490.156998716054 1964.46228648802 32 22 13
-130.719620640077 -487.700446812753 1956.75937455107 19 18 16
-75.9639375067387 -491.833915522766 1941.25553183816 18 19 13
-44.4992589156672 -494.325264588929 1916.77472488069 13 19 9
-59.7776237770167 -493.273598886015 1907.44154830762 17 22 18
-113.059982174014 -489.404304023028 1902.01872756788 16 18 13
-69.5989531205159 -492.782566656317 1876.11863824101 11 14 7
-198.65842981026 -483.511871307974 1848.18974520931 23 26 19
-160.93465459319 -486.386573861197 1833.25688095376 21 24 17
-219.1785829863 -482.134911756309 1829.88873228053 23 26 19
-271.675862062042 -478.378660325899 1815.91066710646 20 23 16
-242.952451256251 -480.584312424638 1801.94151336296 19 20 15
-298.176250722035 -476.549598258389 1799.0343883476 20 22 17
-203.503732839711 -483.659321820054 1775.98468231942 21 24 17
-157.804697652691 -487.129388256883 1759.22940522194 21 24 17
-150.078679080059 -487.775562359568 1747.61121905287 18 21 12
-144.423826409995 -488.548900310239 1694.01631760393 22 27 20
-67.6638272998731 -503.153576222668 1940.61446763209 14 14 12
-76.9407946242171 -502.52247773983 1930.70817861536 11 17 7
-97.2208194427604 -501.045547746815 1921.89955430871 11 19 8
-73.4845275393079 -502.948644487657 1908.89151222771 14 21 14
6.7053355174056 -509.351473159911 1868.12938411447 11 14 7
-172.376036547043 -495.886098424722 1845.22342261318 23 26 19
-183.639067573576 -495.093631102852 1836.0937979378 23 26 19
-312.863091908001 -485.217342100911 1841.49221460595 25 28 21
-315.118459843325 -485.114705597915 1831.68047433587 22 25 18
-336.364664252053 -483.548455310264 1824.31427172107 21 24 17
-290.643285469623 -487.141494163879 1808.30022142462 20 21 16
-252.923655284121 -490.119065675704 1793.10422699936 17 20 13
-260.179169278513 -489.630344402805 1783.83413942759 15 18 11
-180.497530229567 -495.845066180169 1762.50966826791 13 16 9
-183.556369313592 -495.891545998344 1721.13538250731 17 22 15
-35.2581516876418 -507.482935363656 1677.16178783783 22 27 21
-62.8178369895993 -514.075874721424 1961.83373647938 32 15 8
-31.0701696087508 -516.681547449338 1948.29968459897 21 15 19
-53.3586933950239 -514.992800481885 1939.43571927047 17 17 15
-117.666456283676 -509.961711344875 1934.57642164723 14 20 10
-115.935057966879 -510.179565765937 1923.78590196743 13 21 10
-70.187075807659 -513.898614285231 1908.67630432099 13 20 13
-59.4566129413896 -514.832656340412 1896.83930833009 9 14 7
-109.012597611195 -511.04678219081 1880.52453877878 12 15 8
-220.082018556218 -502.504721158861 1850.9241317317 20 23 16
-237.341545444355 -501.202960770958 1842.6451361467 21 24 17
-304.58677992747 -495.914639025286 1840.58927956259 22 25 18
-343.085353814438 -492.986264289588 1825.28863201498 19 22 15
-257.63796260616 -499.945167860528 1793.85238790274 13 16 9
-243.906142696976 -501.112172094997 1781.73487522753 12 15 8
-224.180162921745 -502.757941417447 1768.70821325482 13 16 9
-231.437204150179 -502.249010194304 1759.40013597415 14 17 8
-102.282892227006 -521.461193237033 1975.92057348358 18 0 0
-44.5064898615994 -526.291878344559 1960.39447508884 38 23 18
-43.7804682541847 -526.435232385455 1949.50783020179 25 19 21
-58.0644912454438 -525.343967704967 1939.96201019234 21 20 15
-130.381442593082 -519.479088873712 1935.8550857973 17 21 7
-92.4435776588295 -522.92065746553 1889.57277038875 12 15 8
-162.998952439709 -517.267549365491 1875.86132906323 16 19 12
-260.795755968522 -509.436140024098 1855.8036680074 21 24 17
-223.058961081547 -512.62079584573 1841.04685360645 21 24 17
-229.320272940707 -512.1783131628 1831.47582029518 20 23 16
-286.568577246002 -507.52980744128 1828.32872347557 20 23 16
-216.847871059947 -513.353511691764 1809.23525165577 16 19 12
-258.095070744858 -510.022528038738 1804.27488695708 18 19 14
-206.378204930703 -514.362657060195 1787.12477557849 17 20 13
-229.629785562479 -512.515189806147 1779.90912077643 17 20 13
-250.879215763003 -510.831710836723 1772.54271417339 16 19 12
-254.137573224885 -510.633018643622 1762.74196771397 15 18 9
-283.376707646332 -508.28747200417 1756.71438876389 19 22 13
-79.2393195445182 -534.101055909022 1963.41851404801 21 12 5
-11.4560166811222 -539.940903860109 1946.80359868871 18 14 11
-97.7970173150107 -532.69098667714 1943.62695881725 16 16 6
-96.3375590874764 -532.978478412517 1922.13330721159 12 15 4
-111.616756316738 -531.76060148613 1912.94606362767 13 15 12
-205.45705948804 -524.016794238133 1890.97678524381 15 18 11
-223.249389385775 -522.731201284712 1861.856642966 21 24 17
-199.51052574695 -524.82762493303 1848.74153366858 22 25 18
-255.773233427528 -520.110881773005 1845.08007349013 23 26 19
-272.031784789492 -518.799389513721 1836.82495651864 22 25 18
-282.547125675666 -518.048386945305 1817.76496915724 18 21 14
-237.81862183519 -521.933161252808 1801.74084541278 20 21 16
-250.075482872432 -520.96024684062 1793.08013793198 16 19 12
-251.33531853504 -520.924408310516 1782.98803843286 14 17 10
-234.604255403108 -522.422768533592 1770.40174596411 13 16 9
-349.799218980863 -512.664862091579 1776.42578116832 13 16 7
-285.352514286795 -518.302750104182 1746.95571011508 15 18 11
-381.78619465999 -510.204823986998 1741.35162743377 16 21 17
-154.74984396295 -538.061549602774 1980.38793480808 10 10 0
-82.9475721452706 -544.436319114859 1963.83191888102 21 22 16
-141.270999236368 -539.408015478641 1958.1812587651 20 21 13
-73.027527670543 -545.638541112813 1920.02368894766 18 18 6
-84.3070607008998 -544.730852264148 1910.38214958641 15 15 15
-117.596816318243 -541.890650896782 1903.01535652832 16 18 13
-144.146411399284 -539.719226159832 1884.58352304111 12 15 8
-254.49075120762 -530.407759772051 1845.03976499498 13 16 9
-271.75049453096 -528.964262001565 1836.90449705774 14 17 10
-275.009094296633 -528.750839620996 1827.11009666759 15 18 11
-234.53532907141 -532.456503968575 1801.43033529521 21 22 16
-235.796617161069 -532.418084308228 1791.29356612256 17 20 13
