ply
format ascii 1.0
comment KinectMotionCapture
element vertex 779
property float x
property float y
property float z
property uchar red
property uchar green
property uchar blue
end_header
-150.380726128731 79.4880930305637 2052.59435544474 113 117 118
-160.447374279733 78.7241630094173 2053.35572351655 119 123 126
-165.903091889507 79.4531996269768 2037.55645450415 115 120 116
-171.173316199539 80.2645352196596 2020.77243012932 112 117 111
-176.266137929867 81.1577140843561 2003.00264191811 130 135 129
-183.815705398051 81.2591579383228 1993.99825605887 91 96 90
-182.053185386802 84.4944712886027 1949.86809197098 49 56 49
-202.906840781693 80.1486586201752 1990.61079232211 193 200 193
-216.658305059789 78.1604100522187 2005.02412177464 91 98 91
-230.324947829127 76.1771470458464 2019.44802332071 147 154 147
-242.411995436016 74.7177287053751 2028.02106635165 136 143 136
-253.95373748015 73.4339213464155 2034.64608336263 151 158 151
-263.747902526023 72.7552938570919 2034.43354397568 141 151 143
-274.020042653072 71.9047449985573 2036.17718306956 146 152 148
-282.370846475379 71.7411912041551 2030.09656680663 143 148 144
-291.221346297446 71.4043049361553 2025.96966236713 134 138 137
-301.95277114788 70.3824306734371 2029.67205108727 135 139 138
-314.269949498973 68.7648196548574 2040.23216595303 152 156 155
-326.751187787894 67.0657102323839 2051.77994909855 169 173 172
-336.915366387031 66.2201877548486 2053.53704791605 167 171 170
-347.286759011063 65.2904749287004 2056.27619645876 167 169 168
-356.540788202637 64.7848297763877 2054.11499282522 167 169 168
-364.717890847002 64.700703593446 2047.04815717442 170 172 171
-371.858741821567 65.0355673828167 2035.07086045086 171 173 172
-378.215000641165 65.7028149145463 2019.15937193878 141 146 142
-385.279398156207 66.1127624655335 2006.18373132638 147 152 148
-394.056878248775 65.8480537121892 2001.05806214232 154 159 155
-404.27925690642 64.9964023042218 2002.80767380818 140 145 141
-412.882844619761 64.8128055643404 1996.69580466122 112 117 113
-422.107733409326 64.3773463073899 1993.53012537859 69 74 70
-429.393906989907 64.771791839726 1980.52684924835 53 58 54
-438.092446592298 64.5812477827768 1974.40290869376 66 71 67
-446.439720934323 64.5541348968728 1966.30699938045 78 83 79
-456.508368872772 63.7809399823751 1967.06814228937 82 87 83
-467.48826633639 62.5958823389202 1972.75532703035 39 44 40
-477.523429645445 61.8241014173007 1973.52040463063 26 28 25
-485.223926311179 62.1195799271158 1961.47337115314 50 52 47
-489.462496018255 64.0490499967575 1929.69887905849 82 84 81
-498.204862809977 63.9241653290866 1922.56160911991 129 131 128
-506.809776833426 63.8783698734816 1914.43359709739 148 150 147
-514.613355372302 64.236745682512 1901.36560660681 183 185 180
-521.325598290572 65.1591793203336 1881.37803269874 187 189 184
-529.767197776743 65.264154690784 1871.25463011897 204 207 200
-538.098204642116 65.4465329810663 1860.13665737096 186 189 178
-108.541214679871 73.1684662346472 2046.74704274681 5 9 10
-119.790278105025 72.0638246722104 2051.39249802726 117 122 118
-130.445550528265 71.1323038748364 2054.09646507928 116 121 115
-141.359696091913 70.116285352425 2057.77579564501 108 113 109
-150.314825467056 69.6995068771158 2054.64397181607 112 116 115
-158.461739689723 69.5375052205933 2048.5887956823 125 129 130
-163.386776687335 70.3944611537337 2030.8400414056 131 136 132
-169.745835600729 70.8208826933516 2017.95213922836 122 127 121
-176.171442582185 71.2429477985933 2005.05618398691 81 86 80
-178.195996396208 73.0985334779495 1975.57355675488 53 58 52
-192.342099651793 71.0612753258802 1990.94545375929 81 88 81
-202.280085367125 70.3772157675996 1990.71474043947 128 135 128
-216.543974257886 68.2638557601825 2007.08006627141 50 57 50
-230.208228231663 66.3239838009828 2021.50415165626 129 136 129
-242.790359821111 64.7241624730538 2032.03115507575 72 79 72
-253.336681507105 63.7965341272585 2034.74846801629 78 85 78
-264.594520819919 62.6196919281212 2040.40118589132 85 95 87
-273.404049356994 62.2772636868833 2036.27940902056 54 59 55
-280.561807287815 62.5149475983167 2025.30794542676 40 45 41
-288.246553308915 62.5831120333381 2016.2865374547 3 8 4
-296.675225873114 62.40002784214 2010.19649533449 4 9 5
-310.891916778022 60.1507411972138 2028.58344335038 3 5 2
-320.220454807485 59.6381969014852 2026.41271935428 3 5 2
-331.580644900562 58.3848301604387 2033.06055307987 7 9 6
-340.231555170403 58.1185096360894 2027.95068330597 11 13 10
-351.979337444068 56.704055821681 2036.56594623231 12 14 11
-359.11996279393 57.0087120514764 2024.58851694717 10 12 9
-367.606363376039 56.8200092829671 2018.49128550793 11 13 10
-374.640674641323 57.198934207829 2005.51924090987 14 16 11
-382.784927765953 57.1673459196474 1997.44867923005 14 17 10
-390.968151150853 57.1329763912606 1989.37326161644 25 28 21
-400.207092447876 56.6914559393034 1986.2058446259 25 27 22
-409.458025789693 56.2488455570963 1983.0371742381 23 26 19
-416.147514176452 56.8522825298 1967.08426868891 27 30 23
-424.676375921234 56.7268153383452 1959.97364445202 32 34 29
-435.16400362612 55.79692655958 1962.69852827592 27 29 24
-446.200388581768 54.6279189399288 1968.37862144467 29 32 25
-457.386955270196 53.3810417546527 1975.04786498597 26 29 22
-467.424675575416 52.6146247443725 1975.81284963131 23 25 20
-475.817104955382 52.5641803725465 1967.71136667885 30 33 26
-480.489338439909 54.1773269529933 1938.90665022979 32 35 28
-486.724315372278 55.1471360763861 1917.97082443534 33 36 29
-492.89482448422 56.1886973531286 1896.03516778882 28 30 25
-501.230211948224 56.2766372414835 1885.9248244351 23 25 20
-518.214889689231 56.363563039876 1866.67312613643 17 20 13
-538.26696245676 55.0304301736142 1865.18194385783 4 10 0
-119.455684869215 62.3500572160358 2052.46776151278 174 175 170
-129.545325239273 61.5951113383298 2053.22599636342 160 161 156
-140.463264787956 60.591932781286 2056.90505991741 137 137 135
-149.144442959256 60.2516492535813 2052.79929476547 109 111 108
-157.569714861193 59.9925962474121 2047.71756418716 96 98 97
-162.494718983461 60.8024931874116 2029.96893794129 110 112 107
-168.049573733496 61.442080908547 2014.15753276037 131 133 128
-172.889978192099 62.3223548782997 1995.41159161878 156 158 153
-172.832983318928 64.7515768543137 1958.12500111439 27 29 24
-201.911436467412 60.5232401463619 1991.79462310373 14 19 13
-216.175901176088 58.4585145388304 2008.1595087313 5 10 4
-225.553767069184 57.9420240293701 2005.98287957039 2 9 2
-233.441646363963 57.9109418446289 1997.94431049607 3 10 3
-250.005615495403 55.0474976364449 2024.10192675135 1 8 1
-258.365761083059 54.8555804024679 2018.02045965419 0 7 0
-265.788944126861 54.9836565680013 2008.02384832175 3 8 2
-277.319394543315 53.74255325168 2014.65016200153 5 7 2
-281.493273255655 54.9892360411034 1990.94751837959 8 10 5
-294.190226275001 53.3474836221029 2002.46823055441 10 12 7
-302.668298949956 53.1468891730892 1996.37206970506 11 13 8
-315.731841039813 51.3507925577814 2009.86281438747 11 13 8
-326.23889487776 50.4339970450976 2012.58499919542 13 15 10
-338.727800597828 48.8040949616033 2024.13164323579 12 14 9
-348.51070292902 48.1282752485743 2023.92050197487 12 14 9
-354.599633051932 48.7953331005846 2007.03468790503 15 17 12
-357.989809815046 50.4814742738763 1977.38208522851 19 21 16
-367.463973038913 49.9549074070718 1975.19346526575 24 27 20
-383.421673854104 46.9944099135007 2003.44261027418 25 28 19
-392.000176449894 46.7849066661633 1997.33369955672 22 25 16
-400.60688204518 46.5734002021058 1991.22151481579 22 25 18
-406.430247600635 47.4515597857357 1971.34498414175 23 26 17
-415.527302664673 47.0779144609846 1967.18740786934 22 25 16
-423.469177814996 47.1687066867182 1957.12616501441 25 28 21
-436.278322017122 45.3192031653019 1971.65672506134 24 27 20
-447.48191969122 44.0931018347409 1978.32402879258 25 28 19
-455.833779519659 44.0264593467298 1970.22765133747 27 30 21
-465.885650389904 43.2643341910797 1970.99061850477 27 30 23
-467.197597466114 46.1886615566737 1924.46222387457 27 30 21
-475.746974377043 46.108570125097 1916.34123287259 31 32 24
-484.335100188541 46.0257115551987 1908.21541352406 32 33 25
-492.440653743445 46.1689439349538 1897.12591937443 20 23 16
-506.245565823312 43.7966173086017 1918.587880538 23 26 19
-512.688180579763 44.6972091556609 1897.62632505188 22 25 18
-521.392971682282 44.6056343100061 1889.48596951875 25 28 21
-530.462134637959 44.3600356840916 1883.31592234502 16 22 10
-536.515019317912 45.5455525579368 1858.37126386696 12 18 6
-117.698431434962 53.0432839654549 2048.6805767472 167 166 162
-126.953320454245 52.5333711187411 2046.51903678233 121 120 116
-136.494695681502 51.9427008855665 2045.32988507103 123 122 120
-145.761104511553 51.4317281926208 2043.1671505617 127 127 125
-154.760543542582 50.9999112457205 2040.0295964842 126 126 124
-162.145212842173 51.0449114819313 2031.04593758378 126 127 122
-167.963433413228 51.5637376554372 2016.20991129357 140 141 135
-172.529656654997 52.4740872214715 1996.49017977695 128 129 123
-207.213685698155 48.9402764218806 2014.34192220861 46 49 42
-211.728082207955 49.9157772748424 1993.62055942122 19 22 15
-214.838078301914 51.354994692974 1967.02711373278 14 17 10
-220.835848252735 51.9239335561757 1951.16062140454 10 15 8
-235.55890339649 49.7532031307343 1969.484171282 8 13 6
-252.862215624226 46.7312522417932 1998.57348114358 8 13 6
-256.956502335298 47.9199985856868 1974.88092270642 12 15 8
-265.714312048709 47.6259328209771 1969.7575453113 14 15 9
-291.261005756012 41.8309806852043 2034.10481098975 15 16 10
-296.838443117057 42.5501301541376 2016.27476364432 16 17 11
-313.58447966148 39.5616205090016 2045.43353015027 15 18 11
-311.921756534063 42.7390227493553 1996.25238874842 15 18 11
-324.044897994797 41.2928229927554 2005.82857976732 15 18 11
-334.551583151777 40.3862659659268 2008.55102389052 15 18 11
-349.656291982351 37.8753944202446 2031.86651715342 15 18 11
-353.548849096451 39.2625459849862 2005.17530932095 17 20 13
-358.012310736979 40.4882821482531 1980.42889552557 19 24 17
-368.96109821209 39.4275571008978 1985.11194808553 27 30 21
-383.433533640355 37.0804602331919 2006.49053983991 29 32 23
-394.480142211491 35.9503971240154 2012.16925460291 26 29 20
-400.601293403107 36.632462795373 1994.27169291343 25 28 19
-406.614510741332 37.38373187685 1975.37949111911 25 28 19
-414.907354560496 37.3025441954213 1967.29051681731 20 23 14
-427.933103822859 35.4205687029487 1982.80181844525 21 24 15
-435.27449219745 35.7116710916709 1969.79192398563 21 24 15
-443.44238670502 35.7000541364001 1960.71043204026 19 22 13
-453.154286801778 35.0900399390344 1959.50005077502 17 20 11
-462.497623433335 34.6281353047756 1956.31989981367 20 23 14
-476.556472745952 35.622477139565 1924.33004460626 24 26 15
-484.592104844995 35.7428385105237 1913.2490962022 23 24 16
-495.291594660004 34.7559952040643 1916.95537797318 21 24 17
-504.937439668204 34.2108169205494 1914.74538215122 24 27 20
-520.318690141052 31.175603975102 1946.08996307823 21 24 17
-530.547890332211 30.3425718795123 1947.83891469248 25 28 19
-538.96741245028 30.3118491083685 1938.72607142341 26 32 20
-542.94021884085 32.3136562933531 1901.94563849382 16 22 10
-113.091746927572 44.4912776962555 2035.16916442501 119 115 112
-121.537874241195 44.2083957447368 2030.0848939673 127 121 121
-131.963538569898 43.3820783019082 2031.80931033586 96 92 89
-142.098006993473 42.633700299623 2032.56217388292 142 141 139
-152.223224336277 41.8857001127176 2033.31595064646 94 95 90
-159.625449905924 41.9071860916721 2024.3301627513 98 97 92
-164.385500299824 42.6930943309082 2005.59425756199 89 90 84
-168.71229369189 43.6258136938884 1984.89665946686 121 122 116
-203.497693019207 40.1442220792758 2002.73561396899 40 43 36
-211.869355338744 39.924126312155 1996.6525435902 21 24 17
-213.956834297827 41.5953819396033 1966.15486200051 15 18 11
-225.450659361937 40.4602695335401 1971.77778008625 12 15 8
-240.120732589771 38.3469928053034 1990.10779049133 10 13 6
-247.840876173308 38.3465832218379 1981.08238596873 11 14 7
-258.022815078025 37.5925085093502 1981.82934048247 14 15 9
-268.67334816152 36.6890280895287 1984.53358486399 15 16 10
-284.030000693198 34.2919521304953 2006.80965026764 16 17 11
-297.623107960318 32.4246114707993 2022.25011043046 15 16 10
-309.971241694959 30.9345683554902 2032.80626657058 14 17 10
-314.953326262079 31.8232873969047 2012.02700788413 14 17 10
-317.789801063472 33.445454080013 1981.43598531533 15 18 11
-335.271750023076 30.2547456886548 2014.5341951785 16 19 12
-342.881567238556 30.3189166607326 2004.51470156561 16 19 12
-352.932514660382 29.5707208131956 2005.27774729147 18 21 14
-365.33559642723 28.0156833954854 2016.83490450038 19 24 17
-371.309963747019 28.6609198567718 1998.95575755875 26 29 20
-380.93525854788 28.0584086767067 1997.7561643635 28 31 22
-389.73542719494 27.7470149715978 1992.62778672514 28 31 22
-398.558306327197 27.433920658921 1987.49657943098 27 30 21
-404.788805840534 28.0619566232179 1969.58527373398 28 31 22
-415.875400736916 26.9472951782843 1975.259198149 23 26 17
-424.380358410418 26.7730647274941 1968.15168541519 17 20 11
-433.304904854901 26.4523738324177 1963.00781064684 22 25 16
-449.29469239848 23.4715303417521 1994.27630656504 21 24 15
-444.842260581421 28.243020440339 1919.23731963851 18 21 12
-453.186922352338 28.1974181017113 1910.13385768301 21 24 15
-471.233467759341 24.367758156401 1953.24112396047 23 25 14
-478.266415425124 24.8232113928664 1937.24574643367 25 27 16
-485.027858216472 25.4151264225612 1919.26851754641 25 26 18
-491.882128129147 26.0009486652817 1901.27972042834 23 24 16
-512.540288604015 20.9279289748982 1962.20391603984 26 27 19
-522.568455124778 20.1757969775448 1962.97005532192 22 25 18
-546.022715086375 17.1994221814416 1985.24479985195 24 30 20
-557.087247547502 15.9620140627443 1992.93717497384 17 23 11
-107.055598484843 36.2372482296781 2016.79692054878 139 134 131
-120.916796486888 34.5174849020122 2030.18792146804 135 129 129
-130.224538996532 33.9974439502327 2028.02005264079 123 118 115
-141.201021123505 33.0297111491793 2031.69147681323 113 110 105
-149.683886764646 32.7324995252496 2026.60265936612 101 98 93
-157.103900080962 32.7303818478188 2017.61471382472 80 77 72
-160.804215923491 33.7616309244755 1994.97942248447 76 73 68
-167.819105813179 33.8989306411684 1984.02605233578 81 80 75
-180.685852064809 32.4116374557216 1994.51748145793 15 14 9
-211.133579458903 28.0546114108701 2034.06292787316 24 23 18
-219.645460325647 29.9310954075559 1990.6697721912 19 20 14
-262.236481649197 26.3618246702365 2001.48825898777 20 20 12
-271.637991942825 25.832955933882 1999.30847147434 22 22 14
-282.465304012203 24.8713543216652 2002.99873531056 23 23 15
-296.540016409198 22.9054562131034 2020.39496801305 20 21 13
-305.891744440503 22.3789526429824 2018.22138680307 19 20 12
-314.565156152134 22.0662726285307 2013.10883106832 20 21 13
-319.650704160061 22.8930827743841 1992.316823791 17 20 11
-330.643050466419 21.8627435267223 1996.99436044642 19 22 13
-339.62172801507 21.4729895409846 1992.85159940968 19 22 13
-358.408487700669 17.8949608619819 2032.84252709597 18 24 14
-368.589688680641 17.086217830973 2034.59740476361 20 26 16
-370.269467879995 19.097362415452 1997.09517611461 26 27 19
-379.062632689519 18.7753513588784 1991.96770047418 28 29 21
-387.051565326502 18.7321676884597 1982.90886531081 27 28 20
-395.492960801752 18.5460406891756 1975.80931609271 26 27 19
-406.786703142279 17.380306588917 1982.46497105881 27 28 20
-419.230084281049 15.7990445852148 1995.0250955728 23 24 16
-421.998258316079 17.6259445075859 1959.40314134971 17 18 10
-434.038245326153 16.1837956346793 1969.99762625152 24 25 17
-453.418939967573 14.9655726864874 1967.58223828453 19 20 12
-455.891747965485 17.0384791768189 1927.96550748564 20 21 13
-467.331520477328 15.8043247801734 1935.61104629903 24 24 14
-477.106195777102 15.1888482483757 1934.39284544444 27 27 17
-483.873068765764 15.7336374323721 1916.41482273616 28 28 20
-490.558565256425 16.3403890144239 1897.43934532852 21 22 16
-508.665310926871 12.4572677886498 1943.5625413207 20 21 15
-525.66847784117 8.9289815208029 1984.78360694368 21 24 17
-535.959800459738 8.05095292350497 1987.53261164112 22 27 20
-547.210684886861 6.7694581223966 1996.20953433825 24 30 20
-550.371748236227 8.85329384744446 1955.49919746048 18 24 12
-113.562571848791 24.6978572799967 2041.20913665313 148 140 138
-120.296319794198 24.8257593797135 2030.29087610528 167 158 159
-129.324050977995 24.3743727081099 2027.14984287055 139 131 129
-138.087312429571 23.9937757202892 2023.0341806433 127 122 118
-144.124066328922 24.3282231294059 2009.17905533878 123 118 112
-150.232477101505 24.6580309316923 1995.31499989834 119 116 109
-155.067332760843 25.3397063350011 1976.57003394762 94 91 84
-164.79520999453 24.7347659659234 1975.3576454684 55 52 45
-178.47952429775 23.0651677266605 1988.77082858832 31 28 21
-203.802347884285 20.2345675740722 2008.79662933607 31 28 21
-217.01188847207 18.6484797068969 2021.26091412031 21 21 13
-215.228994111624 21.213659143762 1976.12737030637 19 19 11
-206.685976055602 25.7266803933071 1903.6151594928 19 19 11
-230.213471732345 21.2613194010652 1956.11770146387 16 16 8
-265.73136456954 15.4481568475404 2018.21274102958 19 19 11
-275.326403901469 14.8494245024532 2017.01691358657 21 21 13
-285.396120727801 14.1118728607373 2017.77758897057 22 22 14
-300.603626862511 11.8542563774095 2040.07213997001 18 19 11
-310.363872310194 11.190015376142 2039.86355539334 18 19 11
-315.091967630069 12.038741138456 2018.10841128606 20 21 13
-325.80702178543 11.0964121007895 2021.81239322391 20 23 14
-327.793613147831 12.8242832560933 1987.29616405336 21 24 15
-340.766996763861 11.1955086441394 2000.79771934374 21 24 15
-351.483272725571 10.2523428163329 2004.50179127977 20 26 16
-366.689494396015 7.88418305978031 2028.81216788091 22 28 18
-376.023293153968 7.35385231865793 2026.64107448571 27 28 22
-379.70374232668 8.6476456801064 1997.96096786073 29 30 24
-389.123786352236 8.11140256509854 1995.77912713603 27 28 22
-395.69128130729 8.51591271220742 1979.84196951261 27 28 22
-405.766783578532 7.77468042666413 1980.60217286889 29 30 24
-415.434939378167 7.16763215866662 1979.39724282265 27 28 22
-425.104082897747 6.56026714792266 1978.19219034893 31 32 26
-435.161056102612 5.81936172512548 1978.95446489362 28 29 23
-448.25919343938 4.01652777489622 1995.46445186833 26 27 21
-455.997395342859 4.07375150702108 1984.42102753375 22 23 17
-448.783580677295 9.47763910061913 1893.60078455051 21 22 16
-462.875818891555 7.33939413486234 1915.02627266544 22 22 12
-476.664505357949 5.27435144496324 1935.48176237015 23 23 13
-485.020358808178 5.18278164095667 1926.37702481292 23 23 15
-496.560299271706 3.91143444977129 1935.01784830221 20 21 15
-489.671502445101 9.61962128854593 1838.10988079504 18 19 13
-516.775537131783 2.41838305928871 1936.53026695648 20 23 16
-530.859495121522 0.115790512701663 1960.9805227613 18 23 16
-534.168836661634 2.02644187547002 1921.25982481498 20 27 19
-541.22985037312 2.50403055212159 1903.24551232232 22 30 19
-108.948867444544 16.0072525283105 2027.69920563548 16 2 0
-121.089810756899 14.7862256789397 2035.25720790731 108 90 86
-127.583925710424 14.9527076576838 2023.36082317448 109 90 84
-136.357476093596 14.562718331365 2019.24366141505 95 75 68
-138.558345350561 15.8251215667871 1991.75620764809 57 34 26
-143.625514834943 16.3908205558645 1973.99048309211 48 28 21
-150.132045865089 16.6077480701319 1961.08472896161 50 33 26
-161.235821526122 15.6574994036389 1964.74046187844 63 52 46
-176.00780806504 13.753396849231 1982.04951615387 41 34 26
-193.878274058091 12.9509665877803 1973.77489769194 21 21 13
-209.744892791178 10.7191281028079 1995.98688718155 21 18 13
-217.312692683787 12.6810495311908 1947.67264646767 19 16 11
-223.394094680379 13.0782745254875 1931.79616955691 14 13 8
-238.620602005087 10.9890756803226 1952.07229133318 14 15 7
-280.458639639697 3.56287333606403 2040.59233587648 15 18 7
-293.779750641395 1.90259267424256 2055.05850718187 14 17 8
-302.801530113012 1.4422535683255 2051.91824026155 13 16 7
-306.975473802291 2.37137439163079 2028.216424819 17 20 11
-316.53580430948 1.77343479582034 2027.02492674444 16 19 10
-323.611222479012 1.8997664427344 2015.0563448101 17 20 11
-334.54386466677 0.905107410201972 2019.74123822397 20 23 16
-343.018572732346 0.633028310438766 2013.64544524153 19 22 15
-350.867842866875 0.555070089921811 2004.60413071033 17 23 13
-359.837709898289 0.148065240861889 2000.46251460358 19 25 15
-375.200099636217 -2.21106146122801 2025.76106566312 22 25 18
-386.641323380941 -3.39394722440661 2033.4062883571 25 26 20
-380.638955488164 0.859651062929234 1958.56208813935 25 26 20
-392.621057283569 -0.461058087101063 1968.15578986835 26 27 21
-405.149819503173 -1.97139210624053 1980.70483227316 30 31 25
-415.017168706815 -2.64300866174882 1980.4829012042 29 30 24
-421.936068236366 -2.35447697470215 1965.51012315945 32 31 26
-435.125872993791 -4.11385249992996 1982.00831586703 24 23 18
-443.63861956216 -4.33943009083534 1974.9002066148 21 22 16
-444.658744108802 -2.02749184684609 1928.40984241601 20 21 15
-450.564951320961 -1.31473771366655 1906.50779471721 21 22 16
-463.164313865978 -2.88307282901809 1920.05610672955 23 23 15
-475.863332664531 -4.50962021356696 1934.59982262874 21 21 13
-493.618797109527 -7.95264140296287 1977.74215562126 22 22 14
-486.336378474751 -2.48527672628945 1880.88394398527 23 24 18
-489.550544257654 -0.674778040445717 1841.17538715928 23 24 18
-507.865928570402 -4.36048572086684 1888.27971349901 21 24 17
-512.764121686299 -3.12149588150223 1857.43240975589 23 26 19
-521.101059640068 -3.13229109881824 1846.3144458274 11 16 9
-529.009587328087 -2.96147494222532 1832.22616513694 16 23 15
-117.925526399952 5.70670243799629 2026.60609779934 138 119 113
-125.562753974353 5.57504034825987 2018.59907345148 114 89 82
-132.961978825888 5.50713169792527 2009.61365517703 118 91 82
-132.987015282489 7.22312155575228 1974.33456065292 90 61 53
-138.099814721864 7.73890978562494 1956.56303291779 64 37 30
-145.730454490055 7.656111875331 1947.54901490893 56 33 27
-156.606318228136 6.78221720250091 1950.22506144389 57 44 36
-185.353249238042 3.27345356230532 1981.91854600099 32 29 22
-193.25179987746 3.12420306897004 1973.87895639798 20 20 12
-200.933891615345 3.0373036888737 1964.85828801981 21 18 13
-208.15429808891 3.07709350090013 1953.87952740532 20 17 12
-210.169625428017 4.47120102864868 1922.38389267271 19 16 11
-229.700317731697 1.33970899954763 1959.25750446466 13 14 8
-236.766667393357 1.43753115094955 1947.28988903648 13 16 7
-251.408485263706 -0.457586976892244 1965.62285103023 13 16 5
-268.101149852645 -2.92223038077941 1992.77128399246 16 19 8
-290.800753257767 -7.03677642224607 2045.37621816589 14 17 8
-305.851535916441 -5.08790762795411 1984.03497356213 17 20 11
-323.222966366806 -7.84105813270355 2016.13813609056 19 22 13
-335.048100798122 -9.0715533599843 2024.74326147654 21 24 17
-341.963142615725 -8.91722766633413 2011.78693274326 21 24 17
-350.034732695538 -9.08042815257964 2003.72578557789 22 25 18
-360.514650492481 -9.93348837760952 2006.45118895872 22 25 18
-374.376984855983 -11.7823083056359 2024.88130396119 18 21 12
-382.673065150745 -12.0092698826509 2017.79999675493 19 22 13
-383.333808491266 -9.94606549050392 1974.37843780109 21 22 14
-392.206319319873 -10.3076209099106 1969.24116438524 24 24 16
-407.157300788235 -12.5194121376663 1993.58298166368 27 24 17
-415.794946541268 -12.8177424758691 1987.46692415282 28 25 18
-419.3532052045 -11.5248549163388 1955.77900727186 26 23 16
-427.342474692945 -11.5872235732609 1945.71225322747 31 28 21
-440.92136079887 -13.4201959415786 1964.17769916277 26 23 16
-444.411819690808 -12.0259832102381 1930.48236199109 22 22 14
-454.392773008635 -12.7036126948948 1930.24626963513 22 22 14
-463.637668611994 -13.1395876689531 1926.0706481491 19 20 14
-476.683829225919 -14.8422733727864 1942.58661750595 21 22 16
-485.196022482472 -15.0369619056802 1934.47056859159 24 25 19
-490.775612744384 -14.2158331935126 1909.58593406207 22 23 17
-499.23913487599 -14.3591433379452 1900.46789634628 22 23 17
-507.408013485416 -14.3863460857512 1889.37094843906 24 25 17
-521.123250978056 -13.4451214060766 1850.36982361268 17 20 11
-529.825160525492 -13.6046036132628 1841.22207914528 15 21 11
-103.708849400773 -2.50279507047776 2014.29329401055 77 60 53
-115.324700589464 -3.55051392768732 2019.90075380955 134 114 105
-124.101059193377 -3.95818075611254 2015.78328815385 109 82 71
-130.674174067521 -3.85815580044549 2003.87721971017 93 63 52
-132.908998850395 -2.74678822162547 1976.38592624134 60 30 20
-135.835588582514 -1.77133000798799 1950.82427697412 57 30 23
-144.828977333427 -2.19315137445042 1946.67976451461 53 30 24
-154.107069281496 -2.67919544037168 1943.50757900563 53 40 32
-189.520598698616 -5.95401038778926 1962.27528914521 24 24 16
-202.867526503126 -7.43542323556468 1974.7221531591 19 18 13
-208.792476406877 -7.11124268835037 1958.86563317327 20 17 12
-217.306713930622 -7.41180426455163 1952.76498215574 16 15 10
-223.121756271996 -7.03485254842756 1935.914111646 12 15 8
-245.949069483433 -10.9142066253915 1986.48711482456 11 17 7
-247.144680499324 -9.36973563779944 1951.06215093591 14 17 6
-256.686680099581 -9.92037718620287 1948.86512879425 16 19 8
-267.421466120917 -10.7771771111821 1951.5587359758 15 18 9
-288.453019469982 -14.3136968940238 1997.31578022967 15 18 9
-297.637951209012 -14.7963716703272 1994.15545195986 19 22 13
-299.962938043665 -13.4623710656218 1961.61340447541 19 22 13
-311.743422221336 -14.616703024034 1969.21621427762 17 20 11
-324.818523390199 -16.1297660225647 1982.70477109634 22 25 18
-340.90736670873 -18.4791995289395 2009.92825398221 21 24 17
-347.01899894191 -18.1230832624101 1993.04042567681 22 25 18
-356.23628836887 -18.6090885057325 1989.87606812951 22 25 18
-368.232580351965 -19.8705041862663 1999.467602591 18 21 12
-377.858991332481 -20.4750722362739 1998.26787551983 19 22 13
-382.093147429041 -19.5399211602096 1971.53522848106 21 22 14
-392.406395627875 -20.3267076221711 1973.2735696146 23 23 15
-409.977690215616 -23.2328772520612 2010.39110927914 27 24 17
-412.788337633625 -21.8394218055531 1975.77292345649 28 25 18
-418.7332986218 -21.3361208645978 1955.8822055682 28 25 18
-425.557791052916 -21.0731158550184 1939.91334882786 37 34 27
-434.758950359654 -21.5140709648428 1935.74295821935 25 22 15
-450.574692269732 -23.9877345593937 1966.02415126526 20 20 12
-457.30018633091 -23.6730689105327 1949.05982579157 24 25 17
-468.141071064006 -24.6335741474491 1953.75608005052 18 19 13
-478.769929491988 -25.5347703004626 1957.47095065231 20 23 16
-487.418205854146 -25.8036680841217 1950.3458018965 23 24 18
-496.099746964788 -26.0748940508508 1943.21650802793 22 23 17
-500.336134728201 -24.8661544037881 1910.43625887793 21 22 16
-507.798320853237 -24.6918279427102 1895.39598263334 23 24 16
-517.338990263108 -25.2026621959301 1892.19109429354 18 19 11
-527.875910445617 -26.0534985213505 1894.90961852582 17 20 11
-100.514230346329 -11.6932906215276 2005.64626173512 77 60 52
-113.854935907626 -13.0914924566847 2017.08599601674 131 111 102
-121.236316634329 -13.2031754224216 2008.10291986167 114 86 75
-127.829218491879 -13.1350758529922 1996.19470646256 90 60 49
-125.954089781281 -11.1882787400589 1954.09760300139 59 25 13
-138.20112604403 -12.3445619246111 1961.6421950001 46 17 11
-147.973671909424 -12.9545128713671 1960.4242453349 58 33 28
-156.946785257345 -13.3840456987719 1956.28228343367 67 54 46
-161.708200233766 -12.8539300874523 1936.53919447512 28 19 12
-189.152138064924 -15.8747699174707 1963.35508391929 26 26 18
-199.167602585954 -16.5442485901497 1963.11490357307 19 18 13
-212.982641700388 -18.1044571791686 1977.51917203382 17 16 11
-230.475473418056 -20.5477121255419 2006.58306673958 14 15 9
-243.087794112922 -21.8589355646893 2017.10578299366 13 16 9
-252.691348698946 -22.4598676711695 2015.90889869027 10 18 7
-257.25963697749 -20.0916459752066 1953.85908859721 17 20 9
-272.966133817659 -22.1629553847518 1977.09856497174 16 19 10
-289.008375488197 -24.3425093354119 2002.31180163088 16 19 10
-295.860090463038 -24.2499657181633 1989.36329814535 20 23 14
-304.153578596294 -24.5089673517811 1982.28239880187 19 22 13
-314.293224796511 -25.2318304294616 1983.03454900037 20 23 14
-326.885648828048 -26.5870655591488 1994.56755124181 21 24 17
-328.794519937324 -25.1852162704984 1959.05395229943 19 22 15
-343.781532703081 -27.1693677881674 1981.37529940751 18 21 14
-355.188295260485 -28.2334283684433 1988.01658236511 19 22 15
-365.487904516131 -29.010850469598 1989.75660089742 16 22 12
-374.090060428574 -29.334195508686 1983.64527845292 16 22 12
-379.813756197216 -28.8684583996157 1963.78227207894 19 22 13
-388.91994748532 -29.3107989145312 1959.62373656612 21 22 14
-400.672111366118 -30.4845826778495 1968.23781889778 23 23 15
-410.974837667353 -31.2633380743508 1969.97745195241 24 24 16
-417.32659281093 -30.924913033139 1952.05201721841 30 27 20
-425.906298953039 -31.2047612425421 1944.93545445824 19 19 11
-430.117846462449 -30.210869389843 1915.18217258242 20 20 12
-441.845439884749 -31.3842673872329 1923.79932014615 18 18 10
-452.590049895986 -32.2789073790996 1927.49972836924 22 23 15
-462.392207493772 -32.8972544821163 1926.27810544588 16 19 12
-477.069951701562 -34.9954512074724 1951.66140907019 18 21 14
-486.267168891038 -35.445919760234 1947.49153546792 23 24 18
-493.730170137857 -35.3531310283285 1933.45905932584 21 22 16
-496.78143163061 -33.8536792428964 1893.77165112313 19 20 14
-505.814889054458 -34.2077580270244 1887.60634546732 20 21 13
-511.536136541666 -33.4850181533591 1861.69660495886 16 19 10
-530.536866868738 -37.0728089244605 1914.76174943366 17 23 13
-101.608277071526 -21.8136742744281 2011.58298596853 18 4 0
-110.9677003103 -22.3569423708173 2009.40848859093 120 100 89
-118.369436565686 -22.4923900715037 2000.42317503855 100 71 57
-122.202136348776 -21.8745282327561 1978.78037897267 80 48 33
-125.874308961362 -21.2059260184541 1956.14955475873 64 28 14
-135.118956238892 -21.7017839053597 1952.98156879126 48 19 11
-148.154774210093 -23.0059299714889 1963.45141645094 81 56 51
-157.386595434192 -23.5012395150426 1960.28502965506 80 67 59
-153.934119091545 -21.245542041366 1910.32197905207 25 16 9
-181.788243578987 -24.2519093214542 1938.09456888051 24 24 16
-192.899838382075 -25.1509391975766 1941.74895086304 18 17 12
-214.388846755272 -28.3715369243307 1985.43270126847 16 15 10
-231.865664170151 -30.729533515543 2014.49836993969 14 17 10
-249.176737475907 -33.0772822933591 2043.58493577735 12 17 10
-255.759988635654 -33.0003786821745 2030.6699761762 10 18 7
-264.838849672575 -33.4876135014052 2027.52289691164 13 19 7
-274.65057229963 -34.1432043865442 2027.30786550755 18 21 10
-283.745792599035 -34.6318272911801 2024.15850809047 16 19 10
-291.914018859091 -34.8994965856393 2017.0932635142 15 18 9
-304.526314461373 -36.2202539163746 2028.62369510504 19 22 13
-310.646142690266 -35.9931145833614 2012.74311101093 18 21 12
-319.795597696486 -36.4858793553053 2009.58699633054 20 23 14
-329.405255505998 -37.0892009655905 2008.38935667361 21 24 17
-338.573665224674 -37.5835440213195 2005.23112098226 18 21 14
-342.070421175331 -36.6630325291016 1976.57492120993 18 21 14
-358.889811592776 -39.0637011075293 2007.73835972405 18 21 14
-369.562458020992 -39.9381989750522 2011.44769553329 15 21 11
-370.31621478713 -38.2758727297372 1969.02327185034 15 21 11
-375.454018060348 -37.7035958488281 1946.20979926402 18 21 12
-386.249233908915 -38.5864545221766 1949.90386115211 20 21 13
-402.685026811702 -40.9640444171867 1981.11510959136 22 22 14
-407.961544006077 -40.4011568394638 1958.28435105414 22 22 14
-416.115748261346 -40.5894084291018 1949.20527300108 28 25 18
-425.285457843885 -41.0452464608505 1945.03884632586 13 13 5
-435.238630724103 -41.7133870788417 1944.80619581569 20 20 12
-437.444967643885 -40.2256739153963 1904.2165730196 18 18 10
-446.569604604568 -40.6387064764621 1899.04797131624 20 21 13
-456.083636913434 -41.1578173995728 1895.84642892549 15 18 11
-471.030939703287 -43.2400331030369 1922.20397851385 18 21 14
-482.445222469666 -44.3268589419597 1929.85207004353 22 23 17
-488.727853639822 -43.9108287933534 1908.91175563915 20 21 15
-493.393702558932 -42.9864051853751 1878.09427547716 18 19 13
-511.406682613976 -43.678617624706 1864.76290608842 15 18 9
-515.113806068208 -42.3691584309757 1826.00183762725 15 21 11
-110.630428643932 -32.1687075490956 2010.48434440227 119 99 88
-118.309020968391 -32.3820620628024 2002.47237311224 128 99 85
-125.192592434642 -32.4316732469444 1991.53588294965 74 42 27
-123.04105051774 -30.6605506049541 1948.46580948802 66 30 14
-133.943734189486 -31.4945100590576 1951.13864415458 52 23 15
-145.636668293446 -32.4922100540598 1956.73635273857 83 60 54
-155.689333282905 -33.1591191025645 1956.49128295807 74 61 53
-184.009719461624 -34.7794137070263 1948.93034451802 19 20 12
-201.507583965749 -37.0160868658311 1976.9853800378 15 16 10
-209.197095339949 -37.1934876202662 1967.96426433378 13 14 8
-232.756691575048 -40.7608229468774 2020.46019515757 14 17 10
-252.0450708213 -43.4523579704716 2057.36288757543 13 20 12
-257.605398507436 -43.192658568575 2040.54411272861 12 20 9
-267.872482025574 -43.9504502690531 2042.28813858471 14 20 8
-277.884438260082 -44.6544138379062 2043.05617396485 18 21 10
-274.813722010913 -42.4475854578431 1990.02230909083 16 19 10
-289.890467609639 -44.2677007744954 2011.32409872142 14 17 8
-301.359916850837 -45.2916350867901 2017.95745308039 17 20 11
-312.557946734467 -46.2607033688435 2023.61684738464 16 19 10
-316.232220213845 -45.5038691715055 1996.95453997765 17 20 11
-329.239982691666 -46.8908662550601 2010.45140854556 17 20 13
-332.422737931529 -45.9895638646893 1980.82675769387 14 17 10
-346.921302512134 -47.7364800470977 2001.19282103185 13 16 9
-357.196774873138 -48.4965978307806 2002.93580613561 14 17 10
-372.151332842302 -50.3864979617128 2026.26840203221 14 20 10
-377.702670800568 -50.0145931182863 2006.42715199793 14 20 10
-369.840734267471 -46.331446440771 1922.74685279563 17 20 11
-382.754432150096 -47.7138993329022 1936.25544810194 18 19 11
-394.575450493995 -48.8379910756235 1944.86080694151 20 20 12
-404.744610726071 -49.5546743744601 1945.60901742034 20 20 12
-412.341383047269 -49.616221526617 1933.57586834221 21 18 11
-419.609876098857 -49.5814241098817 1919.56781839104 22 22 14
-429.058623742446 -50.1015718558468 1916.37442587099 22 22 14
-441.921455372583 -51.5200315565257 1930.89715090574 20 21 13
-455.630143795152 -53.1817106724433 1950.35387455157 18 19 11
-456.007012017968 -51.271723744613 1898.90592743514 14 17 10
-470.227596388229 -53.0799182618203 1921.32221663066 17 20 13
-477.370071692445 -52.9626444082971 1905.31430155421 20 23 16
-485.471907845065 -53.0957337504189 1894.22599899783 20 21 15
-493.283155834453 -53.1348647328998 1881.15809822515 18 19 13
-501.670345684856 -53.3243647468236 1871.04202086797 18 19 11
-508.098890523587 -52.9354324797285 1849.0758815635 15 18 9
-515.794338578864 -52.8921705979436 1834.00684076294 15 21 11
-108.307898790818 -41.6042109482757 2004.75242733301 99 83 70
-117.40670598701 -42.1027821456113 2001.6026484909 135 107 93
-123.734635075982 -42.0749914192032 1988.71992118051 82 50 35
-126.545515257325 -41.3682301806214 1963.17317911634 42 8 0
-131.676516596058 -41.0892478523678 1945.40024378043 47 18 10
-143.657236678755 -42.1217148692591 1951.96981703156 78 55 49
-150.780482791784 -42.2148283703659 1941.0035314518 50 37 29
-195.316994209715 -47.0516640572279 1993.90855229109 11 12 4
-200.11435336253 -46.6820274529501 1974.16140032757 13 14 8
-206.794281864897 -46.6774847934608 1961.23456652561 14 15 9
-227.366059602083 -49.4842284274757 2002.0086307272 14 17 10
-238.506319385902 -50.394590056423 2006.66715242956 11 18 10
-264.620107907927 -54.3957067635358 2070.938924026 11 19 8
-260.451118020838 -52.1594962425551 2015.01873826893 17 23 11
-267.652372596582 -52.2589828019738 2004.04273447743 20 23 12
-277.049834838166 -52.8137818354792 2001.86352042348 20 23 14
-285.983880201735 -53.2691639882753 1997.72650204901 18 21 12
-290.751223239863 -52.8285417995024 1975.96753478476 16 19 10
-310.568040084715 -55.6244391828957 2017.84323190867 17 20 11
-314.027170322861 -54.8905288907808 1990.20014637737 17 20 11
-322.345022496657 -55.2021301974366 1983.11634506504 17 20 13
-329.810107952609 -55.319379853223 1972.10746351792 16 19 12
-340.17686568441 -56.0772953346371 1973.83905094739 12 15 8
-355.718613321453 -58.0063070664872 1999.114086509 14 17 10
-370.474950398392 -59.7804417891088 2021.46366750755 10 16 6
-368.657446253148 -57.764585915901 1967.26598472424 13 19 9
-362.138219251314 -54.6077811156225 1889.46611253969 15 18 9
-379.46060639569 -56.9666141570478 1923.5899714269 17 18 10
-392.5349422723 -58.3538781962165 1938.08597956068 21 21 13
-400.723521385954 -58.5886335282693 1929.00273419447 18 18 10
-403.037281112872 -57.3973166031137 1890.41586041245 14 14 6
-410.033639851685 -57.3109273211382 1874.42626115295 19 19 11
-429.009476955566 -60.162149922313 1919.43035483702 21 21 13
-451.326319528092 -63.8928995286393 1983.16732347158 19 20 12
-461.352215478974 -64.596422318653 1983.93361809675 17 18 10
-465.487593766474 -63.8025601599327 1953.1826813624 18 21 14
-471.777973713701 -63.5319344222995 1933.24946997199 17 20 13
-481.382465678371 -64.1039661120222 1931.04470548287 21 24 17
-483.967416941829 -62.8259074794543 1889.40045860584 19 22 15
-487.467016803965 -61.7465433496376 1851.67382117619 14 17 10
-494.572350944471 -61.5986227662941 1833.6548459252 14 17 8
-504.283245487473 -62.1431002843688 1830.42880309349 16 19 10
-524.553270280024 -65.6056848468262 1890.38950762172 16 22 12
-103.71277822877 -50.6703233678124 1991.2411660478 65 51 40
-114.536273888196 -51.4783527581921 1993.9235743555 88 64 52
-122.276272740012 -51.7352448946807 1985.90405454867 134 106 94
-131.159076280314 -52.1940813958666 1981.77343994771 115 85 74
-136.782237621846 -52.0581973765539 1965.95483699376 101 76 69
-145.73309261052 -52.5215184510541 1961.81574178433 72 53 46
-205.657943730958 -57.6784059567816 1997.68472383216 13 14 8
-206.932100170823 -56.6850854475263 1964.26702383925 14 13 8
-206.373551036611 -55.3166989194066 1923.0150696211 14 15 9
-249.739156234867 -61.1609743807124 2014.36361837852 11 19 8
-253.994343611359 -60.7130697108724 1991.66061856792 17 23 11
-262.462497742908 -61.0825686649801 1985.56614029816 20 23 12
-280.480764935173 -63.3524558907949 2018.59499586682 21 24 15
-282.779058051936 -62.489507982896 1987.06544746799 20 23 14
-300.367646250986 -64.7001804618239 2019.14008139664 19 22 13
-305.127505216433 -64.31728077101 1997.38220011056 19 22 13
-314.319623214384 -64.8305755642227 1994.22081540611 18 21 12
-325.320195797698 -65.7177024867549 1998.89694832623 18 21 14
-331.853106218965 -65.6742267761625 1983.97298478644 19 22 15
-332.984966032186 -64.4789891929595 1944.52590770322 18 21 14
-348.179815469979 -66.2477146258492 1967.82843780461 15 18 11
-360.889844818785 -67.5029368131043 1980.35418731541 11 17 7
-370.360229376485 -68.0672612020025 1978.16613834094 13 21 10
-374.421359873231 -67.4468795948378 1950.44798544137 16 22 12
-383.97528177752 -68.0168244031266 1948.2495263011 17 20 11
-394.753103903704 -68.8588448081395 1951.94565127678 14 15 7
-400.500384595871 -68.5725128042913 1931.07248700255 11 12 4
-427.4251290049 -69.8505195775278 1914.61491031164 20 20 12
-452.228656393989 -73.9794081044691 1991.14349721836 20 21 13
-452.341032134994 -72.3326685691561 1939.72925045264 18 19 11
-461.74366768223 -72.8621491165477 1936.54187729594 17 20 13
-465.539735380088 -72.0322659105441 1902.80988809374 17 20 13
-479.512771621023 -73.6616238753004 1924.24891177442 22 25 18
-486.329363766478 -73.5418497918701 1906.26580367145 19 22 15
-487.699490859316 -72.0404998284401 1856.71059431616 14 17 10
-488.824689102364 -70.4266178332248 1804.16259298963 14 17 8
-102.522270661038 -60.384633497358 1989.39970217889 40 27 18
-111.100859511788 -60.8032070701632 1984.29925864351 74 52 41
-120.538825118775 -61.3651850093113 1982.1150089144 84 57 46
-130.535912938476 -62.0219218058977 1981.87708831659 115 86 78
-139.436106379859 -62.4907946113301 1977.74432998903 115 92 84
-148.895391581758 -63.0544417686567 1975.55766436509 87 70 62
-201.954365009335 -66.8913779408429 1986.07820461056 13 14 8
-214.958402924497 -68.0952065070364 1997.55944114897 14 13 8
-202.470394895724 -64.6910992924199 1910.42595423053 14 13 8
-227.313714144691 -68.0380797751196 1967.80001974328 13 16 9
-247.647233758554 -70.5958201899286 2008.60292114024 12 18 8
-250.453196698041 -69.9390322403856 1980.03386302708 17 20 9
-272.007321430313 -71.5623235693446 1986.41797498831 18 21 12
-287.813717995421 -73.3301682318297 2010.65187240236 18 21 12
-296.729521154331 -73.8019913676546 2006.51717384393 17 20 11
-305.432811167439 -74.2308532162535 2001.40119543452 17 20 11
-314.613931749112 -74.7494320568159 1998.24143732669 19 22 13
-325.155453920683 -75.5322269407636 2000.95896780449 18 21 14
-332.346663290693 -75.6581925682847 1988.97660022877 20 23 16
-333.239131597801 -74.5254404393623 1948.55163497653 19 22 15
-346.911488726861 -75.9221199443601 1964.98889312263 16 19 12
-360.915483972381 -77.3993101607941 1983.40035101091 12 18 8
-370.377761857124 -77.9662833842868 1981.21332067691 13 21 10
-388.910456475634 -79.0165743798816 1974.87208692639 16 19 10
-397.991704158813 -79.5005945722842 1970.71677398995 14 15 7
-404.686060433763 -79.4777260279605 1954.76503013212 12 13 5
-405.3355607589 -78.1527361088883 1908.32351673835 15 15 7
-414.032805207029 -78.5239370714404 1901.19252646669 15 16 8
-429.491811780259 -80.3616650017605 1928.49326169639 16 17 9
-435.31844836693 -80.1065369435817 1906.60258935195 18 19 11
-450.413826804185 -81.891918087154 1932.94063800294 18 21 12
-463.517462887394 -83.2548004767653 1949.44878016982 15 20 13
-464.551766479577 -81.8958396110788 1900.94354167686 17 22 15
-469.77828826678 -81.4551170836172 1874.08835532668 20 23 16
-485.881620367268 -83.5127393561016 1907.35586475035 14 17 10
-486.54770568344 -81.9827157679591 1853.85745147405 12 15 8
-493.471576943088 -81.8873394344188 1834.85333272427 16 19 10
-504.47623522141 -80.9535602845488 1778.05068238669 15 21 11
-107.381038823159 -70.1383784652111 1973.70253496062 73 56 48
-118.521669297123 -70.9728892901948 1977.3533638232 89 69 60
-128.53249420955 -71.6283985150411 1977.11348541592 80 57 51
-139.086576544411 -72.3722087729762 1978.82165869678 85 66 59
-146.106025209344 -72.5426642526557 1967.86853010224 99 85 76
-210.522095201223 -77.2122490377091 1983.02056771608 14 13 8
-222.744676913034 -78.2510185606878 1991.57558912831 13 12 7
-227.190002992697 -77.9633899425061 1969.85721057986 13 14 8
-245.800207660489 -80.1064596398032 2003.81978924855 13 16 7
-261.467048795838 -80.6873378513478 1986.74968200178 17 20 9
-273.773721617519 -81.7590484795029 1996.30222345681 17 20 11
-287.436476626036 -83.0782465163142 2011.73254847917 19 22 13
-294.95122586772 -83.3086034661318 2001.72545414742 18 21 12
-304.12802952865 -83.8327327116981 1998.56600911383 17 20 11
-312.634306265674 -84.2337897938417 1992.46685647549 19 22 13
-318.245590497097 -84.1017656373834 1973.62644431616 16 19 12
-331.287174678781 -85.3285625779716 1987.118670254 16 19 12
-331.080978694555 -84.1017196166809 1941.79188826553 19 22 15
-346.292789651937 -85.7354037890428 1965.0919460432 18 21 14
-358.159817945059 -86.7537471702599 1973.69128462856 14 20 10
-366.16954699886 -87.0434476559375 1964.63026311983 12 20 9
-384.447513480224 -89.3025180218728 2003.67352466209 13 19 9
-391.795881665902 -89.4699393021612 1991.67165376727 14 17 8
-402.456618422114 -90.2779268254496 1995.38206041181 14 15 7
-401.059736006087 -88.7074052238298 1940.12537219715 15 16 8
-407.083274031945 -88.5759959447781 1920.2260679913 17 17 9
-415.551983406009 -88.9226122171375 1912.11560543596 16 17 9
-428.677545312105 -90.210392409323 1927.61312651261 16 17 9
-437.728220942047 -90.6749441570157 1922.45365015128 17 18 10
-449.606452678441 -91.7225557663418 1932.05959505693 17 20 11
-464.927404893094 -93.4998389458503 1960.3850865735 16 21 14
-462.837116945569 -91.6172586291369 1895.13651768614 17 22 15
-474.514745339098 -92.6257458708273 1903.75946630345 11 16 9
-472.751065666188 -90.7372816858802 1837.46243604115 10 13 6
-485.91542550981 -92.0556426212795 1853.96288299607 11 14 7
-492.836376945592 -92.0096646283123 1834.95925871181 18 21 12
-495.318789342688 -90.9559528397857 1789.29741022702 12 18 8
-95.2062381642447 -78.2742221946223 1933.92524931029 48 33 26
-115.666434268298 -80.4828996777487 1969.67274722567 78 59 52
-125.698994746778 -81.1376883756244 1969.43015445077 70 50 43
-137.096153984854 -81.9997716625296 1974.05672974945 62 45 37
-150.141344244255 -82.2371953404219 1948.24297986772 13 9 0
-180.012191079178 -85.0625801475823 1983.82539538206 17 20 11
-190.239611237096 -85.7545148095778 1984.56651046067 7 10 1
-188.099768520716 -84.5035493047314 1938.47328552871 14 15 9
-194.616950112707 -84.5982639469337 1924.55933587139 14 13 8
-224.395537051737 -88.3893131356815 2000.46617507065 13 12 7
-232.605485358489 -87.8146521580635 1954.09082552844 13 14 6
-247.751284964375 -89.3020996883497 1974.37543446021 19 22 11
-262.056064568903 -90.6639548826368 1991.74136540983 18 21 10
-274.828282481735 -91.783886746658 2003.25131077505 18 21 12
-281.399397137713 -91.8828285536253 1989.33064172228 20 23 14
-289.907524240165 -92.2979212893474 1983.23105486292 18 21 12
-297.752730960989 -92.5986307782063 1974.19083402927 17 20 11
-306.553555202014 -93.0566842303746 1969.06276079988 16 19 10
-317.852888886321 -93.9389872691308 1974.70928449552 16 19 12
-329.115702304477 -94.8191354586325 1980.36036002976 16 19 12
-335.070719280488 -94.7831017268718 1962.48523221034 17 20 13
-343.288232237899 -95.1321918990074 1954.40612399766 19 22 15
-351.116497547116 -95.4084460145317 1944.36026585147 13 19 9
-362.59055635748 -96.3267044179738 1950.99276666972 10 18 7
-371.516732562548 -96.7936393425765 1945.84907364533 13 19 9
-379.229056687968 -97.0387828670898 1934.80967497787 14 17 8
-391.878413402887 -98.1769812355876 1947.34268789662 13 14 6
-407.463609108938 -99.8639318981871 1974.627278402 15 16 8
-409.231392097142 -99.0077402443196 1934.09404763328 14 15 7
-415.903623526967 -99.0425276372045 1917.13728929325 15 16 8
-427.477976504837 -99.9923928817219 1924.76528459474 16 17 9
-443.94126830405 -101.880658628364 1957.98718691295 16 19 10
-453.103737890614 -102.387934015877 1953.82179920487 16 19 10
-457.856477639849 -102.035836354391 1926.0182843443 14 19 12
-476.932596208773 -104.476904433076 1975.0400122973 14 19 12
-477.82945583143 -103.34900719073 1925.5448473988 8 13 6
-477.229303024616 -101.884642264915 1866.15802293745 11 14 7
-487.887650150289 -102.656738953046 1868.86094617832 16 19 12
-485.36497078723 -100.73247484928 1795.60425008755 15 18 9
-488.789207814403 -99.9829211505254 1754.86458447488 12 18 8
-122.310302360255 -90.6131822668314 1959.80040481462 73 69 57
-131.544912031364 -91.1511767207938 1956.63378244624 47 48 34
-193.07097701524 -97.6281970410198 2070.91177910174 69 75 61
-181.233716705421 -95.1398307018261 1990.75378451097 15 18 7
-196.649264100195 -96.5839417378802 2011.00461638831 9 12 1
-211.168217154772 -96.2723856869791 1951.74966724495 10 11 5
-223.45271442423 -97.2615437104405 1960.29683131151 11 12 6
-234.203806201543 -98.0251482515718 1962.9881582044 14 15 9
-244.202388287926 -98.6769362201649 1962.74979782963 20 23 16
-257.335733887258 -99.8059510856986 1975.22262788123 18 21 12
-264.187901897378 -99.9801183135929 1962.2747702331 18 21 12
-274.17480389633 -100.63151306146 1962.03786642866 19 22 13
-283.22442832108 -101.137945047431 1957.88655890857 18 21 12
-294.367384805738 -101.969956215557 1962.5447780142 16 19 10
