ply
format ascii 1.0
comment KinectMotionCapture
element vertex 785
property float x
property float y
property float z
property uchar red
property uchar green
property uchar blue
end_header
-857.548636239542 -250.618600265702 2396.53461818652 14 17 8
-866.38238673411 -251.123614081033 2400.47246431374 13 16 9
-873.164467186209 -251.786331748263 2379.47266243567 12 15 8
-879.506626823592 -252.501775834246 2351.47336843407 12 15 8
-884.785834354804 -253.334076319355 2307.48307766234 11 14 7
-913.950161869552 -254.638010459758 2352.21956061471 11 14 5
-925.63209571336 -254.816847341816 2400.14246713697 10 13 4
-932.770050821591 -255.502203373274 2379.09831382305 10 13 6
-941.497801787064 -256.000430520908 2383.04912992366 10 13 6
-947.538371708694 -256.869661821124 2339.97160998091 10 13 6
-955.798884150492 -257.453472027417 2333.90360854752 13 16 9
-964.597234915105 -257.956183723225 2337.84562602047 15 18 11
-973.173809923908 -258.490904047896 2337.78465569743 14 17 10
-979.685241349111 -259.413181361597 2292.63290025241 11 14 7
-987.725229463723 -260.086748263584 2277.52275063244 14 17 10
-998.219950534608 -260.23607326964 2321.56274791005 17 20 13
-1007.34109691695 -260.643970732453 2335.54182449649 15 18 11
-1023.66135801122 -261.937169450248 2311.33800021644 15 18 11
-1032.55842690792 -262.376924647006 2321.31413558306 12 15 8
-1040.26888770493 -263.225579205158 2289.11368809831 12 15 8
-716.614523899274 -250.786744534329 2369.78144920055 12 15 8
-718.537276208841 -251.651811115667 2317.14020579572 14 15 10
-736.305598727207 -251.741342304701 2388.48950404819 14 15 10
-735.043149280748 -252.803294508041 2308.02911258377 15 16 11
-746.361187444943 -253.21014239761 2328.78831752454 15 16 11
-752.206681469129 -253.925208399711 2303.87454529159 16 17 12
-769.662167494018 -253.937624843591 2379.29390954029 14 15 10
-798.232737689482 -254.2296475106 2483.55944842493 14 15 10
-802.848813506008 -255.009126713382 2448.72167815779 15 16 11
-810.219449724818 -255.607078949487 2438.73353632841 15 16 11
-815.7365970135 -256.358244971993 2409.8298462335 12 15 8
-818.288558548298 -257.37744467796 2349.04826954955 12 15 6
-826.562554492909 -257.947215511291 2344.99392267891 12 15 6
-838.623395401577 -258.17275359353 2381.78438793917 13 16 7
-847.532073796252 -258.668692600509 2385.71261934051 13 16 7
-855.98045724368 -259.206687554709 2384.65972782316 13 16 9
-865.350652583142 -259.646318062959 2394.57705974719 12 15 8
-873.60596486277 -260.200541520193 2391.53269064222 12 15 8
-878.813100975955 -261.117444170306 2349.5672312193 11 14 7
-886.134653998827 -261.812051170316 2332.53117899465 10 13 6
-887.994038547161 -263.243864609826 2239.5889688669 9 12 5
-903.074570458889 -262.933445760428 2327.39682915761 8 11 4
-912.873637248622 -263.300358348776 2344.31449891615 10 13 4
-920.303769954893 -264.01609124488 2326.25726512503 10 13 4
-938.827267573351 -264.867005812302 2347.12636812487 10 13 6
-947.228228836711 -265.430359869001 2344.06408720165 11 14 7
-956.287695233022 -265.864314961549 2353.01225394784 11 14 7
-964.624779712256 -266.437851077307 2348.9500439168 12 15 8
-972.588212628791 -267.101793766267 2336.87248388251 10 13 6
-980.426587354314 -267.814857405198 2320.77991133662 7 10 3
-988.690900650409 -268.440818096215 2312.69593211576 10 13 6
-998.936558159319 -268.507673348125 2352.73556494205 13 16 9
-1008.46784686578 -268.714619467067 2379.76406261316 15 18 11
-1016.12682664441 -269.501860814518 2357.64722944506 17 20 13
-1025.77711032781 -269.587876144327 2393.73046346957 16 19 12
-1047.79107206013 -272.773228060728 2265.02162221531 17 20 13
-713.085272303968 -259.591824512446 2347.06658166005 6 9 2
-724.99794593133 -259.908179042499 2371.78257022967 16 17 12
-740.350527799508 -261.12455958394 2355.76104135252 15 16 11
-748.441520322536 -261.708058177619 2350.72188128037 15 16 11
-754.456319563656 -262.465674639332 2327.80246700878 15 16 11
-786.734336005765 -262.223654120776 2459.82133330436 13 14 9
-793.380216855062 -262.90223078394 2443.87748612406 14 15 10
-804.134616649608 -264.557265080882 2385.09750991742 15 16 11
-814.907510530542 -264.851805787561 2406.93237725185 12 15 6
-820.28678804254 -265.721938084373 2375.02266395138 12 15 6
-826.687501955718 -266.503904369471 2352.05515393462 13 16 7
-839.104411095413 -266.579670117859 2392.8317782261 13 16 7
-848.699602164595 -266.969305883692 2404.73627455023 13 16 7
-852.239941106568 -268.147718482115 2347.86300242082 13 16 9
-865.74493673302 -268.003359030297 2405.63514227254 12 15 8
-873.319661703592 -268.655709233174 2394.61398753043 11 14 7
-878.354459489102 -269.707935216657 2350.654776816 10 13 6
-882.255796574825 -270.994308549568 2288.69782253476 9 12 5
-892.560573009481 -271.275784693226 2309.58338665575 8 10 5
-901.124790018279 -271.837849860796 2307.5084160846 8 10 5
-909.625948564221 -272.412890841074 2304.43342164123 9 12 5
-920.86924680026 -272.447719428205 2343.34078336348 9 12 5
-930.835320560886 -272.690519526295 2365.276200822 11 14 7
-938.64860980946 -273.374852842673 2353.21767179656 11 14 7
-946.634536352906 -274.036117305272 2343.15291210273 11 14 7
-954.451514245513 -274.754665370336 2329.07839839452 12 15 8
-963.728687204967 -275.106667829674 2342.03040975961 12 15 8
-972.197141885719 -275.662431462502 2339.96713289725 12 15 8
-980.117042618096 -276.387450452519 2325.87979206806 11 14 7
-989.104185249357 -276.788991826696 2334.83689903218 16 19 12
-997.1819823542 -277.489974249228 2322.74540483487 19 22 15
-1006.72328457718 -277.654476823193 2347.75692663963 16 19 12
-1015.69965187644 -277.987199295045 2360.74618573086 17 20 13
-1024.50155302869 -278.359840344977 2370.73426099539 19 22 15
-1031.36185072857 -279.680891188376 2317.47804193464 20 23 16
-1039.64271912742 -280.377655686989 2306.36888163081 21 24 17
-1047.14533657353 -281.603394674801 2261.09423118573 19 22 15
-714.183775264537 -266.841098812171 2424.54601843253 10 13 4
-722.314885125386 -267.39873311246 2421.51739830622 18 19 13
-727.905674361046 -268.189819487154 2398.65098611841 17 18 12
-733.740647477293 -268.976664338647 2376.7617771542 15 16 10
-744.941468372095 -269.255348426784 2397.53551287114 13 14 8
-749.693353740046 -270.170765035045 2365.70445392451 12 13 7
-786.016605973682 -272.088827022886 2381.33176151087 14 15 9
-791.217873392087 -273.032670922101 2349.44445693459 15 16 10
-802.054453230753 -273.287878281946 2370.26358595683 14 15 9
-812.470114077772 -273.575529262417 2388.11202705659 13 14 8
-819.94807859742 -274.249202408207 2377.10300359992 13 16 7
-827.289866164425 -274.953691299987 2364.09544090891 13 16 7
-840.789185941527 -274.745890724268 2416.82944624343 13 16 9
-847.6333456157 -275.517431171488 2398.84524512095 13 16 9
-860.82568276531 -275.270257939471 2452.62514348422 12 15 8
-863.027967715409 -276.833068626793 2379.79566996642 11 14 7
-872.626825644073 -277.167262447774 2392.70724978197 10 13 6
-879.313734342766 -278.02742329305 2369.70447053927 9 12 5
-889.37621762282 -280.524871996805 2273.72575403343 8 10 5
-898.461585113203 -281.004053968055 2277.63213181988 8 10 5
-908.198431975311 -281.327076802183 2291.53414911212 9 12 5
-919.222854157203 -281.317063587634 2326.43771852115 10 13 6
-930.364059972068 -281.215654734472 2366.36538936449 11 14 7
-937.813977806075 -282.025308904354 2348.30593384474 11 14 7
-943.242677542237 -283.437363384082 2293.21299493605 11 14 7
-953.096322669948 -283.629326944715 2314.15462184888 9 12 5
-962.67484737259 -283.863022331456 2332.10739050022 10 13 6
-971.757858196265 -284.223224113166 2342.06011191254 12 15 8
-980.872929576566 -284.545915748387 2354.02434804043 14 17 10
-988.174405185907 -285.543466237472 2325.90632026285 20 23 16
-997.255066571825 -285.86390043741 2337.87484460973 22 25 18
-1005.73035946552 -286.422384077504 2335.81072154187 17 20 13
-1013.78471276539 -287.19112617579 2321.70671697039 16 19 12
-1021.54837073964 -288.15865273028 2296.55423406242 16 19 12
-1031.03216568139 -288.188501232331 2324.59587939251 19 22 15
-1039.12851008602 -289.019074333678 2307.46349584584 21 24 17
-1046.6701037996 -290.327960785825 2264.19981482401 17 20 13
-1054.10897305111 -291.926587878334 2205.83344868157 18 21 14
-704.46855615976 -276.265345225172 2356.2477833397 19 22 11
-721.004240372111 -275.945826223859 2415.65686436184 17 18 12
-727.50161553246 -276.697475196923 2399.73150197814 16 17 11
-735.455613549801 -277.294263413762 2394.70947300815 15 16 10
-740.618216210654 -278.230885634173 2366.85820347724 13 14 8
-754.29899574493 -278.13445692554 2408.48433784561 13 14 8
-761.434691601311 -278.836525996988 2396.51017490737 14 15 9
-778.782804755888 -279.851262910263 2398.37913415046 14 15 9
-795.34456073993 -280.9732672331 2393.29197811088 15 16 10
-803.275649635455 -281.590693387221 2387.26493504619 14 15 9
-808.818724500697 -282.596141786009 2357.35075161967 13 14 8
-818.435062677411 -282.960672474007 2367.23716860009 13 16 7
-828.276981171463 -283.272005267959 2380.11835569034 13 16 9
-840.1698323252 -283.196261414663 2415.92106429668 12 15 8
-851.861661676671 -283.107673992453 2451.74882541243 12 15 8
-855.662461526059 -286.747054088283 2299.11252831893 10 13 6
-869.728717977014 -286.156867351533 2363.86774229243 8 10 5
-881.693828544989 -288.402829784094 2295.86832803719 7 9 4
-888.752388595569 -289.346682795349 2272.81914903455 8 10 5
-918.616644121126 -289.985700800735 2325.52851139915 11 14 7
-927.260328267993 -290.512705437243 2325.4589056647 11 14 7
-934.638438303859 -291.431629698166 2304.38539752921 11 14 7
-944.070985257128 -291.716229963959 2317.31760136841 10 13 6
-951.844794118249 -292.547725659451 2301.2333981473 13 16 9
-961.565449694592 -292.693069640785 2321.18357123197 14 17 10
-970.729237120177 -293.005424939242 2332.13401356684 20 23 16
-979.502123661018 -293.450374857267 2336.07905671079 22 25 16
-988.509307272895 -293.775184407253 2346.04138797542 23 26 17
-995.97927241007 -294.812093310985 2319.91781154624 22 25 16
-1004.88619293639 -295.175435646956 2327.87714206079 15 18 9
-1012.88876265091 -296.021145159849 2311.76418800044 16 19 10
-1020.51084401992 -297.15755384433 2281.59114200119 17 20 11
-1030.13076315687 -297.048692472954 2312.63849584355 20 23 14
-1039.27399908626 -297.156939195993 2332.66087006092 19 22 13
-701.262762163265 -285.245299166192 2336.5163122908 7 10 0
-712.507858259542 -285.456801664011 2355.2687313389 10 13 2
-719.935424905661 -286.157359030815 2345.27375513573 15 16 10
-730.291250630952 -286.463590419589 2358.09103647608 14 15 9
-738.366500321767 -287.079023531094 2353.05368484599 14 15 9
-747.900668140925 -287.484297349411 2359.92716193352 15 16 10
-763.946518068322 -286.89020843235 2422.41970960302 17 18 12
-769.582882482077 -287.855120317599 2397.53269346933 16 17 11
-783.315117369563 -289.461643469179 2366.59813419481 14 15 9
-792.901058467657 -289.819392894658 2375.4803993258 15 16 10
-802.018564164908 -290.248257558325 2380.39032104338 14 15 9
-810.397721407342 -290.806773152862 2378.33843548934 13 14 8
-817.016580705461 -291.707617736106 2358.36731684328 13 16 7
-828.983351317371 -291.560263144938 2393.15292505572 13 16 9
-827.133975701372 -294.244598993298 2281.52934826561 12 15 8
-835.690099923177 -294.839368604451 2278.44778665423 12 15 8
-861.962282914989 -293.885233467176 2379.97356739842 10 13 6
-866.738713027474 -295.324795681587 2334.03224528192 9 12 5
-891.149172813275 -297.331059955478 2312.85143825946 8 10 5
-909.084086184239 -298.21860775375 2320.69319621456 10 13 6
-917.485384429432 -298.828209356778 2316.62306766234 11 14 7
-925.273651764012 -299.6511723082 2302.55241183492 11 14 7
-936.980706126095 -299.107909583523 2352.48589630653 10 13 6
-943.988282943286 -300.209223985286 2325.41250571747 8 11 4
-951.847279156465 -301.036502407726 2311.33303470879 13 16 9
-960.868149682422 -301.40756702836 2318.27023790648 14 17 10
-970.387255688112 -301.532634794594 2336.23013559295 19 22 15
-979.24335432987 -301.918361871446 2342.18025286253 20 23 14
-987.05090208664 -302.817839615965 2325.08409088808 17 20 11
-1005.46293373637 -303.128749981573 2357.05120125507 14 17 8
-1011.55968981374 -305.181147187636 2289.78361319976 16 19 10
-1019.53396695914 -306.191923865101 2268.63594882357 19 22 13
-1028.86043077637 -306.253900303069 2288.63509516389 22 25 16
-1038.23814294979 -306.167680148758 2314.67405886852 19 22 13
-1050.07558154636 -312.898842286586 2074.37540116892 9 12 3
-1061.10853878543 -311.226890659173 2167.7237053301 16 19 10
-692.768489139188 -293.297713844847 2342.63646912247 12 15 4
-708.729775677616 -292.775068047733 2396.06985325595 19 22 11
-715.238125770713 -293.609822843139 2380.1435803905 16 17 9
-718.754141582792 -294.925761291514 2340.40558782631 16 17 11
-724.863550530271 -295.874930358592 2319.49048573478 15 16 10
-735.374139089688 -296.124558799889 2333.29575135599 15 16 10
-747.362591241549 -296.104316849262 2360.01701126402 15 16 10
-759.55079992036 -296.012737357961 2389.73621616815 17 18 12
-767.54641832813 -298.761145304724 2308.12491378982 15 16 10
-778.524010773162 -298.872172984646 2327.91813821347 15 16 10
-789.919448566999 -298.869770473553 2352.69783532192 15 16 10
-806.149894792498 -297.831569114656 2425.24400896732 14 15 9
-810.267461759161 -299.269029534121 2382.40796483584 14 15 9
-812.74571463901 -301.133875410061 2320.63012643716 11 14 7
-831.503521975064 -301.87928784312 2334.41542090853 12 15 8
-834.328322685635 -303.849893253787 2269.57155260873 11 14 7
-844.579567222168 -304.026034652725 2285.42460377038 11 13 8
-856.85560399435 -303.63128732216 2326.21756902105 9 11 6
-866.443834017821 -303.905038666834 2337.11470149811 8 10 5
-867.325354749169 -306.67519610782 2239.25937171524 8 10 5
-876.1589594458 -307.236603676983 2238.15846851968 8 10 5
-891.122111143706 -305.865149102256 2319.93157984068 8 10 7
-901.081365484738 -305.966317199556 2337.83648667811 8 10 7
-909.431323622135 -306.580710639011 2333.77277768694 11 13 8
-917.7311212598 -307.219818891151 2328.70770641698 10 12 7
-928.131535271033 -307.069021347965 2356.63448738127 10 12 7
-934.936255197402 -308.284491794838 2327.57109829367 11 13 8
-943.619965362552 -308.779899986323 2328.50434170759 14 17 10
-951.194091183925 -309.764327159066 2309.42191865687 16 19 12
-960.273902648938 -310.088920123429 2317.3595713593 18 21 14
-968.858771016769 -310.633798688284 2316.28966545852 19 22 13
-976.132978911392 -311.878720327695 2287.16800487547 18 21 12
-986.113841223492 -311.672836692462 2316.15468544237 17 20 11
-992.622297409545 -313.484459786436 2264.95904022343 17 20 11
-1010.83390102147 -314.024301836785 2284.85855945479 21 24 15
-1019.51634555279 -314.547004728696 2284.78410532502 19 22 13
-1028.80311306934 -314.548508056203 2304.78828654394 16 19 10
-1037.80813650151 -314.699927786137 2318.78117916307 19 22 13
-1053.28377232732 -317.695028589915 2244.29904181226 20 23 14
-696.033862231352 -303.332459423098 2305.97601751951 3 6 0
-713.131634108236 -302.454665397629 2368.33654442131 17 18 10
-718.981838648279 -303.473009469051 2346.44628457915 16 17 9
-727.205517672095 -304.089178772196 2342.39833915148 15 16 8
-734.708548560457 -304.843777126579 2332.39408777203 15 16 8
-749.106578270093 -304.285450463793 2378.96841319549 15 16 8
-755.730811438801 -305.199067843749 2362.01995912217 17 18 10
-761.524202950642 -306.305568680334 2337.1134795357 15 16 8
-766.21591340133 -307.679900504409 2301.26014993838 15 16 8
-776.014095958345 -307.996241442636 2310.11581954226 15 16 8
-789.380634411315 -307.494748472184 2352.78778971569 15 16 8
-797.523978489067 -308.135822975151 2347.74224810312 14 15 7
-805.385340478381 -308.851065511082 2339.70878994368 14 15 7
-814.662223080437 -309.22606727605 2345.60636761794 11 14 7
-820.359585651962 -310.510219126811 2314.66597685523 11 14 7
-829.102151983705 -311.035438234241 2314.58402650657 11 13 8
-834.407934628797 -312.509595423406 2276.63871275116 10 12 7
-842.103274681856 -313.367472025154 2263.58743274115 10 12 7
-854.021702904203 -312.988241859131 2299.38639052887 9 11 6
-858.591329179267 -314.81474907537 2248.43273901738 9 11 6
-868.595518236799 -314.989584791943 2262.30124360738 8 10 5
-879.361928240653 -314.874834549879 2287.15914380151 7 9 6
-890.504998619112 -314.568889619561 2319.02382572809 8 10 7
-899.115095636262 -315.115715064142 2317.95077656807 8 10 7
-908.341997611881 -315.425155113047 2325.8700333397 10 12 9
-916.860403708172 -315.996717250847 2323.80056444079 9 11 6
-923.930062801196 -317.18271455712 2298.73526382528 11 13 8
-934.213636817385 -317.006077033953 2324.6609432164 12 14 9
-942.385772228252 -317.739706683688 2316.58875079304 15 18 11
-951.200754821586 -318.176175441994 2319.52083116548 18 21 14
-959.626661127318 -318.802891152882 2315.44767674217 19 22 15
-967.918965545429 -319.513180271602 2308.36835383761 19 22 13
-976.57144548156 -320.031241956527 2308.29762688972 18 21 10
-983.580677108711 -321.581424619908 2271.1476200806 18 21 10
-993.898847719736 -321.037858769613 2309.1612219818 19 22 11
-1002.9176591582 -321.271786541962 2319.12162255975 18 21 12
-1019.63755875172 -322.700107682566 2304.94563311712 21 24 15
-1062.90073719547 -324.949614474311 2315.67676312747 29 32 23
-679.259420511036 -312.923253358876 2252.66775072204 32 35 26
-689.597230833029 -313.213915888471 2262.46369744612 15 18 9
-705.12051772299 -312.49556442739 2311.92047756963 13 16 7
-721.523037791662 -311.531785944362 2370.33655268829 17 18 10
-728.675436670081 -312.355798040031 2358.36086671299 16 17 9
-742.160000344352 -311.8755532209 2396.9871753313 15 16 8
-750.375902165538 -312.465787752897 2393.94781925244 15 16 8
-759.190446682205 -312.926645179367 2395.87233142275 17 18 10
-759.833782945657 -315.244021169516 2327.27038126701 15 16 8
-768.58378643142 -315.767524237163 2327.1877385551 15 16 8
-772.622495190103 -317.430466202427 2284.3621292594 15 16 8
-783.932475999628 -317.34680383405 2307.13666243421 15 16 8
-796.568282971696 -316.878775304668 2343.85354884594 14 15 7
-813.826627962281 -317.94298224379 2342.71029907069 11 14 7
-825.087960984119 -317.721932250587 2369.52177032663 11 13 8
-831.16596286084 -318.978478587909 2342.56479399233 11 13 8
-836.20852225335 -320.604161916399 2302.63711351625 11 13 8
-843.217029793901 -321.685394441907 2282.61784411834 10 12 7
-854.75004394547 -321.31389416473 2314.43369072969 9 11 6
-866.210912451994 -324.484665762262 2239.44534812986 7 9 6
-875.505853525234 -324.87419339136 2244.33302336883 7 9 6
-881.131825605 -326.67019471245 2200.30199630334 7 9 6
-894.92557340825 -325.270635230832 2267.10446048709 7 9 6
-904.979913714732 -325.273089461482 2284.99724119871 6 8 5
-916.648470307644 -324.507998127188 2328.88834265993 7 9 6
-924.334047209504 -325.46405099158 2313.82316538078 10 12 7
-932.701220169275 -326.128688914299 2308.74951303168 12 14 9
-943.233306453541 -325.692684725152 2340.69009965469 15 18 11
-951.818222953798 -326.203662645613 2340.62802583806 17 20 13
-958.400609004835 -327.858862967749 2302.5236360267 18 21 14
-967.972638079173 -327.830083566116 2320.47652407604 18 21 12
-974.755159016259 -329.531219398401 2281.33983275416 17 20 9
-983.074750484966 -330.326111737985 2272.24147265271 19 22 11
-993.772163750993 -329.398249392636 2319.27663997144 20 23 12
-1002.60976667722 -329.723997955354 2325.22890744569 19 22 13
-1010.86405806389 -330.514473981726 2316.13892504696 19 22 13
-1028.33321254876 -331.252859692213 2325.04610124265 22 25 16
-1053.24655595104 -333.833533245393 2291.71108401974 20 23 14
-684.444502657613 -320.701003216463 2294.36714716915 10 13 4
-689.041941170093 -322.117258311785 2262.55644094859 9 12 3
-733.67524324338 -319.744939743926 2402.09773526696 16 17 9
-750.566313257118 -320.8208186813 2399.99266287711 16 17 9
-755.008674172275 -322.335187557448 2365.17850650846 16 17 9
-763.661250900463 -322.849798986707 2365.10775839537 15 16 8
-770.06195115877 -323.945336541346 2345.16437742474 15 16 8
-776.236722823345 -325.135026691978 2322.22637765988 15 16 8
-786.378731951485 -325.273283501735 2335.06965942367 15 16 8
-793.423295852017 -326.264593865822 2319.07664225989 14 15 7
-805.013704894424 -325.951568108202 2346.85449165724 14 15 7
-819.211884915295 -324.790343713148 2402.52183385184 11 14 7
-827.145587658858 -325.47574469716 2396.4948838724 12 14 9
-830.532324286365 -327.646235055049 2341.65876720161 11 13 8
-842.368079140583 -327.094896880369 2376.45966152967 11 13 8
-849.788135026333 -328.000778902803 2363.44310204558 10 12 7
-857.396954350992 -332.611293161168 2247.62096940211 8 10 5
-872.251466161097 -334.857646697807 2209.4937513482 7 9 6
-881.460279140476 -335.297331459132 2212.376692486 7 9 6
-904.085850727175 -334.199005468764 2280.09364529632 6 8 5
-924.107550317062 -333.984820651062 2318.91254575724 11 13 8
-933.312022846742 -334.206498256558 2327.84205757005 12 14 9
-941.938456475921 -334.717197172881 2327.77456165769 14 17 10
-951.99930629194 -334.377622750919 2353.72784689248 13 16 7
-959.119815565452 -335.769920257947 2326.64112929417 14 17 8
-968.180087145679 -335.982053102187 2335.58861139717 17 20 11
-974.537105400489 -338.049625117964 2288.44376769938 17 20 9
-983.727947721595 -338.197443621859 2299.39016017271 19 22 11
-993.062277704478 -338.173292264379 2315.35734965481 21 24 13
-1002.49942416507 -337.974587569337 2336.34968405929 20 23 14
-1010.06616813983 -339.394551329989 2309.20735186647 22 25 16
-1018.48149937029 -340.108119015512 2303.12037167524 21 24 15
-1026.5501364568 -341.233941791698 2284.98453626937 19 22 13
-685.947971452938 -329.06559169037 2309.31781854578 16 19 12
-691.841137521799 -330.259784897246 2287.42266045126 12 15 6
-690.8806109371 -333.082470754944 2212.97559048594 13 16 7
-719.548623410941 -328.947080280109 2363.57452026333 18 19 11
-728.354559285979 -329.430210798105 2364.49223802969 17 18 10
-739.739644603286 -329.259224131744 2386.24948154233 16 17 9
-747.622636945537 -329.95608623144 2380.22889010362 16 17 9
-756.711745857018 -330.340003939583 2384.13430983905 16 17 9
-766.119277190981 -330.627160949858 2391.02327935485 15 16 8
-783.596210464228 -331.544542843051 2393.88335305718 15 16 8
-785.622523139059 -334.010808333775 2333.17142530832 15 16 8
-797.157073585594 -333.653670359278 2359.94844226206 14 15 7
-807.319811887489 -333.676619926692 2374.80444795512 9 11 6
-819.47309401052 -333.008016979537 2410.57309504282 10 12 7
-825.748359374812 -334.263759199005 2387.62248793537 10 12 7
-833.638693911592 -334.998818702277 2380.59315345877 10 12 7
-841.016373963335 -335.934885672979 2367.58196171923 9 11 6
-852.721047470828 -339.092846647771 2303.64843884665 8 10 7
-865.335624989591 -342.191267353529 2242.6245100989 7 9 6
-882.463478537882 -343.550640815515 2233.43634487171 7 9 6
-889.941489067206 -344.764834018777 2213.35883442368 7 9 6
-901.73826880871 -343.877533187608 2254.21031099633 7 9 6
-912.310572865011 -343.496548043873 2280.09942044322 9 11 8
-922.990657590254 -342.966523736094 2310.00567567199 12 14 9
-932.160127642532 -343.197226780933 2317.93189225702 13 15 10
-942.737268273082 -342.543645605297 2350.87397048092 15 18 11
-948.127087987994 -345.065413722406 2293.77343176401 14 17 8
-957.890611460978 -344.866190385087 2313.71758805159 16 19 10
-965.883989951993 -345.839564808553 2300.62941876591 19 22 13
-974.938149325928 -346.062399332189 2308.57000472042 18 21 10
-981.9734095149 -347.870331259884 2272.42511557238 18 21 10
-992.266622999151 -347.042351255533 2309.43339588271 19 22 11
-1001.21224428152 -347.258002529931 2317.38750783255 17 20 9
-1009.52194709092 -348.056193974495 2309.29807756359 17 20 9
-1017.35954875283 -349.408350459786 2286.15299429491 20 23 12
-1034.44372444532 -350.761081845 2276.97026231422 18 21 10
-1061.23394837375 -350.897120177391 2313.93772615481 16 19 8
-681.700216534107 -338.73292412074 2282.66389802194 21 24 17
-685.378953890465 -340.552734338302 2243.91461279759 7 8 2
-704.270362175998 -338.586684547327 2318.14188511864 17 18 12
-706.892002205719 -340.714275578355 2270.45542523102 17 20 13
-741.42899610161 -337.200333873936 2404.19938247244 16 19 12
-750.349304868363 -337.601587535039 2407.11822602342 16 19 12
-757.476688378454 -338.514126796271 2395.14589495135 16 19 12
-766.855608188062 -338.77751568647 2402.038132155 15 18 11
-774.501179407126 -339.555963156541 2394.03176985589 14 17 10
-782.074602009789 -340.371371190995 2385.02682151371 13 16 9
-793.122723526882 -340.073353891727 2407.83346868404 13 16 9
-798.396176867934 -341.659577036078 2376.94677478118 13 16 9
-808.617255472231 -341.600574066009 2392.8029712285 11 12 7
-817.35842821842 -342.031061816378 2394.73655978455 11 12 7
-824.058761489084 -343.207278559553 2375.76368594936 10 12 7
-829.825838610766 -344.782635029919 2345.82328946688 9 11 6
-837.84200714495 -345.541880664584 2338.77831534463 9 11 6
-848.273350721084 -345.328818589836 2358.63885491889 9 11 6
-851.746271233787 -348.008726041941 2298.75464878082 3 5 2
-866.140519592344 -350.464443026483 2259.67773313761 1 6 2
-887.075262617288 -354.918174693199 2181.4948711714 4 9 5
-898.965799432257 -353.921403728106 2222.33435912986 7 9 4
-910.894418643497 -352.760224257797 2267.19965032797 10 12 7
-921.934311118634 -351.959362438564 2302.09920646422 14 16 11
-930.943410092733 -352.27999854 2307.02237168389 14 17 10
-939.626844797837 -352.788259484223 2306.94775595393 14 17 10
-947.690746794777 -353.715566525264 2295.86627889995 15 18 11
-954.375685931047 -355.680634043318 2257.75014736281 16 19 12
-965.790550444549 -354.194426518763 2309.73298638493 19 22 13
-974.345461720632 -354.777404445914 2307.65923218721 20 23 14
-982.141055723339 -356.02062596716 2288.54985274248 19 22 13
-991.004167211515 -356.372816937443 2292.48363233776 18 21 12
-999.206998841706 -357.349869533326 2280.37702132311 16 19 10
-1007.87316909277 -357.897728971563 2279.29697727798 14 17 8
-1017.83420900584 -356.943909531804 2316.34637949253 18 21 12
-1025.04538145951 -359.191324643032 2272.11871757414 18 21 12
-1034.26693120893 -358.982230102561 2290.11486851772 19 22 13
-1051.95596402135 -359.307780094443 2307.05549533289 28 31 22
-1060.38207017865 -360.131465490165 2298.95184602043 18 21 14
-685.896771222709 -349.219778242304 2251.93503419922 29 30 24
-701.352301883045 -347.9822081435 2300.39097518888 10 11 5
-709.436612922337 -348.7197334065 2294.34536745196 16 19 12
-724.625546109147 -347.420412605362 2343.84210271012 15 18 11
-752.238459433773 -345.356406344077 2427.05807631783 14 17 10
-766.44031124487 -347.238254111613 2403.12016717873 15 18 11
-772.502224302029 -348.557291757042 2381.20403896233 13 16 9
-782.201622977916 -348.685448024633 2391.07946799988 13 16 9
-789.693038344274 -349.561833946264 2381.07698689213 12 15 8
-799.955108099141 -349.458866503073 2396.92795210733 12 15 8
-804.413596908283 -351.475243225366 2357.07418906421 11 12 7
-820.530276389612 -352.943583048731 2344.98919777829 10 12 7
-828.628758880555 -353.680085073836 2338.94181883332 9 11 6
-833.472745718206 -355.809235209783 2297.02463043493 9 11 6
-850.742267873933 -352.596014435563 2392.61389085058 9 11 6
-852.998431061047 -355.937852374487 2319.78237865227 6 8 5
-864.622287984595 -359.78489432292 2247.79853829004 3 8 4
-874.675155545994 -359.711619538362 2262.66800179856 8 13 9
-884.715555830781 -359.59298516596 2278.54658879483 11 16 12
-893.075363142548 -360.344910777049 2272.46663867463 4 9 5
-901.322635703683 -361.17840482455 2264.38533256845 8 10 5
-913.545811533818 -359.643012349293 2315.25948249193 10 12 7
-923.693163574539 -359.219676870853 2338.17821034666 14 17 10
-931.256165536791 -360.409159171892 2321.1133299583 14 17 10
-938.260023494121 -362.051657057452 2293.03414155021 14 17 10
-946.024470764262 -363.253606782345 2275.94415481088 15 18 11
-955.364781125004 -363.311611818077 2286.87189830467 16 19 12
-965.043263296493 -363.035558219089 2305.81853754723 17 20 11
-974.038951912233 -363.249136220481 2312.75846856303 17 20 11
-981.953112652719 -364.41561524687 2296.65763242381 19 22 13
-989.438830476288 -366.087797598101 2268.51814865739 20 23 14
-998.815805255706 -365.925403654668 2284.47965226406 16 19 10
-1007.91481766015 -365.96734485909 2295.43722574399 15 18 9
-1017.35911374709 -365.49807849437 2318.44356986797 18 21 12
-1026.57779178791 -365.147664705254 2338.45532148972 18 21 12
-1034.18084227225 -367.004271839131 2306.27069231549 18 21 14
-1042.60443313521 -367.802370104123 2299.17521688103 25 28 21
-1050.98888491305 -368.731116149294 2289.06142799723 18 21 14
-1059.91897238002 -368.62845546927 2303.06300307008 25 28 21
-673.177356415721 -358.508813576777 2229.36063207687 7 10 3
-679.278918172957 -359.889203431321 2207.43971750595 14 15 9
-699.879920329005 -357.048968224893 2293.54430646733 19 20 14
-711.472357546798 -356.749475432547 2314.26764817414 16 19 12
-722.439320943491 -356.598734718086 2331.03820811911 15 18 11
-738.014752278585 -354.94804674361 2385.52470140882 14 17 10
-748.683521686341 -354.77800824576 2402.33266364941 14 17 10
-757.951987446345 -355.037740013006 2408.23098813636 14 17 10
-765.331048954632 -355.932059135055 2398.24257535232 14 17 10
-772.419781663593 -356.949300295828 2385.26741603352 13 16 9
-781.889487516216 -357.126985676082 2393.15602534551 12 15 8
-789.481391162654 -357.987175724707 2384.14888861016 12 15 8
-794.80938282391 -359.741236211403 2353.25583064103 12 15 8
-798.563071198854 -362.197078771254 2305.42896225125 12 15 8
-808.140220221453 -362.380974349798 2313.30417964516 12 13 7
-817.668237135436 -362.561583160281 2321.18551978018 10 12 7
-830.061834955635 -361.461691650379 2359.94634266984 9 11 6
-837.451226598842 -367.072055313973 2249.19314240004 8 10 5
-851.594936290676 -365.045061176519 2309.90391822432 14 16 11
-895.778518201966 -367.232671600767 2317.49672275809 4 9 5
-903.832938120929 -368.120074581634 2308.43169812185 10 12 7
-911.394540149661 -369.353356044899 2291.36710778045 12 14 9
-921.675114354062 -368.825244276608 2315.27686173906 14 17 10
-932.188597111084 -368.028786456783 2345.20320626536 14 17 10
-938.240659228041 -370.392111753616 2302.12842707668 14 17 10
-946.65102712458 -371.112676588638 2297.04953153637 15 18 11
-954.975410293205 -371.921930960617 2289.96646601486 17 20 13
-964.446366933712 -371.766251005297 2304.90809128626 18 21 12
-973.39802832708 -372.001940969458 2310.84588777201 16 19 10
-981.586574363561 -372.943645844537 2300.7568211619 18 21 12
-988.716205613404 -375.044174155201 2264.60092560553 20 23 14
-998.505341786348 -374.389375827859 2290.58704869695 18 21 12
-1007.9244436149 -373.993963893879 2310.57367011387 18 21 12
-1017.53888035121 -373.186431928361 2339.60449400689 21 24 15
-1025.97420973556 -373.813018681777 2336.53785039766 20 23 14
-1034.24508203918 -374.711961370475 2327.44608444162 19 22 15
-1042.0577635346 -376.477607796598 2299.266283945 21 24 17
-1059.35222799351 -377.332295439419 2302.14896357353 23 26 19
-685.86187029072 -366.752138544424 2260.04753779906 19 20 14
-698.27307388858 -366.194981269784 2285.70693978033 23 24 18
-715.585939674801 -364.002409287222 2350.05277627803 17 20 13
-723.797001486982 -364.675414182361 2346.00655507829 16 19 12
-732.024344132015 -365.349306954514 2341.95830446505 15 18 11
-745.120033418963 -364.335704844718 2377.60843616714 15 18 11
-754.694504775956 -364.49582464411 2385.48392510522 15 18 11
-761.554837605784 -365.63140755962 2370.52220619347 14 17 10
-772.338708113876 -365.3189529358 2389.3308036458 13 16 9
-779.589750955222 -366.329284270472 2377.34305788346 12 15 8
-788.731969452874 -366.611018755308 2382.24950812756 12 15 8
-795.42558792538 -367.885087891219 2364.28565731721 12 15 8
-801.59712986942 -369.425320893866 2340.34105637756 12 15 8
-805.70151064514 -371.932218182819 2294.48617256537 12 13 7
-825.096740982126 -372.115479899213 2313.22935603916 9 11 6
-835.303019174554 -371.914731524471 2329.08702620891 9 11 6
-837.071890946635 -375.869862267456 2251.27902415468 8 10 5
-843.044470460334 -377.895547186626 2217.28293918229 6 8 3
-897.916764905602 -374.236672683434 2354.53539258748 9 14 10
-902.867636444368 -377.094844084123 2302.52919367369 11 13 8
-910.77811693246 -378.144338608355 2290.4594973952 12 14 9
-920.486035136225 -377.96025180896 2305.37171672474 13 16 9
-929.921478180903 -377.908458624898 2317.29498617048 14 17 10
-941.82167245851 -375.86700057661 2372.2390982381 14 17 10
-946.046632873322 -379.875908119467 2296.14034692592 14 17 10
-956.354303896008 -378.980734613626 2326.09211557567 20 23 14
-964.509922498108 -379.895111531122 2317.0147732457 21 24 15
-973.14134738496 -380.390406552097 2316.94661388828 19 22 13
-981.993529809801 -380.650035951292 2321.88920070664 17 20 11
-988.8465472515 -383.078105078068 2280.73001172559 18 21 12
-996.555462009735 -384.761865645841 2255.58624662412 16 19 10
-1008.23747474595 -381.557982092647 2333.73301039165 16 19 10
-1016.58313729738 -382.333816210813 2327.65464814737 21 24 15
-1024.85900860139 -383.254741589764 2318.56231623627 20 23 14
-1033.14783678092 -384.226241150886 2308.46057320207 20 23 16
-1041.5107094997 -385.152358151412 2299.3573977007 22 25 18
-1051.08191216825 -383.710266635515 2339.47722474612 19 22 15
-1058.97459198297 -385.604131843111 2310.2800914936 32 35 28
-733.966724241935 -373.125313749507 2361.89156832398 14 17 10
-744.584869102751 -372.905967209568 2377.69779099084 14 17 10
-750.122771402094 -374.575293284155 2351.8169900297 14 17 10
-760.786362716677 -374.305815934021 2368.62533659703 14 17 10
-768.972071060449 -374.984544032081 2364.58229443211 12 15 8
-778.058943238203 -375.299068861653 2368.48805082375 12 15 8
-783.988831208947 -376.939940042213 2343.56594453145 11 14 7
-795.098632849367 -376.382116415964 2366.36445046507 11 14 7
-802.695620044092 -377.338678700165 2356.34900575887 13 14 8
-808.544947808272 -379.131845891656 2328.41429267563 13 14 8
-811.627997939362 -382.328855136206 2270.59547602185 11 14 7
-829.457692836872 -378.40586834577 2365.10503368055 9 12 5
-837.875987632561 -378.992617491932 2363.0483383433 8 11 4
-842.223269754703 -387.007381393846 2214.38611430322 12 14 9
-854.891559529191 -385.44135076283 2258.15034572861 13 15 10
-901.690177820892 -386.246500245295 2293.6305696884 11 13 8
-909.017544913548 -387.762717195711 2272.56496692127 11 13 8
-919.745225574009 -386.809517597221 2302.46416804165 12 15 8
-932.098094161342 -384.432539242522 2361.38189411232 12 15 8
-937.086636094965 -387.853074460115 2301.31049779804 12 15 8
-945.215859947922 -388.840345632974 2291.22895424295 13 16 9
-954.682539321932 -388.6488710822 2305.16333192994 13 16 9
-965.750978443311 -386.821638732146 2352.14982895651 18 21 12
-974.529208190457 -387.060001447418 2357.10134835804 23 26 17
-980.582931222145 -390.231189393694 2302.94297021948 21 24 15
-990.355117688194 -389.426824468385 2328.93105492454 19 22 13
-996.884660293017 -392.469836625008 2277.73602106447 14 17 8
-1008.48310073702 -389.096495187119 2354.88508080048 13 16 7
-1016.42307866675 -390.386302883335 2338.78134761033 18 21 12
-1023.5767765967 -393.047210920284 2295.56963418981 17 20 11
-1049.94214863922 -393.550032062152 2314.45127356363 21 24 17
-1058.34411014782 -394.447227705006 2306.35083094721 29 32 25
-1065.59450338181 -398.639470770234 2233.90623524319 32 34 29
-665.978955675644 -387.363057002212 2190.02432913447 12 15 8
-708.035082554013 -380.012552365778 2367.16119539449 15 18 11
-710.09371425717 -382.915028150335 2316.5239749544 15 18 11
-719.539160143514 -383.184352545534 2321.39255153153 14 17 10
-733.428857733787 -381.741494571087 2361.98138128988 13 16 9
-742.711647387874 -382.000083567046 2366.87022813189 13 16 9
-753.151179996703 -381.777963527299 2381.69104614975 13 16 9
-760.36586469806 -382.846574269087 2369.70799114508 13 16 9
-770.364349565529 -382.762238309425 2381.56091059976 12 15 8
-776.968197449811 -384.124038843956 2363.60849366562 12 15 8
-785.501531356379 -384.666436884811 2362.54501242857 11 14 7
-788.66033078275 -387.692590534678 2310.7631361638 11 14 7
-798.358088900386 -387.754574782817 2319.63066830473 11 14 7
-800.304582074623 -391.589722698616 2251.87777596724 13 14 8
-815.450619601147 -388.950472160246 2315.48515641133 11 14 7
-827.313295899972 -387.819861918169 2348.26555114477 9 12 5
-834.308064638655 -389.205147952698 2330.26441144732 8 11 4
-840.325159697465 -391.192915208257 2300.29366000476 7 9 4
-842.178581843787 -395.685865899373 2220.461148697 5 7 2
-851.490258245815 -395.998945389513 2224.33884704422 4 6 1
-907.317985086025 -397.427741073282 2255.67039215472 11 13 8
-920.23316575043 -394.700291488216 2318.54825097927 11 14 7
-928.831199721568 -395.243601226689 2317.47669795758 11 14 7
-935.945447169077 -397.077267210689 2291.39961122451 12 15 8
-944.666195650004 -397.572591475666 2291.32054515637 12 15 8
-954.297018768635 -397.183961589129 2308.2572210362 10 13 4
-962.191141527335 -398.457256118954 2293.16685391166 14 17 8
-973.069642287719 -396.596764852079 2338.16135207147 21 24 15
-981.317390238305 -397.449104010366 2331.08772336563 24 27 18
-988.304323255495 -399.882695194065 2293.9428257161 21 24 15
-996.696275215684 -400.743817850606 2286.85122433341 17 20 11
-1014.97283444424 -400.345088412694 2312.78676891986 17 20 11
-1022.60888602394 -402.431393881619 2282.61424077154 17 20 11
-1032.14431809716 -401.370877253973 2311.65425775334 19 22 15
-1058.3765999057 -401.637299500456 2333.57542528552 30 33 26
-679.771894581944 -391.333503043203 2293.12065474199 27 30 23
-706.304282387535 -389.070101274372 2358.33137733434 18 21 14
-706.949160854393 -392.659400795252 2296.7868745109 17 20 13
-722.429723644283 -390.563161570267 2348.26073192751 16 19 12
-731.64576883932 -390.859398809055 2352.15032013054 14 17 10
-739.981964398295 -391.506515294242 2349.09610190096 13 16 9
-749.281794101952 -391.749512416973 2353.98278118488 13 16 9
-760.411294507415 -391.178279750423 2374.76317905173 11 14 7
-767.897244117221 -392.17774084754 2364.76170415218 10 13 6
-777.762240715164 -392.107182426759 2375.62363133819 10 13 6
-781.715915203945 -394.80050652746 2332.81134729133 12 15 8
-783.574945778681 -398.639665021962 2268.09268189422 13 16 9
-787.528945813137 -401.623272939849 2220.24244591358 14 17 10
-807.758040238375 -396.338069088865 2331.58086735916 8 9 1
-815.684051673968 -397.247988750476 2323.53985400631 15 18 11
-824.026464964346 -397.95158560944 2319.47732148148 11 14 7
-824.564861055076 -403.101114136425 2230.74098230424 13 16 9
-906.288551945845 -406.646583337598 2248.76884659282 11 13 8
-917.351188906782 -405.311646704872 2282.6564707865 9 12 5
-931.706685768221 -400.930354194207 2372.55970512935 13 16 9
-935.455005850432 -405.757572388277 2292.49160204328 14 17 10
-944.343379321171 -406.086140234309 2295.41423951489 13 16 9
-953.479607665356 -406.139652488878 2303.34389757419 11 14 5
-959.689543417672 -409.262228545356 2255.21250012057 10 13 4
-971.797879738517 -406.016516744302 2323.22835928378 11 14 5
-980.130990744961 -406.832271822963 2317.15190879728 19 22 13
-988.706512104304 -407.372609532406 2316.08315738972 23 26 17
-997.037695546897 -408.245970946961 2308.9991717891 25 28 19
-1005.5517213943 -408.898294717451 2305.92277510406 26 29 20
-1014.81335358828 -408.377398434591 2323.91310287673 26 29 20
-1022.80364475381 -409.867865704307 2305.78800485692 24 27 18
-1031.39014128176 -410.408021692646 2304.71788333465 21 24 17
-1038.59739180934 -413.824207836894 2252.4315711746 21 24 17
-1048.72993575659 -411.091628538134 2309.61006997512 21 24 17
-1057.92086621824 -409.984475184198 2337.68526880702 21 24 17
-683.093366913029 -398.694605822266 2320.94294100163 19 22 15
-691.230839904455 -399.457418294544 2315.89821238979 11 12 6
-693.28007069467 -402.633718660356 2265.26288623534 16 17 11
-708.351954078076 -400.670885827562 2311.74941998708 18 21 14
-716.5385219101 -401.436181405506 2306.69881143729 17 20 13
-740.295787325194 -399.782328178486 2356.13302293849 13 16 9
-748.981104873198 -400.274215776387 2356.05836939098 11 14 7
-757.19463783575 -400.979441449949 2352.01192465855 10 13 6
-762.122583478464 -403.241333719502 2319.15451295929 11 14 7
-766.557009432764 -405.836948293514 2280.31296531865 11 14 7
-784.751176403227 -401.696177946026 2365.70680107093 12 15 8
-789.364102578159 -404.24179182207 2327.85077334992 12 15 8
-791.39603344764 -408.2670555948 2263.11102111983 12 15 8
-807.114516895196 -405.064266049023 2330.67646829883 13 14 6
-818.847832856739 -403.860701145332 2361.4574401177 3 6 0
-821.393762346027 -407.857068643805 2297.6613951682 3 6 0
-919.077237096378 -412.0904142612 2317.73037294394 11 14 7
-927.864768612477 -412.462625153684 2319.65802272954 6 9 2
-938.783101166002 -410.778608412257 2357.59372463161 11 14 7
-944.078658461316 -414.519997766755 2300.50816113651 13 16 9
-952.823004603661 -414.949737255678 2301.43366460277 13 16 7
-962.689545009141 -414.111479330348 2324.38634340593 12 15 6
-971.204397942901 -414.708873879054 2322.31762621818 10 13 4
-980.461760536346 -414.379409502248 2336.27776201062 8 11 2
-988.985679375193 -414.916161224008 2335.21544084898 9 12 3
-996.85713508012 -416.385075365889 2318.11304339964 15 18 9
-1005.95445739614 -416.105799771322 2331.08559634473 16 19 10
-1014.44546008567 -416.700766663041 2329.01960886457 20 23 14
-1023.7558097014 -415.8261629249 2352.04184154347 21 24 15
-1030.03526213286 -420.661883342883 2277.70449362105 23 26 19
-1040.3794500673 -417.540194093109 2338.88630418875 21 24 17
-1047.59542842521 -421.156858914975 2285.59198397109 25 28 21
-1056.07178388368 -422.115022323408 2277.48241798598 14 17 10
-679.780314461409 -408.53377322439 2301.22711788189 30 33 26
-706.025586623436 -406.006694817318 2364.45736196098 17 20 13
-705.460397026506 -410.42618463175 2293.99615006469 16 19 12
-732.814340984737 -407.140968065518 2370.18693527961 12 15 8
-743.665912446274 -406.622713908209 2387.97885498926 9 12 5
-751.189430124867 -407.610615541066 2378.98058874232 9 12 5
-759.223135279327 -408.376253512943 2373.94881718392 10 13 6
-761.577278996645 -411.96200245234 2319.24552930553 11 14 7
-767.785997059916 -413.756447141765 2296.3046455616 11 14 7
-781.824549373746 -411.530816269066 2343.92712795074 11 14 7
-791.679265389058 -411.393221699488 2354.79016155538 11 14 7
-794.968219825778 -414.846590791911 2302.99292750272 10 13 6
-804.963502507833 -414.65384915286 2314.84596108871 16 17 9
-818.505154565452 -412.332144863641 2363.53812805319 2 5 0
-826.072336511985 -413.448065935499 2352.51889516453 20 23 14
-915.725525439925 -423.316034227652 2274.84454029829 16 19 12
-926.881374810397 -421.54011157161 2312.75035947484 18 21 14
-934.294917399432 -423.279401272634 2291.67458996937 14 17 10
-943.18703404368 -423.58573710547 2294.59670176785 11 14 7
-952.65521326198 -423.228731029854 2308.53069663049 13 16 7
-961.782784823028 -423.167988040197 2317.46906148497 12 15 6
-971.345385731308 -422.498634798644 2336.42912628348 10 13 4
-978.020732340965 -425.462022499318 2295.2935193143 11 14 5
-985.957862504232 -426.978735115899 2278.18281168766 11 14 5
-1005.44909249318 -424.644436319348 2332.17883619056 9 12 3
-1014.85952883954 -423.646651184773 2356.19594134156 12 15 6
-1022.10158259759 -426.453984770096 2318.01226300221 14 17 8
-1030.8658121526 -426.559489271154 2323.97334730325 17 20 13
-1038.71531764808 -428.641722047583 2297.80515930439 6 9 2
-1047.46344864696 -428.809454413777 2302.760489118 23 26 19
-1055.32151030989 -431.400409657774 2268.53059573952 26 29 22
-657.07558269977 -422.224247276 2208.35934543115 25 27 22
-672.025666647106 -420.323262132225 2249.82232587769 13 16 9
-692.85734149677 -415.809370764147 2335.89348046795 25 26 20
-708.018537243251 -413.523003926646 2383.3757036477 17 20 13
-717.74345467255 -417.927049229734 2324.73144017665 14 17 10
-735.278852566343 -414.330698873157 2394.08472521099 11 14 7
-738.361828893294 -417.447748277219 2349.36660054759 10 13 6
-753.04676691909 -414.997071448235 2398.92343963588 10 13 6
-760.207024545026 -416.1826745347 2386.94748490362 10 13 6
-765.371339272266 -418.435775318821 2357.08409442 10 13 6
-769.131932148664 -421.528603588805 2313.2892707987 10 13 6
-781.718466974316 -419.93910110214 2347.99349798738 10 13 6
-790.291406955601 -420.483469846991 2346.92507933613 10 13 6
-786.875224899839 -427.964249902226 2230.47098623223 10 13 6
-794.252379731958 -429.427618403983 2214.4379471035 17 18 10
-924.829188255823 -431.715371749905 2288.84708417217 6 9 2
-933.14419971519 -432.637526155192 2281.76524523405 12 15 8
-942.407660697526 -432.558072406995 2290.686602618 16 19 12
-952.052857304867 -431.971883914918 2307.62120477659 16 19 10
-961.080886734204 -432.009818828727 2314.55663730023 15 18 9
-968.048346627541 -434.636830984711 2280.43798071201 14 17 8
-977.14535051821 -434.612338131034 2288.37256859628 16 19 10
-986.148950373298 -434.648104588283 2295.31104407581 17 20 11
-996.627517454047 -432.322749281837 2339.34654029336 13 16 7
-1004.02319152402 -434.71061234528 2309.20480397835 12 15 6
-1012.50171608494 -435.442155610918 2305.12535916751 10 13 4
-1021.58843243146 -435.01813186301 2319.10678185271 10 13 4
-1029.83686639007 -436.199009805506 2308.00294407081 11 14 7
-1038.49628152509 -436.5434850007 2309.94650898237 9 12 5
-1046.98925934018 -437.275142771984 2305.8652607924 12 15 8
-1055.0104743041 -439.435845295937 2279.6758511143 24 27 20
-646.022888842731 -427.082651645995 2261.14709675555 27 29 24
-649.395873255624 -429.925976972981 2222.4389033503 19 21 16
-659.624112762259 -429.956950055063 2230.23222551632 19 22 15
-670.358842317633 -429.743381432121 2241.99292565697 19 22 15
-680.751179005708 -429.645998803759 2251.78128617855 25 26 20
-696.150866813044 -427.240554860614 2299.23343337373 20 23 16
-716.815583218974 -426.829465430349 2321.84737568142 14 17 10
-726.858534213689 -426.708797224138 2331.67903588151 11 14 7
-741.006736282221 -424.49908823154 2375.2568878977 14 17 10
-753.353721457102 -423.073034376781 2405.96069150998 15 18 11
-758.736776100727 -425.212413503384 2379.09276539061 12 15 8
-765.061208546066 -426.927629720735 2359.16053409386 10 13 6
-773.274960064443 -427.656922430483 2355.11412546664 9 12 5
-778.890147891529 -429.879432021729 2327.20976232126 9 12 5
-786.98860417998 -430.739094468541 2321.1627109848 10 13 6
-795.906613341884 -437.039954259252 2236.42211311691 15 16 8
-925.158245486624 -439.547228687816 2302.93522514127 18 21 14
-933.012845275671 -440.939952964119 2288.85779186186 9 12 5
-942.028994962267 -441.093480160791 2293.77963711895 15 18 11
-952.599956791729 -439.341997929757 2327.72752250427 17 20 11
-960.013287739925 -441.327805191135 2304.63681414043 18 21 12
-967.840922752596 -442.925080141473 2287.5399830193 17 20 11
-976.687106109174 -443.205123452541 2290.4677577801 16 19 10
-984.104629706958 -445.604792344886 2261.33125323036 17 20 11
-995.672404913661 -441.567082620303 2329.41248552651 14 17 8
-1003.55230367649 -443.235820292372 2311.30163329468 13 16 7
-1011.20078157427 -445.511263289286 2284.1513540656 12 15 6
-1021.37339019078 -442.973434208886 2329.23215964676 12 15 6
-1029.10622200369 -445.253758326245 2302.07136640201 12 15 8
-1037.22794282369 -446.936811521254 2283.93037390651 13 16 9
-1046.24073749517 -446.466096341122 2297.92065835078 18 21 14
-1055.46123763999 -445.110551098646 2324.98382583164 12 15 8
-1062.84332691133 -449.577530454186 2265.6241718317 25 27 22
-659.516565884039 -434.307315064661 2295.76157001963 18 21 14
-662.321894095077 -437.505907279128 2253.09392340487 20 23 14
-687.325001158351 -439.964132617183 2237.88719112463 20 21 13
-708.128782713426 -434.750040145357 2326.98328424179 14 17 10
-728.82314760609 -434.12806391605 2351.6088259646 12 15 8
-739.489871435824 -433.58547514627 2367.40813501643 11 14 7
-749.944445341865 -433.101028038971 2382.22638514032 10 13 6
-757.263805850145 -434.285113430735 2371.23849867909 9 12 5
-764.179090824907 -435.730671511934 2356.27049810435 10 13 6
-770.611010386566 -437.504454693986 2336.32500728495 10 13 6
-782.165042841881 -436.298484746204 2362.08967053219 11 14 7
-789.848303921981 -437.360975838787 2353.07142541308 11 14 7
-797.367289898031 -438.556419838698 2342.05865678614 5 8 0
-798.578189753649 -443.877121392353 2268.35511144076 17 20 11
