ply
format ascii 1.0
comment KinectMotionCapture
element vertex 751
property float x
property float y
property float z
property uchar red
property uchar green
property uchar blue
end_header
-155.717247949803 593.59801587833 1984.06234503188 171 175 174
-164.865357152482 593.476360961117 1980.90542099522 161 165 164
-175.346135560725 592.20844029389 1982.62412239886 160 164 163
-185.550440869579 591.169857521849 1983.36903495944 154 158 157
-194.451148696231 591.275210686653 1979.23470023599 153 155 150
-203.625204416284 591.150529216945 1976.07454619767 152 154 149
-212.051021278763 591.709884216652 1969.98290526497 155 156 151
-220.504659287768 592.267285179185 1963.8875572948 156 157 152
-228.738381646786 593.050540447158 1956.81137162016 156 157 152
-238.967991207989 592.008135927899 1957.55313642407 156 157 152
-247.974703701034 592.104645710326 1953.40559623368 158 159 154
-256.518825588538 592.654732057368 1947.29921594193 160 161 156
-263.430280205564 594.794718192481 1934.33786543524 159 160 155
-271.345627297929 596.021048792047 1925.28487009216 161 160 158
-278.609477219363 597.925606185731 1913.28784982622 161 161 159
-285.704508743765 600.052884644848 1900.30386374073 158 160 159
-292.63873145295 602.402548071868 1886.33143263487 158 160 159
-300.091504132023 604.294114446517 1874.31087013706 158 160 159
-309.152025944118 604.596293462004 1869.14838614097 155 159 158
-318.016771358547 605.122729251823 1863.00205621147 155 159 158
-326.477951873475 606.099394377582 1854.88904839878 154 158 157
-335.190930727032 606.846865207193 1847.75338885273 155 160 156
-344.567905901036 606.914591301044 1843.55971786955 156 161 157
-353.754384073743 607.206175615296 1838.38130289633 153 159 155
-362.348715296478 608.172151059541 1830.25194708212 155 161 157
-369.161898517715 611.162786698518 1813.26963144795 164 170 166
-374.266812784913 616.173561666895 1787.42551329382 176 183 175
-83.2901698101081 591.110060252931 1978.99878769217 223 233 243
-97.5757563616613 586.887888218193 1993.35134480061 207 214 230
-108.378420996867 585.400397683666 1996.03814203372 198 205 215
-118.319367139072 584.595689867445 1995.80737699302 201 206 212
-126.311481325928 585.381018913792 1988.76133712867 168 172 173
-136.262868046896 584.575051254747 1988.52951275196 153 154 156
-145.664973949064 584.222862541563 1986.34918562956 169 171 170
-154.80387257437 584.096541341962 1983.19366357573 161 163 162
-165.289834018538 582.836651592513 1984.91169701799 155 157 156
-175.760698629687 581.577482205316 1986.63137228998 158 162 163
-184.385069642716 581.90201181044 1981.52325847564 151 155 156
-194.067788310082 581.320821207409 1980.31644297436 153 155 150
-203.495471530371 580.964915299422 1978.13317401171 152 154 149
-212.676014548704 580.834027498933 1974.97222674107 154 156 151
-219.359681707941 582.957292799806 1962.0395870649 155 157 152
-228.590827277845 582.822464660049 1958.87233527173 155 156 151
-237.833789651453 582.686585111113 1955.70361158017 156 156 154
-248.059866721487 581.64930285158 1956.44580372881 158 158 156
-256.595468396914 582.186315325199 1950.34052113874 160 162 159
-263.972007981945 583.844795171099 1939.33777300365 160 162 159
-272.342372370065 584.601132792832 1932.244846367 160 160 160
-280.049958160564 586.028233959973 1922.20932231704 159 161 160
-287.348461340399 587.900247372437 1910.20830350148 159 160 162
-293.3473766776 591.112554038141 1892.31909255564 158 159 161
-300.782639316669 592.975198144023 1880.30103164181 158 159 161
-310.269250886825 592.820093966956 1877.10195259833 157 158 160
-319.549223582544 592.887074404993 1872.92062918336 155 159 160
-328.198680879948 593.622822759665 1865.79268735397 156 160 159
-336.455115226443 594.802517485464 1856.69700888324 155 159 158
-345.597472419697 595.086523401771 1851.5243601736 154 158 157
-355.177828765262 594.922699923631 1848.31360529833 155 159 158
-364.359775658067 595.20292958282 1843.13602597287 158 162 161
-371.945226434073 597.261997483913 1830.09101809419 160 166 162
-377.20014774674 601.985555366448 1805.23638315305 165 172 165
-382.585409188795 606.700394283213 1780.36574576415 181 188 181
-402.477382300193 594.971710047838 1828.30219113318 192 199 191
-83.5082861234602 580.667926662143 1982.02236861622 199 210 212
-97.5028156780313 576.714420466298 1995.40261302831 181 191 192
-108.017790150654 575.462656026524 1997.11700441843 171 177 175
-117.956486860225 574.660838732916 1996.88651248154 156 162 158
-127.334921121572 574.30777165531 1994.70938202185 157 159 154
-137.821029921401 573.056890569488 1996.427373351 144 145 140
-145.838844910236 573.823860113415 1989.3781745276 165 165 165
-156.319131720024 572.572752699851 1991.09689300272 163 163 165
-165.715562111139 572.217464166033 1988.91752258255 153 152 157
-175.118496663659 571.861460164953 1986.7371020969 151 151 159
-183.218966914214 572.621972154363 1979.67784565997 152 153 158
-193.425611628074 571.593808672935 1980.42219856906 149 154 150
-203.366450674287 570.78881157227 1980.19168792388 148 153 149
-213.302810728452 569.983738972064 1979.9614961605 149 154 150
-220.222239638879 571.852546323199 1968.00755174701 149 154 150
-229.189042296114 571.935834436359 1963.86526715572 148 153 149
-239.155617535501 571.127761955978 1963.63131261593 156 158 157
-249.117968287009 570.31942109999 1963.39788597402 155 159 158
-257.153711554574 571.288313763763 1955.33823095189 160 164 165
-263.565103395372 573.808476193871 1940.4229099462 161 165 168
-271.462370788218 574.992478314221 1931.37204204454 158 163 166
-278.939356366585 576.616671413958 1920.35708940498 157 162 165
-286.700818885442 578.015378951814 1910.31515690019 158 162 163
-293.377716506036 580.517549636565 1895.36650945472 159 160 162
-301.475800876634 581.687327734144 1886.29085850865 158 159 161
-310.725075408062 581.748616876939 1882.11314076218 158 159 161
-320.428986421063 581.366573399693 1879.8954690364 156 160 161
-329.707151691832 581.42500675931 1875.71415341706 157 161 160
-337.295837588668 583.24616193515 1863.67681517858 155 159 158
-345.3660736038 584.622212719516 1853.59640923266 153 157 156
-353.901604583574 585.5543090956 1845.47448056046 157 161 160
-363.912485465746 584.943015458435 1844.22679163012 159 163 162
-372.708984700443 585.65040474064 1837.08057451887 160 166 164
-378.940717130784 589.211428206415 1817.14601684654 162 168 164
-383.501438809299 594.741481627513 1788.34490137687 168 175 168
-388.214086946283 600.261620076362 1759.52509276283 179 186 179
-65.5764035147521 577.273310893797 1958.06731445047 250 253 246
-84.3052115083809 569.795987707786 1986.99022366353 203 214 210
-98.0030041068385 566.106076981222 1999.39911782598 177 188 184
-108.508031564912 564.863008719318 2001.11472764363 173 179 175
-118.998047031017 563.620598196501 2002.832209137 154 159 153
-129.473046792833 562.378785927074 2004.55156292602 156 158 153
-139.38205623602 561.580830715064 2004.32476561381 150 151 146
-147.650382816671 562.111279880274 1998.25285465969 158 158 158
-157.567143285779 561.312173939313 1998.02509309568 156 156 158
-166.142729480559 561.618490594722 1992.9231153014 149 148 153
-175.270430213667 561.481294155939 1989.76877904913 146 146 154
-183.886001119047 561.784466333874 1984.66181968022 147 148 153
-194.080015605503 560.762365527227 1985.40797306992 149 154 150
-203.494577449429 560.401798580649 1983.22611358341 148 153 149
-212.915691366034 560.040338955786 1981.04367905653 149 154 150
-220.082073825808 561.659295658291 1970.06750163977 149 154 150
-229.291817060747 561.514842086734 1966.90294607971 146 151 147
-238.513513545052 561.369151750937 1963.7371423505 154 158 157
-248.476415041142 560.56346330801 1963.50363999389 156 160 159
-256.751818541732 561.293836884363 1956.42239202125 161 165 166
-263.396318435492 563.556905981393 1942.486344653 162 167 170
-270.111878413387 565.815268976647 1928.54144179972 159 164 168
-276.898550080029 568.06880313823 1914.58767734465 157 162 165
-284.675110994528 569.442122445 1904.54392750835 158 162 163
-292.955120356304 570.374610911546 1896.45388539089 159 160 162
-301.722463179179 570.867295154976 1890.31955934374 158 159 161
-310.739386620458 571.139404431177 1885.16259535416 159 160 162
-320.43562272688 570.754983224301 1882.94588767301 159 160 162
-329.273327867994 571.24175165161 1876.80279640361 156 160 161
-338.139034790757 571.726141486681 1870.65645721008 157 161 162
-346.189327905503 573.078914423362 1860.57836105287 157 161 162
-355.121564131803 573.55816762319 1854.42349265398 152 156 157
-363.260072395051 574.904307975231 1844.33464550317 152 156 157
-372.056141034072 575.595301085984 1837.18852530645 162 166 165
-378.285167767928 579.104896946055 1817.25444072181 161 167 163
-384.420247863911 582.824259666559 1796.32384061043 157 163 159
-389.690914946026 587.619804772599 1770.45936401636 171 177 173
-397.784328560843 589.375065361255 1758.35945254238 172 179 172
-52.7962088608631 569.785093814065 1951.61970954893 243 248 244
-75.4274255283542 559.52766507105 1993.16407615954 192 198 194
-88.8619819609919 556.094019790426 2004.59745867512 183 189 185
-100.79567722047 553.761992581258 2011.17632269169 174 180 176
-110.701825032443 552.967564114346 2010.94987320658 168 173 169
-120.041674228716 552.611580129537 2008.77756561647 138 143 139
-131.058039411512 550.940618432299 2012.44610481633 145 149 148
-141.772921125304 549.489954880228 2015.14375985652 152 156 155
-151.102716593464 549.133832483215 2012.972467008 148 149 151
-159.087908765846 549.869498086207 2005.92766202578 153 154 156
-167.106481971538 550.603034621903 1998.87845662604 142 143 145
-176.217951165007 550.461198617091 1995.72615819209 149 150 152
-185.603543584589 550.100329694077 1993.54815498245 148 150 149
-195.514545540988 549.302964213846 1993.32110746334 148 153 149
-204.137416809961 549.59396576704 1988.21326910312 145 150 146
-212.528820729108 550.100924481147 1982.1258204173 148 152 151
-220.696947534351 550.823084710136 1975.05822184033 148 152 151
-229.893241029203 550.673933800337 1971.89535709858 151 155 154
-239.101461961625 550.523604988962 1968.73100698511 151 155 154
-247.834938650374 550.805888120728 1963.60938868205 152 156 155
-256.109682862916 551.519999539032 1956.52826581047 157 161 160
-263.942038287293 552.664781116645 1947.48584209336 160 164 165
-270.407109893741 555.104959987135 1932.56403280413 158 162 165
-276.948650176161 557.540205138004 1917.63245340025 156 160 161
-284.486075406264 559.105842356943 1906.61011245429 160 164 165
-292.987221881647 559.803562323241 1899.50101935384 159 163 164
-302.419523997053 559.635733256044 1896.30875131978 156 160 161
-311.198294599242 560.113535324782 1890.173038345 156 160 161
-320.662317155323 559.942612987887 1886.97706020223 158 162 163
-329.272585885015 560.631587070638 1879.85413205279 161 165 166
-337.916176444313 561.317960584058 1872.72705238452 157 161 162
-345.74911196634 562.86160682517 1861.66789141364 155 159 160
-353.428642623336 564.616179980579 1849.61963189627 155 159 160
-361.374054307522 566.151645567351 1838.54645610876 153 157 158
-369.780064936671 567.254325348235 1829.43231421835 161 165 164
-377.829755141436 568.78225196187 1818.34614494158 163 168 164
-384.749285935454 571.59100718243 1801.35103673465 162 167 163
-390.587135194544 575.677744083651 1778.44118761128 166 171 167
-397.505143208599 578.687272680445 1760.43805361056 168 173 169
-406.220300071146 579.767570573306 1751.28539103978 179 184 180
-66.2843832516378 549.500803522237 1998.36246782708 233 234 236
-79.4524474520526 546.318253616481 2008.82051838009 183 189 185
-90.8217578474828 544.441092019703 2013.4532422223 178 184 180
-101.01360825115 543.432745737383 2014.19962945469 171 177 173
-111.195999124989 542.424763192635 2014.94719622259 166 171 167
-121.087538116442 541.633654279126 2014.72256108999 136 141 137
-130.696393361954 541.058781699186 2013.52494666879 134 138 137
-140.58217310494 540.267502183128 2013.30103070563 150 154 153
-150.190640764045 539.692116794937 2012.10346600339 146 147 149
-158.718537710146 539.979732651216 2007.0074887933 149 150 152
-167.269146069524 540.265662771351 2001.90868177242 148 149 151
-176.637493593282 539.903381611213 1999.73259407416 148 149 151
-186.537303194647 539.109478872966 1999.50717444452 146 148 147
-195.913342715073 538.746050744378 1997.33012985106 148 153 149
-205.039072332221 538.596739331473 1994.1763117555 144 149 145
-212.650927382525 539.735678054542 1985.1611802997 149 153 152
-220.307061623076 540.871440109792 1976.14077169711 149 153 152
-228.754132034642 541.360638667087 1970.04642293288 150 154 153
-237.721559590041 541.418801146016 1965.90388625672 149 153 152
-246.462886651208 541.689655002823 1960.78131837218 150 154 153
-255.708374750791 541.53062401052 1957.61258072219 155 159 158
-264.489531515291 541.798221316432 1952.48481063341 159 163 164
-271.645359368709 543.560118470333 1940.50188684235 160 164 165
-278.396124979273 545.744930367187 1926.55278422844 159 163 164
-286.138057418363 547.071421282866 1916.51323887331 162 166 167
-294.838992993067 547.541284399941 1910.38750042549 162 166 167
-302.669380400503 548.861184671385 1900.33693376948 159 163 164
-311.215087330896 549.538863385695 1893.22209229686 157 161 162
-320.451933880335 549.575741497145 1889.04598977465 157 161 162
-328.623240378248 550.673846625266 1879.96138988819 152 156 157
-336.838619454529 551.768785744043 1870.87129834207 155 159 160
-344.67582040056 553.284867211309 1859.81167766234 156 160 161
-353.610160058474 553.73657392423 1853.65661931031 155 159 160
-361.543637348928 555.245566480716 1842.58500258036 157 161 162
-369.734972504066 556.538888977484 1832.48946177096 158 162 161
-378.176218674155 557.616930733976 1823.37122784546 162 167 163
-384.487034703721 561.017399531985 1803.42722382249 158 163 159
-390.121335627706 565.256084468324 1779.5344488113 162 167 163
-396.457471418628 568.852988842166 1758.57908062751 168 173 169
-405.746022064714 569.278427506274 1752.3798880142 166 171 167
-415.623089798358 569.069127938116 1749.13246534025 176 181 177
-70.6505973048384 536.127151723515 2014.98469117501 207 207 215
-81.1463667349761 534.9095176831 2016.7013893597 180 184 183
-91.337680657994 533.906819463747 2017.44782866773 175 181 177
-100.659114406701 533.546810314028 2015.27758954799 165 171 167
-109.703161282785 533.400074784078 2012.13395819212 161 165 164
-119.603242058014 532.610989764184 2011.90825176556 137 141 140
-129.22030608207 532.03565396013 2010.70961415721 130 134 133
-138.562716947333 531.673235952118 2008.53700382973 142 146 145
-148.184993739414 531.096911120708 2007.33771830332 145 147 146
-157.537623896726 530.7334812481 2005.16359506457 145 147 146
-166.897101272985 530.369139894696 2002.98886000247 150 151 153
-176.793351835627 529.578507215559 2002.76363563949 150 151 153
-185.897947140662 529.425764404254 1999.61246401761 144 146 145
-195.274162645212 529.059458399239 1997.43540504115 149 154 150
-204.399904904369 528.904651739279 1994.28159983949 145 150 146
-212.774194520827 529.385228524259 1988.19635639334 151 155 154
-220.672953617368 530.287717348086 1980.15397105806 150 154 153
-228.361541773758 531.399374413693 1971.12957587827 148 152 151
-238.31173301735 530.602737349328 1970.89763584954 150 154 153
-246.308214675022 531.498045130069 1962.84307422738 150 154 153
-255.30742227621 531.545045542271 1958.69660098429 155 159 158
-263.132459712343 532.646636395205 1949.65520425008 159 163 164
-271.472942212777 533.322996035232 1942.56597704678 160 164 165
-278.915165514996 534.840291246241 1931.55564404556 160 164 165
-286.872745337635 535.932360885096 1922.49749161014 161 165 166
-294.874600638198 537.021194370437 1913.43406264786 162 166 167
-302.021325025309 538.948332847988 1900.44391239149 160 164 165
-310.122301211421 540.030075375529 1891.36813240248 157 161 162
-319.145136782776 540.268241639183 1886.210279733 155 159 160
-327.540359575672 541.134325100783 1878.1060345357 150 154 155
-335.118252276769 542.836188484806 1866.07059764366 155 159 160
-343.601690208676 543.695636858485 1857.9553611918 156 160 161
-351.289413892493 545.389667267856 1845.90623867029 156 160 161
-361.096735101402 544.98711819294 1843.67547569543 158 162 163
-368.877986557036 546.674175069188 1831.61469982548 155 159 158
-378.123320484048 546.894645805132 1826.42936754589 161 165 164
-383.236230935176 551.496528516241 1800.58508804975 156 161 157
-388.680130184441 555.880832032179 1775.70800346239 160 165 161
-395.024225092442 559.422941891832 1754.75178632725 168 173 169
-404.702881707758 559.417520006813 1750.52065991631 161 166 162
-413.837418701742 560.034634100353 1743.33249542765 165 170 166
-59.1992331382503 527.86857583184 2012.40451372739 213 216 225
-69.7132900985693 526.658137877708 2014.11891078579 183 183 193
-79.920149290678 525.660000995485 2014.86315785528 178 182 183
-90.4069603542914 524.450761261617 2016.58095188505 172 178 174
-99.4442426452067 524.299141399455 2013.43817757213 160 166 162
-109.346276201755 523.512858363604 2013.21222007108 156 160 159
-118.117858289602 523.570895940283 2009.09412408036 137 141 140
-129.137629576997 521.940268623167 2012.76213199936 131 135 134
-138.750886030269 521.364697605687 2011.56397017276 142 146 145
-148.638796378093 520.578119855444 2011.33977594078 146 148 147
-157.168522194478 520.843760879828 2006.24362836842 143 145 144
-166.5253163389 520.476781016768 2004.06899483747 151 152 154
-175.888729009897 520.109023686314 2001.89377766971 152 153 155
-185.521372308773 519.530724560695 2000.69320366377 145 147 146
-194.375096395355 519.581200055114 1996.56487675171 151 156 152
-204.018135899593 519.001402520854 1995.36300930681 146 151 147
-212.643846258575 519.259077391024 1990.25490440958 151 155 154
-220.284368891288 520.352174568875 1981.23631613105 151 155 154
-227.221522524852 522.069594221617 1969.28079871975 147 151 150
-237.177691492018 521.275204118411 1969.04810678916 154 158 157
-245.910388108655 521.524570295129 1963.92667252012 154 158 157
-254.424478922907 521.98089484192 1957.82428684713 156 160 159
-262.251256675954 523.060514000428 1948.7824905246 159 163 164
-270.593843126287 523.720256281711 1941.69304452201 160 164 165
-278.503689529767 524.793869328007 1932.64113780863 159 163 164
-285.536120958349 526.696277827942 1919.66531576331 159 163 164
-293.772821310114 527.554901754342 1911.5808728739 161 165 166
-300.923384765652 529.449070403738 1898.5905706181 159 163 164
-309.028816614333 530.508668253751 1889.51405263722 156 160 161
-318.056912705088 530.735692179218 1884.35581309771 154 158 159
-326.456872570665 531.582243316199 1876.25102817942 152 156 157
-334.895588669483 532.42590740334 1868.1414143153 153 157 158
-342.949994502053 533.680294774432 1858.0630640101 160 164 165
-350.636293607926 535.344375674895 1846.01419813846 159 163 164
-360.031862462191 535.352031163043 1841.81836496771 156 160 161
-368.427421803774 536.389801783844 1832.70569827217 155 159 160
-377.870678502268 536.393344283157 1828.50392477179 159 163 162
-383.172524639765 540.721659930254 1803.64471501503 158 162 161
-388.800070126724 544.835478067374 1779.75311187471 158 162 161
-395.90105786698 547.501165171687 1762.73573567845 166 170 169
-404.60865959719 548.516431628835 1753.58442747023 161 166 162
-412.611322590244 550.349864146528 1740.48770790741 160 165 161
-421.971291318396 550.742148642717 1734.27993031874 182 189 182
-39.9117023949842 525.035389645324 1984.58616926799 245 249 255
-54.3860897799993 521.106430038461 1998.9143929841 188 188 196
-68.1852831960663 517.600752457676 2011.31014775255 195 194 202
-79.863113387628 515.562384983089 2016.91248177628 174 178 179
-91.7942262753242 513.317179186772 2023.49143941648 169 175 173
-99.9513378970927 513.78722730593 2017.43356649574 155 161 159
-109.842905817821 513.004179045413 2017.2089065255 152 156 155
-118.040131345659 513.47125362318 2011.14603545714 139 143 142
-129.334610848284 511.646156656126 2015.78772037329 132 136 135
-138.663745348899 511.27897054267 2013.61677941426 143 147 146
-147.99941724736 510.911129070681 2011.44502435248 144 146 145
-156.25782621898 511.373347852962 2005.37429047088 137 139 138
-165.617489612688 511.0034404853 2003.1995468528 148 150 149
-174.98367926728 510.632699302017 2001.02399099177 151 153 152
-184.093516511129 510.468511717478 1997.87195507758 143 145 144
-193.47560322861 510.096100855936 1995.69441975412 148 153 149
-202.60670919741 509.929901387433 1992.53973492702 143 148 144
-211.749860671776 509.762518999635 1989.38379027595 150 154 153
-219.896287394868 510.420424455238 1982.31882868485 151 155 154
-228.325736420847 510.869417838896 1976.22678484426 149 153 152
-238.01696904635 510.285057071408 1975.01891519986 153 157 156
-245.757006180701 511.34888378642 1965.98822545131 153 157 156
-254.023944285118 511.997738364951 1958.90824858744 155 159 158
-260.65380313641 514.084604158218 1944.97449235987 158 162 163
-268.770652448725 514.932946626027 1936.90503324749 159 163 164
-276.459707001687 516.189407592269 1926.87227116132 159 163 164
-283.737310483337 517.852828929716 1914.87440982434 159 163 164
-292.670332570377 518.076294341934 1909.72804432964 161 165 166
-299.374299068943 520.347467087772 1894.77662717308 159 163 164
-309.047021532925 519.950927175041 1892.56288576968 156 160 161
-317.407538971271 520.781297974838 1884.46306564347 155 159 160
-326.240956565842 521.199838188965 1878.32068911109 154 158 159
-334.888026750869 521.820417567058 1871.19358874136 151 155 156
-343.991808217916 522.029956291026 1866.02570989225 162 166 167
-351.237170863631 524.073430406528 1852.0152567004 162 166 167
-359.172560953487 525.50054142553 1840.94361689651 155 159 160
-367.162844352749 526.923617925939 1829.86513735689 159 163 164
-376.212558702988 527.325275745215 1823.69605299607 159 163 162
-383.308043187196 529.757849588572 1807.6876645673 161 165 164
-390.094470264761 532.590980183406 1789.70141562741 157 161 160
-396.0094816202 536.432715699515 1766.78234206428 163 167 166
-402.804490538811 539.455225953625 1747.78683633858 165 169 168
-410.447163645581 541.660329374639 1732.71868840685 165 170 166
-420.013197460374 541.835104695909 1727.49321474573 164 171 164
-435.061771174789 535.938000212004 1751.83255823011 178 185 177
-42.5708370205129 512.985530677757 1995.3713367484 251 255 255
-53.4422711698965 511.581032697737 1998.04933339477 183 186 191
-68.42830456894 507.287047484175 2014.33028246021 180 181 186
-80.0995159924136 505.267973875853 2019.93339165737 168 172 173
-91.1543577869431 503.663239014809 2023.5967145288 158 164 162
-99.597966678562 503.913582858656 2018.51135412412 149 155 153
-109.48738837588 503.133179656962 2018.2869550242 131 135 134
-118.244977814604 503.175448657951 2014.1708870281 150 154 153
-128.9743794199 501.77796841163 2016.86659001532 132 136 135
-137.471357813358 502.024076201211 2011.77458056783 138 142 141
-146.538600083101 501.858242440957 2008.62786458973 145 147 146
-154.262249652436 502.716345107897 2000.60744877756 126 128 127
-163.635462858994 502.342765092465 1998.43078362599 148 150 149
-172.483805510686 502.377759538115 1994.30340932272 142 144 143
-182.138628959559 501.797808520872 1993.10007171539 138 140 139
-191.794725065761 501.217358372707 1991.8965766024 143 148 144
-201.709686764563 500.432162850146 1991.66900288169 140 145 141
-210.600478312784 500.463136665341 1987.53610152653 146 150 149
-219.50859847526 500.492588493005 1983.40104167086 145 149 148
-228.184434402894 500.724435365903 1978.28674941611 143 147 146
-236.883110755335 500.95428967292 1973.16961205873 151 155 154
-245.115934834308 501.589252240951 1966.09392900767 148 152 151
-253.140735701587 502.425064287796 1958.03598999546 155 159 158
-260.965552279166 503.460912573138 1948.99455368507 153 157 158
-268.362450312723 504.899574471485 1937.99008408745 160 164 165
-276.514569487072 505.726200611984 1929.91628069398 157 161 162
-283.551867719347 507.562724101507 1916.94002480616 156 160 161
-292.479358915946 507.775433535431 1911.79437785937 158 162 163
-298.950690860092 510.211102555682 1895.86411209535 159 163 164
-309.511681996461 509.00346767781 1897.57264466425 159 163 164
-318.297937491902 509.411754061654 1891.43618068612 157 161 162
-326.677628183767 510.221254813911 1883.33402281176 157 161 162
-335.096126713486 511.027745784434 1875.22702987481 151 155 156
-343.977094094194 511.428565144986 1869.07876607747 164 168 169
-352.04941827495 512.632005210014 1858.99855410501 164 168 169
-359.964690985344 514.033042553613 1847.92925322651 155 159 160
-368.342502547987 515.028110224573 1838.81915407429 163 167 168
-376.965507006424 515.819184106012 1830.68668060681 160 164 163
-384.436870891505 517.810874553117 1816.64816016684 163 167 166
-391.000964585737 520.799777674913 1797.68131953043 157 161 160
-396.119304008142 525.384306008958 1770.82896140346 161 165 164
-401.378815408951 529.959420318507 1743.95877037093 165 169 168
-409.030483176864 532.125845465443 1728.88936154778 167 171 170
-419.71658346241 531.090252904615 1729.57414106899 160 166 162
-429.846206494791 530.653437753406 1727.30348723923 171 178 171
-45.5349776725056 500.789861620393 2007.12675263251 223 229 227
-56.3750197303872 499.397994046992 2009.80863356458 186 190 191
-70.4456049131119 495.765785562971 2023.17854055783 173 174 178
-80.6299284345535 494.784972939335 2023.92579459171 157 163 163
-90.5144629444377 494.007926911334 2023.70199654289 152 158 156
-99.2450914394987 494.044087368101 2019.58906893106 144 150 148
-107.993144526828 494.07884167126 2015.47421080492 128 132 131
-117.604814614899 493.503491158733 2014.27624636664 145 149 148
-126.938130735041 493.130661150923 2012.10455816046 127 131 130
-135.17140504358 493.567608672876 2006.03726775593 133 137 136
-143.432799357234 494.002642840841 1999.966232911 145 147 146
-151.993587671396 494.233278633525 1994.8663011076 127 129 128
-161.920319937065 493.451513811757 1994.6372494551 145 147 146
-171.045275585632 493.275555885159 1991.4835981189 141 143 142
-180.971723474117 492.493032791349 1991.25458395188 141 143 142
-190.633537993258 491.912098903076 1990.05037648867 142 147 143
-200.812359185656 490.927635422499 1990.79832679509 139 144 140
-209.705648925535 490.950208426017 1986.66513580362 145 149 148
-219.121224735039 490.568853283302 1984.48320452517 145 149 148
-228.043918099876 490.58871699646 1980.34635126996 143 147 146
-236.489759174666 491.008838074831 1974.25257810151 150 154 153
-244.719315541478 491.627525489822 1967.17734570165 149 153 152
-252.982315508725 492.243664300174 1960.09794644983 156 160 159
-260.322841257698 493.658863283504 1949.10057356881 153 157 158
-267.718367421559 495.070319535968 1938.09634681751 160 164 165
-275.168908665653 496.477793234532 1927.08526499736 158 162 163
-283.367273430849 497.281944108609 1919.00574961537 156 160 161
-291.60450135083 498.083021954753 1910.92139243412 159 163 164
-298.527386684174 500.078657815749 1896.95130848473 160 164 165
-308.863942971355 499.078591540456 1897.67961547324 159 163 164
-316.98943776022 500.070798799215 1888.60077122676 157 161 162
-326.463718337204 499.865298258431 1885.40336373536 159 163 164
-334.231928117172 501.249727705007 1874.35269944619 153 157 158
-344.599628840468 500.245407907079 1875.07713099471 158 162 163
-352.654695951867 501.42539902157 1864.99889408572 168 172 173
-360.552710508251 502.800125826277 1853.93205647941 161 165 166
-367.689795535259 504.963800646691 1838.92711205177 158 162 163
-375.708443427735 506.330006304838 1827.84524255843 158 162 163
-382.98775907294 508.483664663483 1812.82257496849 159 163 164
-391.126907393718 509.841118753291 1801.72569078104 159 163 164
-397.003123587829 513.565463304001 1778.81176776962 154 158 159
-402.046729031192 518.268769583011 1750.96049583698 160 164 165
-408.551225385667 521.581599948767 1729.98486534898 164 168 169
-417.94029084443 521.931118610643 1723.77332901392 155 161 159
-427.357195662426 522.278030138753 1717.55856562594 155 161 157
-17.6315436557488 497.470595354852 1984.41589070104 245 254 253
-34.0292027226361 492.456632876552 2004.55332165586 251 255 255
-46.9980385928908 489.664769017944 2014.0277590394 194 200 198
-56.9249906212417 488.888424915526 2013.79866568655 173 177 176
-68.9178621802251 486.704563597403 2020.36999492993 172 176 175
-78.2316463063737 486.331186223944 2018.2007456426 147 153 153
-88.1327875272564 485.55577225568 2017.9751111452 143 149 149
-97.4544555871157 485.181474575049 2015.80488041315 143 149 149
-105.643002845197 485.608252028913 2009.74319846259 129 133 132
-115.271012899499 485.031681400178 2008.54319810626 116 120 119
-124.341021785165 484.855100562584 2005.39616517289 97 101 100
-134.253743315367 484.077692192228 2005.16885050479 132 136 135
-142.243200477792 484.698419481765 1998.12381596299 141 143 142
-150.80888769221 484.917811521319 1993.02306214708 128 130 129
-159.935110446392 484.736517319903 1989.86926673647 134 136 133
-168.807305606051 484.753446672757 1985.73872308626 130 132 129
-179.804175021425 483.17605497312 1989.40920856064 135 137 134
-188.950282841484 482.99241897942 1986.2529377784 135 140 136
-200.172708821759 481.217363327468 1990.90372303488 132 137 133
-209.065833012252 481.231585770517 1986.7705746939 138 142 141
-218.22902571148 481.045843590802 1983.61193709757 139 143 142
-225.904544658408 482.048743017292 1974.58945928723 140 144 143
-233.871426999716 482.850557599463 1966.53859742703 147 151 150
-242.121976687008 483.451426798279 1959.46103237726 148 152 151
-250.647763645539 483.852059312798 1953.35709348886 154 158 157
-259.919307525443 483.657565656934 1950.18519762118 149 153 154
-268.020270551717 484.449345475129 1942.11762971037 159 163 164
-276.393980512097 485.040875602881 1935.02471958075 160 164 165
-283.414515039013 486.812951791756 1922.05072542392 157 161 162
-291.871323145471 487.398468920477 1914.94722070322 160 164 165
-299.458757041125 488.768794007951 1903.919153319 162 166 167
-308.439277192816 488.955191871262 1898.76695796271 158 162 163
-315.900223436627 490.515257153504 1886.74624844867 156 160 161
-325.162540182428 490.500169363089 1882.56734451563 160 164 165
-334.012196908943 490.875988961121 1876.42305393882 153 157 158
-344.37544294694 489.877208505132 1877.14802681806 154 158 159
-352.005042456608 491.424737940609 1865.10630338622 166 170 171
-359.90183271643 492.772249698178 1854.03969023474 163 167 168
-367.445368494856 494.506769933873 1841.00076778469 158 162 163
-375.658900657312 495.650567317111 1830.90285068907 159 163 164
-383.524461456552 497.181036613525 1818.83196587928 159 163 164
-391.058210233174 499.097384765256 1804.78585858492 159 163 164
-398.276427924154 501.398395416599 1788.76250024451 161 165 168
-402.907666163566 506.419433248428 1758.94623810117 160 164 165
-408.448145091426 510.652050902499 1733.04981330202 163 167 168
-416.71752408401 512.154403270758 1720.92836814524 151 157 155
-426.872446368842 511.710362525895 1718.65457614669 154 160 156
-24.0347295907732 483.1069442264 2006.83312225521 243 251 253
-33.6879273104322 482.530381498012 2005.62997860634 241 250 249
-45.7523509602014 480.364414941438 2012.19209117784 176 185 184
-57.177912119412 478.597560068775 2016.81750476844 171 177 175
-67.9807222363713 477.229206039753 2019.50397010455 173 179 177
-77.0040778042811 477.051001181346 2016.36300377497 151 157 157
-86.3299469744581 476.673748367226 2014.19225655143 142 148 148
-95.6624458081716 476.295896542799 2012.02092383128 142 148 148
-104.146259307204 476.510533305708 2006.93064016261 130 134 135
-112.935220644413 476.526076245231 2002.81048725243 111 115 116
-122.580799142304 475.948028072655 2001.60829834926 99 103 102
-133.058969894744 474.777919312389 2003.32706758875 132 136 135
-141.601583586929 474.987974054827 1998.22945807018 134 136 133
-149.895197204456 475.393244571015 1992.15448082813 125 127 124
-158.217207430741 475.796290508788 1986.07620598428 131 133 130
-167.63243130553 475.411195288223 1983.89432847456 126 128 125
-177.84519502086 474.435976412846 1984.63801860945 133 135 132
-187.526588690527 473.85349660935 1983.43137185511 133 138 134
-197.983825228297 472.682213146634 1985.15275665437 130 135 131
-207.148580179407 472.491115889589 1981.99393820065 135 139 138
-216.830906812287 471.90744192933 1980.78717816279 137 141 140
-224.513390174546 472.88803936023 1971.7638899661 139 143 142
-231.745325676013 474.256406192545 1960.78019183679 146 150 149
-239.766599654628 475.03522906227 1952.72284303841 146 150 149
-248.068793491278 475.616083514651 1945.6386455435 152 156 155
-258.558734844118 474.439909624474 1947.35596185395 147 151 152
-267.140431652783 474.822408145744 1941.24509350202 158 162 163
-275.516160722012 475.397383537919 1934.15173472711 160 164 165
-283.000349577499 476.747649829271 1923.13660453766 155 159 160
-290.082401994119 478.482723384882 1910.15527102575 159 163 164
-298.58558951891 479.048384498062 1903.04603071794 162 166 167
-306.899068151258 479.805426978085 1894.95227386415 154 158 159
-314.810380820619 480.947276099335 1884.89207710524 153 157 158
-324.295839498197 480.730014843822 1881.69330562439 158 162 163
-334.008335287966 480.317921704055 1879.47464170394 153 157 158
-344.576757722193 479.131552287836 1881.18219088896 147 151 152
-351.145735054078 481.615414950178 1864.23168527465 159 163 164
-358.837126429429 483.128432630623 1852.1825817375 163 167 168
-366.384471742673 484.829979911848 1839.14303044438 157 161 162
-375.005638886869 485.563598647425 1831.01093756894 157 161 164
-382.670953795161 487.256675033299 1817.95668667559 159 163 166
-390.205795666798 489.137359122026 1803.91053688947 159 163 166
-397.424713324163 491.397358261501 1787.88743946849 156 160 163
-402.626652091444 495.763588996037 1761.02498324773 162 166 169
-407.781799213411 500.312215892904 1733.16019891567 164 168 169
-416.420751961301 501.401319890387 1723.00933587914 141 147 145
-426.570773714465 500.954724672289 1720.73616216507 148 154 150
-437.447012568434 499.741758086968 1722.40536772341 196 203 196
-17.5602056934172 477.110671849692 1988.50939905239 244 253 255
-31.5223009844983 473.785189999968 2000.88435009087 201 211 213
-42.3959431954459 472.423670776555 2003.56195800118 169 179 180
-54.444473988889 470.279860846087 2010.12623582724 150 159 158
-65.2669597431814 468.921003360645 2012.81022075132 137 146 145
-74.3090032776708 468.735991581551 2009.66669993103 141 147 147
-83.6537386248064 468.354792166722 2007.49384898212 148 154 154
-93.2930381157917 467.777741224846 2006.29244103571 141 147 147
-103.218991830671 467.005342663221 2006.06346187604 133 137 138
-111.445303430124 467.401943492402 1999.99714662801 130 134 135
-120.539347656662 467.212603693504 1996.84714782647 84 88 87
-130.754493678883 466.244220547998 1997.59052266189 127 131 130
-139.587336058828 466.247830517835 1993.46492508206 126 128 125
-148.437632536176 466.250029950532 1989.33715304866 121 123 120
-156.228704550242 467.027094403745 1981.30853672524 123 125 122
-165.924121563853 466.444258732486 1980.10014087765 122 124 121
-175.884466323784 465.667399820603 1979.86688166505 138 140 137
-185.579661701785 465.083861602497 1978.65851532641 131 136 132
-196.051271277408 463.919724990729 1980.37808763454 126 131 127
-205.229637698287 463.722149222756 1977.21782787952 130 134 133
-215.17883633053 462.944268439604 1976.98596232883 135 139 138
-223.121365536109 463.709593923721 1968.93847595747 138 142 141
-230.855181028842 464.664702043893 1959.90860867082 146 150 149
-237.898676315593 466.194448602684 1947.9403146803 144 148 147
-246.940355297922 466.180812817671 1943.7887009432 149 153 152
-257.676301223694 464.819823975383 1946.48349113911 145 149 150
-267.207603375701 464.420169743162 1944.28740635602 157 161 162
-275.57469307071 464.979212188 1937.19516768279 159 163 164
-282.355133207992 466.877915734295 1923.24311531954 154 158 159
-289.893083332524 468.19698630486 1912.22135819436 158 162 163
-297.486092901197 469.512310384057 1901.19273984231 162 166 167
-305.35749612667 470.632395033694 1891.13758086202 153 157 158
-313.499272464611 471.55787315675 1882.05712077201 152 156 157
-322.557100972206 471.71623354569 1876.89535162564 156 160 161
-333.359774101176 470.346634077552 1879.58183733685 154 158 159
-343.716711768046 469.358826329036 1880.30756856728 146 150 151
-351.54536872499 470.656331374098 1869.2495897401 158 162 163
-359.429073989114 471.949911470704 1858.18475154584 164 168 169
-367.163190762316 473.429627031772 1846.13016356283 158 162 163
-375.563119115478 474.335135780487 1837.01754021615 157 161 164
-382.613444901684 476.565918539266 1821.01531873554 160 164 167
-389.745813751032 478.790879966013 1805.00311436471 160 164 167
-395.797946110712 482.146988581622 1783.07589489025 153 157 160
-400.62762122193 486.820216606358 1754.24371231014 162 166 169
-405.98583833293 491.105242938112 1727.36196732489 162 166 169
-415.382403065751 491.413015818349 1721.14960506078 136 142 140
-425.538326640619 490.963177955108 1718.87570337365 141 147 145
-442.727268901572 483.156340788243 1755.04617698347 198 205 198
-29.9636285697724 464.624826257292 1998.07968512201 198 206 209
-42.0527762384488 462.50034684331 2004.63884329594 166 171 174
-54.399020234553 460.185028089799 2012.17386676621 147 156 155
-64.3283473385845 459.415881014962 2011.94469833358 146 156 155
-73.6663928892935 459.032417776022 2009.77244792467 110 116 116
-81.8477892135658 459.418681361531 2003.71176506021 136 142 142
-91.7861992045494 458.648355928855 2003.48122597141 142 146 147
-101.720724227323 457.877981883877 2003.25141210044 140 144 145
-110.802680098923 457.683917740883 2000.10293429552 148 152 153
-119.89672954283 457.488963723538 1996.95294962773 79 83 82
-129.002772887692 457.292949518791 1993.80171125271 127 131 130
-137.571575970212 457.479178913432 1988.70089619627 127 129 126
-146.162946595707 457.663788955597 1983.59702883964 121 123 120
-155.585351463964 457.272684604543 1981.41451127796 117 119 116
-165.814378256892 456.307358838964 1982.15614582376 118 120 117
-175.769913052368 455.533195237113 1981.92347976828 138 140 137
-184.414951863841 455.71313464566 1976.81316750802 129 134 130
-193.858551385082 455.319303959258 1974.62777188991 123 128 124
-202.541210024698 455.496189824724 1969.5127729389 127 131 130
-212.765742433967 454.529119822642 1970.25497295059 129 133 132
-221.978815655144 454.323119420414 1967.09016390932 132 136 135
-230.212681760063 454.87601703546 1960.01456693472 148 152 151
-238.234981276162 455.616194036371 1951.95719192784 144 148 147
-246.538612350023 456.164050000566 1944.87290197457 147 151 150
-257.273009193701 454.813852619997 1947.56809733657 146 150 151
-265.616809306624 455.358194030783 1940.47880378015 158 162 163
-274.462789649808 455.521629534564 1935.34345866713 158 162 163
-281.710023208212 457.006562363767 1923.34961709142 153 157 158
-288.788844283845 458.676087640683 1910.36885945081 158 162 163
-296.612228967727 459.775043859156 1900.3197485416 164 168 169
-304.038136283662 461.24751914507 1888.30364234375 153 157 158
-313.733013714218 460.831830342716 1886.08718655942 153 157 158
-322.34359543426 461.356309568742 1878.96465254198 150 154 155
-332.495772116947 460.561797646779 1878.70774059684 153 157 156
-342.005343174436 460.330637800481 1875.50599663497 145 149 148
-351.316688254374 460.285907466545 1871.32081204952 155 159 160
-360.437898076798 460.42715094186 1866.15117836655 162 166 165
-367.944465731571 462.065482138113 1853.11688236144 158 162 163
-375.112895276842 464.073793543131 1838.10843546726 159 163 164
-380.963085242936 467.386212636066 1816.20677253319 163 167 170
-388.303385506761 469.382736275303 1801.17666796334 163 167 170
-395.526506967451 471.560528760619 1785.15326242086 148 152 155
-400.72875270489 475.784959455005 1758.29114131739 158 162 165
-406.072292201053 480.00003059287 1731.41141223621 155 159 160
-415.272112674317 480.480939987041 1724.21545944552 123 129 127
-425.237376233335 480.214839919864 1720.95718003606 122 128 124
-434.67320067057 480.505002016966 1714.73996477032 197 204 197
-13.8061809852488 459.079685113732 1980.96338578119 240 252 252
-31.1442585163753 453.730466378092 2004.0076425201 186 187 189
-42.6152946748466 452.009507518042 2008.62726023413 171 171 171
-54.3544298049914 450.099758111607 2014.22160505285 149 154 150
-63.6858924998005 449.71385007703 2012.05042285246 135 146 142
-73.0239332345524 449.327460757475 2009.87818075028 138 142 143
-80.9135617629959 449.889808847557 2002.84575797136 145 146 148
-89.990125571539 449.691011823585 1999.69796552791 92 93 95
-99.6500518903287 449.112109334662 1998.49398835132 120 122 121
-108.745357302888 448.911640585412 1995.34386146892 142 144 143
-117.852774674909 448.710104127755 1992.19246616609 90 92 91
-127.805031289954 447.940389640461 1991.96019749157 113 115 114
-136.928533949588 447.737350680126 1988.80679879673 125 127 126
-145.791839939433 447.721999118382 1984.677449473 121 123 122
-155.481117910689 447.139554539354 1983.46981871167 109 111 108
-166.239084256068 445.802843412619 1986.1617969549 122 124 121
-176.448481939821 444.843483683253 1986.90562511739 136 138 135
-184.033981209224 445.765699867679 1977.89459370706 132 134 133
-193.216364803879 445.556996239804 1974.73362166859 129 131 130
-201.898631810421 445.722858448979 1969.61870062148 130 132 131
-212.123963137945 444.760993104137 1970.36078722661 129 131 130
-220.835700223339 444.924261233843 1965.2421953193 138 142 141
-230.56215067132 444.336343000705 1964.02994006732 148 152 153
-238.57289517667 445.058023072328 1955.97381549973 145 149 150
-247.835450724203 444.842004813693 1952.80309800708 147 151 152
-257.110018531373 444.624741023751 1949.63064446676 145 151 151
-266.633840138589 444.219650848135 1947.4355075268 160 166 166
-274.75723400709 444.932604235679 1939.36558823482 157 163 163
-281.528567369339 446.760878249232 1925.41485781692 149 153 152
-289.745924488357 447.467188694314 1917.33322996074 156 160 159
-297.549377234366 448.542570259653 1907.28666852255 161 165 164
-305.178709108501 449.800337371698 1896.25366893574 155 159 158
-313.3052057402 450.682771140165 1887.17498874977 156 160 159
-321.475948335197 451.561970635369 1878.09103571525 148 152 151
-331.84718644896 450.58441991626 1878.81495532293 157 162 158
-341.569824341333 450.162480944854 1876.59481138794 138 143 139
-350.668325944516 450.294540513846 1871.42803574197 154 158 157
-358.336716463425 451.71866380399 1859.38203667593 168 173 169
-365.450997939791 453.692620604082 1844.38043761226 156 160 159
-372.844010894146 455.476751172959 1830.35224150678 157 161 160
-379.909276383154 457.624523894781 1814.34837424357 160 164 165
-387.843393775142 459.029927192238 1802.26926333317 157 161 162
-395.449771126425 460.799091614033 1788.21448002518 143 147 148
-400.639991853109 464.953338406233 1761.35404439877 158 162 163
-404.651208411116 470.384070023212 1727.58308972023 150 154 155
-413.11776074808 471.581991667704 1716.44576757016 121 125 124
-422.188795802846 472.225795710561 1708.25777036288 122 127 123
-430.395889912071 473.782411869703 1695.13626799137 194 199 193
-17.4593988907863 446.642835878532 1994.64881823363 244 255 255
-32.3273649823386 442.867243159131 2009.93520886593 178 182 183
-43.783517173609 441.163238040738 2014.556639364 164 164 162
-54.3107838099515 440.023923796083 2016.26920063117 152 152 152
-63.3401628440273 439.823056326714 2013.12730202106 138 143 146
-72.9695858880905 439.246335960231 2011.92712572629 129 133 136
-79.9791841546498 440.354254510076 2001.97954694892 149 150 152
-87.6156368492034 441.08479135188 1993.97034873129 99 100 102
-95.2910451386826 441.812786776515 1985.95629577844 102 104 103
-105.553837734661 440.857672429282 1986.69368966023 113 115 114
-115.246244624226 440.275984075276 1985.48566643691 86 88 87
-126.606672536764 438.575568810761 1990.11903330529 106 108 107
-135.460442175214 438.552702551188 1985.99089385153 128 130 129
-144.603857566466 438.342539756834 1982.83478865713 118 120 119
-155.10803523645 437.20171030224 1984.55023528105 109 111 108
-165.330388345768 436.24720135006 1985.29267417742 127 129 126
-174.750167539928 435.849632602289 1983.11026103936 137 139 136
-182.345339145677 436.74925483663 1974.098082079 129 131 130
-192.056409312644 436.163690026088 1972.88773999751 126 128 127
-201.512432100514 435.762856798306 1970.70081247012 127 129 128
-211.482260697022 434.99124899033 1970.46659617093 128 130 129
-220.193716783207 435.143366971348 1965.34806869417 141 145 144
-230.416847296655 434.186118491524 1966.09017752081 149 153 154
-238.175942403347 435.073386747887 1957.0575744104 145 149 150
-247.435843130033 434.851861504426 1953.88696245739 144 148 149
-255.987683219884 435.181379879258 1947.78019983753 144 150 150
-264.330315858225 435.692769292563 1940.69113875295 161 167 167
-272.941026297952 436.017877840227 1934.57680080583 159 165 165
-280.188081691708 437.442505109262 1922.5833805453 149 153 154
-289.100604976692 437.578708401721 1917.4398029816 156 160 161
-298.035858043126 437.713043117414 1912.29315352764 160 164 165
-305.874434592575 438.761046555838 1902.24252121449 157 161 162
-313.983807991895 439.62265312793 1893.16603275438 155 159 158
-321.263546135299 441.212131646024 1880.16041265182 150 154 153
-331.19867392375 440.605365304743 1878.92216533725 154 158 157
-340.708550562244 440.36295821904 1875.72041285989 136 140 139
-349.809637797328 440.483744740682 1870.55334422951 149 154 150
-356.85625350576 442.424208090859 1855.56027765744 166 171 167
-363.774439583646 444.541336746508 1839.57484573527 161 166 162
-371.583868547501 445.925419538271 1827.51135135035 159 163 162
-379.653225563451 447.123680928003 1816.42359593344 162 166 165
-387.383694939492 448.680859444243 1803.36157202991 159 163 162
-395.374169784038 450.052034963895 1791.27551818025 144 148 149
-400.360837493791 454.317320387784 1763.43226498374 159 163 164
-403.983956944307 460.020702438884 1727.69365031821 152 156 157
-410.774490143202 462.818710786997 1707.69136698672 118 122 121
-418.21871006958 465.067589173803 1690.63225509372 124 129 125
-424.666042437433 468.393394972627 1667.64810969783 190 195 189
-2.16162284579191 440.426267687605 1980.45006644082 92 116 142
-17.7350682902817 436.320481597209 1997.66490143823 189 212 230
-31.9884330218077 432.961921919244 2011.01127797998 163 173 172
-43.7452656568802 431.088849227864 2016.60331766789 162 164 159
-53.6689251832949 430.327647928664 2016.37483559053 150 148 151
-62.4014498724235 430.305876504893 2012.26182390643 144 142 153
-72.0336361544345 429.728800937716 2011.0613037113 136 137 141
-79.3360076876548 430.627365389837 2002.08542698587 135 136 138
-87.2601186982525 431.154430653394 1995.04879391311 129 130 132
-94.3597786160144 432.231647882802 1985.09005682494 92 94 93
-103.775853448614 431.833598457816 1982.90810723516 95 97 96
-112.918049485627 431.61861862745 1979.75240716319 58 60 59
-124.017964010409 430.116959543843 1983.40983377797 102 104 103
-132.615044078835 430.268181993301 1978.3055821104 130 132 131
-142.325092922647 429.684294746096 1977.09536306619 115 117 116
-152.846292522246 428.550323948458 1978.8086673919 109 111 108
-162.551039502336 427.965998071902 1977.59911114406 128 130 127
-171.728106417517 427.747122041189 1974.43882938442 136 138 135
-179.084683009809 428.805944153242 1964.44831932578 128 130 129
-190.118439487173 427.305871940502 1968.11399789478 125 127 126
-200.101085959947 426.536433669853 1967.87817628701 126 128 127
-211.348093935005 424.855663618413 1972.52540528935 127 129 128
-219.802807742917 425.179126445438 1966.43077940233 143 147 146
-230.02409923588 424.227071508115 1967.17310405084 149 153 154
-237.779433811448 425.092541842955 1958.14102763654 143 147 148
-247.03676827066 424.865506477197 1954.97075044925 143 147 148
-255.104899939083 425.54429568075 1946.9078175233 143 149 149
-263.687175227843 425.857720999171 1940.79729915103 161 167 167
