ply
format ascii 1.0
comment KinectMotionCapture
element vertex 756
property float x
property float y
property float z
property uchar red
property uchar green
property uchar blue
end_header
-1406.6755771637 233.336076140404 2525.00009536743 112 114 109
-1404.01113033295 234.039530158043 2532.99999237061 110 112 107
-1403.51617336273 235.113382339478 2545.00007629395 104 109 103
-1404.60813045502 236.465021967888 2559.99994277954 66 71 64
-1402.34887599945 237.263202667236 2569.00000572205 46 51 44
-1394.07348632813 237.046390771866 2566.99991226196 97 100 93
-1385.27691364288 236.738309264183 2563.99989128113 102 103 97
-1375.42974948883 236.246690154076 2559.00001525879 101 100 95
-1366.15288257599 235.848486423492 2555.0000667572 113 112 107
-1356.37354850769 235.359042882919 2549.99995231628 111 110 105
-1349.80392456055 235.424384474754 2551.00011825562 114 113 108
-1342.7095413208 235.39836704731 2551.00011825562 115 116 111
-1335.62183380127 235.373303294182 2551.00011825562 116 117 112
-1326.97820663452 235.07234454155 2548.00009727478 116 117 112
-1319.91219520569 235.049113631248 2548.00009727478 117 118 113
-1312.85238265991 235.026776790619 2548.00009727478 127 127 125
-1306.31148815155 235.09755730629 2549.00002479553 133 133 131
-1298.2417345047 234.892532229424 2546.99993133545 137 139 136
-1292.72353649139 235.149443149567 2549.99995231628 124 126 123
-1287.1949672699 235.407188534737 2552.99997329712 121 123 118
-1280.15100955963 235.389113426209 2552.99997329712 122 124 119
-1273.11253547668 235.371857881546 2552.99997329712 117 119 114
-1267.07148551941 235.539793968201 2555.0000667572 119 121 116
-1261.51776313782 235.800668597221 2558.00008773804 139 141 136
-1254.97186183929 235.878005623817 2559.00001525879 146 148 143
-1250.37598609924 236.324712634087 2563.99989128113 133 135 130
-1245.27287483215 236.680030822754 2568.00007820129 126 128 123
-1239.67015743256 236.943915486336 2571.00009918213 120 122 117
-1232.61725902557 236.931994557381 2571.00009918213 126 128 123
-1226.99904441834 237.197279930115 2573.99988174438 127 129 124
-1221.36890888214 237.463310360909 2576.99990272522 128 130 125
-1216.66884422302 237.914279103279 2582.00001716614 129 131 126
-1210.07180213928 237.997397780418 2582.99994468689 137 139 134
-1204.87058162689 238.357603549957 2586.99989318848 138 140 135
-1199.65159893036 238.718509674072 2591.00008010864 132 134 129
-1198.09651374817 239.817053079605 2602.9999256134 132 134 129
-1194.6496963501 240.547746419907 2611.00006103516 133 135 130
-1188.43388557434 240.72627723217 2612.99991607666 132 134 129
-1183.56704711914 241.18185043335 2618.00003051758 132 134 129
-1179.57496643066 241.8222874403 2625 132 134 129
-1174.20816421509 242.186963558197 2628.99994850159 130 132 127
-1168.37906837463 242.460146546364 2631.99996948242 128 130 127
-1163.41912746429 242.918208241463 2637.00008392334 129 131 128
-1161.06569766998 243.929550051689 2648.00000190735 130 132 129
-1158.65540504456 244.941458106041 2658.99991989136 135 137 134
-1156.62133693695 246.046125888824 2671.0000038147 139 141 138
-1152.80318260193 246.782839298248 2678.99990081787 135 137 134
-1149.79982376099 247.704431414604 2688.99989128113 133 135 132
-1148.44417572021 248.995050787926 2703.00006866455 133 135 132
-1149.97005462646 250.931054353714 2723.99997711182 139 141 138
-1150.1259803772 252.59131193161 2742.00010299683 137 139 136
-1149.7700214386 254.160046577454 2759.0000629425 134 136 133
-1153.8782119751 256.742656230927 2786.99994087219 130 132 129
-1157.8369140625 259.325921535492 2815.00005722046 88 90 85
-1153.88226509094 260.159403085709 2823.99988174438 64 66 61
-1146.63398265839 260.256469249725 2825.00004768372 70 72 67
-1138.17274570465 260.077655315399 2822.99995422363 84 86 81
-1130.1246881485 259.991466999054 2822.00002670288 87 89 84
-1122.48146533966 259.997934103012 2822.00002670288 79 80 75
-1112.86473274231 259.544163942337 2816.99991226196 68 69 64
-1102.88453102112 258.99875164032 2811.00010871887 88 89 84
-1092.54848957062 258.361577987671 2803.99990081787 123 124 119
-1087.66889572144 259.014904499054 2811.00010871887 126 127 122
-1083.13715457916 259.760826826096 2819.00000572205 147 148 143
-1079.32651042938 260.691553354263 2828.9999961853 143 143 141
-1467.68653392792 222.139924764633 2470.99995613098 171 173 170
-1461.2078666687 222.181677818298 2471.99988365173 170 172 169
-1450.61635971069 221.595570445061 2466.00008010864 164 166 163
-1441.24031066895 221.19052708149 2461.99989318848 165 167 164
-1433.06255340576 220.966458320618 2460.00003814697 163 165 162
-1424.9062538147 220.743581652641 2457.99994468689 139 141 138
-1419.07870769501 220.881104469299 2460.00003814697 133 135 132
-1416.11933708191 221.468478441238 2467.00000762939 125 127 124
-1415.41481018066 222.415775060654 2477.9999256134 124 126 123
-1415.22562503815 223.453551530838 2490.00000953674 126 128 125
-1413.28144073486 224.222868680954 2499.00007247925 128 130 127
-1410.73226928711 224.903225898743 2506.99996948242 131 130 126
-1408.70702266693 225.674152374268 2516.00003242493 131 132 127
-1406.08286857605 226.35617852211 2523.9999294281 113 115 110
-1403.97655963898 227.128684520721 2532.99999237061 107 109 104
-1404.58500385284 228.350222110748 2546.99993133545 105 110 104
-1406.76975250244 229.841396212578 2563.99989128113 57 62 55
-1406.13794326782 230.884999036789 2575.99997520447 31 36 29
-1396.75784111023 230.495408177376 2572.00002670288 66 69 62
-1386.86776161194 230.017304420471 2566.99991226196 82 83 77
-1377.01320648193 229.540288448334 2562.00003623962 97 96 91
-1369.33290958405 229.422688484192 2561.00010871887 99 98 93
-1358.47401618958 228.768602013588 2553.99990081787 107 106 101
-1349.77793693542 228.473886847496 2551.00011825562 111 110 105
-1343.73688697815 228.627845644951 2552.99997329712 108 109 104
-1337.16821670532 228.693172335625 2553.99990081787 109 110 105
-1329.55884933472 228.58028113842 2552.99997329712 117 118 113
-1321.44391536713 228.378802537918 2551.00011825562 119 120 115
-1313.34614753723 228.178188204765 2549.00002479553 132 132 130
-1304.75354194641 227.888971567154 2546.0000038147 140 140 138
-1298.22182655334 227.958619594574 2546.99993133545 142 144 141
-1292.70458221436 228.208109736443 2549.99995231628 123 125 122
-1287.6809835434 228.547856211662 2553.99990081787 118 120 115
-1280.63499927521 228.530421853065 2553.99990081787 123 125 120
-1274.09338951111 228.603273630142 2555.0000667572 117 119 114
-1266.55972003937 228.497952222824 2553.99990081787 122 124 119
-1260.51640510559 228.661835193634 2555.99999427795 143 145 140
-1254.46724891663 228.826448321342 2558.00008773804 141 143 138
-1251.82557106018 229.617938399315 2566.99991226196 129 131 126
-1245.74494361877 229.783967137337 2569.00000572205 124 126 121
-1238.69371414185 229.771852493286 2569.00000572205 121 123 118
-1229.72941398621 229.402706027031 2565.00005722046 126 128 123
-1223.65164756775 229.570865631104 2566.99991226196 126 128 123
-1217.09358692169 229.650348424912 2568.00007820129 129 131 126
-1213.36138248444 230.267032980919 2575.00004768372 130 132 127
-1206.78412914276 230.347812175751 2575.99997520447 137 139 134
-1202.99994945526 230.965793132782 2582.99994468689 137 139 134
-1197.32928276062 231.226727366447 2585.99996566772 130 132 127
-1195.78874111176 232.293024659157 2598.00004959106 130 132 127
-1191.89858436584 232.912853360176 2605.00001907349 133 135 130
-1186.60926818848 233.265072107315 2608.99996757507 131 133 128
-1181.75411224365 233.70735347271 2614.00008201599 130 132 127
-1178.67207527161 234.50779914856 2622.99990653992 131 133 128
-1173.31159114838 234.861880540848 2627.00009346008 130 132 127
-1167.04452037811 235.037684440613 2628.99994850159 128 130 127
-1161.65208816528 235.392943024635 2632.99989700317 130 132 129
-1159.31022167206 236.374571919441 2644.00005340576 133 135 132
-1156.47566318512 237.267374992371 2654.00004386902 137 139 136
-1156.18789196014 238.697156310081 2670.00007629395 141 143 140
-1152.37307548523 239.412263035774 2677.99997329712 137 139 136
-1149.80053901672 240.396156907082 2688.99989128113 134 136 133
-1147.59576320648 241.470023989677 2700.99997520447 133 135 132
-1149.5498418808 243.438437581062 2723.00004959106 137 139 136
-1150.96735954285 245.318010449409 2743.99995803833 135 137 134
-1150.18975734711 246.751204133034 2759.99999046326 134 136 133
-1154.29592132568 249.257743358612 2788.00010681152 129 131 128
-1159.89744663239 252.122521400452 2819.9999332428 94 96 91
-1157.56440162659 253.289192914963 2832.99994468689 60 62 57
-1149.48034286499 253.204703330994 2832.00001716614 65 67 62
-1140.19429683685 252.852469682693 2828.00006866455 81 83 78
-1132.13312625885 252.768933773041 2826.99990272522 84 86 81
-1123.68142604828 252.596527338028 2825.00004768372 78 79 74
-1113.26706409454 251.977443695068 2818.00007820129 70 71 66
-1102.10740566254 251.179993152618 2809.00001525879 91 92 87
-1091.38762950897 250.472337007523 2801.00011825562 120 121 116
-1086.51661872864 251.106441020966 2808.00008773804 122 123 118
-1082.76188373566 252.009332180023 2818.00007820129 141 142 137
-1079.33580875397 253.002136945724 2828.9999961853 139 139 137
-1076.23040676117 254.084885120392 2841.00008010864 154 154 152
-1476.50897502899 215.68875014782 2473.99997711182 205 207 204
-1467.04483032227 215.292319655418 2470.00002861023 173 175 172
-1453.47690582275 214.287236332893 2459.00011062622 174 176 173
-1444.10026073456 213.893577456474 2454.99992370605 173 175 172
-1436.5131855011 213.762566447258 2453.9999961853 172 174 171
-1430.68933486938 213.893920183182 2456.00008964539 169 171 168
-1424.28481578827 213.939294219017 2457.00001716614 160 162 159
-1417.88387298584 213.985666632652 2457.99994468689 153 155 152
-1414.35742378235 214.468315243721 2463.99998664856 139 141 138
-1413.09118270874 215.29994904995 2473.99997711182 134 136 133
-1412.91415691376 216.30634367466 2486.00006103516 129 131 128
-1410.41648387909 216.965407133102 2493.99995803833 133 135 132
-1409.57081317902 217.88626909256 2505.00011444092 128 127 123
-1406.99207782745 218.54692697525 2513.00001144409 123 124 119
-1406.60560131073 219.556167721748 2525.00009536743 131 133 128
-1402.8342962265 220.044448971748 2530.99989891052 112 114 109
-1404.55257892609 221.402883529663 2546.99993133545 105 110 104
-1406.73780441284 222.848773002625 2563.99989128113 41 46 39
-1406.65256977081 223.947659134865 2576.99990272522 42 47 40
-1399.44314956665 223.917633295059 2576.99990272522 49 52 45
-1390.620470047 223.627895116806 2573.99988174438 51 52 46
-1380.7475566864 223.165467381477 2569.00000572205 67 66 61
-1371.44482135773 222.79092669487 2565.00005722046 77 76 71
-1360.57567596436 222.156822681427 2558.00008773804 93 92 87
-1351.86910629272 221.871107816696 2555.0000667572 105 104 99
-1344.23911571503 221.760034561157 2553.99990081787 115 116 111
-1336.62128448486 221.649840474129 2552.99997329712 112 113 108
-1328.49490642548 221.453711390495 2551.00011825562 131 132 127
-1320.38629055023 221.258491277695 2549.00002479553 133 134 129
-1311.77985668182 220.97735106945 2546.0000038147 153 153 151
-1302.17111110687 220.523491501808 2540.99988937378 161 161 159
-1297.69313335419 220.938310027123 2546.0000038147 133 135 132
-1292.17958450317 221.180334687233 2549.00002479553 123 125 122
-1288.16783428192 221.683397889137 2555.0000667572 120 122 117
-1280.61842918396 221.57983481884 2553.99990081787 130 132 127
-1273.08022975922 221.47710621357 2552.99997329712 118 120 115
-1264.06526565552 221.11488878727 2549.00002479553 140 142 137
-1258.03625583649 221.273928880692 2551.00011825562 144 146 141
-1253.96311283112 221.780598163605 2556.99992179871 129 131 126
-1251.32489204407 222.548142075539 2565.99998474121 129 131 126
-1244.76277828217 222.622528672218 2566.99991226196 130 132 127
-1236.75346374512 222.437471151352 2565.00005722046 133 135 130
-1227.80096530914 222.079649567604 2561.00010871887 130 132 127
-1221.73476219177 222.24286198616 2562.99996376038 133 135 130
-1216.61007404327 222.580164670944 2566.99991226196 136 138 133
-1212.40997314453 223.091498017311 2572.99995422363 141 143 138
-1206.77590370178 223.343387246132 2575.99997520447 144 146 141
-1202.99232006073 223.942667245865 2582.99994468689 137 139 134
-1198.71151447296 224.455878138542 2588.99998664856 132 134 129
-1196.24280929565 225.31646490097 2598.99997711182 134 136 131
-1191.43545627594 225.744187831879 2604.00009155273 135 137 132
-1185.23991107941 225.912436842918 2605.99994659424 132 134 129
-1180.8454990387 226.428061723709 2611.99998855591 133 135 130
-1178.21907997131 227.290987968445 2621.99997901917 136 138 133
-1173.75504970551 227.807760238647 2628.00002098084 135 137 132
-1167.92976856232 228.06504368782 2631.00004196167 132 134 131
-1161.20886802673 228.14953327179 2631.99996948242 131 133 130
-1157.99343585968 228.928089141846 2641.00003242493 133 135 132
-1155.16757965088 229.793846607208 2651.00002288818 137 139 136
-1154.88851070404 231.180280447006 2667.00005531311 141 143 140
-1151.94308757782 232.047110795975 2677.00004577637 146 148 145
-1149.80137348175 233.087882399559 2688.99989128113 138 140 137
-1147.59695529938 234.129220247269 2700.99997520447 135 137 134
-1148.28515052795 235.777854919434 2720.00002861023 135 137 134
-1149.71137046814 237.600415945053 2740.9999370575 133 135 132
-1149.35922622681 239.076808094978 2757.99989700317 136 138 135
-1154.29937839508 241.680666804314 2788.00010681152 129 131 128
-1161.13555431366 244.71852183342 2822.99995422363 100 102 97
-1158.79487991333 245.849832892418 2835.99996566772 52 54 49
-1151.51500701904 245.941400527954 2836.99989318848 57 59 54
-1141.81268215179 245.5133497715 2832.00001716614 90 92 87
-1132.94017314911 245.259076356888 2828.9999961853 87 89 84
-1124.48346614838 245.092004537582 2826.99990272522 71 72 67
-1112.87891864777 244.231775403023 2816.99991226196 75 76 71
-1101.33004188538 243.371933698654 2806.99992179871 112 113 108
-1091.00580215454 242.772594094276 2799.99995231628 119 120 115
-1086.13801002502 243.387550115585 2806.99992179871 125 126 121
-1082.38637447357 244.263112545013 2816.99991226196 142 143 138
-1079.72657680511 245.399281382561 2829.99992370605 147 147 145
-1076.99763774872 246.535941958427 2842.99993515015 132 132 130
-1475.86452960968 208.834677934647 2473.00004959106 199 201 198
-1465.216755867 208.282008767128 2467.00000762939 168 170 167
-1451.65884494781 207.308650016785 2456.00008964539 178 180 177
-1442.88015365601 207.011923193932 2453.00006866455 180 182 179
-1435.88519096375 206.969544291496 2453.00006866455 181 183 180
-1431.81276321411 207.350000739098 2457.99994468689 175 177 174
-1423.08485507965 207.056671380997 2454.99992370605 157 159 156
-1417.26791858673 207.186102867126 2457.00001716614 153 155 152
-1412.02306747437 207.400798797607 2460.00003814697 147 149 146
-1411.34011745453 208.290800452232 2470.99995613098 141 143 140
-1410.03572940826 209.097236394882 2480.99994659424 128 130 127
-1408.68413448334 209.904372692108 2490.9999370575 128 130 127
-1407.84764289856 210.796475410461 2502.00009346008 132 131 127
-1406.39817714691 211.605042219162 2512.00008392334 129 130 125
-1406.01515769959 212.582767009735 2523.9999294281 128 130 125
-1403.35631370544 213.224336504936 2532.00006484985 117 119 114
-1405.62379360199 214.624404907227 2549.00002479553 104 109 103
-1406.15832805634 215.772479772568 2562.99996376038 46 51 44
-1405.53104877472 216.752856969833 2575.00004768372 49 54 47
-1397.78482913971 216.639697551727 2573.99988174438 60 63 56
-1391.67296886444 216.779991984367 2575.99997520447 61 62 56
-1383.94522666931 216.668754816055 2575.00004768372 67 66 61
-1375.16129016876 216.390177607536 2572.00002670288 74 73 68
-1364.8054599762 215.86012840271 2565.99998474121 83 82 77
-1353.96122932434 215.246990323067 2559.00001525879 93 92 87
-1345.26836872101 214.971259236336 2555.99999427795 112 113 108
-1336.07518672943 214.612349867821 2552.00004577637 116 117 112
-1329.51486110687 214.674755930901 2552.99997329712 142 143 138
-1319.84746456146 214.23351764679 2548.00009727478 140 141 136
-1309.69893932343 213.709086179733 2542.00005531311 158 158 156
-1300.10223388672 213.269621133804 2536.99994087219 159 159 157
-1296.65517807007 213.839665055275 2543.99991035461 131 133 130
-1291.14806652069 214.074239134789 2546.99993133545 125 127 124
-1288.15102577209 214.729741215706 2555.0000667572 127 129 124
-1279.59954738617 214.461490511894 2552.00004577637 125 127 122
-1272.56631851196 214.446127414703 2552.00004577637 128 130 125
-1263.05890083313 214.01135623455 2546.99993133545 145 147 142
-1256.54315948486 214.081510901451 2548.00009727478 140 142 137
-1251.98829174042 214.48840200901 2552.99997329712 130 132 127
-1248.38650226593 215.063989162445 2559.99994277954 127 129 124
-1243.78132820129 215.472191572189 2565.00005722046 130 132 127
-1237.70666122437 215.629026293755 2566.99991226196 134 136 131
-1230.18765449524 215.534552931786 2565.99998474121 132 134 129
-1223.63185882568 215.608730912209 2566.99991226196 134 136 131
-1216.60101413727 215.599581599236 2566.99991226196 135 137 132
-1212.87286281586 216.178998351097 2573.99988174438 140 142 137
-1206.76827430725 216.339096426964 2575.99997520447 143 145 140
-1203.45115661621 217.003673315048 2584.00011062622 137 139 134
-1198.70507717133 217.416912317276 2588.99998664856 134 136 131
-1197.15738296509 218.418583273888 2601.0000705719 136 138 133
-1190.51504135132 218.497097492218 2601.99999809265 133 135 130
-1184.78059768677 218.744173645973 2605.00001907349 132 134 129
-1179.93712425232 219.159722328186 2609.99989509583 133 135 130
-1177.3167848587 219.995722174644 2619.99988555908 136 138 133
-1172.85883426666 220.496401190758 2625.99992752075 135 137 132
-1166.59569740295 220.661759376526 2628.00002098084 133 135 132
-1159.88349914551 220.743700861931 2628.99994850159 131 133 130
-1156.67676925659 221.49795293808 2638.00001144409 133 135 132
-1154.73115444183 222.504615783691 2650.00009536743 137 139 136
-1154.88827228546 223.931610584259 2667.00005531311 141 143 140
-1153.66470813751 225.107252597809 2680.99999427795 146 148 145
-1150.6575345993 225.947573781013 2690.99998474121 142 144 141
-1148.0233669281 226.872384548187 2701.99990272522 136 138 135
-1147.86505699158 228.301525115967 2719.00010108948 135 137 134
-1148.03624153137 229.815155267715 2736.99998855591 133 135 132
-1148.5288143158 231.413260102272 2756.00004196167 136 138 135
-1153.47480773926 233.935564756393 2786.00001335144 128 130 127
-1161.55099868774 237.130224704742 2823.99988174438 91 93 88
-1158.79929065704 238.1422072649 2835.99996566772 55 57 52
-1151.92592144012 238.314986228943 2838.00005912781 56 58 53
-1141.81816577911 237.816467881203 2832.00001716614 84 86 81
-1132.94625282288 237.57030069828 2828.9999961853 65 67 62
-1124.48990345001 237.40853369236 2826.99990272522 75 76 71
-1113.28077316284 236.659362912178 2818.00007820129 77 78 73
-1101.72975063324 235.82661151886 2808.00008773804 109 110 105
-1092.1825170517 235.414132475853 2802.99997329712 115 116 111
-1086.14611625671 235.75796186924 2806.99992179871 120 121 116
-1081.24232292175 236.354187130928 2813.99989128113 133 134 129
-1078.59110832214 237.45484650135 2826.99990272522 139 139 137
-1077.00705528259 238.807946443558 2842.99993515015 156 156 154
-1471.04454040527 201.414808630943 2464.99991416931 174 176 173
-1463.98437023163 201.370447874069 2464.99991416931 179 181 178
-1451.02441310883 200.510457158089 2454.99992370605 174 176 173
-1442.24977493286 200.223460793495 2451.99990272522 167 169 166
-1436.42938137054 200.345888733864 2453.9999961853 155 157 154
-1434.1025352478 200.958997011185 2461.99989318848 148 150 147
-1427.68311500549 201.001659035683 2463.00005912781 141 143 140
-1420.11380195618 200.882107019424 2461.99989318848 137 139 136
-1411.98587417603 200.682014226913 2460.00003814697 128 130 127
-1407.87696838379 201.053932309151 2464.99991416931 125 127 124
-1406.59022331238 201.834410429001 2474.99990463257 126 128 125
-1407.5186252594 202.941760420799 2489.00008201599 128 130 127
-1409.50214862823 204.212740063667 2505.00011444092 123 122 118
-1407.48500823975 204.913660883904 2513.99993896484 131 132 127
-1407.6544046402 205.941304564476 2526.99995040894 118 120 115
-1404.98781204224 206.562146544456 2535.00008583069 118 120 115
-1408.35058689117 208.079919219017 2553.99990081787 107 112 106
-1407.77468681335 209.027960896492 2565.99998474121 77 82 75
-1403.86474132538 209.487944841385 2572.00002670288 74 79 72
-1396.12805843353 209.378644824028 2571.00009918213 77 80 73
-1391.10577106476 209.677383303642 2575.00004768372 79 80 74
-1383.91888141632 209.651261568069 2575.00004768372 79 78 73
-1375.13601779938 209.381818771362 2572.00002670288 80 79 74
-1366.37675762177 209.113255143166 2569.00000572205 87 86 81
-1357.64157772064 208.845615386963 2565.99998474121 88 87 82
-1346.82464599609 208.253338932991 2559.00001525879 97 98 93
-1337.10062503815 207.824751734734 2553.99990081787 103 104 99
-1328.97317409515 207.641154527664 2552.00004577637 133 134 129
-1321.38156890869 207.53975212574 2551.00011825562 147 148 143
-1310.7100725174 206.951022148132 2543.99991035461 161 161 159
-1301.1087179184 206.525892019272 2539.00003433228 146 146 144
-1296.6376543045 206.914901733398 2543.99991035461 122 124 121
-1291.63813591003 207.223325967789 2548.00009727478 124 126 123
-1287.12642192841 207.613706588745 2552.99997329712 127 129 124
-1278.07998657227 207.272976636887 2549.00002479553 118 120 115
-1270.05815505981 207.095593214035 2546.99993133545 156 158 153
-1261.55710220337 206.837624311447 2543.99991035461 153 155 150
-1255.05030155182 206.905633211136 2545.00007629395 135 137 132
-1249.03345108032 207.055598497391 2546.99993133545 130 132 127
-1245.44870853424 207.612663507462 2553.99990081787 131 133 128
-1241.83058738709 208.170399069786 2561.00010871887 125 127 122
-1238.17837238312 208.728671073914 2568.00007820129 121 123 118
-1231.61602020264 208.79989862442 2569.00000572205 126 128 123
-1225.05259513855 208.871766924858 2569.9999332428 132 134 129
-1217.06640720367 208.700478076935 2568.00007820129 143 145 140
-1212.39364147186 209.098681807518 2572.99995422363 145 147 142
-1206.29239082336 209.253698587418 2575.00004768372 142 144 139
-1202.51274108887 209.815606474876 2582.00001716614 135 137 132
-1197.77274131775 210.215553641319 2586.99989318848 132 134 129
-1195.77097892761 211.103662848473 2598.00004959106 134 136 131
-1190.51003456116 211.423501372337 2601.99999809265 132 134 129
-1185.2308511734 211.743921041489 2605.99994659424 132 134 129
-1178.57718467712 211.821138858795 2607.00011253357 132 134 129
-1175.06682872772 212.467655539513 2615.00000953674 134 136 131
-1170.62294483185 212.952241301537 2621.00005149841 135 137 132
-1165.70556163788 213.35606276989 2625.99992752075 133 135 132
-1159.88183021545 213.597968220711 2628.99994850159 132 134 131
-1157.55248069763 214.490383863449 2640.00010490417 133 135 132
-1156.0378074646 215.545788407326 2653.00011634827 136 138 135
-1154.88827228546 216.682970523834 2667.00005531311 141 143 140
-1151.51357650757 217.414438724518 2676.00011825562 146 148 145
-1149.37567710876 218.39015185833 2687.99996376038 143 145 142
-1147.17519283295 219.366386532784 2700.00004768372 138 140 137
-1147.44472503662 220.83055973053 2717.99993515015 136 138 135
-1145.52199840546 221.889063715935 2730.99994659424 133 135 132
-1146.44801616669 223.516806960106 2750.99992752075 135 137 134
-1150.58028697968 225.795075297356 2779.00004386902 127 129 126
-1159.49845314026 229.048907756805 2819.00000572205 111 113 108
-1158.80393981934 230.434522032738 2835.99996566772 46 48 43
-1151.93104743958 230.601787567139 2838.00005912781 60 62 57
-1141.82376861572 230.1195114851 2832.00001716614 72 74 69
-1132.95209407806 229.881390929222 2828.9999961853 71 73 68
-1124.89402294159 229.806244373322 2828.00006866455 77 78 73
-1113.28768730164 229.00016605854 2818.00007820129 77 78 73
-1101.73690319061 228.194430470467 2808.00008773804 107 108 103
-1090.63160419464 227.470338344574 2799.00002479553 115 116 111
-1084.60628986359 227.803111076355 2802.99997329712 122 123 118
-1078.94539833069 228.217601776123 2808.00008773804 134 135 130
-1076.69222354889 229.363977909088 2822.00002670288 139 139 137
-1075.12235641479 230.673387646675 2838.00005912781 164 164 162
-1472.67425060272 194.003999233246 2456.00008964539 200 202 199
-1469.21002864838 194.43416595459 2461.99989318848 171 173 170
-1459.78391170502 194.075644016266 2457.99994468689 171 173 170
-1448.61841201782 193.481504917145 2450.99997520447 167 169 166
-1442.20912456512 193.520039319992 2451.99990272522 162 164 161
-1437.5604391098 193.796247243881 2456.00008964539 157 159 156
-1434.06391143799 194.231167435646 2461.99989318848 153 155 152
-1425.32682418823 193.956986069679 2459.00011062622 147 149 146
-1419.50035095215 194.07819211483 2460.99996566772 148 150 147
-1412.52422332764 194.042608141899 2460.99996566772 148 150 147
-1408.98442268372 194.480985403061 2467.00000762939 144 146 143
-1407.6931476593 195.235475897789 2476.99999809265 132 134 131
-1408.05077552795 196.226984262466 2490.00000953674 128 130 127
-1408.90681743622 197.297915816307 2503.99994850159 124 123 119
-1409.69252586365 198.369413614273 2517.99988746643 129 130 125
-1410.96568107605 199.520274996758 2532.99999237061 109 111 106
-1410.50004959106 200.435385107994 2545.00007629395 100 102 97
-1411.62955760956 201.587364077568 2559.99994277954 97 102 96
-1410.489320755 202.424988150597 2571.00009918213 81 86 79
-1404.38270568848 202.554732561111 2572.99995422363 76 81 74
-1394.47200298309 202.134341001511 2568.00007820129 80 83 76
-1387.83824443817 202.187106013298 2569.00000572205 88 89 83
-1382.28154182434 202.398121356964 2572.00002670288 90 89 84
-1375.64623355865 202.452540397644 2572.99995422363 89 88 83
-1367.94877052307 202.350422739983 2572.00002670288 90 89 84
-1360.79323291779 202.32780277729 2572.00002670288 93 92 87
-1351.5397310257 201.991394162178 2568.00007820129 96 97 92
-1340.74449539185 201.41988992691 2561.00010871887 99 100 95
-1332.07774162292 201.163843274117 2558.00008773804 131 132 127
-1322.9159116745 200.829938054085 2553.99990081787 146 147 142
-1312.75248527527 200.339660048485 2548.00009727478 157 157 155
-1303.65324020386 200.007438659668 2543.99991035461 140 140 138
-1299.67892169952 200.462132692337 2549.99995231628 120 122 119
-1293.64967346191 200.603067874908 2552.00004577637 123 125 122
-1287.61494159698 200.744673609734 2553.99990081787 120 122 117
-1278.56647968292 200.415417551994 2549.99995231628 125 127 122
-1270.04408836365 200.16548037529 2546.99993133545 160 162 157
-1261.0479593277 199.837684631348 2542.99998283386 149 151 146
-1253.5582780838 199.746370315552 2542.00005531311 134 136 131
-1249.02141094208 200.127124786377 2546.99993133545 127 129 124
-1244.94981765747 200.587093830109 2552.99997329712 127 129 124
-1241.33467674255 201.126202940941 2559.99994277954 123 125 120
-1238.16823959351 201.744496822357 2568.00007820129 128 130 125
-1231.60660266876 201.813444495201 2569.00000572205 137 139 134
-1225.04377365112 201.883003115654 2569.9999332428 145 147 142
-1215.63637256622 201.481893658638 2565.00005722046 144 146 141
-1210.50131320953 201.788336038589 2569.00000572205 145 147 142
-1204.87987995148 202.016770839691 2572.00002670288 141 143 138
-1201.1091709137 202.560007572174 2578.9999961853 135 137 132
-1196.37811183929 202.946707606316 2584.00011062622 131 133 128
-1193.00413131714 203.569546341896 2592.00000762939 133 135 130
-1188.6750459671 204.035863280296 2598.00004959106 133 135 130
-1185.22667884827 204.659789800644 2605.99994659424 131 133 128
-1178.57360839844 204.734534025192 2607.00011253357 130 132 127
-1174.16489124298 205.20244538784 2612.99991607666 132 134 129
-1168.83385181427 205.513849854469 2617.00010299683 135 137 132
-1164.37196731567 205.982804298401 2622.99990653992 134 136 133
-1159.43920612335 206.373766064644 2628.00002098084 132 134 131
-1157.55152702332 207.314938306808 2640.00010490417 133 135 132
-1156.03733062744 208.335161209106 2653.00011634827 136 138 135
-1154.88827228546 209.434360265732 2667.00005531311 141 143 140
-1152.37474441528 210.298478603363 2677.99997329712 145 147 144
-1150.23183822632 211.241647601128 2690.00005722046 140 142 139
-1148.45132827759 212.263852357864 2703.00006866455 137 139 136
-1147.86899089813 213.522121310234 2719.00010108948 138 140 137
-1145.94399929047 214.54530954361 2732.00011253357 137 139 136
-1146.03435993195 215.961620211601 2750 135 137 134
-1148.51355552673 217.849627137184 2773.9999294281 123 125 122
-1155.80058097839 220.680594444275 2809.99994277954 117 119 114
-1157.58264064789 222.49111533165 2832.99994468689 192 194 189
-1150.71833133698 222.652912139893 2835.00003814697 63 65 60
-1141.42596721649 222.343906760216 2831.00008964539 72 74 69
-1132.95805454254 222.192406654358 2828.9999961853 72 74 69
-1126.49130821228 222.434028983116 2832.00001716614 85 86 81
-1114.47966098785 221.57646715641 2821.00009918213 81 82 77
-1102.92112827301 220.797792077065 2811.00010871887 106 107 102
-1091.02857112885 219.940885901451 2799.99995231628 114 115 110
-1083.84037017822 220.02699971199 2801.00011825562 120 121 116
-1077.80075073242 220.349133014679 2805.0000667572 126 127 122
-1075.1748085022 221.378684043884 2818.00007820129 124 124 122
-1072.47948646545 222.408682107925 2831.00008964539 137 137 135
-1071.59566879272 223.831936717033 2848.99997711182 143 143 141
-1464.23614025116 186.216324567795 2441.99991226196 191 193 190
-1466.78066253662 187.394335865974 2457.99994468689 174 176 173
-1459.14900302887 187.27707862854 2457.00001716614 179 181 178
-1447.98743724823 186.70366704464 2450.00004768372 183 185 182
-1441.58184528351 186.740949749947 2450.99997520447 181 183 180
-1437.52229213715 187.083914875984 2456.00008964539 173 175 172
-1434.02636051178 187.503829598427 2461.99989318848 165 167 164
-1425.29046535492 187.23925948143 2459.00011062622 150 152 149
-1420.04179954529 187.432512640953 2461.99989318848 147 149 146
-1414.78538513184 187.626600265503 2464.99991416931 128 130 127
-1410.09318828583 187.897682189941 2469.00010108948 124 126 123
-1408.22851657867 188.549965620041 2477.9999256134 128 130 127
-1405.75695037842 189.126893877983 2486.00006103516 128 130 127
-1404.93714809418 189.93267416954 2496.99997901917 133 132 128
-1405.1833152771 190.891206264496 2509.99999046326 126 127 122
-1409.82186794281 192.458629608154 2530.99989891052 108 110 105
-1412.13369369507 193.72233748436 2548.00009727478 85 87 82
-1413.25545310974 194.834485650063 2562.99996376038 102 107 101
-1412.10722923279 195.64314186573 2573.99988174438 70 75 68
-1405.9933423996 195.768490433693 2575.99997520447 71 76 69
-1397.70412445068 195.590659976006 2573.99988174438 83 86 79
-1388.89372348785 195.337772369385 2571.00009918213 89 90 84
-1381.18243217468 195.237666368485 2569.9999332428 98 97 92
-1373.48437309265 195.138409733772 2569.00000572205 102 101 96
-1366.86265468597 195.191845297813 2569.9999332428 109 108 103
-1360.24260520935 195.246085524559 2571.00009918213 110 109 104
-1352.04493999481 195.073276758194 2569.00000572205 107 108 103
-1342.29481220245 194.673493504524 2563.99989128113 105 106 101
-1332.57913589478 194.274559617043 2559.00001525879 128 129 124
-1323.93348217011 194.028243422508 2555.99999427795 153 154 149
-1313.76504898071 193.554997444153 2549.99995231628 144 144 142
-1304.66103553772 193.234369158745 2546.0000038147 132 132 130
-1297.62399196625 193.218052387238 2546.0000038147 122 124 121
-1291.60630702972 193.354219198227 2548.00009727478 123 125 122
-1285.58349609375 193.491041660309 2549.99995231628 126 128 123
-1278.55229377747 193.476781249046 2549.99995231628 149 151 146
-1268.03600788116 192.93212890625 2542.99998283386 147 149 144
-1258.55576992035 192.539945244789 2538.00010681152 137 139 134
-1252.06673145294 192.603603005409 2539.00003433228 125 127 122
-1248.51953983307 193.122997879982 2546.0000038147 121 123 118
-1244.93885040283 193.642973899841 2552.99997329712 124 126 121
-1239.38488960266 193.860158324242 2555.99999427795 125 127 122
-1234.783411026 194.229617714882 2561.00010871887 134 136 131
-1229.67982292175 194.52378153801 2565.00005722046 142 144 139
-1222.65195846558 194.515228271484 2565.00005722046 145 147 142
-1216.10236167908 194.583058357239 2565.99998474121 141 143 138
-1208.60922336578 194.499865174294 2565.00005722046 142 144 139
-1204.87320423126 195.023819804192 2572.00002670288 140 142 137
-1200.63734054565 195.4725086689 2578.00006866455 136 138 133
-1197.29828834534 196.073353290558 2585.99996566772 133 135 130
-1192.07847118378 196.37143611908 2589.99991416931 134 136 131
-1186.38288974762 196.594253182411 2592.99993515015 134 136 131
-1183.40349197388 197.272509336472 2601.99999809265 132 134 129
-1178.11799049377 197.57217168808 2605.99994659424 130 132 127
-1173.71273040771 198.023989796638 2611.99998855591 131 133 128
-1168.38479042053 198.324680328369 2615.9999370575 134 136 131
-1165.25793075562 199.004963040352 2625 134 136 133
-1160.32028198242 199.382469058037 2630.00011444092 133 135 132
-1157.55069255829 200.13952255249 2640.00010490417 133 135 132
-1154.29389476776 200.821250677109 2648.9999294281 136 138 135
-1152.72319316864 201.806709170341 2661.99994087219 140 142 139
-1150.22385120392 202.641040086746 2673.00009727478 145 147 144
-1148.52261543274 203.627452254295 2686.00010871887 139 141 138
-1147.17817306519 204.690143465996 2700.00004768372 135 137 134
-1145.76029777527 205.753341317177 2713.99998664856 138 140 137
-1143.84913444519 206.741169095039 2726.99999809265 138 140 137
-1143.95368099213 208.108559250832 2744.99988555908 135 137 134
-1145.20490169525 209.703877568245 2766.00003242493 123 125 122
-1147.98963069916 211.602941155434 2790.99988937378 98 100 95
-1149.50549602509 214.720249176025 2832.00001716614 191 193 188
-1141.83437824249 214.72530066967 2832.00001716614 71 73 68
-1133.36420059204 214.57913517952 2829.99992370605 90 92 87
-1126.09994411469 214.660853147507 2831.00008964539 84 85 80
-1113.69585990906 213.757187128067 2819.00000572205 81 82 77
-1102.1431684494 213.005542755127 2809.00001525879 108 109 104
-1090.64626693726 212.254241108894 2799.00002479553 116 117 112
-1083.46104621887 212.337419390678 2799.99995231628 122 123 118
-1077.04019546509 212.572634220123 2802.99997329712 129 130 125
-1074.41997528076 213.566660881042 2815.99998474121 131 131 129
-1070.21534442902 214.25773203373 2825.00004768372 134 134 132
-1067.46745109558 215.252578258514 2838.00005912781 142 142 140
-1473.18863868713 180.637955665588 2457.00001716614 193 195 192
-1469.72370147705 181.038528680801 2463.00005912781 182 184 181
-1459.7030878067 180.631533265114 2457.99994468689 178 180 177
-1448.53973388672 180.078744888306 2450.99997520447 177 179 176
-1442.13223457336 180.114790797234 2451.99990272522 172 174 171
-1437.48545646667 180.372104048729 2456.00008964539 158 160 157
-1432.82580375671 180.630207061768 2460.00003814697 149 151 148
-1423.51675033569 180.3018450737 2456.00008964539 135 137 134
-1418.85423660278 180.561706423759 2460.00003814697 135 137 134
-1417.0480966568 181.189268827438 2469.00010108948 127 129 126
-1412.34517097473 181.450635194778 2473.00004959106 126 128 125
-1408.19680690765 181.786119937897 2477.9999256134 132 134 131
-1402.89890766144 181.975722312927 2480.99994659424 131 133 130
-1402.65655517578 182.826101779938 2493.00003051758 139 138 134
-1402.91500091553 183.750376105309 2506.00004196167 131 132 127
-1407.56499767303 185.261696577072 2526.99995040894 125 127 122
-1410.44294834137 186.55352294445 2545.00007629395 107 109 104
-1411.57400608063 187.625914812088 2559.99994277954 131 136 130
-1408.78927707672 188.18587064743 2568.00007820129 73 78 71
-1404.87587451935 188.599929213524 2573.99988174438 75 80 73
-1398.76532554626 188.721656799316 2575.99997520447 80 83 76
-1390.49017429352 188.551157712936 2573.99988174438 80 81 75
-1381.6967010498 188.308238983154 2571.00009918213 95 94 89
-1371.32334709167 187.846437096596 2565.00005722046 106 105 100
-1363.64984512329 187.751635909081 2563.99989128113 111 110 105
-1355.9889793396 187.657624483109 2562.99996376038 110 109 104
-1348.86717796326 187.637597322464 2562.99996376038 113 114 109
-1340.18135070801 187.398672103882 2559.99994277954 113 114 109
-1330.47759532928 187.014177441597 2555.0000667572 133 134 129
-1319.77200508118 186.484053730965 2548.00009727478 157 158 153
-1312.20245361328 186.393827199936 2546.99993133545 139 139 137
-1303.61998081207 186.157986521721 2543.99991035461 129 129 127
-1296.58877849579 186.14237010479 2543.99991035461 121 123 120
-1289.0567779541 186.054259538651 2542.99998283386 123 123 121
-1283.04851055145 186.186283826828 2545.00007629395 135 137 132
-1278.03730964661 186.465263366699 2549.00002479553 156 158 153
-1270.01762390137 186.305955052376 2546.99993133545 141 143 138
-1260.52689552307 185.927897691727 2542.00005531311 134 136 131
-1253.53443622589 185.916185379028 2542.00005531311 121 123 118
-1248.50845336914 186.197638511658 2546.0000038147 121 123 118
-1243.46542358398 186.479687690735 2549.99995231628 124 126 121
-1237.92040348053 186.689168214798 2552.99997329712 123 125 120
-1232.84554481506 186.972320079803 2556.99992179871 134 136 131
-1229.19154167175 187.47541308403 2563.99989128113 143 145 140
-1222.16713428497 187.467232346535 2563.99989128113 144 146 141
-1215.62099456787 187.532752752304 2565.00005722046 141 143 138
-1207.6598405838 187.379479408264 2562.99996376038 142 144 139
-1204.39839363098 187.957853078842 2571.00009918213 139 141 136
-1199.69987869263 188.31741809845 2575.99997520447 135 137 132
-1196.83015346527 188.969939947128 2585.00003814697 130 132 127
-1191.15316867828 189.184322953224 2588.00005912781 130 132 127
-1185.46366691589 189.399227499962 2591.00008010864 134 136 131
-1182.0353269577 189.980149269104 2598.99997711182 135 137 132
-1177.66273021698 190.415352582932 2605.00001907349 134 136 131
-1175.0580072403 191.143423318863 2615.00000953674 131 133 128
-1168.38252544403 191.214144229889 2615.9999370575 131 133 128
-1163.48052024841 191.577702760696 2621.00005149841 134 136 133
-1159.43658351898 192.087963223457 2628.00002098084 133 135 132
-1156.67295455933 192.817956209183 2638.00001144409 133 135 132
-1154.29365634918 193.621501326561 2648.9999294281 136 138 135
-1151.85737609863 194.425538182259 2660.00008583069 140 142 139
-1150.65491199493 195.449307560921 2674.00002479553 145 147 144
-1148.52380752563 196.327358484268 2686.00010871887 146 148 145
-1147.6047039032 197.425112128258 2700.99997520447 135 137 134
-1144.0737247467 198.084816336632 2710.00003814697 135 137 134
-1143.43225955963 199.256598949432 2726.0000705719 136 138 135
-1143.5399055481 200.575053691864 2743.99995803833 138 140 137
-1146.45040035248 202.405631542206 2769.00005340576 128 130 127
-1145.52569389343 203.578844666481 2785.00008583069 159 161 156
-1147.88675308228 206.730708479881 2828.00006866455 194 196 191
-1141.83974266052 207.028090953827 2832.00001716614 71 73 68
-1133.77034664154 206.96035027504 2831.00008964539 70 72 67
-1126.10590457916 206.966087222099 2831.00008964539 79 81 76
-1113.70229721069 206.094905734062 2819.00000572205 79 80 75
-1102.14996337891 205.370277166367 2809.00001525879 110 111 106
-1089.87379074097 204.4997215271 2796.99993133545 116 117 112
-1082.30757713318 204.506903886795 2796.99993133545 121 122 117
-1075.89530944824 204.73375916481 2799.99995231628 128 129 124
-1073.66502285004 205.765321850777 2813.99989128113 131 131 129
-1070.60265541077 206.651076674461 2825.99997520447 132 132 130
-1066.72418117523 207.390978932381 2835.99996566772 149 149 147
-1481.54234886169 174.907252192497 2470.99995613098 187 189 186
-1470.28112411499 174.37282204628 2463.99998664856 157 159 156
-1459.0710401535 173.839569091797 2457.00001716614 158 160 157
-1448.50277900696 173.378199338913 2450.99997520447 165 167 164
-1441.50805473328 173.342272639275 2450.99997520447 165 167 164
-1438.03548812866 173.73152077198 2457.00001716614 153 155 152
-1435.12105941772 174.192175269127 2463.99998664856 157 159 156
-1427.54018306732 174.088090658188 2463.00005912781 161 163 160
-1421.12839221954 174.126267433167 2463.99998664856 159 161 158
-1414.72041606903 174.165293574333 2464.99991416931 151 153 150
-1408.88750553131 174.275800585747 2467.00000762939 147 149 146
-1403.62060070038 174.457713961601 2470.00002861023 138 140 137
-1400.60770511627 174.922898411751 2476.99999809265 135 137 134
-1399.8144865036 175.671175122261 2487.99991607666 131 130 128
-1400.08771419525 176.561206579208 2500.99992752075 131 131 129
-1404.75261211395 178.016483783722 2522.0000743866 119 121 118
-1410.41624546051 179.613247513771 2545.00007629395 99 101 98
-1414.85619544983 181.069195270538 2565.99998474121 143 148 142
-1410.95817089081 181.467235088348 2572.00002670288 80 85 79
-1403.21409702301 181.37215077877 2571.00009918213 78 83 77
-1396.02649211884 181.348398327827 2571.00009918213 80 82 77
-1388.84663581848 181.325390934944 2571.00009918213 77 78 72
-1378.98719310761 180.950567126274 2565.99998474121 94 93 88
-1369.69792842865 180.647104978561 2562.00003623962 96 95 90
-1360.97013950348 180.414959788322 2559.00001525879 113 112 107
-1352.26583480835 180.183574557304 2555.99999427795 115 114 109
-1344.63775157928 180.093944072723 2555.0000667572 112 111 107
-1335.97493171692 179.864063858986 2552.00004577637 112 111 107
-1326.81465148926 179.564446210861 2548.00009727478 142 141 137
-1317.16501712799 179.195120930672 2542.99998283386 158 157 153
-1309.610247612 179.108381271362 2542.00005531311 132 131 129
-1301.04231834412 178.881406784058 2539.00003433228 122 121 119
-1294.02554035187 178.86646091938 2539.00003433228 128 128 126
-1286.50808334351 178.781747817993 2538.00010681152 123 122 120
-1280.00998497009 178.838536143303 2539.00003433228 152 152 150
-1274.01316165924 178.966373205185 2540.99988937378 157 157 155
-1268.01085472107 179.094836115837 2542.99998283386 144 144 142
-1262.00294494629 179.223909974098 2545.00007629395 133 133 131
-1256.9751739502 179.494351148605 2549.00002479553 127 127 125
-1249.96912479401 179.483741521835 2549.00002479553 124 124 122
-1243.9432144165 179.614529013634 2551.00011825562 124 124 122
-1236.94133758545 179.605081677437 2551.00011825562 126 126 124
-1231.87243938446 179.877787828445 2555.0000667572 139 139 137
-1228.22463512421 180.362269282341 2562.00003623962 144 144 142
-1222.15938568115 180.495232343674 2563.99989128113 143 143 141
-1216.56155586243 180.699184536934 2566.99991226196 146 147 142
-1209.53798294067 180.692464113235 2566.99991226196 141 142 136
-1205.32917976379 181.108623743057 2572.99995422363 133 134 128
-1200.16002655029 181.384488940239 2576.99990272522 134 135 129
-1195.43612003326 181.731268763542 2582.00001716614 130 131 125
-1190.22822380066 182.008162140846 2585.99996566772 127 128 122
-1184.54456329346 182.21515417099 2588.99998664856 133 134 128
-1181.12218379974 182.774528861046 2596.99988365173 132 133 127
-1176.75542831421 183.193638920784 2602.9999256134 128 129 123
-1174.15678501129 183.894723653793 2612.99991607666 132 133 127
-1168.38049888611 184.103637933731 2615.9999370575 133 134 128
-1164.36672210693 184.59452688694 2622.99990653992 135 135 133
-1159.43551063538 184.945121407509 2628.00002098084 134 134 132
-1156.67235851288 185.648038983345 2638.00001144409 136 136 134
-1153.85770797729 186.351403594017 2648.00000190735 136 136 134
-1150.99143981934 187.055230140686 2657.99999237061 139 139 137
-1148.93424510956 187.900274991989 2670.00007629395 155 155 153
-1146.38686180115 188.675343990326 2680.99999427795 145 147 144
-1145.90680599213 189.802750945091 2697.00002670288 142 144 141
-1143.65363121033 190.649107098579 2709.00011062622 140 142 139
-1143.01526546478 191.777378320694 2724.99990463257 140 142 139
-1143.95952224731 193.187639117241 2744.99988555908 135 137 134
-1147.28176593781 195.020630955696 2770.99990844727 129 131 128
-1145.11811733246 195.939138531685 2783.99991989136 157 158 153
-1150.64942836761 198.195353150368 2815.99998474121 194 195 190
-1149.92094039917 199.396297335625 2832.99994468689 197 198 193
-1143.45753192902 199.612304568291 2835.99996566772 63 65 60
-1134.57679748535 199.406385421753 2832.99994468689 68 73 67
-1124.52054023743 198.989644646645 2826.99990272522 83 88 82
-1111.33801937103 198.010146617889 2812.99996376038 79 81 76
-1099.01762008667 197.171732783318 2801.00011825562 108 110 105
-1087.54289150238 196.47441804409 2790.99988937378 117 118 113
-1079.99300956726 196.481361985207 2790.99988937378 119 120 115
-1074.75018501282 196.911051869392 2796.99993133545 125 124 120
-1073.29154014587 198.045149445534 2812.99996376038 132 131 129
-1069.85330581665 198.827624320984 2823.99988174438 148 147 145
-1066.35665893555 199.610516428947 2835.00003814697 151 150 148
-1484.50148105621 168.48811507225 2476.0000705719 195 197 194
-1476.80699825287 168.382525444031 2474.99990463257 149 151 148
-1464.37883377075 167.733758687973 2466.00008010864 154 156 153
-1453.19485664368 167.222172021866 2459.00011062622 170 172 169
-1443.23766231537 166.847661137581 2453.9999961853 167 169 166
-1436.83087825775 166.882023215294 2454.99992370605 156 158 155
-1431.01096153259 166.9851988554 2457.00001716614 157 159 156
-1425.18985271454 167.089179158211 2459.00011062622 152 154 151
-1419.36671733856 167.193934321404 2460.99996566772 152 154 151
-1411.82041168213 167.095720767975 2460.00003814697 151 153 150
-1404.86025810242 167.066261172295 2460.00003814697 147 149 146
-1399.61385726929 167.241320014 2463.00005912781 133 135 132
-1397.75228500366 167.824447154999 2471.99988365173 128 130 127
-1398.09918403625 168.679714202881 2484.99989509583 136 135 133
-1400.0608921051 169.739082455635 2500.99992752075 133 133 131
-1405.28333187103 171.206042170525 2523.00000190735 129 131 128
-1411.49878501892 172.809034585953 2546.99993133545 110 112 109
-1417.03641414642 174.344480037689 2569.9999332428 151 156 150
-1410.38513183594 174.38805103302 2571.00009918213 93 98 92
-1401.5531539917 174.161076545715 2568.00007820129 91 96 90
-1393.28849315643 174.002692103386 2565.99998474121 93 95 90
-1385.04302501678 173.845112323761 2563.99989128113 87 88 82
-1376.81639194489 173.688307404518 2562.00003623962 99 98 93
-1368.07346343994 173.464447259903 2559.00001525879 102 101 96
-1359.88640785217 173.309132456779 2556.99992179871 111 110 105
-1350.65960884094 173.019051551819 2552.99997329712 117 116 111
-1343.04058551788 172.932967543602 2552.00004577637 115 114 110
-1333.86337757111 172.644317150116 2548.00009727478 135 134 130
-1323.67336750031 172.220885753632 2542.00005531311 152 151 147
-1314.0412569046 171.865925192833 2536.99994087219 142 141 137
-1308.04896354675 171.985849738121 2539.00003433228 127 126 124
-1302.05202102661 172.106400132179 2540.99988937378 122 121 119
-1295.54033279419 172.15983569622 2542.00005531311 127 126 124
-1288.52188587189 172.146171331406 2542.00005531311 135 134 132
-1279.49285507202 171.862259507179 2538.00010681152 167 167 165
-1272.99797534943 171.917513012886 2539.00003433228 157 157 155
-1266.50309562683 171.973377466202 2539.99996185303 129 129 127
-1261.99162006378 172.300636768341 2545.00007629395 125 125 123
-1256.96444511414 172.560721635818 2549.00002479553 130 130 128
-1249.95887279511 172.550588846207 2549.00002479553 130 130 128
-1243.44599246979 172.608703374863 2549.99995231628 127 127 125
-1236.93227767944 172.667384147644 2551.00011825562 131 131 129
-1230.89981079102 172.794282436371 2552.99997329712 142 142 140
-1226.77850723267 173.192411661148 2559.00001525879 144 144 142
-1221.19879722595 173.388034105301 2562.00003623962 139 140 135
-1216.08102321625 173.651859164238 2565.99998474121 132 133 128
