ply
format ascii 1.0
comment KinectMotionCapture
element vertex 781
property float x
property float y
property float z
property uchar red
property uchar green
property uchar blue
end_header
-897.24428215268 -370.244452518586 2556.44950413152 19 22 13
-896.049763879536 -370.091260112775 2563.8010997431 18 21 12
-883.359951556892 -368.651398440897 2572.14756847626 16 19 10
-881.103498329786 -368.37973026316 2579.52752752174 19 22 15
-892.439695590631 -369.629251910505 2585.75898205874 24 27 20
-912.163229740419 -371.817394387543 2591.36409937249 23 26 19
-907.818427410314 -371.31190793282 2598.93161791441 19 22 15
-889.838239743507 -369.280642889717 2607.49280097462 13 16 9
-873.92870490777 -367.481438293329 2615.80183155111 12 15 8
-825.456068816563 -362.039162548716 2626.30571590334 16 19 12
-898.755174653751 -370.221720983006 2628.31559500715 13 16 9
-913.291902431747 -371.829398562715 2634.51305196362 16 19 12
-893.136871746129 -369.556160313847 2642.94580815832 25 28 21
-1061.9203779085 -396.874788501421 2305.48373314329 13 20 12
-1045.60773412533 -394.984607580637 2316.24985727795 16 24 13
-1074.30584700459 -398.256064322447 2319.42313702671 19 25 15
-1069.23945953886 -397.654951200462 2328.26917446524 18 24 14
-1055.96318497362 -396.112150102933 2338.39953478378 16 22 12
-1033.43371917113 -393.508292660069 2349.9141755699 17 23 13
-985.208800170704 -387.958463305101 2365.30200903226 15 21 11
-999.569262549678 -389.583887868791 2370.83475161513 16 19 10
-1034.50419960832 -393.567290834748 2373.33487123198 16 19 10
-1037.59864154887 -393.900155823082 2380.71745375088 15 18 9
-1006.72781609156 -390.339527616762 2393.03873709222 13 16 7
-992.290915939866 -388.662626872887 2402.84183498797 16 19 10
-981.953788185 -387.455621880215 2411.98370612207 15 18 9
-976.756581983247 -386.837581022628 2420.35379749711 14 17 8
-972.581222053912 -386.336325566846 2428.54775123203 13 16 7
-991.120368936318 -388.437645938658 2433.7075350944 12 15 8
-1001.41332821352 -389.59355640539 2440.02107305032 12 15 8
-1008.61487850723 -390.395078857638 2446.76951854288 13 16 9
-1032.38349251969 -393.094167202198 2451.4853585632 12 15 8
-1036.50317590301 -393.541950234279 2458.70465897369 4 7 0
-1005.38599857061 -389.953415004027 2470.12983414297 6 8 3
-975.260191685941 -386.478768787509 2481.26662051349 10 13 6
-943.013985981305 -382.761687440553 2492.47741229308 14 17 10
-916.952019472533 -379.753185622296 2502.8219317586 19 22 13
-905.401561373525 -378.406729240857 2511.44330782195 18 21 12
-866.791626193565 -373.962100176033 2522.86593520878 19 22 13
-878.081212485246 -375.231070581882 2528.91205342481 20 23 14
-877.927821825125 -375.189838923964 2536.16121624631 20 23 14
-886.108663982347 -376.102589717712 2542.57903635592 19 22 13
-894.297956220241 -377.016202272709 2549.02768588794 19 22 13
-892.059369673974 -376.735978586207 2556.48031094046 21 24 15
-901.302561296078 -377.769910346317 2562.86959869581 21 24 15
-884.430037130412 -375.815091995346 2571.59780539347 17 20 11
-870.668660266421 -374.216540129189 2579.96320309346 15 18 11
-894.558468994777 -376.926460959248 2585.12124725361 23 26 19
-920.572375629626 -379.879078575453 2590.21978381473 23 26 19
-938.23579714044 -381.87607228218 2596.09128681142 21 24 17
-885.664525551276 -375.838094395874 2607.33911755435 14 17 10
-839.31453264606 -370.512698145169 2617.85659864464 12 15 8
-903.151700664921 -377.791566799954 2620.3772990848 7 10 3
-930.139088382135 -380.831596048314 2632.93131336337 17 20 13
-898.412682920806 -377.180341238657 2642.13414175445 10 13 6
-835.054168063881 -369.912676549273 2653.07340326906 15 18 11
-982.304545401955 -395.182482483783 2318.78579164832 7 12 6
-1008.90414054259 -398.276884589454 2322.07303915121 19 24 17
-1049.87362448439 -403.05524509972 2323.09657367873 22 27 20
-1077.57649330782 -406.277402649569 2326.50215262393 20 26 16
-1071.47668500606 -405.536676370675 2335.49576586595 16 22 12
-1027.39913757312 -400.344693234606 2350.469841167 16 22 12
-1014.06194378438 -398.755680908649 2360.40319569895 16 19 10
-992.482558727052 -396.20075167246 2371.51808898856 15 18 9
-995.54820465436 -396.533694475333 2378.79370842611 16 19 10
-1014.04982669875 -398.67492397088 2383.78897338816 16 19 10
-1022.27722903558 -399.611775994012 2390.36444606456 14 17 6
-1002.69179763212 -397.290095051382 2400.9425969363 12 15 6
-988.232060460417 -395.568838617698 2410.68798029068 13 16 7
-967.55789391037 -393.119805687474 2421.20059471171 14 17 8
-979.893889147963 -394.537047285959 2427.14096417763 14 17 8
-993.27718258783 -396.076501884069 2432.99626732944 15 18 11
-996.336383723367 -396.406497054506 2440.2488904766 16 19 12
-993.188335950558 -396.009488419233 2448.29491653166 14 17 10
-1016.95383138652 -398.763440758623 2452.9645396345 7 10 3
-1026.24361655205 -399.822105900098 2459.51027569981 9 12 5
-1015.84277634193 -398.575325296028 2468.4407072136 2 4 0
-948.358799925364 -390.647127725091 2483.96342437414 13 15 10
-994.989340368529 -396.076175527342 2486.11201131822 10 13 6
-951.288581936443 -390.932612468078 2498.55814004488 18 21 12
-901.286685020149 -385.052558924021 2511.45320943364 18 21 12
-885.547102502816 -383.182432454591 2520.43801601645 19 22 13
-892.68794628288 -383.989649639286 2526.95840378857 20 23 14
-877.957183043897 -382.23785641661 2535.71679980474 20 23 14
-874.671303189244 -381.825137878147 2543.26100076472 18 21 12
-884.940800206484 -382.998033158067 2549.47670462599 18 21 12
-885.825806189689 -383.073190379218 2556.61142843449 21 24 15
-884.619719767555 -382.903814095633 2563.93029142935 22 25 16
-898.045345228446 -384.445384679406 2569.94050013329 18 21 12
-891.609589545589 -383.664418014265 2577.71221226647 16 19 12
-876.787538455406 -381.903171594159 2586.13857165955 19 22 15
-925.844387184806 -387.610323316693 2589.32641567954 21 24 17
-906.826864768672 -385.358697163777 2598.07162298054 20 23 16
-883.584711004692 -382.613780907018 2607.02925019927 15 18 11
-921.191393251592 -386.981434501948 2611.4137995524 13 16 9
-950.443230592545 -390.372099151129 2616.56768806827 13 16 9
-934.533013834396 -388.484606401589 2624.92992731845 11 14 7
-901.768720809936 -384.628292407557 2634.30506662636 9 12 5
-888.955853058385 -383.103904194774 2642.24894932561 14 17 10
-1032.59193055421 -408.579610517651 2325.5845771669 19 24 17
-1041.84050736888 -409.657193929521 2331.96537069653 19 25 15
-1023.40231084697 -407.418615897064 2342.85326359781 17 23 13
-1016.22674410077 -406.528643060961 2351.84334342588 17 23 13
-1018.28319659045 -406.744010936165 2359.34257646454 15 18 9
-997.72461685576 -404.251446299283 2370.31182571724 14 17 8
-976.105745397693 -401.632046511817 2381.32081707102 16 19 10
-1000.77561229779 -404.553715630961 2385.3450571668 16 19 10
-1013.11564154399 -405.998920586791 2391.2827495161 14 17 6
-1026.5005011488 -407.568594845187 2397.1247884199 12 15 6
-1003.79781226578 -404.819119144675 2408.08822160346 13 16 7
-1002.73743339144 -404.659604933022 2415.94184176944 16 19 10
-1021.29874704203 -406.847596873665 2421.12920660627 16 19 10
-1015.07452498536 -406.069779329239 2429.68431344405 13 16 9
-1003.66684695699 -404.671787362685 2438.86834079606 12 15 8
-1008.80203607604 -405.252721334799 2445.87763005232 9 12 5
-1007.72636281846 -405.090456222609 2453.67620194557 19 22 15
-965.030121416735 -399.883966475782 2481.58059529491 157 159 154
-947.290527255338 -397.729525916438 2491.11282145829 2 5 0
-966.941913745936 -400.045306250518 2496.36948479302 9 12 5
-906.528871272435 -392.790290039965 2510.44501063699 16 19 12
-922.01001635279 -394.607524596203 2516.12028024756 16 19 12
-917.720333136164 -394.061506629412 2523.91803472963 17 20 13
-922.802248117516 -394.635470451852 2530.7339281417 17 20 13
-869.482242185528 -388.231209780839 2543.33035619954 19 22 15
-865.139204988664 -387.679598823669 2550.93354893142 17 20 13
-871.231647992839 -388.374750771875 2557.52757358902 20 23 16
-880.464784306655 -389.44495220942 2563.8566291799 22 25 18
-911.669997489619 -393.139268439239 2568.27866886573 19 22 15
-916.751766629423 -393.712984328795 2575.09417732855 19 22 15
-913.459799158303 -393.286903749478 2582.62328323231 13 16 9
-890.24883872257 -390.482405857697 2591.73527091281 14 17 10
-877.490602730347 -388.926723020467 2599.90081939199 19 22 15
-848.97117981074 -385.489845968398 2609.18530834038 17 20 13
-922.271064665681 -394.207642384805 2610.86015854259 14 17 10
-927.364354384269 -394.783095051611 2617.71734414623 9 12 5
-946.131860522545 -396.990543937405 2623.65797718061 6 9 2
-896.525581203166 -391.038392268009 2634.17109576549 13 16 9
-979.442749848611 -409.656476271005 2326.2984844361 0 3 0
-1013.24653290514 -413.757121494616 2328.42207972626 11 16 9
-996.846542313201 -411.716292839639 2338.95901337235 19 24 17
-984.525263944996 -410.174349140619 2348.73822569552 24 27 20
-995.802313747645 -411.518063514112 2354.69060895658 15 18 11
-1030.72761229793 -415.752675352518 2356.9963425499 19 22 13
-1007.08334570171 -412.825627072698 2368.47231264334 18 21 12
-1012.18986436693 -413.339871257802 2391.00439814604 14 16 5
-1008.04721848837 -412.796417294855 2399.34645466801 12 15 6
-1014.21519220593 -413.512782288715 2406.2075172543 13 16 7
-1027.61685012942 -415.112589357418 2412.09290074399 15 18 9
-1035.86743959713 -416.08250821192 2418.73358602658 15 18 9
-1045.16041210254 -417.179443877461 2425.26792307725 12 15 8
-1034.80229044024 -415.875620544823 2434.3929739791 11 14 7
-1019.24948560813 -413.937500168788 2444.11417729283 11 14 7
-997.454831059843 -411.237404305908 2454.52146776268 18 21 14
-1016.06729027944 -413.471690197313 2459.86949849599 10 12 7
-980.675075458247 -409.073278733273 2479.31339116093 146 148 143
-946.313003412508 -404.840351076761 2490.78670503802 32 35 28
-980.526432065707 -408.97809144157 2494.40781421005 16 19 12
-975.245051857008 -408.294917466644 2502.50650563548 14 17 10
-922.05745998232 -401.766003167311 2515.67326091085 17 20 13
-921.932404388897 -401.712863176527 2523.03607360194 19 22 15
-929.103056553256 -402.549631123324 2529.64754823597 18 21 14
-888.285792529025 -397.532487207291 2541.02982194527 19 22 15
-865.159311640421 -394.674267391785 2550.48845381447 20 23 16
-878.56591539132 -396.272104748747 2556.39344376488 19 22 15
-875.260228850768 -395.831728883584 2563.88063874782 18 21 14
-889.732999440964 -397.559268863592 2569.76496035658 20 23 16
-916.785895627098 -400.820301662771 2574.63002390016 18 21 14
-915.586426611319 -400.636555919753 2581.98252815228 16 19 12
-882.931636346967 -396.618683019099 2591.86622958242 16 19 12
-871.211148537058 -395.153261418962 2599.93142706529 16 19 12
-888.866389043034 -397.268300588598 2605.69709884642 17 20 13
-931.599079552349 -402.401776369752 2616.94012199518 12 15 8
-913.557309257541 -400.166925478139 2625.40119427439 11 14 7
-894.435733326748 -397.80119179622 2633.8321127896 14 17 10
-1055.2416188976 -417.276691778834 2645.77613518444 14 17 10
-991.835017392435 -418.571670830439 2331.61028735349 17 19 14
-991.798274203179 -418.446936087414 2354.93239843048 17 20 13
-1025.70448094692 -422.638162718695 2357.37908443795 16 19 10
-1025.70683145137 -422.59709348832 2365.20638113083 16 17 9
-1043.20652355344 -424.739092100538 2370.3784404167 15 17 6
-1055.57676448461 -426.240358608252 2376.39290850198 15 17 6
-987.552369197665 -417.711690287736 2394.18458249649 16 18 7
-1005.05289054211 -419.852860543655 2399.3602435776 14 17 8
-1033.93033965452 -423.412343527092 2403.01751892047 13 16 7
-1013.25919014933 -420.791631208373 2413.6497244161 12 15 6
-1014.26520434661 -420.874371564084 2421.22894041232 12 15 6
-1029.75199745732 -422.762329980583 2426.88052870969 14 17 10
-1029.72941446762 -422.716189081102 2434.61938323447 15 18 11
-1028.66825049441 -422.540517873929 2442.47936014087 8 11 4
-1031.7487240061 -422.880894434125 2449.80533820788 14 17 10
-1033.79317132894 -423.091869999267 2457.26277148966 10 13 6
-1037.91341009296 -423.561502331935 2464.47126843776 17 19 14
-965.08363782482 -414.400427643775 2488.20056815356 31 34 27
-937.9505823732 -410.977558805181 2498.72720335303 15 18 11
-979.477010948139 -416.106854064371 2501.59700231636 17 20 13
-979.392792444179 -416.05300704583 2509.11188149709 13 16 9
-934.485660212829 -410.418068411019 2521.28460092624 14 17 10
-926.020415710401 -409.321412401052 2529.51316933565 14 17 10
-898.752923820581 -405.884323943925 2539.54964591164 19 22 15
-877.712176288724 -403.223291955784 2548.83506210202 20 23 16
-873.36313169296 -402.640131820846 2556.43494001592 18 21 14
-884.693588799395 -404.008566028654 2562.57000731911 17 20 13
-887.664156208668 -404.336339794829 2569.49495329075 19 22 15
-890.635808357975 -404.664419452851 2576.42466258795 18 21 14
-896.752972286774 -405.383811202747 2583.09609647419 18 21 14
-893.437049746022 -404.929716185279 2590.55394874915 17 20 13
-896.410534658068 -405.258123344258 2597.49025596822 17 20 13
-887.833326983534 -404.150193459613 2605.31024479806 14 17 10
-887.648893157484 -404.086257964746 2612.45941346536 14 17 10
-914.457533873305 -407.296558963576 2632.03584428279 16 19 12
-930.086524701367 -409.198421535012 2638.20660647915 17 20 13
-1001.62129554218 -418.047318887692 2641.03873382291 16 19 12
-934.848409012137 -409.669160615535 2659.48566999326 15 16 10
-996.044635631792 -426.53543317134 2330.52198200437 13 15 10
-834.912469101271 -405.96406332057 2364.8179779217 32 34 29
-933.379671553831 -418.463563583201 2356.23481369913 10 13 6
-981.624036924315 -424.563660491577 2356.1579812305 17 20 13
-989.824049010257 -425.562339026994 2362.59365427303 18 21 12
-1006.26595238141 -427.610134016443 2367.79321791952 17 18 10
-1033.02593619129 -430.970672642577 2371.50793244941 15 17 6
-1036.1170818392 -431.317251398621 2378.86961832477 16 18 7
-997.958251538912 -426.413157904523 2392.25719150302 17 19 8
-1031.98336818295 -430.696461154546 2395.0863052853 13 16 7
-1037.13659267275 -431.304667155671 2402.14533820691 13 16 7
-985.455288820632 -424.681396788811 2417.06789678281 13 16 7
-971.96263194071 -422.91774905315 2426.53523200507 13 16 7
-987.424517579908 -424.837371100459 2432.07435298357 14 17 10
-1023.61630016199 -429.39284506006 2434.98339763259 15 18 11
-1026.69401468757 -429.73601477801 2442.29643964882 13 16 9
-1027.69861128283 -429.815363399896 2449.87346275226 19 22 15
-1054.64502041855 -433.192719064742 2454.26879155825 9 12 5
-1093.04802245259 -438.025343271178 2457.42004171978 7 9 4
-948.090083877039 -419.313874605873 2519.42018158816 15 18 11
-973.019729671659 -422.432533333859 2524.28456087751 16 19 12
-879.990752311053 -410.57137026228 2540.96588614296 18 21 14
-859.972730984943 -407.983258080849 2550.10519713106 17 20 13
-872.337694638297 -409.507136335879 2556.08579584461 16 19 12
-914.013368452975 -414.751202227603 2559.43725296276 15 18 11
-911.768269562034 -414.419621993744 2566.89812279133 17 20 13
-891.70618559257 -411.827164710643 2575.87658109044 17 20 13
-892.582899504967 -411.892351354738 2582.98681296561 17 20 13
-909.195333631944 -413.954041809089 2588.81168003876 18 21 14
-921.628250851344 -415.485201569525 2595.03997986317 17 20 13
-912.013096359249 -414.21957409147 2603.00215798062 15 18 11
-840.134261359808 -405.013473149389 2622.49788784754 19 22 15
-816.750239513497 -402.004453974828 2631.09645646081 20 23 16
-951.195199336877 -418.959557660689 2636.38064642922 19 22 15
-947.873934908609 -418.493349314607 2643.82631304436 18 21 14
-1026.77008311394 -428.401067333328 2653.83877686941 12 15 8
-887.129626936324 -410.663580710989 2668.72467376513 11 14 5
-898.445912686814 -421.139720971679 2369.01710164516 18 19 13
-959.059208836512 -428.963024990582 2367.01711047803 18 19 13
-996.074740465842 -433.719587847782 2368.96129650197 17 18 10
-1040.35073619177 -439.417322743665 2369.99092619274 15 17 6
-1037.26069374495 -438.964115109758 2378.28779576014 13 15 4
-1039.32184113784 -439.179506076412 2385.80444547548 12 14 3
-1018.67029710657 -436.446792161988 2396.57922517486 11 14 5
-1016.58267409214 -436.123662279095 2404.61943695927 12 15 6
-994.846630436053 -433.250922635289 2415.35333642973 15 18 9
-969.973841453534 -429.971941258629 2426.38748522689 14 17 8
-1021.67282423729 -436.626359238037 2427.09711064667 13 16 9
-1015.42585166103 -435.763297400229 2435.62063902592 12 15 8
-1024.71740829446 -436.915178454093 2442.11502957971 9 12 5
-1018.45767972905 -436.050417393899 2450.59319929394 10 13 6
-1054.74933487328 -440.7023009487 2453.8121832204 15 18 11
-1125.36955522672 -449.802711123212 2453.08997182274 13 15 10
-1095.24783956277 -445.843473656595 2464.54789364056 14 16 11
-910.591230204212 -421.653276088527 2522.89138531473 13 15 10
-933.4154240858 -424.557685379511 2527.8674699778 12 14 9
-838.233486149644 -412.181469307642 2544.67309286458 16 18 13
-866.260292288276 -415.759962327459 2549.0564160098 16 18 13
-915.242116164982 -422.050029840969 2551.59861396433 14 16 11
-921.373606005886 -422.792394253978 2558.30873341757 13 15 10
-942.174707572579 -425.433092780367 2563.7326067706 14 16 11
-892.776680254305 -418.989865783075 2575.32896347321 14 17 10
-893.653040584743 -419.052700877844 2582.439367213 16 19 12
-900.825062205735 -419.930244122001 2589.03111200548 16 19 12
-920.607456035891 -422.438468313139 2594.65360996096 17 20 13
-928.853309003053 -423.454399082196 2601.24766003123 15 18 11
-906.608276193117 -420.527586911018 2610.12592109566 15 18 11
-835.919243866786 -411.338728561778 2622.33837884715 19 22 15
-867.285233633989 -415.345027790675 2627.15945172329 20 23 16
-879.721847724653 -416.903765318467 2633.38406614755 21 24 17
-971.264657520071 -428.685545176688 2634.61479074909 20 23 16
-935.240810714143 -423.980852583128 2644.11335773142 19 22 15
-887.549444843363 -417.770111814715 2654.10679348941 20 25 18
-845.074812477337 -412.235311896496 2663.55779564289 18 23 16
-982.152361650959 -429.845394516038 2670.41011371659 29 32 23
-1045.56819722424 -447.842005403851 2337.28480113936 9 11 6
-928.337019868532 -432.261582987944 2363.87075973356 16 17 11
-915.919084661639 -430.563235725256 2373.38984918118 16 17 11
-1029.13207704675 -445.496948217965 2363.46587724281 17 18 10
-1035.31249511885 -446.258430995392 2370.34558729433 16 18 7
-1002.30692569522 -441.833413019506 2383.08028492739 14 16 5
-1043.56170666224 -447.236131280243 2384.76981361718 11 13 2
-1042.52635389901 -447.041616708124 2392.73844822405 13 16 7
-1079.72650535807 -451.905307730617 2395.29952735343 13 16 7
-1034.23711967222 -445.829932396463 2409.48577190616 14 17 8
-1030.07922929649 -445.222327624488 2417.81173006047 14 17 8
-1059.05357098264 -448.995892297907 2421.69358856752 13 16 9
-1043.5007960773 -446.881132883691 2431.5273526575 12 15 8
-1013.4046636593 -442.844443425191 2443.12915918634 17 20 13
-1033.07826714187 -445.386991782072 2448.32606942224 13 16 9
-1048.62201186181 -447.382859193786 2454.12097979198 9 12 5
-855.143486436132 -421.375352886709 2535.4099812275 15 17 12
-890.489312967215 -425.985443150587 2539.03999537095 16 18 13
-901.830411866115 -427.426558028614 2545.16775777103 16 18 13
-941.436281035483 -432.596602031984 2548.67566827057 13 15 10
-889.996470958786 -425.754582151663 2560.73570348749 12 14 9
-882.491545560581 -424.709655924805 2568.60076865222 13 15 10
-911.672110992473 -428.503143289686 2573.235717364 13 16 9
-910.461751651694 -428.288330566277 2580.56740203889 13 16 9
-927.096215390721 -430.426394308327 2586.42584264823 13 16 9
-923.788057039513 -429.935129203748 2593.93598908434 13 16 9
-901.547652252983 -426.948948534808 2602.86891525412 14 17 10
-919.254132298578 -429.22807820312 2608.72123125256 14 17 10
-940.140236794494 -431.925810024794 2614.42562500726 14 17 10
-913.643417122572 -428.380391153138 2623.49460122648 16 19 12
-890.270740224023 -425.247959294234 2632.21227869289 18 21 14
-906.951923276896 -427.391946255861 2638.24043934705 18 21 14
-935.265344512384 -431.067368980666 2643.62764085297 20 23 16
-849.291369728573 -419.642604354613 2662.84657943729 19 26 18
-891.367089197292 -425.130159134711 2667.53053054725 22 27 20
-1029.23988621093 -453.173054944354 2339.53732865793 9 11 6
-977.799417225682 -446.170096414979 2355.59377512105 16 19 12
-984.972139033904 -447.0779253269 2362.16806976381 15 18 9
-1040.57706803111 -454.519430728378 2361.29657157619 15 18 9
-1027.17634793911 -452.649958888831 2371.1720618721 15 18 9
-1002.40470219117 -449.247270802217 2382.65983761626 15 18 9
-1013.73233483992 -450.713574082109 2388.72169983056 16 19 10
-1031.2718357428 -453.016716574838 2393.93889455885 13 16 7
-1042.62890566833 -454.485507297572 2400.10941019357 12 15 6
-1071.58743381737 -458.326100599469 2403.89023776966 9 12 3
-1056.0635769939 -456.170660575699 2413.85612361453 10 13 4
-1064.34440570085 -457.223332243439 2420.55683547156 14 17 10
-1012.50105414629 -450.17539579149 2435.14585462338 13 16 9
-1013.49484683934 -450.246786849219 2442.68685992234 23 26 19
-1032.13636765192 -452.694876836612 2448.00780594101 13 16 9
-998.854776438457 -448.150195544734 2459.79416694297 12 14 9
-878.847284942679 -431.392677655131 2546.95378376706 17 19 14
-892.281748814244 -433.13913519085 2552.86838188457 14 16 11
-909.921750163734 -435.450499981998 2558.45445296731 13 15 10
-888.799694350962 -432.552110952629 2567.58691323417 14 16 11
-917.994277059417 -436.415614897442 2572.22970054337 14 17 10
-922.034447620796 -436.898631369419 2579.13246990312 12 15 8
-1000.65249776832 -447.399133789849 2579.94458731572 11 14 7
-928.021356482478 -437.583626388749 2593.13464931792 11 14 7
-924.706010948557 -437.079117412686 2600.62740166291 12 15 8
-937.903359128714 -438.674057810053 2621.34350624021 15 18 11
-922.974220544941 -436.612049204655 2629.56122723436 16 19 12
-917.519966769387 -435.822354615276 2637.0862535504 18 21 14
-852.916068731328 -427.097757478204 2648.2187316848 24 27 20
-949.910088965244 -440.052417844222 2649.46477691841 20 25 18
-903.011095911387 -433.648771518089 2666.4182484994 24 29 22
-926.102977087749 -436.689101721895 2672.30239027388 26 29 20
-1012.88913761044 -458.346606792024 2349.59955540209 16 19 12
-983.007223641356 -454.173524524702 2362.08282432533 15 18 9
-993.278640028405 -455.519883208431 2368.19613871828 15 18 9
-1005.59848298016 -457.081194289548 2381.77822075192 15 18 9
-1001.43794212871 -456.443533283306 2390.11331414221 15 18 11
-1029.30988397866 -460.205258062521 2393.80597359554 14 17 8
-1035.49699733713 -460.987906720757 2400.69717890408 13 16 7
-1055.14488041728 -463.618289157819 2405.74314048678 10 13 4
-1059.28106825348 -464.118180009717 2412.99082054644 10 13 4
-1042.69076304873 -461.773043282982 2423.01420654413 12 15 8
-1019.85172662853 -458.570911062062 2433.75719167564 13 16 9
-1025.00090632934 -459.210131948501 2440.78162591355 13 16 9
-1001.07340381748 -455.860005625124 2451.47403491579 13 16 9
-993.739013794561 -454.786972091087 2459.99000998724 10 12 7
-821.523959505485 -430.5990466075 2545.0416627142 13 18 11
-848.52050518582 -434.233260704626 2549.46190073891 9 14 7
-846.230471369975 -433.856617572517 2556.7834573307 16 19 12
-903.664303893053 -441.655899484659 2558.58011773602 18 21 14
-933.764205869586 -445.646935681702 2570.39998124639 13 16 9
-976.666756334055 -451.452616783315 2574.05569607706 13 16 9
-939.768018772214 -446.339662377324 2584.46004067647 13 16 9
-934.359958104119 -445.535785210002 2592.16552708415 12 15 8
-961.418338420307 -449.108197376799 2604.64700426443 11 14 7
-911.573884056695 -442.167401951998 2622.6926442706 11 14 7
-905.059876536462 -441.214945967769 2630.28209204703 13 16 9
-918.59375662106 -443.002535645854 2636.53983439709 15 18 11
-914.663241315044 -442.220892601171 2665.30240121899 23 26 17
-1087.1352137379 -465.710000371553 2663.47413429268 24 27 18
-979.016137390144 -461.039061654714 2354.62005275307 16 19 10
-957.340621090166 -457.935151454719 2365.72462742095 16 19 10
-972.752303219144 -460.022786298347 2370.97127812161 15 18 9
-973.736823797512 -460.090736567495 2378.48003020981 14 17 8
-994.337963355673 -462.902872844716 2383.05417601817 14 17 8
-972.600883514331 -459.791322616081 2393.93500083722 15 18 11
-995.291997152747 -462.89465383824 2398.29139574677 15 18 9
-1043.87909961685 -469.617888361125 2399.09366246394 14 17 8
-1053.18459502888 -470.846535584473 2405.59133883011 12 15 6
-1018.90661219875 -465.838283785171 2433.45349814069 11 14 7
-1016.78763485016 -465.470159740911 2441.40477536312 11 14 7
-1022.97462145682 -466.262382961266 2448.28946518974 13 16 9
-1004.21426933072 -463.569934781996 2458.26780732373 12 14 9
-899.825299844138 -448.299095043888 2544.02880261067 8 13 6
-901.758299179702 -448.499953879558 2551.07883853225 15 18 11
-928.551052838279 -452.027692326942 2570.39587043296 14 17 10
-970.414572348842 -457.790794407718 2574.11706952529 14 17 10
-933.49597230833 -452.579368895956 2584.51076715799 13 16 9
-928.080469103816 -451.756831775351 2592.19947278178 12 15 8
-910.023939279393 -449.174830827315 2600.8249181924 12 15 8
-945.658130220891 -454.068053768409 2605.34681772363 13 16 9
-976.067889546366 -458.23279523995 2610.41481165502 10 13 6
-941.123769587527 -453.301684033203 2620.16789225232 10 13 6
-914.572955082524 -449.540328374929 2629.17272742164 12 15 8
-974.288969164963 -457.647254177263 2647.04202020545 17 20 11
-984.718460897812 -459.031008604102 2653.71769863841 21 24 15
-971.860885375484 -457.177206938233 2661.70356455652 21 24 15
-950.32218082963 -464.366461930296 2351.19235211919 18 20 15
-953.356736560416 -464.725327624568 2358.33617339403 16 19 10
-944.023106195131 -463.321329054764 2367.4309556806 16 19 10
-948.083056097807 -463.826042615142 2374.39346345218 14 17 8
-976.919461320294 -467.859835382801 2377.59889650885 14 17 8
-1008.8917731033 -472.338591893396 2380.47651901531 13 16 7
-989.22228606564 -469.461752056573 2391.0921570321 14 17 10
-966.419373912103 -466.139484505145 2402.04511164411 13 16 7
-984.985515261643 -468.707336081008 2407.01150631566 14 17 8
-1034.6489992352 -475.700101090027 2407.74367878932 14 17 8
-1019.07694535217 -473.407148389002 2417.61743670396 14 17 8
-1005.55497515147 -471.40666928144 2427.12453121887 13 16 9
-996.162919692282 -469.994245469277 2436.00864086223 12 15 8
-1023.10892392181 -473.7503863242 2440.16332119153 14 17 10
-1023.06467777496 -473.667080135282 2447.84520887781 14 17 10
-1013.6567179711 -472.252694236364 2456.67057854295 11 13 8
-1006.31432035279 -471.132232635811 2465.18676658047 12 14 9
-909.277893217251 -456.675428870069 2542.66362935676 5 7 2
-899.689123329616 -455.241806607229 2550.8298314518 10 12 7
-932.031850654436 -459.756933689295 2555.05977179074 11 13 8
-884.661605528054 -452.964935741736 2566.61151226592 22 25 18
-977.939324823331 -466.120120243605 2565.62387924555 19 22 15
-957.851927606743 -463.197893093177 2574.71655384991 18 21 14
-946.146672924944 -461.465041878924 2583.00715001007 15 18 11
-902.855051030208 -455.25643083107 2593.7474886486 13 16 9
-924.786078795642 -458.29255166222 2599.22151621368 13 16 9
-962.549890079029 -463.570919449775 2603.61354859561 13 16 9
-966.621072007638 -464.075141291808 2610.61806912328 12 15 8
-984.411870312863 -466.522476009979 2616.67724643095 12 15 8
-933.594868732965 -459.254068755409 2627.42252581153 12 15 8
-930.25085252731 -458.709677744802 2634.83400900043 12 15 8
-1008.17999189111 -469.598614783321 2644.53205956559 16 19 10
-957.230540489604 -462.317495670103 2654.79453334256 17 20 11
-985.665399469056 -466.270601967089 2660.4563654976 19 22 13
-959.672354764301 -472.992978805284 2349.28896308425 23 25 20
-954.469242005324 -472.159537134016 2357.77311736735 16 19 10
-950.287081401072 -471.474375673532 2366.05793015297 16 19 10
-981.136532226657 -475.789048861632 2376.56007379449 13 16 7
-974.888753467843 -474.803660092612 2385.15783979641 13 16 7
-990.344589874972 -476.963757215834 2390.52267778795 13 16 9
-989.262371714477 -476.726505335139 2398.34429245944 13 16 7
-967.465866424685 -473.488736884132 2409.08416981347 14 17 8
-963.251776109666 -472.798438433222 2417.2536770679 14 17 8
-983.915358699369 -475.710908850909 2421.99538686764 14 17 8
-1006.67963693801 -478.926161538303 2426.55276624397 14 17 10
-999.360027900203 -477.785575591224 2435.16626927332 14 17 10
-1009.69158446168 -479.199833333442 2441.46000443579 16 19 12
-1023.15405690872 -481.066500013977 2447.40177012097 14 17 10
-1022.06492342065 -480.827350779596 2455.19890742633 11 13 8
-1030.3423795627 -481.942944362462 2461.84737200771 12 14 9
-989.657257875995 -475.977539896473 2474.3189463862 16 18 13
-912.294754509018 -464.086632355892 2549.18559814475 17 19 14
-834.503211395766 -452.780831532103 2563.6404527886 17 20 13
-875.230351332322 -458.583099634064 2567.01409025584 11 14 7
-894.999783578251 -461.359420519481 2572.41920217176 20 23 16
-915.844606909183 -464.289971151534 2577.82333744312 18 21 14
-870.443016833824 -457.664976481582 2588.78530135908 16 19 12
-871.293619938854 -457.71236222027 2595.81075650636 14 17 10
-903.744139136851 -462.31591878056 2600.38507720057 14 17 10
-972.07494364333 -472.090229359761 2602.42713821534 13 16 9
-999.358722592953 -475.945281533724 2607.77346244953 12 15 8
-961.080250539099 -470.275884806017 2625.09725105025 11 14 7
-982.062279567846 -473.222412358131 2630.99978817258 11 14 7
-961.659138665959 -470.133027085455 2646.81927303603 12 15 8
-941.19035553089 -467.038014018048 2662.39859424817 16 19 12
-999.334802440719 -475.332685058339 2666.52086383329 20 22 17
-1026.71831101283 -490.176770674938 2337.98542633844 10 12 7
-971.045091467337 -481.875532559929 2354.73237589205 16 19 10
-972.029126872968 -481.93690625083 2362.24440775869 16 19 10
-984.36711219435 -483.672844148999 2367.99095785602 15 18 9
-989.488104333398 -484.343522606612 2374.89087653812 13 16 7
-972.904725074007 -481.81340303614 2385.05583667451 12 15 6
-972.846543696485 -481.720397872862 2392.6921090052 12 15 8
-981.066892532214 -482.847467592173 2399.12129991913 16 19 10
-989.295674717396 -483.97533937129 2405.58129582813 15 18 9
-979.910657977302 -482.5074580162 2414.52562282281 14 17 8
-991.255867274934 -484.093702472928 2420.57794813191 14 17 8
-994.309890748232 -484.458163022729 2427.78958799773 14 17 10
-1049.27647955083 -492.379568718234 2435.93496403146 15 18 11
-1019.08180387088 -487.84810018155 2447.48420537316 16 19 12
-1038.80587802676 -490.664579563877 2452.69555761802 13 15 10
-1012.72319932148 -486.740106737076 2463.54147290049 12 14 9
-861.788416295435 -463.640734105297 2560.67325507809 11 13 8
-882.407663019551 -466.506742917762 2573.0732577147 18 21 14
-881.16644406126 -466.244400898714 2580.32037418716 18 21 14
-861.822044435081 -463.247300454482 2596.1161737059 16 19 12
-861.610295838981 -463.137336067743 2603.19205919573 15 18 11
-863.504489043362 -463.336421801068 2610.09913500202 12 15 8
-938.207462011663 -474.20878773896 2611.72677358435 13 16 9
-933.815367034955 -473.484904720836 2619.25658795546 13 16 9
-959.000246635833 -477.095798475813 2624.75875793827 13 16 9
-1037.9203382257 -488.415054406463 2641.76158848316 10 13 6
-959.403497766617 -476.837455238111 2653.69515548229 14 17 10
-1029.92013372896 -498.108274567485 2337.07298943642 13 15 10
-1022.69625235582 -496.933695077721 2346.06244324335 18 21 14
-1006.17110006059 -494.363757169067 2356.46965692221 16 19 10
-995.816530988797 -492.72044010505 2365.82130744308 16 19 10
-1000.94561926207 -493.40014935341 2372.74651293875 15 18 9
-976.089215453014 -489.58265124007 2384.1805589269 15 18 9
-989.484793149578 -491.501838695774 2389.84172766916 14 17 10
-986.326801569219 -490.938699184891 2397.95572065352 13 16 7
-992.488404724795 -491.772517435945 2404.7189767539 13 16 7
-1010.06229238713 -494.315908622465 2409.91309135488 13 16 7
-984.073481789418 -490.331874875491 2421.14512417003 14 17 8
-1069.15829700158 -502.986357482327 2417.3310617539 14 17 10
-1079.53884368222 -504.448559040748 2423.77548938888 14 17 10
-1035.85735447979 -497.815696240952 2437.2334268789 15 18 11
-1012.92464363489 -494.291542534129 2447.83192473941 14 17 10
-1009.74189461348 -493.724499906406 2455.85646242111 13 15 10
-974.249868595119 -488.323470568258 2467.76827729794 12 14 9
-872.103159574906 -472.012521362017 2566.40826629986 20 21 15
-877.164513541062 -472.683465400029 2573.08659246121 14 17 10
-896.95834503742 -475.552434925122 2578.52380051098 16 19 12
-894.669043758769 -475.126255181151 2585.87935169325 17 20 13
-907.12227399536 -476.899263717853 2592.03037911286 19 22 15
-865.827310628737 -470.657210380259 2602.41146345184 19 22 15
-855.065111807031 -468.969990954641 2610.27831127986 18 21 14
-901.288176055649 -475.777596562745 2613.93999013079 18 21 14
-913.769169819541 -477.554335987622 2620.19174259829 17 20 13
-937.891702490215 -481.065364869202 2625.70899648092 16 19 12
-924.83646683129 -478.954248684176 2640.91608473746 14 17 10
-972.149307133119 -485.834063886733 2652.47461951016 12 15 8
-976.42108760016 -497.395305923804 2345.4114924913 19 21 16
-1037.24614417326 -506.584198586594 2343.33463606956 19 22 15
-929.790708589413 -490.001676844064 2375.67625980451 15 18 9
-966.923059530819 -495.572450441648 2377.54012300123 14 17 8
-1033.07112709537 -505.564949242114 2375.23667731914 14 17 8
-971.971440002547 -496.154924637144 2392.01970613859 13 16 9
-1007.12962750054 -501.419584697754 2394.53979222594 13 16 7
-1012.26954945832 -502.107702811787 2401.49898312878 13 16 7
-973.842723794747 -496.158178649706 2414.55157224359 13 16 7
-1043.32418545627 -506.64724927799 2412.62096588454 13 16 7
-1058.8792276675 -508.919795706765 2418.28314097817 13 16 9
-1076.53164242978 -511.510568064651 2423.73889731917 13 16 9
-1058.83679455527 -508.719799681524 2433.838072729 14 17 10
-1017.17182403125 -502.282120253838 2446.86615049084 14 17 10
-986.905449674042 -497.581588392169 2458.25499740673 13 15 10
-994.121120373282 -498.584911636161 2464.92939176452 12 14 9
-991.955893927224 -498.16118188896 2472.7440616825 12 14 9
-877.368296561393 -479.744357418531 2565.48900091298 8 9 3
-861.399704880768 -477.233052684443 2574.02834774726 14 17 10
-858.03592010332 -476.634956111003 2581.39941196197 15 18 11
-873.621269471953 -478.910718881947 2587.17208096092 16 19 12
-955.617695209755 -491.254273393958 2587.67394801568 17 20 13
-971.285198098817 -493.539133265151 2593.74589350148 19 22 15
-909.93554917795 -484.151543820958 2605.69037827436 19 22 15
-883.348199738847 -480.035089630815 2614.78375701739 18 21 14
-888.423553038919 -480.717241983322 2621.50698361878 17 20 13
-917.82399058265 -485.083610783244 2626.59658704069 17 20 13
-893.501846802257 -480.972777341227 2663.58014174629 15 17 12
-970.219944554673 -503.549901604332 2361.36448553314 15 18 9
-949.494028428003 -500.238092403963 2372.22967568887 15 18 9
-930.805012246428 -497.243400209 2382.66369525225 14 17 8
-914.157181185673 -494.56632062142 2392.68214134373 13 16 9
-1016.58309458172 -510.340729881015 2385.04032771827 13 16 9
-1018.62027786656 -510.556410897811 2392.46782027479 13 16 7
-993.693098990363 -506.5953877676 2403.7306355147 13 16 7
-1013.35392918432 -509.540650296825 2408.62586838738 13 16 7
-1031.96380142745 -512.221133120703 2421.47522956813 12 15 8
-1009.0449702315 -508.573874154506 2432.20391108344 12 15 8
-1050.61294206994 -514.905124873066 2434.46910028799 13 16 9
-1027.66982242564 -511.255222988618 2445.10834313271 13 16 9
-1003.64997195301 -507.440430062664 2455.75124842358 13 15 10
-1023.39215069523 -510.393252433207 2460.94373962406 12 14 9
-993.069662832411 -505.606166540612 2472.1788937755 12 14 9
-851.720459484971 -482.546323052062 2581.49624661739 13 16 9
-894.697999939566 -489.077962449407 2584.97205252023 12 15 8
-960.924835309322 -499.189337121317 2586.78232464302 13 16 9
-944.951613402631 -496.634345381266 2595.33206204393 16 19 12
-934.05981466732 -494.770417969831 2610.62286475607 17 20 13
-929.656357420463 -494.000155923118 2618.13884551324 17 20 13
-947.458241299922 -496.648189476496 2624.11339967001 16 19 12
-880.992292723485 -486.061053456249 2656.78445938778 15 18 11
-899.870223721816 -488.875516435783 2662.75184136366 15 18 11
-931.516307720234 -493.652125030574 2668.1274452384 15 17 12
-1008.55863737702 -516.978027433601 2347.16032827627 18 21 14
-988.900443387853 -513.775940262372 2358.02323930874 16 19 10
-960.940660658762 -509.2670035034 2370.06240497391 15 18 9
-947.424072513374 -507.035330313616 2379.73544584568 14 17 8
-982.546170936236 -512.464559269753 2382.01856910751 14 17 8
-988.704932010642 -513.330686833191 2388.75087470911 14 17 10
-984.501427046897 -512.565303223018 2397.00708813695 13 16 7
-984.439068464343 -512.451943305174 2404.64070225051 13 16 7
-987.488549995931 -512.828125032504 2411.82807863908 13 16 7
-996.772632885681 -514.184963376555 2418.16532134401 12 15 6
-962.402199054192 -508.675304937562 2430.41457955033 12 15 8
-981.039130502786 -511.503024788675 2435.47880773797 12 15 8
-1003.86303745306 -514.98772210046 2440.08746360342 13 16 9
-1010.04703174957 -515.855504288447 2446.91333959233 13 16 9
-999.557003608838 -514.102823613496 2455.83110359817 12 14 9
-867.517590774415 -491.884704546779 2579.69900324403 12 15 8
-889.442166380404 -495.221381533589 2584.9583907608 12 15 8
-926.158925758694 -500.872514417861 2589.12482967489 12 15 8
-911.023310769481 -498.309624828589 2604.68667308917 16 19 12
-980.582232927737 -509.0950517967 2606.75287887836 16 19 12
-970.919395715085 -507.485694467185 2614.75596245618 16 19 12
-964.415740732934 -506.371354135085 2622.48512345746 15 18 11
-901.360917576018 -496.228990049699 2648.05768663618 14 17 8
-995.265856217009 -522.334862933504 2341.18344332134 18 20 15
-1013.82188581147 -525.198168336502 2345.92483192639 20 23 16
-987.956390036314 -520.94794785327 2357.78369390137 17 20 11
-949.640945782445 -514.706811701618 2371.43299988189 16 19 10
-975.440181636812 -518.728639327783 2375.05946268299 16 19 10
-984.700469868663 -520.102366275144 2381.29769790676 15 18 9
-985.678983443536 -520.15073933017 2388.79743621895 15 18 11
-994.953612302659 -521.525771107281 2395.0871625574 13 16 7
-968.949863343608 -517.259618719118 2406.44277612821 13 16 7
-969.911040390382 -517.30563298264 2413.8787075044 12 15 6
-959.438110926033 -515.524436335435 2422.87888805897 11 14 5
-943.747894199296 -512.910442522603 2432.5166190455 11 14 7
-936.359260524849 -511.62363141081 2440.96523701899 12 15 8
-969.574232776018 -516.821682342893 2444.10616906247 12 15 8
-986.157206129988 -519.361795013764 2449.51960331781 12 15 8
-990.245686760141 -519.906540585559 2456.56183694983 12 14 9
-997.467458335301 -520.951005902944 2463.23290771284 12 14 9
-879.111399885083 -500.627479345729 2578.25882291898 13 16 9
-936.897991975175 -509.717162324156 2580.55051877771 13 16 9
-954.668553448267 -512.440424414177 2586.36128361888 13 16 9
-928.118801748684 -508.117297948877 2595.72473745491 13 16 9
-990.274474352567 -517.894486294035 2598.21677846559 12 15 8
-956.306992915055 -512.394104390484 2608.05994283114 11 14 7
-960.375800917413 -512.939058679598 2615.02900407871 12 15 8
-941.157759917164 -509.785614680308 2623.5990857549 13 16 9
-872.122169075086 -498.723394473845 2635.3405495081 14 17 10
-985.319720831761 -516.597053716729 2635.19301124793 14 17 10
-979.371604217978 -515.254498573436 2664.61232017916 14 17 8
-993.029995410317 -517.322264630197 2671.15453014816 16 18 13
-1049.05262523907 -538.42845306648 2331.99624954536 19 21 16
-1013.92173067414 -532.599325663639 2345.52008245828 18 21 14
-996.317015284637 -529.622864641048 2356.07113873087 17 20 11
-961.094924295625 -523.783652047374 2369.26274445672 17 20 11
-968.272954801634 -524.838597651913 2375.76479649834 16 19 10
-966.132987094564 -524.378681354522 2383.69609345701 16 19 10
-989.90811259738 -528.128946915173 2387.77245110037 15 18 11
-1002.30012762595 -530.028604812093 2393.6162386746 13 16 7
-996.017517581998 -528.895060475017 2402.17822061118 13 16 7
-947.124537931821 -520.844550758758 2416.66447448521 12 15 6
-976.139357115796 -525.442386471615 2420.17621642512 11 14 5
-914.674418816989 -515.356652450759 2436.02974665542 11 14 7
-941.61903613256 -519.617742261489 2439.86047930874 12 15 8
-995.685879617161 -528.275694668486 2440.30393990292 12 15 8
-981.014636683768 -525.783930680422 2449.75143097389 12 15 8
-991.359402275375 -527.348746275428 2455.99822530739 12 14 9
-1009.02324311219 -530.099004505875 2461.39571339294 12 14 9
-923.039207827531 -514.433641416206 2588.46360275809 13 16 9
-913.167244544918 -512.62964864091 2603.60576562537 12 15 8
-964.798312179605 -520.856139769424 2606.96796012713 10 13 6
-973.106241069906 -522.090386103411 2613.65465291473 11 14 7
-921.058796963706 -513.590554240333 2624.5053177715 14 17 10
-930.402866603633 -514.993900332379 2631.03591696538 15 18 11
-957.784600664949 -519.304858818579 2636.45902297456 16 19 12
-973.528007752791 -521.738580897799 2642.71880206849 14 17 6
-1006.13333401297 -526.784535937853 2655.38215359392 14 17 8
-1055.36480650629 -546.943717543735 2330.57258925914 21 23 18
-1015.05476212492 -540.166230095694 2344.94945884094 18 21 14
-986.06418351361 -535.260981076739 2357.30801262395 17 20 11
-1002.57475534295 -537.86902242058 2362.40881857816 15 18 9
-968.350335295686 -532.102727323994 2375.36222429788 14 17 8
-976.573329557733 -533.342747470648 2381.72992617446 14 17 8
-986.879134435332 -534.925650862029 2387.82157634771 15 18 11
-1009.65183351759 -538.563687679555 2392.1432968992 15 18 11
-997.138279452229 -536.382272403341 2401.61235612093 14 17 10
-1006.43159171291 -537.796211573555 2407.94781519884 13 16 9
-988.692114398244 -534.754839296735 2418.04043744619 13 16 9
-1001.10911010467 -536.683092379683 2423.95891987772 13 16 9
-1004.16669051551 -537.068991274919 2431.1702309065 13 16 9
-977.00003478574 -532.477550336971 2442.30989010669 14 17 10
-1030.10177238418 -541.103148751949 2443.08684870222 13 16 9
-999.779053904851 -535.993699702375 2454.52466984118 11 14 7
-992.388443555123 -534.660222933557 2462.99634008215 11 14 7
-926.228165181019 -521.974015892843 2587.74940890094 7 10 3
-851.860521564506 -509.570116443516 2607.81717252754 11 14 5
-861.148856739717 -510.985559579159 2614.13320313755 11 14 5
-1027.13520660849 -538.063017770712 2609.33937456257 12 15 8
-1052.44085628938 -542.094547473632 2615.02344364272 12 15 8
-981.305754833628 -530.337794827902 2627.20096817168 13 16 9
-950.020656986827 -524.894579239058 2650.86352564241 15 16 8
-1048.24738158223 -553.232908192344 2331.34966990281 22 24 19
-1016.18791479436 -547.733321846478 2344.3791670215 17 20 13
-1004.73694507106 -545.567768457545 2361.67969966341 16 19 10
-1015.05621946048 -547.173776530648 2367.8067724076 14 17 8
-983.910192787664 -541.833886475275 2380.22962035973 14 17 8
-994.223497284544 -543.438973034904 2386.33510985836 15 18 11
-980.665946589695 -541.046889023743 2395.95826882994 16 19 12
-976.43879083862 -540.217761631519 2404.1659869843 15 18 11
-1008.59503467348 -545.476732839451 2407.23485545695 14 17 10
-1005.41593046949 -544.822068629778 2415.32731628866 13 16 9
-964.745492525644 -537.897765026778 2428.45880724258 14 17 10
-1002.16155124917 -544.032967844212 2431.0187417454 14 17 10
-1034.41279012342 -549.301705471618 2434.43321315233 14 17 10
-1055.22828728148 -552.656855607074 2439.46039619318 13 16 9
-1056.23210700053 -552.700349843678 2447.05624246686 11 14 7
-991.412131645221 -541.749301933267 2462.68938174119 11 14 7
-939.981193730654 -531.283113156671 2586.17580003178 12 15 8
-915.312277510629 -526.952341301464 2602.52725426857 12 15 6
-968.03972009447 -535.606290788804 2605.79294983608 11 14 5
-1064.2589180602 -551.485722089198 2606.21293400146 11 14 7
-1076.87998925871 -553.465767523054 2612.8564097584 12 15 8
-1052.3966319876 -549.280576809431 2622.01225492391 12 15 8
-994.979074273215 -539.627468344025 2633.1363189054 12 14 9
-988.296973788763 -538.29252943618 2648.13579091423 14 15 9
-1024.290959394 -544.155439332142 2653.38132793453 14 17 10
-974.137884426612 -535.720098188364 2663.4320572849 14 17 10
-997.706803141558 -552.090074381541 2339.2538878273 20 22 17
-992.447394874941 -550.9411562039 2355.52177306585 16 19 10
-999.648923803302 -552.039075558738 2362.08300974535 16 19 10
-1022.4064248318 -555.781240447769 2366.28256188879 15 18 9
-1016.14757124459 -554.589037985523 2374.96978056258 16 19 10
-965.24139758764 -545.810025687094 2390.23494784855 16 19 12
-982.819941009776 -548.670912408711 2395.24496929089 15 18 11
-976.511878562414 -547.473199132221 2403.75389337371 14 17 10
-1012.8398956681 -553.516143744656 2406.2296390075 13 16 9
-987.801974740945 -549.137947976904 2417.34467168114 13 16 9
-939.81133657307 -540.866210189785 2431.42356504057 13 16 9
-1008.49272393866 -552.39625740268 2429.76247091809 13 16 9
-1065.79220662541 -561.989648946516 2429.92760981435 14 17 10
-1043.84152661125 -558.137495855612 2440.48295693241 13 16 9
-987.39011056533 -548.43767327834 2455.22360841497 12 15 8
-1046.87498738491 -558.39545221404 2455.47906248648 11 14 7
-999.755779304328 -550.282198467808 2468.79702605346 10 12 7
-916.761826542634 -534.412776519416 2587.61280692316 8 11 4
-985.30288271427 -545.864504684427 2589.3764575127 12 15 8
-1014.65975546634 -550.578287436469 2601.87761518808 11 14 5
-1065.3868954273 -559.014320535185 2605.64772995625 11 14 7
-1085.25783353084 -562.000392975341 2626.88349763528 11 13 8
-1024.61109726091 -551.660178982215 2638.14194717686 13 14 8
-992.628602878643 -558.540623867234 2339.70676664712 22 24 19
-941.875533965459 -549.646044686511 2355.61241569597 16 19 10
-939.721009945154 -549.144759365303 2363.5157861525 16 19 10
-1010.10065286065 -561.161178821446 2360.05934227426 16 19 10
-981.02252620459 -556.012197131739 2372.24672737481 16 19 10
-952.93893778296 -551.037266182178 2384.12043110567 16 19 12
-971.543340499244 -554.115684893619 2388.90560834954 16 19 12
-975.622278128786 -554.688505936341 2395.8956143306 15 18 11
-1000.50149220162 -558.845690641997 2399.91707958655 14 17 10
-997.316242956181 -558.165425548325 2408.00381716418 13 16 9
-992.04124133739 -557.125299770315 2416.35155172557 13 16 9
-973.2099666258 -553.751323937699 2426.49685308198 13 16 9
-1023.1700629733 -562.222900126947 2427.39664520318 13 16 9
-1066.93519963062 -569.623732471776 2429.35155813362 13 16 9
-1041.84296280056 -565.172072480954 2440.31130796997 13 16 9
-1042.83539762027 -565.210090816627 2447.86834154094 13 16 9
-1038.59827243294 -564.34885475855 2456.06024588567 12 15 8
-985.200568013027 -552.875534929174 2596.25914676838 16 19 12
-903.082460984283 -538.458279006602 2623.89175719738 11 14 7
-984.594075750351 -552.281318854784 2625.55586692949 11 14 7
-1082.14363005921 -568.840392410033 2626.58979252988 10 12 7
-957.150810461678 -546.993078518808 2663.38455244814 13 16 9
-1062.21064952317 -564.578759113024 2679.96372822053 15 17 12
-985.424900998769 -564.452172710677 2348.19458189814 16 19 10
-960.506827198623 -559.952953329116 2359.83099143906 16 19 10
-938.66142369091 -555.993803918837 2370.84476146665 17 20 11
-948.942586933522 -557.659748874594 2376.79156495986 17 20 11
-955.082407065992 -558.600060134952 2383.40763987623 16 19 12
-940.451243713457 -555.906474454297 2393.13135822674 16 19 12
-981.932781780227 -563.027273350903 2394.57715639142 16 19 12
-999.542325931865 -565.970719260994 2399.65108293936 15 18 11
-1021.33737148489 -569.644212796707 2404.21690242029 14 17 10
-955.656985199981 -558.030152709964 2420.97041611219 14 17 10
-995.167069850969 -564.798656686778 2423.11258449895 14 17 10
-1046.20311790959 -573.576561476892 2423.9165251939 14 17 10
-1065.99089545305 -576.89396455451 2429.04813863383 13 16 9
-1030.44136730676 -570.550129745023 2441.3426264204 14 17 10
-1035.60596068961 -571.314811152837 2448.34507943349 14 17 10
-934.595221701612 -551.357093429114 2592.47107216195 11 14 7
-994.628151107964 -561.528361276817 2602.42012214098 14 17 10
-934.046114220402 -550.886117745151 2614.10947344776 14 17 10
-957.727694633975 -554.499006530753 2641.30410034102 12 13 7
-989.296227621211 -559.725099736736 2653.90063222662 12 15 8
-1073.53285297528 -587.531599370841 2325.64236047383 19 21 16
-1005.18739673279 -575.244956838639 2344.61551527395 16 19 10
