ply
format ascii 1.0
comment KinectMotionCapture
element vertex 753
property float x
property float y
property float z
property uchar red
property uchar green
property uchar blue
end_header
-892.587229210474 162.179189894918 2470.05614572284 126 131 127
-893.605183690203 161.882639972213 2477.54563450252 128 133 129
-892.612829000706 161.433436824826 2485.2665738382 128 133 129
-892.620654827336 161.061355841899 2492.8542869357 127 132 128
-890.613635461391 160.537081344595 2500.65782848306 121 126 122
-891.620056417137 160.242457437102 2508.10571153389 115 120 116
-891.617669996116 159.872026819849 2515.65562148938 105 110 106
-890.603841542835 159.425978838595 2523.29975397811 96 101 97
-893.620272507554 159.284764667619 2530.5136953265 95 97 94
-895.628365599559 159.067610141341 2537.83225140181 96 98 95
-901.6767768285 159.154198292245 2544.75727350443 103 105 102
-903.687001613243 158.937100498629 2552.08377995511 107 109 106
-904.685289924662 158.644478545847 2559.50180299839 110 112 109
-903.657019707924 158.200822906616 2567.09382644942 112 117 113
-901.611054310105 157.68229468994 2574.75639691442 103 108 104
-890.435044739267 156.48499693066 2583.16203377571 85 90 86
-861.993834345061 154.007677620301 2592.89931691478 107 112 108
-829.448524724856 151.233790051931 2602.79785689628 139 145 141
-813.108617231626 149.669567203627 2611.28275554208 137 143 139
-807.925705441337 148.935318755739 2618.85215459101 146 151 147
-805.784442156457 148.427696682948 2626.16778824754 145 150 146
-806.69109599502 148.145853318415 2633.25332451184 140 145 141
-805.558784127572 147.714425493646 2640.46585268481 136 141 137
-805.441014350015 147.358415520795 2647.59740031446 125 130 126
-804.299873705951 146.928044975881 2654.77874550391 121 126 122
-804.174970174643 146.572961148478 2661.88439162382 133 138 134
-807.112063864885 146.442229610555 2668.809458385 136 141 137
-808.005151920643 146.162316236537 2675.84584605154 139 144 140
-814.012212259233 146.255123679807 2682.62033791595 140 145 141
-821.048110284489 146.421825592207 2689.36596420188 140 145 141
-819.894959149972 145.993046302893 2696.50372142974 140 142 137
-1145.0214598827 184.325110269347 2209.4337755965 191 195 196
-1141.36780629055 183.616823115741 2218.80108082649 134 138 139
-1137.7054545488 182.909837915618 2228.13598449463 129 133 134
-1132.06155852906 182.052411291816 2237.81332060499 125 126 128
-1131.34026169341 181.575577745059 2246.52412926093 122 124 123
-1131.60207694261 181.175284081633 2255.03611427183 112 114 111
-1135.81363792983 181.07816772722 2262.81885982322 103 105 102
-1139.03904752721 180.905570471141 2270.78795521643 98 100 95
-1144.24492060661 180.884074144831 2278.41287980646 94 96 91
-1145.49277579241 180.560776199472 2286.73905754722 89 91 86
-1127.90658681834 178.806927020856 2298.26967794981 83 85 82
-1085.49360773306 175.175546293979 2313.85335924502 141 143 142
-1036.06740465652 171.025508236854 2330.34603304129 143 144 146
-991.532331061392 167.259399778997 2345.75930309546 144 148 147
-962.834506800406 164.701126666947 2358.38903963396 142 146 145
-949.013317930615 163.27188645619 2368.51709805304 140 144 143
-940.146393876915 162.219678125153 2377.79394894943 141 145 144
-931.263061887546 161.16947584957 2387.01207593745 140 144 143
-925.354633536236 160.34535142735 2395.72735159182 139 143 142
-914.445936044511 159.149746820902 2405.12653477917 138 143 139
-908.510219247618 158.3290817173 2413.74267781616 137 142 138
-903.561425636894 157.584385917217 2422.17564489115 136 141 137
-903.601627963527 157.212914488631 2429.88302140573 135 140 136
-902.637928862454 156.76771193283 2437.71380811149 133 138 134
-898.665769693463 156.100579578238 2445.92454754571 126 131 127
-895.686771386517 155.508781590902 2453.97301137538 128 133 129
-891.697348400195 154.843934714998 2462.12109657107 132 137 133
-891.712553173465 154.476155970801 2469.73892245952 131 136 132
-892.728797217462 154.182887066133 2477.22320316708 126 131 127
-893.743225544063 153.889987015839 2484.70097534717 124 129 125
-893.750137744887 153.523672805027 2492.28893716914 124 129 125
-893.753799206745 153.157936740797 2499.86519464593 126 131 127
-894.761391447586 152.86630389073 2507.31838582332 119 124 120
-895.767175862699 152.575038982324 2514.7650971972 102 107 103
-894.754182851733 152.137256063694 2522.41754964735 96 101 97
-894.745601487368 151.773470282628 2529.9495832166 100 102 99
-896.753574303086 151.556806239664 2537.26800239512 103 105 102
-901.792973511244 151.559921281295 2544.29038045849 112 114 111
-901.779889047087 151.197154457631 2551.80540919466 116 118 115
-901.763350032225 150.834823357751 2559.30881597682 117 119 116
-902.756444314546 150.546008155312 2566.70995799095 116 121 117
-904.761131661352 150.330359523586 2574.01681994482 108 113 109
-894.595321273183 149.241078264712 2582.34500395706 79 84 80
-861.069545212758 146.480763681028 2592.50908289096 118 123 119
-828.509054438603 143.798660815812 2602.40920627986 138 144 140
-811.14415152033 142.210695346735 2610.96982834256 128 134 130
-805.956162257615 141.495981511512 2618.53270886332 122 127 123
-803.811061561175 140.99974998642 2625.84128635836 121 126 122
-806.752111963385 140.866011976547 2632.78007450908 122 127 123
-804.598421026507 140.370903930062 2640.05746743059 127 132 128
-802.43868286205 139.876509717252 2647.31285885853 138 143 139
-801.293414749007 139.454920454049 2654.48442360618 141 146 142
-802.186227390602 139.178078805859 2661.52079901829 139 144 140
-805.121245081057 139.045370666008 2668.43783909867 140 145 141
-804.989045140659 138.696936227478 2675.52059315772 140 145 141
-809.971115464393 138.707995826454 2682.33513608698 139 144 140
-817.005609175423 138.86217312653 2689.06671202237 139 144 140
-814.822535452796 138.370629508118 2696.23819183505 152 154 149
-1148.25084124669 176.07314429312 2208.42040654689 179 183 184
-1140.65574049024 175.087660945283 2218.56509435242 138 142 143
-1137.97491398989 174.47049785245 2227.70552648266 136 140 141
-1131.34072593491 173.561724552123 2237.56907611639 132 133 135
-1130.61665126533 173.093386220653 2246.27493465357 128 130 129
-1133.83982230666 172.918036875155 2254.23491022428 123 125 122
-1142.00776184752 173.107632526127 2261.30078928479 116 118 115
-1147.21576579839 173.077946874552 2268.92845507169 108 110 105
-1148.46700930937 172.756972073033 2277.26867971115 105 107 102
-1147.73513501614 172.291102636727 2285.94620948307 97 99 94
-1130.14124591264 170.591195313446 2297.48322590032 79 81 78
-1090.6879100755 167.298626625371 2312.57857148805 140 142 141
-1039.25714071075 163.143290568723 2329.41983747452 145 146 148
-992.717119173657 159.358800670726 2345.17016446876 148 152 151
-959.034242612638 156.522529814875 2358.59932560517 145 149 148
-943.212684532061 154.992523628893 2369.02942761323 141 145 144
-936.327818976014 154.115103718905 2377.98298472875 142 146 145
-929.429681210515 153.239363222226 2386.8883250255 138 142 141
-922.518482624845 152.365342594084 2395.74532986925 135 139 138
-915.593772345663 151.492993056522 2404.55415250483 134 139 135
-908.655758290358 150.622326583113 2413.31464342573 131 136 132
-904.702965666189 149.968681291956 2421.60580207093 130 135 131
-900.741425492353 149.316228134858 2429.86430640723 133 138 134
-898.772434288729 148.80814207344 2437.82018862142 130 135 131
-895.795960163981 148.229468397101 2445.88631024776 123 128 124
-892.811731791471 147.651771050784 2453.92518729813 125 130 126
-893.832493617051 147.360636896287 2461.42758941275 126 131 127
-891.840005959005 146.85601197579 2469.29749005754 123 128 124
-891.850336117383 146.494660294265 2476.9012751672 121 126 122
-890.852226676671 146.062737855753 2484.61268739695 122 127 123
-890.855569755598 145.702576883496 2492.19035357903 125 130 126
-892.868929114174 145.484899936775 2499.52813244105 125 130 126
-895.889211918199 145.338387904149 2506.75303012134 115 120 116
-897.90252613115 145.121062777117 2514.09086348703 95 100 96
-897.897703956319 144.762445567335 2521.64011735557 95 100 96
-897.889861372905 144.404372560736 2529.17757159792 105 107 104
-900.909378359998 144.258570087411 2536.40007392864 107 109 106
-904.941096632678 144.183387023058 2543.52801723778 115 117 114
-900.881546118963 143.544457237311 2551.43209536283 117 119 116
-899.850288178718 143.117783865036 2559.02374769638 118 120 117
-898.81435868514 142.691751872432 2566.59846040154 114 119 115
-900.815355249827 142.476977787657 2573.89217134795 102 107 103
-887.597544489689 141.210321735003 2582.46585214856 78 83 79
-858.112998699827 138.825144691307 2592.28485866196 124 129 125
-829.599842913911 136.514917162 2601.86051566572 140 146 142
-813.243867787824 135.048271532488 2610.34736348761 130 136 132
-806.018961786988 134.213045572146 2618.06412710616 127 132 128
-800.816990726326 133.518809529719 2625.58802455785 123 128 124
-804.774237002792 133.45289670022 2632.44624970465 116 121 117
-802.616740221026 132.969175550591 2639.71670136057 117 122 118
-798.412453672465 132.347158509452 2647.09408077728 125 130 126
-798.283485651858 132.003946319045 2654.19120235265 127 132 128
-801.216270981179 131.869272356696 2661.09871299626 139 144 140
-806.195143085087 131.873134448004 2667.8968374326 141 146 142
-802.992550015973 131.322872751053 2675.14229059553 143 148 144
-806.949815118415 131.257455895653 2681.99996974906 143 148 144
-813.983133587334 131.399024491157 2688.72015078735 145 150 146
-812.821217604582 130.988003850382 2695.83564871009 146 148 143
-1151.48161500495 167.811428057941 2207.40605138127 170 174 173
-1137.97074814741 166.42890350142 2218.71576842885 137 141 140
-1132.32620673101 165.614009821411 2228.41756138201 131 135 134
-1127.65696899067 164.87124459786 2237.8887544547 112 117 113
-1131.86637024039 164.763842797817 2245.65605860964 101 106 102
-1138.05500813723 164.797083683618 2253.06803417607 89 94 90
-1147.21643284156 165.040927648268 2259.96045809179 83 88 84
-1150.44865249585 164.862798793626 2267.95227455238 79 84 80
-1153.682222144 164.684925307275 2275.94833547922 87 92 88
-1150.96903830611 164.086985896065 2284.98076798325 77 81 80
-1135.35269790556 162.580931419484 2296.18792487114 80 84 83
-1086.95054546298 158.772308873309 2312.80285848136 118 122 121
-1037.48124347847 154.902302973706 2329.31324114639 147 151 150
-995.890052877333 151.598543101385 2344.25765526671 149 153 154
-961.199206515582 148.789503427433 2357.85793481665 140 144 145
-946.366506536024 147.37767931671 2368.13776673403 137 141 142
-938.483123643846 146.455084749039 2377.25182415489 135 139 140
-930.584768151696 145.534387999473 2386.31241845211 137 141 142
-921.674242363219 144.546274124324 2395.46785053704 131 135 134
-914.74433426376 143.698643210624 2404.27298072975 132 136 135
-907.801389967015 142.852671551305 2413.02982862081 129 133 132
-904.844466253499 142.284712632503 2421.17623085177 128 132 131
-901.880230326012 141.717837610412 2429.29523955855 127 131 130
-897.906956046131 141.083082314067 2437.52227998421 125 129 128
-895.928921030328 140.58718382443 2445.45134986861 116 121 117
-894.947474257063 140.160944987757 2453.22821564546 118 123 119
-895.968203314044 139.872811338602 2460.7333194812 116 121 117
-893.974711353252 139.379249302619 2468.60647587285 112 117 113
-891.975108397781 138.886567332882 2476.45749896675 108 113 109
-892.986361656248 138.600085524971 2483.92753488339 109 114 110
-892.989283340547 138.245612817177 2491.50815680472 107 112 108
-896.010240760905 138.096625456402 2498.73399641063 106 111 107
-898.024531011171 137.879461836156 2506.0755555785 99 104 100
-901.047134836876 137.730666679006 2513.30670028958 96 101 97
-900.033670596616 137.3096327486 2520.96797759207 103 108 104
-899.015512390024 136.889286114836 2528.61226104068 108 113 109
-897.992672528544 136.469596470636 2536.23957721109 113 119 115
-902.022213406175 136.389812855703 2543.35653173237 119 125 121
-900.993624618864 135.971019169074 2550.96306892863 120 125 121
-899.960329553779 135.552943086163 2558.55258569534 118 124 120
-895.881759238697 134.93261869168 2566.39779349573 112 118 114
-895.851150779757 134.583612488309 2573.85737583166 101 106 102
-883.637827530414 133.425517986654 2582.33274158142 79 84 80
-854.137396663503 131.124329082454 2592.14486660907 127 132 128
-826.624840034156 128.962653909226 2601.63301996562 132 138 134
-812.293007147999 127.679511745673 2609.95739589412 122 128 124
-805.062724766283 126.86900348196 2617.67073254638 135 140 136
-801.893604053521 126.32830836373 2625.04557282253 132 137 133
-801.774565982695 125.989500603504 2632.18327210436 124 129 125
-800.632400303957 125.584203691682 2639.37664172027 124 129 125
-794.382253509004 124.845250608218 2646.87695649291 125 130 126
-796.291480065344 124.641797821664 2653.83709105978 126 131 127
-799.222443400265 124.505110575854 2660.7365659135 132 137 133
-804.200277705619 124.501640828773 2667.52620826828 137 142 138
-800.993472172366 123.965470310404 2674.76491780996 140 145 141
-806.997926827167 124.028367289348 2681.51085137982 143 148 144
-811.982625302048 124.024320290754 2688.32561460433 144 149 145
-806.714031650072 123.356773049162 2695.61993436632 143 145 140
-1140.92103580793 158.587143524302 2209.13252098398 153 157 156
-1128.38077658807 157.316795621769 2220.22041603887 137 141 140
-1125.68508214215 156.728249475118 2229.32278462045 133 137 136
-1128.90578885575 156.547783983483 2237.27038055846 128 133 129
-1138.05609732975 156.773966218084 2244.11038139798 125 130 126
-1143.26109479734 156.72874252265 2251.7170747942 115 120 116
-1147.4806640534 156.615861145442 2259.51867124565 104 109 105
-1148.73188759282 156.300434227669 2267.86232437798 95 100 96
-1150.97246864553 156.052939765289 2276.02490763765 84 88 87
-1148.2544841503 155.469137814004 2285.04751287147 79 83 82
-1129.65070946732 153.810236598728 2296.75630253597 77 81 80
-1086.18849859174 150.475400415622 2312.52793492254 115 119 118
-1031.72742788186 146.409970775915 2329.86493831772 145 149 148
-989.118877927501 143.158241139357 2344.96126610784 142 146 147
-962.369328890272 140.985048541068 2357.27504560924 135 139 140
-952.50948273215 139.953543744426 2366.77569187389 136 140 141
-941.635392730361 138.857425105834 2376.36617612043 135 139 140
-930.742253818142 137.763653984875 2385.88741759577 140 144 145
-917.833930994713 136.538972115863 2395.63666674956 135 139 140
-911.895485334448 135.782765063716 2404.28430251346 136 140 139
-903.946160193932 134.895178317772 2413.17563139653 134 138 137
-902.984216774471 134.474193452179 2421.02822638579 133 137 136
-899.014515282218 133.855026236559 2429.27837336979 132 136 135
-893.032478770905 133.104618784278 2437.76689738857 131 135 134
-895.058191439057 132.884978776442 2445.14930229383 128 133 129
-896.080451645598 132.599505732614 2452.6608417322 127 132 128
-899.108560228719 132.446485269212 2459.910685914 120 125 121
-893.09636711894 131.700201008531 2468.28984756052 115 120 116
-892.09885435363 131.284629659354 2476.01379835092 111 116 112
-893.108634140146 131.001343864523 2483.48131037285 111 116 112
-896.130506608778 130.849831622306 2490.7080242732 112 117 113
-897.138098187865 130.567174386163 2498.16780874887 108 113 109
-898.144150782067 130.284904460752 2505.62119478052 101 106 102
-897.130445879134 129.872072309102 2513.28675672341 98 103 99
-898.131438646633 129.590705293097 2520.72192665994 103 108 104
-898.120107879428 129.24437967197 2528.25477566625 112 118 114
-897.094519380982 128.833326282269 2535.8773391653 114 120 116
-902.135049648857 128.813911591468 2542.88969253811 116 122 118
-901.104409215376 128.403760198463 2550.49406866602 116 122 118
-900.069111749893 127.994205180867 2558.08153066707 113 119 115
-894.973410574569 127.325631016982 2566.01618894137 109 115 111
-895.955306122738 127.04739695211 2573.38243262682 95 101 99
-880.689392621048 125.733073476464 2582.11538444084 83 89 87
-848.12502081445 123.321643531567 2592.17291605142 126 132 130
-817.545540377867 121.044815391733 2601.89044201042 128 134 132
-809.305194163315 120.193052926542 2609.72388425963 131 137 135
-807.159400499024 119.729792371633 2617.05163406787 127 131 130
-805.007791199544 119.267254885838 2624.35731904798 127 131 130
-800.810644853078 118.676862317145 2631.78117467196 128 132 131
-797.625129464789 118.151753960688 2639.10498539655 129 133 132
-794.431892029166 117.627459352527 2646.40156845345 132 136 135
-797.36230445237 117.488662278051 2653.29673682206 133 137 136
-800.293581277154 117.349786977353 2660.19599417889 136 140 139
-803.22595409591 117.210842685873 2667.09927718936 135 139 138
-801.039735092826 116.75259681716 2674.27917262566 133 137 136
-806.020177864369 116.741474614149 2681.07366834409 145 149 148
-807.928374073084 116.538891955582 2688.03052678543 147 151 150
-767.766242911943 113.727359075636 2696.90163469775 137 139 134
-1132.32182701914 149.559124581658 2210.47151652277 149 153 152
-1122.72713415004 148.525981096204 2220.9555903986 140 144 143
-1124.95926309403 148.277788936959 2229.08635214588 129 133 132
-1133.11766375674 148.420743881233 2236.08736872086 115 120 116
-1140.29601812716 148.498075952068 2243.3045550338 108 113 109
-1141.54586216778 148.18511923603 2251.64464591353 96 101 97
-1141.80435531169 147.807796451185 2260.15879920882 90 95 91
-1144.04078976681 147.560752680333 2268.30627150737 88 93 89
-1151.23355251485 147.637768723551 2275.57768280165 85 89 88
-1148.5126990348 147.067787037963 2284.59836144941 90 94 93
-1130.8923349535 145.530239649843 2296.13865800394 103 107 106
-1080.45669026458 141.867698060369 2313.08943111682 136 140 139
-1028.95046202358 138.149491923309 2329.92558500996 149 153 152
-981.345918226273 134.697483811046 2345.82978147086 144 148 149
-962.543369675842 133.117309220743 2356.85119561626 140 144 145
-954.670732844626 132.246761316984 2366.03801059421 144 148 149
-941.797918449783 131.057658234312 2375.941558167 140 144 145
-929.900959706198 129.935153708007 2385.61399296815 143 147 148
-916.984789853462 128.751259945937 2395.36078813804 139 143 144
-909.043189620306 127.88929455125 2404.29697406798 134 138 137
-902.086746471344 127.093025254933 2413.03601185901 132 136 135
-901.121329329341 126.680702737213 2420.88117855028 131 135 134
-899.149870586332 126.20553276778 2428.84775174915 128 132 131
-893.163801422004 125.476994161373 2437.3351101621 127 131 130
-896.191460852339 125.32133950736 2444.58162363759 125 130 126
-898.21670979683 125.102359678631 2451.96272363031 122 127 123
-899.237362263441 124.820307496086 2459.47045359816 116 121 117
-893.220860082259 124.095974679783 2467.84840452244 117 122 118
-894.232912835127 123.815263695461 2475.325052201 116 121 117
-895.243102834716 123.535028096639 2482.79508397525 114 119 115
-899.272817603814 123.444183851753 2489.90663004126 115 120 116
-900.281592779438 123.164487365959 2497.37174921916 110 115 111
-899.271266017554 122.759409577141 2505.05474923642 103 108 104
-896.237727545269 122.229519587715 2512.93980159073 104 109 105
-897.236545430247 121.95137194003 2520.36985817785 109 114 110
-897.223107709612 121.611016008772 2527.89772440618 119 125 121
-896.194758262757 121.208629180648 2535.5155086582 118 124 120
-897.186000455072 120.931819830823 2542.91828311446 115 121 117
-898.175639581276 120.655462969439 2550.31446235546 116 122 118
-898.149721760245 120.317034301433 2557.79813821269 112 118 114
-895.077745486113 119.79239856533 2565.54379580283 106 112 108
-898.088388540429 119.641715792752 2572.73026979494 91 97 95
-883.831959237387 118.435419300992 2581.38312078309 83 89 87
-849.222444985914 115.991395882974 2591.61950228875 129 135 133
-815.578368017807 113.614980912287 2601.58579823453 129 135 133
-806.313686389823 112.728792222113 2609.49159834849 135 141 139
-805.18240548793 112.338779199152 2616.73410143226 134 138 137
-804.046207866864 111.94938544866 2623.95966970013 135 139 138
-798.825148206912 111.314025931752 2631.4498664799 133 137 136
-796.655846988744 110.864560849148 2638.69904708697 131 135 134
-798.566701741695 110.661728483054 2645.66561852973 137 141 140
-799.455038358357 110.397636543684 2652.69342483724 141 145 144
-799.318539321974 110.072430393578 2659.77488232079 136 140 139
-800.202644108824 109.808943419254 2666.78735861688 132 136 135
-803.133560473922 109.668030217294 2673.68399103337 135 139 138
-805.040589972273 109.465986859374 2680.636858194 142 146 145
-798.74108929254 108.775748880421 2687.98468783227 141 145 144
-1135.27403098821 141.713619223778 2200.89301931862 180 184 183
-1124.70024714907 140.648622367861 2211.618130153 150 154 153
-1120.02775861557 139.961746620532 2221.11253935728 141 145 144
-1124.2318190244 139.839221172734 2228.8504657373 128 132 131
-1135.3553074658 140.153832560471 2235.27968583245 125 130 126
-1140.55843058482 140.093199832918 2242.8696916836 117 122 118
-1141.80725139858 139.783285798191 2251.20697548973 107 112 108
-1140.08337625863 139.287280011669 2260.07962343758 98 103 99
-1144.29943681883 139.165034774823 2267.86320996069 88 93 89
-1148.5182994398 139.042876967478 2275.65632616215 81 85 84
-1148.76964779106 138.672843212793 2284.14948317723 82 86 85
-1129.15411999141 137.065612675995 2296.03077436339 112 116 115
-1077.70099870999 133.484142495162 2313.15136093583 137 141 140
-1017.21826821916 129.355829153934 2331.47027162852 150 154 153
-981.528440361362 126.77932268308 2345.4046583541 150 154 155
-962.716600574169 125.255938358858 2356.42743035943 146 150 151
-952.845398593422 124.289694319276 2365.92711690593 147 151 152
-937.969164527167 123.018511755796 2376.1341090021 143 147 148
-927.06100860955 121.995681567934 2385.644383671 144 148 149
-916.133827456506 120.975196159573 2395.08550174063 140 144 145
-912.185506742463 120.385363687748 2403.43262276263 136 140 139
-908.22795414298 119.796793974915 2411.74719386583 134 138 137
-907.264803992969 119.392498745953 2419.60584546392 132 136 135
-902.289697700583 118.745185799307 2428.00167212215 127 131 130
-897.304191765899 118.099220039231 2436.35973748987 126 130 129
-895.317866949597 117.636997832235 2444.28021943417 123 128 124
-896.337640873008 117.357848927765 2451.78652052109 120 125 121
-898.360240101802 117.139782099042 2459.15835905917 115 120 116
-895.355501291162 116.619125475834 2467.15616837664 115 120 116
-894.355363819074 116.220494408915 2474.88106935258 108 113 109
-893.350540272324 115.822549725927 2482.58900519862 104 109 105
-896.371291351901 115.666683145272 2489.80973552236 104 109 105
-899.393112854684 115.510866064012 2497.03447136899 102 107 103
-899.389181673283 115.174638512766 2504.60023995728 102 107 103
-895.342934584066 114.598493000539 2512.5933497936 116 121 117
-895.329431227619 114.263625330872 2520.12536635259 121 126 122
-893.290500101126 113.809400734531 2527.85465162788 125 130 126
-895.292910205752 113.595488520315 2535.15415491099 124 129 125
-894.257154142047 113.202392198122 2542.75030538537 122 127 123
-896.25668252034 112.989130985125 2550.0395203915 124 129 125
-898.255849458037 112.776055990527 2557.32751100808 111 116 112
-896.195707412699 112.324891090052 2564.97997603072 100 105 101
-899.206626708424 112.172010128957 2572.16608783188 95 99 98
-886.976116223654 111.127912457161 2580.64961237567 92 96 95
-855.404207007033 108.958654779419 2590.64760855029 138 142 141
-819.714268492897 106.55752082954 2600.79598507524 132 136 135
-807.392231819744 105.523481584012 2608.9469702065 138 142 141
-803.202486310422 104.964632714682 2616.41728970622 130 134 133
-801.042914405875 104.524931353846 2623.70875765065 130 134 133
-797.857147333346 104.026973428459 2631.04877528183 133 137 136
-795.684986532577 103.58879293981 2638.29353429852 136 140 139
-796.572221533566 103.327796240087 2645.32013371772 139 143 142
-797.457947540211 103.067038966552 2652.34035267534 139 143 142
-798.3418925539 102.806574323342 2659.35414390663 138 142 141
-800.24807290437 102.604918005592 2666.3041027045 134 138 137
-802.153912965235 102.403358810429 2673.25285939188 141 145 144
-803.033784720346 102.143473655652 2680.25282229359 147 151 150
-787.4930876608 100.950121585222 2688.04193162573 143 147 146
-1131.59969858148 133.057005080807 2201.26814119541 148 152 151
-1126.9350925455 132.387609143067 2210.80378142724 137 141 140
-1126.20877319302 131.95941811625 2219.52665280318 132 136 135
-1129.42935680368 131.771522134167 2227.46817143892 131 135 134
-1138.58224858563 131.942411988101 2234.28285487998 112 117 113
-1142.79868319595 131.814122922451 2242.06308539827 101 106 102
-1141.07745455291 131.328259635809 2250.95289173638 96 101 97
-1138.35974156038 130.783909614977 2260.00141289004 95 100 96
-1142.57431319641 130.656868669665 2267.77644357026 94 99 95
-1148.77609090777 130.648622661883 2275.21008301744 89 93 92
-1154.98306869872 130.640085817037 2282.66377474412 77 81 80
-1132.38112264682 128.914197134247 2295.072984938 151 155 154
-1071.95888808752 124.945629835993 2313.7173604563 137 141 140
-1007.46552708114 120.751141696508 2332.69001736318 150 154 153
-974.739428931537 118.454702961294 2346.11601057383 142 146 147
-957.906292631094 117.106401127758 2356.80228893803 136 140 141
-949.023193972992 116.232005468594 2366.13134831082 137 141 142
-936.132078955087 115.124642783075 2376.01948488711 137 141 142
-923.219285415549 114.019996646313 2385.82791942561 142 146 147
-916.280516980505 113.269455989844 2394.66145063455 141 145 146
-911.328700301285 112.637645897576 2403.15353475249 136 140 139
-907.367177630949 112.065681050717 2411.46384920382 135 139 138
-903.396695073785 111.494925758712 2419.74166100106 129 133 132
-900.4196431996 110.983631193949 2427.84817720069 127 131 130
-897.434799195446 110.473461756463 2435.92740211793 126 130 129
-891.431644228927 109.789964056024 2444.37976076617 121 126 122
-893.451605744846 109.572317824762 2451.74207153654 119 124 120
-896.476267035649 109.412879623307 2458.97506477378 117 122 118
-898.496236751855 109.195694574801 2466.33769715686 118 123 119
-895.483254410857 108.689739759108 2474.31418181341 113 118 114
-893.469690532709 108.242509996689 2482.14299590443 109 114 110
-892.45839337207 107.85384169983 2489.83182409297 113 118 114
-895.476901355202 107.696183837456 2497.04309531773 114 119 115
-896.477821069809 107.423605762448 2504.48354290043 114 119 115
-895.45658145398 107.036542354299 2512.13739896674 123 128 124
-894.430671546823 106.65016350466 2519.7743473511 126 131 127
-892.388362411269 106.207211420371 2527.49913663732 125 130 126
-893.377003627333 105.936717728598 2534.8953125319 125 130 126
-894.363883105669 105.666543323384 2542.28514902041 125 130 126
-893.321430675233 105.282655363148 2549.86225087526 125 130 126
-895.317615818926 105.070329592687 2557.13964369601 107 112 108
-896.298347996507 104.801328284674 2564.50739709382 95 100 96
-897.277055277298 104.532640678624 2571.86875952421 93 97 96
-884.02218567188 103.469954653036 2580.43362409276 95 99 98
-855.485942906014 101.559887813425 2590.17620417568 138 142 141
-821.816214668733 99.371602582799 2600.16696627818 135 139 138
-807.451878457269 98.2624427161359 2608.48050704447 136 140 139
-799.180981425897 97.4944222452083 2616.25339040984 133 137 136
-798.036465733527 97.1225983598242 2623.45916800229 132 136 135
-795.866532742 96.6950780625939 2630.71892872485 133 137 136
-797.776821807857 96.4931198505706 2637.68395177743 135 139 138
-798.664550358374 96.2351348253821 2644.71335604043 132 136 135
-797.504346658262 95.865327518842 2651.8621602972 128 132 131
-798.386869969783 95.6080240180793 2658.87359782936 133 137 136
-800.292242206844 95.4068944106454 2665.82088879785 132 136 135
-806.298097775326 95.4292217735052 2672.54641015389 141 145 144
-805.128038958009 95.0606986764867 2679.65943507469 147 151 150
-784.448109342619 93.6348795654916 2687.70427363589 144 148 147
-1130.87911652573 124.600595466768 2201.04739671198 140 144 143
-1126.21035150445 123.950403985544 2210.57879111255 131 135 134
-1126.46869300896 123.587908681856 2219.10267171832 118 122 121
-1126.7240874941 123.226165717504 2227.61515658393 118 122 121
-1134.88766370089 123.321753050306 2234.60641253206 120 125 121
-1138.11155378816 123.131799432228 2242.55890838372 116 121 117
-1142.32668140092 122.998946429111 2250.33233386755 109 114 110
-1137.62448961065 122.354642744527 2259.74333847287 102 107 103
-1142.83029721918 122.279431242746 2267.33410703259 95 100 96
-1146.0548873828 122.090775913766 2275.29095082482 93 97 96
-1158.22018426089 122.411768923042 2281.69498107148 82 86 85
-1133.6216160645 120.640078871057 2294.45484875191 174 178 177
-1064.22137022856 116.33286262676 2314.62149335224 146 150 149
-1006.66248868556 112.713803428592 2332.42770836026 144 148 147
-980.894061318234 110.90580852613 2344.71751762742 138 142 143
-964.056767233826 109.608417624059 2355.42050145157 131 135 136
-953.177417062873 108.651200100335 2365.07915061332 131 135 136
-933.294105614753 107.191823243688 2376.06048969282 131 135 136
-920.372281505715 106.128051466866 2385.86120142778 137 141 142
-914.426568524438 105.458236947937 2394.53639877589 132 136 137
-913.471491936829 105.069095912208 2402.43459349309 138 142 141
-908.507048930797 104.45772237852 2410.89270110749 138 142 141
-901.528271888648 103.736446284854 2419.59616431265 134 138 137
-894.536455177317 103.016800963915 2428.25131434387 133 137 136
-893.551238402827 102.631983404086 2436.04033407084 134 138 137
-889.549139674648 102.08160805159 2444.21362804861 134 139 135
-892.571557560384 101.919916472948 2451.43686929814 132 137 133
-891.573073304838 101.537211027529 2459.17796294677 128 133 129
-895.601155887753 101.431283478666 2466.27299719436 128 133 129
-892.582953582746 100.939413694098 2474.23992272144 129 134 130
-891.572849518999 100.558694704947 2481.93819942163 128 133 129
-888.541001252501 100.068720859163 2489.85565716472 135 140 136
-889.538182168197 99.7993479818939 2497.28424691391 137 142 138
-891.543293747293 99.585209978254 2504.59363769062 136 141 137
-894.558502726599 99.4260273711109 2511.79169771674 133 138 134
-894.541009801508 99.1029433284392 2519.3163413545 131 136 132
-893.508378904736 98.7258334549113 2526.93418796798 132 137 133
-893.483919103305 98.403908901719 2534.43276797781 132 137 133
-893.456009485068 98.0824917328049 2541.91978885236 129 134 130
-892.410800525998 97.7072409397785 2549.49210931186 125 130 126
-893.390700562506 97.4411953095983 2556.85863919321 104 109 105
-895.384240410276 97.2297531447765 2564.12676841101 92 97 93
-897.377435548666 97.0184374969091 2571.39369766663 99 103 102
-883.098593855509 95.9424257265362 2580.04559079559 104 108 107
-851.495685398344 93.9513810783992 2590.04100724308 141 145 144
-820.863502501091 92.0193832455998 2599.7814961213 143 147 146
-810.567910743664 91.1690070934949 2607.77773050101 131 135 134
-801.274319644696 90.3743134470736 2615.6339605961 131 135 134
-800.129488683125 90.0108804053076 2622.84293617268 134 138 137
-795.915903635073 89.4872173915431 2630.24788766723 137 141 140
-795.781348848056 89.1786830498717 2637.34708947468 135 139 138
-796.666435221883 88.924036341362 2644.36879149187 137 141 140
-797.549488807253 88.6697042475261 2651.38407381767 138 142 141
-800.479405135372 88.5222418232544 2658.27192943424 139 143 142
-801.360382264175 88.2682076483879 2665.27969037423 138 142 141
-806.342046805405 88.2270933569072 2672.0597868495 141 145 144
-805.169989059582 87.8671198068594 2679.17078787692 144 148 147
-1144.67702558951 117.336617956264 2189.24171176917 187 191 190
-1133.11613763046 116.320238816838 2200.22891353874 141 145 144
-1126.47065242346 115.579709833547 2210.15766873778 133 137 136
-1123.76378851295 115.059233444082 2219.26154296771 135 139 138
-1125.00392174664 114.757949335549 2227.57201997537 126 130 129
-1131.18903523012 114.729123480988 2234.93172439513 106 111 107
-1137.3796267877 114.700068424559 2242.31162312429 87 92 88
-1140.60324348756 114.508088581013 2250.26275371192 79 84 80
-1140.85366248555 114.15388190722 2258.76152358826 75 80 76
-1144.0774019692 113.962581059858 2266.71353873067 105 110 106
-1153.26007017126 114.095569467349 2273.61484719444 89 93 92
-1171.39570278765 114.713104326859 2278.99300453293 91 95 94
-1133.8675352465 112.31328241071 2294.00711548834 181 185 184
-1047.52042938036 107.285664942506 2317.04065831645 146 150 149
-1011.8326990574 105.010362677387 2331.17392636755 141 145 144
-985.059273972981 103.223911828951 2343.64229825749 138 142 143
-968.216349834583 101.977631016925 2354.35664702984 131 135 136
-951.345763504068 100.734665008388 2364.97038429789 128 132 133
-933.448852564125 99.4416242137075 2375.63828523103 138 142 143
-920.519908407117 98.4184986984085 2385.43915256754 143 147 148
-918.570954155914 97.9834442213077 2393.51460735552 139 143 144
-915.615114997592 97.4961533089786 2401.7150368611 139 143 142
-906.641878170858 96.6915881796501 2410.75444724374 139 143 142
-897.652707956799 95.8890751455984 2419.73506664512 129 133 132
-891.656267311913 95.247252063712 2428.23959444858 128 132 131
-892.674465613247 94.9767770478953 2435.74552179876 130 134 133
-889.673039430116 94.4957694146193 2443.78066254951 136 140 139
-892.69502173101 94.3318175577334 2451.00085953654 131 135 134
-890.688656201305 93.9050493240373 2458.86838900004 130 134 133
-892.702628238819 93.6892800169721 2466.20964700267 130 134 133
-890.68695274525 93.2639351254733 2474.0435090188 127 131 130
-892.697327438655 93.0489862339899 2481.37192875527 130 134 133
-892.689729012041 92.729667986733 2488.93568625268 127 131 130
-892.678867535018 92.4109581931363 2496.48771282926 125 129 128
-892.665027317639 92.0927733419851 2504.02808232538 128 132 131
-896.691371054624 91.9834004793859 2511.11541441061 130 134 133
-896.673909818133 91.6660387819492 2518.64285946863 128 132 131
-898.677810169491 91.4529940083679 2525.94844340238 127 132 128
-896.628801934007 91.0328834714025 2533.66278120075 125 130 126
-894.573959122231 90.6135704021792 2541.35503081778 126 131 127
-890.483886956153 90.0917104476907 2549.21969979245 121 126 122
-891.4611132493 89.8290067850325 2556.57841253208 104 109 105
-898.532272590532 89.8758449480484 2563.37835245428 102 107 103
-898.493362207639 89.5619388431963 2570.82927173839 109 113 112
-888.27745823214 88.7347462116809 2579.13693711775 114 118 117
-851.573726387881 86.5757436404395 2589.57048716704 140 144 143
-820.927935071075 84.7299185750602 2599.31485562478 132 136 135
-807.568098126326 83.7587435735622 2607.54777230537 136 140 139
-800.30772008302 83.0964064017408 2615.2429171353 140 144 143
-799.159925623309 82.7415406775907 2622.44722780246 138 142 141
-795.964028922648 82.2854724658317 2629.77701210447 134 138 137
-793.783208251242 81.8811626133292 2637.01100286529 135 139 138
-795.688697276181 81.6805971627454 2643.95908362338 141 145 144
-795.546331435898 81.3788366345702 2651.0326321297 143 147 146
-800.5231046302 81.3305402177846 2657.79096259707 145 149 148
-802.428312707354 81.1302960921914 2664.73820311888 138 142 141
-811.515149299447 81.2834154819798 2671.29548822319 136 140 139
-808.2911973994 80.8308519429508 2678.52332173543 140 144 143
-1140.0168325724 108.649568815898 2189.83363174324 188 192 191
-1132.39329979295 107.879607509388 2200.00882635407 140 144 143
-1125.74262008326 107.16359458388 2209.93377353816 128 132 131
-1121.05542065521 106.553256589928 2219.4218860049 119 123 122
-1120.31396928325 106.15156855708 2228.10530776124 109 113 112
-1126.49622156296 106.11276231349 2235.44808799706 112 117 113
-1133.67460817131 106.125363410064 2242.62452625467 106 111 107
-1140.85964945017 106.13759208846 2249.82636589674 99 104 100
-1144.08394202286 105.943541136211 2257.77869827814 90 95 91
-1149.29477875088 105.852468780119 2265.37812525975 90 95 91
-1157.48971599453 105.915321926246 2272.46422291683 102 106 105
-1118.19550521299 103.174361620082 2296.29219509459 185 189 188
-1041.75546727836 98.8979948578936 2317.61704887704 148 152 151
-1012.02477228109 97.0315686480938 2330.74598413109 149 153 152
-989.226395165074 95.5269990656733 2342.56561357713 151 155 156
-970.382655331278 94.2300584980097 2353.61198267257 150 154 155
-953.505023814188 93.0382795970772 2364.23187940375 150 154 155
-939.59710567371 92.0018879604768 2374.28595306308 149 153 154
-928.665371129728 91.1201930413539 2383.79779033373 132 136 137
-921.71704404587 90.4429730213849 2392.64119394206 124 128 129
-917.759042217565 89.9188647947188 2400.99479475445 125 129 128
-910.786064505118 89.2448352043947 2409.74961870298 124 128 127
-903.799822474886 88.5724841146687 2418.45625455672 119 123 122
-894.79352436584 87.8014706351603 2427.39316861071 120 124 123
-895.812648472304 87.5338635147068 2434.90434393288 121 125 124
-894.820134175696 87.1665844379667 2442.67734227057 117 121 120
-894.828459801545 86.8500746893087 2450.30199579274 116 120 119
-889.80215026323 86.2845598138792 2458.55935785438 122 126 125
-887.786531741952 85.8699239995538 2466.40019254815 124 128 127
-886.772467813025 85.5059459749695 2474.09526543618 122 126 125
-889.787536086887 85.3414073663633 2481.28942155163 123 127 126
-893.813030026195 85.226652116628 2488.36927132467 117 121 120
-894.811346934374 84.9631844444481 2495.80580702865 117 121 120
-892.77572438982 84.551779320604 2503.57533941603 121 125 124
-894.779509838051 84.3387767193407 2510.88052336238 123 127 126
-895.770975191261 84.07667912767 2518.29248558274 121 125 124
-896.760633980748 83.8149926565011 2525.69799994603 121 123 120
-892.680945111786 83.3079331132951 2533.6105642727 124 126 123
-890.620813769418 82.9001206545413 2541.29043949554 122 124 121
-888.55456006881 82.4931606930884 2548.94812182436 111 113 110
-891.560261219351 82.3316117301259 2556.10938715258 102 104 101
-896.599788660489 82.2678617801654 2563.09002626461 107 109 106
-900.626055111974 82.1550318723101 2570.17488880653 117 119 118
-891.423902181612 81.4090384034325 2578.40042862038 107 109 108
-860.817064734675 79.6437980284985 2588.34030211707 117 119 118
-823.029598414374 77.5437153241409 2598.68460678922 144 146 145
-807.624435145691 76.5161034577921 2607.08156621118 142 144 143
-797.29792854043 75.7332212785179 2615.00563198112 128 132 131
-793.081855545383 75.2421951895448 2622.42195146184 143 147 146
-790.901138248393 74.8486468139729 2629.66312026477 147 151 150
-791.782473886072 74.6003766984786 2636.67585140328 146 150 149
-793.685718514024 74.4005040715813 2643.61603656786 139 143 142
-796.613018665948 74.2487806759369 2650.49148868072 136 140 139
-798.516315691934 74.049075288131 2657.43197397493 125 129 128
-801.444872933077 73.8973437827683 2664.31301731613 122 126 125
-810.532768021803 74.0322816165857 2670.86368255086 129 133 132
-815.522054878022 73.9754398027435 2677.66214965347 146 150 149
-1133.37812295682 99.8970201680528 2190.83285321934 181 185 184
-1130.68117610694 99.4015361148011 2199.98932640439 144 148 147
-1124.02457538716 98.7101521544835 2209.90783947779 137 141 140
-1120.32090511127 98.1682402587599 2219.19448319204 123 127 126
-1121.55564619755 97.8732408857349 2227.48890806624 110 114 113
-1126.74928475441 97.7749149608195 2235.01990208547 110 115 111
-1133.92856310942 97.7744661128627 2242.19234119434 105 110 106
-1139.13170180172 97.6758501793597 2249.75842425827 100 105 101
-1142.35411209032 97.4796196172696 2257.70239199617 96 101 97
-1147.56383052697 97.3810803161957 2265.29295274296 95 100 96
-1159.7339021164 97.6228721592361 2271.66470708686 115 119 118
-1090.56697398848 93.5460878356021 2300.63573802796 175 179 178
-1043.95192815761 90.9362029087842 2316.84909861122 145 149 148
-1010.22242054923 88.9625495875659 2330.64973936099 145 149 148
-983.422298560126 87.3326067780188 2343.11873088122 147 151 152
-962.568665033192 85.9965916005624 2354.47165875047 145 149 150
-948.673224237759 85.0010418979418 2364.59784380547 139 143 144
-942.750752716397 84.3924361581897 2373.39704713539 135 139 140
-932.8152946502 83.5936654536741 2382.76389732688 126 130 131
-924.864238074217 82.8928355300806 2391.7667062102 123 127 128
-916.898484368768 82.1938787021113 2400.71613010689 128 132 131
-912.927544691113 81.6875858089848 2409.03294288935 125 129 128
-906.941544911674 81.0873094583365 2417.60153698846 122 126 125
-899.939701946973 80.4409956973847 2426.26668823653 124 128 127
-898.951944309302 80.0812249014038 2434.06208745198 122 126 125
-896.954335048522 79.6748175276781 2441.9749820069 119 123 122
-895.956543937544 79.3166404009685 2449.73413506182 119 123 122
-889.920670381437 78.7229986976512 2458.12174637216 121 125 124
-889.917312459037 78.4138479148077 2465.70766723536 121 125 124
-886.8865152736 77.9640228207388 2473.65344623394 116 120 119
-889.901142594963 77.7973112042778 2480.84459325579 114 118 117
-893.926618932242 77.6776189635183 2487.92126071826 114 118 117
-896.944111237712 77.5110381284955 2495.12312743313 115 119 118
-893.896568659634 77.0638646656139 2503.00933719446 119 123 122
-893.876924418221 76.7578754746707 2510.53585718831 120 124 123
-893.853818996441 76.4523660990606 2518.05075845061 118 122 121
-893.8277383062 76.1474101475518 2525.55403350476 132 134 131
-887.714802380002 75.564175881497 2533.66302707232 127 129 126
-887.677920200644 75.2608157745316 2541.12720584711 115 117 114
-888.652826045313 75.0042077521845 2548.48208070702 112 114 111
-894.706209138977 74.9792371953838 2555.35513004103 111 113 110
-900.7652223542 74.9538536895405 2562.24789317599 112 114 111
-901.741911076576 74.6975593660369 2569.60958556443 116 118 117
-892.535211465789 73.9814948386018 2577.8371400118 104 106 105
-859.877818121622 72.2104841435618 2587.9526990506 107 109 108
-823.092717705108 70.2613345083268 2598.21756271927 145 147 146
-802.578199560178 69.0507141164939 2607.01240685599 141 143 142
-792.2425204565 68.3007798326124 2614.92321851338 142 146 145
-791.084964698121 67.9635931236286 2622.10244899642 138 142 141
-789.922791366078 67.6269982265 2629.26490897248 136 140 139
-792.848684419738 67.4729753599457 2636.13461406222 136 140 139
-792.704188920448 67.1826967013326 2643.20750461341 138 142 141
-793.580792665547 66.938151004586 2650.20501856522 140 144 143
-792.405136573029 66.6033465216368 2657.31855006797 138 142 141
-797.381190799244 66.5402366642074 2664.06392969432 139 143 142
-809.548516562315 66.7926573773189 2670.43219983528 132 136 135
-827.894734700989 67.3139178072677 2676.53143730957 151 155 154
-845.235376924484 67.7879027365039 2682.76364160633 184 188 187
-1128.70674868119 91.2821653090958 2191.42976808436 139 143 142
-1125.01570520721 90.7541371756317 2200.77112909751 131 135 134
-1119.33862889367 90.1342708533929 2210.47525641814 130 134 133
-1120.57383081594 89.8416732541796 2218.77290864025 120 124 123
-1122.79708713337 89.5960958343837 2226.87237887371 112 116 115
-1127.0010390417 89.4436816886542 2234.59196127595 107 112 108
-1131.20783246914 89.2913504088703 2242.32121697644 107 112 108
-1137.401083353 89.2314582482277 2249.6915203296 104 109 105
-1142.60714207256 89.1252837995901 2257.26367283168 94 99 95
-1149.80419821773 89.1110883034333 2264.49250945454 79 84 80
-1160.98453924714 89.2803117577894 2271.04102173616 150 154 153
-1172.17774673803 89.4485452930209 2277.63575066191 183 187 186
-1077.84912352327 84.7614786953387 2302.42291102012 145 149 148
-1047.14544163145 83.015920693815 2315.9119668784 146 150 149
-1014.39974141287 81.1846022770651 2329.55883406858 143 147 146
-984.596668084517 79.4958314038384 2342.53120504422 142 146 147
-962.735248954375 78.1762815554155 2354.04913822041 142 146 147
-948.832525395555 77.2240613244048 2364.17563976239 140 144 145
-938.906094913121 76.4560180520735 2373.59540729511 136 140 141
-927.961759372039 75.6448762468878 2383.10407405339 129 133 134
-922.004827868092 75.0619978869793 2391.79250616524 127 131 132
-917.038323363435 74.5257569072378 2400.29039460061 125 129 128
-916.072541695666 74.1710407615266 2408.1705775267 123 127 126
-911.088083954919 73.6373382943811 2416.60341179917 124 128 127
-904.084654081995 73.0152966540767 2425.27799531435 127 131 130
-900.082835630344 72.5293273000084 2433.49299247964 127 131 130
-897.077899562411 72.0892487286516 2441.54094218308 125 129 128
-896.078079852016 71.7395090477115 2449.29789040751 126 130 129
-889.030871413766 71.1232238139138 2457.81356698372 124 128 127
-890.033140074785 70.8644691941456 2465.26775034603 124 128 127
-885.99078716161 70.3840832321572 2473.33577606169 124 128 127
-889.00426864801 70.2151934814267 2480.52129366295 121 125 124
-889.999014014399 69.95794439861 2487.94849502404 119 123 122
-892.002597431525 69.7452539952291 2495.25312597389 119 123 122
-888.948861790645 69.3123501477216 2503.12442217246 118 122 121
-886.899404502152 68.9244674280875 2510.85743968174 114 118 117
-887.882663060809 68.6692978151015 2518.24330564547 113 117 116
-889.877612034248 68.458385874599 2525.51700142657 104 106 103
-887.815108441408 68.072539059847 2533.20193690607 119 121 118
-888.791560271092 67.8186476934271 2540.56333783717 111 113 110
-891.79746699069 67.6524825269605 2547.72245197377 111 113 110
-897.853802670208 67.6170036033079 2554.59982924765 114 116 113
-900.86401255325 67.4506873528644 2561.77482480022 114 116 113
-899.803893511474 67.1107521441719 2569.31408345609 107 109 108
-887.53479314863 66.29473130023 2577.79832711513 101 103 102
-856.897798742312 64.7022053829298 2587.73527659908 107 109 108
-820.094786390958 62.8554747178961 2597.99736971792 146 148 147
-801.610034020728 61.7907513508268 2606.62687830543 145 147 146
-791.267782987175 61.0734859397348 2614.5348441138 136 140 139
-790.107490903272 60.7449051781728 2621.70934850114 139 143 142
-788.942597029042 60.4169144030444 2628.86713982948 141 145 144
-792.891139743366 60.3035781986949 2635.66218069715 141 145 144
-791.72056197241 59.9763603274055 2642.79935680198 138 142 141
-792.595501369778 59.7350469935926 2649.79180307911 137 141 140
-790.391473011709 59.3662614216329 2656.96205641895 135 139 138
-795.366282469864 59.2957498762198 2663.69907044965 127 131 130
-810.616906066818 59.6493204536366 2669.88899169164 120 124 123
-838.220399966379 60.5095117439041 2675.50299236547 145 149 148
-877.173704184913 61.8312918505874 2680.68572597111 183 187 186
-1131.6663089081 83.3900075489424 2181.84820031676 180 184 183
-1125.01782815337 82.7448507357593 2191.82604662959 144 148 147
-1122.30841374643 82.2774606720705 2200.95489631564 143 147 146
-1117.61404341629 81.72358106731 2210.45202949971 141 145 144
-1121.81514373261 81.5656116871932 2218.15658819301 123 127 126
-1126.01860959786 81.4077659472323 2225.87093678833 115 119 118
-1131.21580595207 81.2937204505628 2233.40521569713 99 104 100
-1132.45035012151 81.0052136882136 2241.70300855215 98 103 99
-1137.65271313754 80.8914371372221 2249.2566400619 92 97 93
-1143.85217112674 80.8209490402681 2256.64329946112 88 93 89
-1153.03864801629 80.8803358145469 2263.51228061697 85 90 86
-1069.1037272799 76.225668961488 2303.52989631899 136 140 139
-1045.35652360043 74.8709159585085 2315.81762542943 145 149 148
-1017.58183690098 73.3487664518249 2328.63262462228 141 145 144
-991.759818301963 71.9175050477463 2340.9622389809 142 146 147
-964.898397177982 70.4481082181111 2353.30499915468 144 148 149
-944.992390741993 69.2826792180607 2364.3867304581 146 150 151
-931.056142727907 68.3769389741996 2374.41810729892 143 147 148
-923.102898088656 67.7293916618156 2383.44643218352 129 133 134
-921.145337576838 67.3386790842594 2391.51885778915 125 129 130
-917.177090887928 66.8641422199081 2399.86478918262 123 127 126
-916.209277148849 66.5178350383107 2407.74273640594 122 126 125
-911.221169699335 66.0032998734468 2416.17412125632 120 124 123
-908.231794644642 65.574527427822 2424.28791307045 122 126 125
-904.229588939412 65.1047485690135 2432.51169427023 122 126 125
-901.224679180939 64.6782131745028 2440.56829210839 121 125 124
-898.211978240377 64.2527450312465 2448.59756564356 121 125 124
-892.169443147262 63.7027364331736 2456.98799163105 113 117 116
