ply
format ascii 1.0
comment KinectMotionCapture
element vertex 752
property float x
property float y
property float z
property uchar red
property uchar green
property uchar blue
end_header
-360.04436116212 226.378532280865 1700.20277002685 148 149 151
-351.358069387469 227.34744689008 1688.74138317796 152 154 151
-340.68624935578 228.550168712523 1676.8973897577 164 166 163
-6.37139574288081 259.434139333449 2104.28255866324 158 160 155
-1.66865800499627 259.933532173516 2093.06791615422 159 161 158
-10.9129427320362 258.81606396112 2082.56150001124 125 127 126
-11.1910498819787 258.737282418598 2071.60751962215 116 118 117
-25.4137662808103 257.042309164641 2061.46612591674 94 95 97
-162.407701563742 241.077240664468 2048.33631599891 151 155 154
-187.571304645573 238.115924931515 2039.45454792094 154 158 157
-185.845393573245 238.269147888354 2028.84800202748 163 167 166
-192.085479884813 237.499404878753 2018.80494205899 157 161 162
-201.311617447634 236.383553803487 2009.01884110447 141 145 146
-213.522943281693 234.921917576249 1999.51444934408 132 136 137
-212.791388135662 234.958503363674 1989.03727984459 138 142 143
-223.009515322036 233.727218412372 1979.46500580817 148 152 153
-242.184462638479 231.45904465554 1970.71727266016 163 167 168
-273.299987746099 227.809087972256 1963.13265951505 160 164 165
-292.468746627581 225.541931552904 1954.62788418193 153 157 158
-297.702625701858 224.887299383126 1944.91699925316 151 155 156
-301.941005956497 224.347501716212 1935.13812017331 150 154 155
-301.203415207435 224.383056650038 1924.88641130934 147 151 152
-308.425788315945 223.497488854748 1915.44530339491 146 150 149
-310.672468964511 223.187229513448 1905.52043183994 141 145 144
-313.913795324662 222.76160628225 1895.71497801554 139 144 140
-314.170461900428 222.680790373376 1885.59678519365 140 144 143
-312.437679150771 222.829600785154 1875.25407040397 142 146 145
-317.667464118114 222.173174533509 1865.71059579823 141 145 144
-319.912932724882 221.861404155946 1855.84079738936 137 141 140
-322.157848506591 221.54948399618 1845.98311968607 130 134 135
-314.458883004272 222.38623054092 1834.89985179299 125 129 130
-308.749465244581 222.992547451186 1824.02707205768 120 124 125
-301.052261324247 223.827987881262 1812.86422824461 118 122 123
-293.356360139011 224.662688227082 1801.65899917373 116 122 120
-283.673227477841 225.726364419856 1790.14186846542 94 100 98
-270.015353107472 227.248393489165 1778.02158483164 95 101 99
-258.347158841561 228.53992767599 1766.10654613848 73 79 77
-265.564641388639 227.650503384375 1756.8431127097 82 88 86
-298.620593594669 223.778329701706 1751.40693554497 148 154 152
-326.703268457546 220.480875248697 1745.41062052189 152 158 156
-340.870218823993 218.78988505163 1737.45303324596 151 157 157
-344.105469354923 218.360387636071 1727.88088407458 157 163 163
-349.32721096081 217.701514434157 1718.63981976333 157 163 163
-357.528905185292 216.698723841832 1709.90574712377 140 144 145
-362.748958283763 216.039850025774 1700.73067487227 151 155 154
-357.041842076211 216.641019623867 1689.77174050717 162 164 161
-336.436093575988 218.959632000665 1676.26864909518 163 165 162
-323.778959236271 220.360956653138 1664.0145370562 173 175 170
-1.08701402102529 249.045957639991 2104.11033897019 143 145 140
-4.35459408945693 248.629853298343 2093.27969514053 155 157 154
-9.61459479057458 247.987979930527 2082.57091075164 146 148 147
-7.90030537415332 248.134747805081 2071.50321931548 130 132 131
-21.1282508305364 246.590819960999 2061.29493919178 140 141 143
-75.1927693894587 240.428345348513 2053.64873496972 132 136 137
-168.092990329094 229.874982533696 2048.77503480735 156 160 161
-193.257846031191 226.982508407092 2039.90890201671 147 151 150
-190.53584538237 227.243130733354 2029.24946752291 155 159 158
-190.801348479064 227.165514053194 2018.78934793715 155 159 160
-195.049601651427 226.637285575042 2008.62769834662 135 139 140
-203.279769221349 225.658727799242 1998.79748327396 137 141 142
-207.526570392473 225.1301056375 1988.69216021471 146 150 151
-219.736907800757 223.701319765781 1979.27099652767 158 162 163
-240.904232111182 221.26045171072 1970.68516635087 165 169 170
-269.036324708545 218.032937224123 1962.83253122095 160 164 165
-284.225708199117 216.267740747993 1953.95252520524 150 154 155
-287.47000409059 215.851713373847 1944.03199031382 149 153 154
-293.699559152655 215.098218349585 1934.41797389346 147 151 152
-297.937988833745 214.569364135707 1924.6395885055 142 146 147
-308.146176073797 213.366230441624 1915.49535344531 145 149 150
-309.39815474009 213.17407770254 1905.46553311473 146 150 151
-312.639794432651 212.756953777377 1895.65695907454 144 148 147
-312.896550341759 212.67647419972 1885.5356359227 137 141 142
-310.169044302372 212.932383390832 1875.07698577419 136 140 141
-314.404533911486 212.402181231534 1865.41206126407 136 140 141
-318.639428066022 211.871837503944 1855.77025717648 134 138 139
-324.862871115705 211.116938709328 1846.3936121127 130 134 135
-316.168492224812 212.044435644572 1835.1945018852 127 131 132
-307.475558400979 212.971184612266 1823.94743510932 123 127 128
-298.78359472249 213.897228292072 1812.65236962057 115 119 120
-292.081425454056 214.598355303814 1801.57339585897 113 117 116
-279.415069452444 215.971255224285 1789.64917802438 104 109 105
-259.791739893026 218.127642919412 1776.69305339179 90 95 91
-241.16510764612 220.170794513062 1763.7691226855 94 99 95
-250.372352598471 219.076568455455 1754.74462967423 76 81 77
-284.425685671632 215.182865853979 1749.412398863 119 124 120
-313.505224388273 211.850245754038 1743.52559479847 143 148 144
-323.699154329294 210.64544916049 1734.92747409284 150 154 153
-336.872754395137 209.105156167535 1726.84710291748 142 146 145
-348.057161641451 207.788929463062 1718.52621470106 147 151 150
-361.227204336549 206.249253438664 1710.58554035117 159 163 162
-359.493009604555 206.387516293364 1700.2866855681 166 170 169
-350.805400465322 207.308196202173 1688.8249951843 160 164 163
-332.18529346235 209.346159494863 1675.64046454238 159 164 160
-302.641794597255 212.612493939767 1660.48110416971 162 167 163
-1.06291726599617 238.001125367316 2093.19303337983 148 150 147
-5.32701563198978 237.483053009989 2082.42300359178 98 100 99
-6.60169856420634 237.294458797078 2071.50964276833 94 96 95
-20.8268451537048 235.676473197379 2061.35593220675 77 78 80
-67.9223378242968 230.431479676456 2053.28341493083 62 66 67
-159.834110091438 220.242887471001 2048.32521379749 160 164 163
-192.969500921319 216.539945390153 2039.96600788234 147 151 150
-194.230925902699 216.353107123815 2029.5820238941 158 162 161
-194.496166120727 216.275770496109 2019.13247921598 148 152 153
-191.774008173597 216.527464987079 2008.46028167482 135 139 140
-201.000884894975 215.461172918577 1998.69850448793 137 141 142
-202.261191058752 215.27298512475 1988.34747396046 148 152 153
-208.499315091682 214.5357546828 1978.41601612997 162 166 167
-228.673577581224 212.262192326027 1969.71396018877 163 167 168
-264.772018207017 208.233730412361 1962.53279590257 159 163 164
-282.948713520563 206.180822045447 1953.91385791798 151 155 156
-284.203111693992 205.992523458121 1943.80293794648 149 153 154
-286.452254797605 205.694302570122 1933.79475108186 148 152 153
-292.681896962847 204.957259585529 1924.19499530072 143 147 148
-301.89595324082 203.891349721917 1914.93469583672 140 144 145
-309.118593526325 203.044666294734 1905.51557197122 143 147 148
-311.365365764773 202.74569616038 1895.59924224734 142 146 147
-313.612059834654 202.446413596672 1885.69495694757 140 144 145
-311.879013767425 202.585030853664 1875.3515888962 139 143 144
-317.109592264853 201.956692323437 1865.80725881782 136 140 141
-320.350000975149 201.547188435265 1856.05497763776 135 139 140
-324.584482271773 201.028058146306 1846.44134959437 132 136 137
-313.900524142746 202.150161728637 1834.99451819773 130 134 135
-303.217815393249 203.271485682994 1823.48869482831 127 131 132
-292.536827851761 204.391958143696 1811.92401120722 120 124 123
-292.794798866504 204.308664279797 1801.752175754 117 121 120
-284.104376952474 205.209089497355 1790.36934563749 116 121 117
-272.432824056365 206.436784167249 1778.52635267913 102 107 103
-249.827463059117 208.865796756423 1765.07726022835 99 104 100
-250.088308810054 208.780327108283 1754.7907339365 138 143 139
-267.246670797397 206.837382098498 1746.98169837117 154 159 155
-290.366111592464 204.239576703375 1740.15753473708 107 112 108
-305.531478778729 202.516158415701 1732.25170250368 87 92 88
-324.669981702289 200.356418529356 1725.04477041882 81 86 82
-334.862445692056 199.179680995442 1716.53407182373 93 98 94
-345.053479883151 198.003174067 1708.07950232022 88 93 89
-343.32050131145 198.136128428854 1697.73674071737 132 136 135
-342.580934260949 198.159665529077 1687.54936873574 137 141 140
-333.894417757719 199.055356708333 1676.01814337866 141 145 144
-312.295263158328 201.367911387837 1662.22613752809 168 173 169
5.49820549910818 227.754373805642 2103.95464667295 134 136 131
0.236422474398701 227.140294904749 2093.20604646172 104 106 103
-4.02782294623583 226.63323003763 2082.43276347585 127 129 128
-11.2807865164823 225.804281880281 2071.84754336383 131 133 132
-24.5104527007634 224.332038826632 2061.64898083993 69 70 72
-92.5297314626872 216.965491688565 2054.86113069147 69 73 74
-158.547147470855 209.815610516693 2048.32000252651 154 158 157
-180.728458152799 207.381679988695 2039.2290079325 141 145 144
-186.970675218197 206.661965770284 2029.1563877859 152 156 155
-188.232275974502 206.47763465253 2018.7589010995 142 146 147
-196.464690921831 205.543462838303 2008.88850895949 135 139 140
-203.700243976324 204.716238931825 1998.98560348423 136 140 141
-207.947851177365 204.209996218734 1988.88213210022 150 154 155
-208.212084227974 204.131577299049 1978.47078893212 164 168 169
-233.365656127502 201.378170426393 1970.19498594187 159 163 164
-264.489060301532 197.983594697301 1962.585964775 156 160 161
-280.67639325034 196.194107098589 1953.78471676107 150 154 155
-282.92608767127 195.901921396301 1943.76146262345 148 152 153
-287.16616642766 195.395645457027 1933.94286847243 147 151 152
-295.386770292446 194.461644010872 1924.54360207036 143 147 148
-301.615805836349 193.741327783728 1914.98551505651 142 146 147
-307.843969718419 193.020943522523 1905.46142255697 143 147 148
-311.085935347814 192.620991435631 1895.64922278536 143 147 148
-314.327681299718 192.220764593089 1885.85463854788 140 144 145
-313.589482359041 192.247445442642 1875.62649639911 138 142 143
-312.85138251134 192.27373979653 1865.39406636424 138 142 143
-311.118472590642 192.406468950142 1855.0390550429 137 141 142
-314.359296261745 192.005197235436 1845.27939483081 133 137 138
-310.637441252964 192.350519969735 1834.67119054352 131 135 136
-307.910564618973 192.588706023321 1824.16891131165 128 132 133
-296.233786737308 193.7862848675 1812.48846804672 121 125 124
-292.513955113623 194.129988576219 1801.7994444755 117 121 120
-287.800379400106 194.579840154327 1790.95519400745 119 124 120
-279.110225217666 195.455466245836 1779.53527262136 111 116 112
-262.467849084913 197.182806306642 1766.94629352642 130 135 131
-251.792321577701 198.269958170981 1755.12311097285 162 167 163
-262.987731384269 197.013098909674 1746.44527356314 150 155 151
-284.12115329583 194.691691688552 1739.31273442133 78 83 79
-305.251612269266 192.370923238254 1732.29668302853 73 78 74
-327.373124167652 189.944390143192 1725.55077484421 73 78 74
-333.59110619154 189.221224839384 1716.42163856494 90 95 91
-333.845938605243 189.136515846053 1706.37095105608 100 105 101
-331.119792745116 189.370636118166 1695.83574512706 133 137 136
-334.355457040224 188.966296566532 1686.27443719495 107 111 110
-334.610143194114 188.880846264086 1676.22867006564 102 106 105
-334.864781077118 188.795138727002 1666.18451333101 150 155 151
-1.45351459195098 215.959179244515 2093.36835449364 147 149 146
-9.70409080157975 215.045290357533 2082.80993555397 146 148 147
-11.9751934488397 214.758085431647 2071.96464653151 98 100 99
-31.1839436759027 212.694910298061 2062.11589026996 98 99 101
-103.192740334731 205.09742300231 2055.58854191847 111 115 116
-156.263856482567 199.48607655413 2048.25154238012 152 156 155
-178.446748824343 197.112617403993 2039.1543357607 146 150 149
-181.701332638198 196.72262709096 2028.86899460235 143 147 146
-184.955474169442 196.332424421374 2018.60071136851 137 141 142
-191.196992612124 195.628921282353 2008.57280202634 136 140 141
-200.425263549031 194.612403949628 1998.80997834446 136 140 141
-204.673161102061 194.117340643585 1988.69783779693 153 157 158
-217.882065559986 192.683665438923 1979.35212664749 166 170 171
-241.045680601143 190.207671996438 1970.93227274125 157 161 162
-273.166166322016 186.794261000039 1963.43246384898 155 159 160
-281.390068532585 185.882728850521 1953.92841246782 150 154 155
-287.621836426561 185.1795708707 1944.28195895222 148 152 153
-294.84804205648 184.372181019877 1934.76567949201 147 151 152
-299.087293133095 183.877168937569 1924.99152819592 144 148 149
-301.335618141938 183.590206219456 1915.03672825295 146 150 151
-304.578727025403 183.198889468851 1905.19844289911 145 149 150
-310.806463061142 182.495157495856 1895.69962727261 144 148 149
-314.048456774979 182.103567454174 1885.9046331721 139 143 144
-311.320186202358 182.335942651822 1875.45059464118 136 140 141
-313.566863185271 182.047768161258 1865.55890415271 139 143 144
-309.844252265193 182.383388997533 1854.96982634664 138 142 143
-312.090474068865 182.094708623899 1845.0860578732 134 138 139
-308.368472930756 182.429416880746 1834.4721678179 132 136 137
-304.646989557452 182.763717208146 1823.8376037171 129 133 134
-291.975057960064 184.032618031871 1812.01963326003 122 126 125
-287.260822487596 184.469681141955 1801.1874371853 116 120 119
-283.541330079806 184.802314191021 1790.46394427184 114 119 115
-279.822586744364 185.13447459471 1779.71999231416 106 111 107
-258.207433333423 187.334851657645 1766.43282775685 123 128 124
-239.578135701751 189.222570160732 1753.45550222718 167 172 168
-246.798531606962 188.411115242857 1744.16192217867 156 161 157
-279.863451862994 184.902340105563 1738.7654319229 67 72 68
-307.953691943609 181.913473291319 1732.795454835 89 94 90
-326.10104997799 179.962542095947 1725.44193937118 117 122 118
-330.331782681157 179.463705913569 1715.99660959459 141 146 142
-326.611771585612 179.794043145303 1705.30024851188 155 160 156
-326.86706077298 179.709422612496 1695.23180368794 111 115 114
-325.134920673091 179.831773589057 1684.8355618153 96 100 99
-328.3709944056 179.435907757575 1675.26735007929 94 98 97
-327.632636014376 179.454168371461 1665.03639880969 138 143 139
-25.7893326890222 202.524172414056 2105.5841235913 142 145 138
3.83271042034572 205.50018879223 2093.18282319653 130 132 127
-0.432852120009208 205.015184114684 2082.40039871829 130 132 131
-8.68353966483371 204.123142530547 2071.86108636466 140 142 141
-34.8689173067878 201.400198133502 2062.40893549038 110 112 111
-108.875707151279 193.796841637741 2056.01243861394 147 151 150
-161.950195820637 188.331136972318 2048.69068339261 147 151 150
-173.176259428256 187.136369093948 2038.88145819206 146 150 149
-180.415981566854 186.348218012095 2028.85756385735 130 134 133
-181.678179450137 186.169579779446 2018.44285196163 136 140 141
-185.928264308171 185.685907950885 2008.25745524847 140 144 145
-190.177999264467 185.201966026549 1998.09476868753 141 145 146
-199.406144609589 184.210213113492 1988.35411890601 164 168 169
-223.570366401018 181.695473604111 1979.90297100574 169 173 174
-246.735319871627 179.282894073417 1971.49889561446 156 160 161
-267.905624955477 177.073956315012 1963.04559537619 156 160 161
-277.12601649989 176.08303415857 1953.61820777775 153 157 158
-287.340575049044 174.990773102791 1944.33468159812 151 155 156
-301.535471281677 173.492926583374 1935.4922558675 149 153 154
-303.783931783489 173.212109755247 1925.53875937328 148 152 153
-305.036598301495 173.032437909849 1915.4954564373 148 152 153
-305.293919590605 172.953908478668 1905.35413019349 146 150 151
-311.522295952418 172.266958278776 1895.85763216954 146 150 151
-310.78385348807 172.289205667849 1885.62492267281 142 146 147
-306.065654691155 172.716220403582 1874.93683787667 138 142 143
-306.322823229815 172.636411219835 1864.8001075499 135 139 140
-304.590065371221 172.758806623246 1854.42805752967 134 138 139
-307.831798366095 172.374638325901 1844.65122212686 133 137 138
-308.088774843171 172.293919969626 1834.52102203267 132 136 137
-310.335183001976 172.010528543053 1824.6449738073 130 134 135
-299.650968192048 173.04210484162 1813.10164837608 125 129 128
-284.990325715619 174.477472272641 1800.97180366091 124 128 127
-279.281873030327 175.001786307595 1789.97325710299 111 116 112
-267.607698935636 176.132170843042 1778.11890074942 115 120 116
-252.952337377539 177.564961971859 1765.77989321683 132 137 133
-227.361857308406 180.108431009738 1751.78867928801 165 170 166
-238.560397750908 178.912290954314 1743.04435659952 154 159 155
-269.64026391607 175.696189248546 1737.3285833039 128 133 129
-301.70953771129 172.380288945426 1731.93501334649 137 142 138
-318.864770434534 170.579998912832 1724.41077697834 138 143 139
-330.053761236525 169.38586107203 1716.04183714665 141 146 142
-332.296652841809 169.100314871043 1706.3009143841 100 105 101
-332.551543668084 169.016340564739 1696.24873275995 122 126 125
-324.856513012936 169.739176854399 1684.88004456126 128 132 131
-319.149930552873 170.259721943992 1673.80435631932 128 132 131
-310.463608059198 171.082198251379 1662.18693590611 130 135 131
6.84664202221708 194.736597844234 2082.09611049258 108 110 107
2.58132943175227 194.262379381308 2071.31638675196 103 105 104
-131.498886595664 180.845947275307 2057.46753814151 149 153 152
-166.641352162713 177.306822850648 2049.06644188572 154 158 157
-171.889865950262 176.735922315593 2038.8734862454 145 149 148
-175.145353818127 176.36270671811 2028.57082292219 143 147 146
-177.404312616382 176.088067792571 2018.21364999082 138 142 143
-179.662965655883 175.813150154418 2007.86812791064 141 145 146
-182.917019585595 175.439209094948 1997.61140412442 143 147 148
-191.15070928434 174.570925791155 1987.77126107925 167 171 172
-217.308931330945 171.924532988235 1979.46264014938 170 174 175
-238.484351309477 169.772692053251 1970.87073827951 155 159 160
-260.652720570734 167.522624161692 1962.48295677595 155 159 160
-272.861087624405 166.260438698927 1953.30835927268 152 156 157
-287.05927729786 164.800934685227 1944.38770848349 150 154 155
-297.273184451675 163.736485821592 1935.15950368016 148 152 153
-299.521853173706 163.461378523323 1925.19467488362 148 152 153
-310.729020276181 162.298289890231 1916.15800529897 146 150 151
-313.971922170797 161.924313732124 1906.34642877908 145 149 150
-319.204729674038 161.353003199653 1896.76688891546 146 150 151
-311.499669633361 162.063021547175 1885.78574571615 145 149 150
-308.77112278609 162.279685287051 1875.32563520232 141 145 146
-309.028100667176 162.200286976072 1865.19679759755 132 136 137
-307.295002358013 162.317671397929 1854.83267315888 132 136 137
-308.547108625886 162.139165895615 1844.82184385655 132 136 137
-305.819513923494 162.354285737871 1834.32286250409 132 136 137
-309.060922778091 161.978306307537 1824.56748820088 131 135 136
-301.360072126014 162.684896397908 1813.40882172619 127 131 130
-289.681836542141 163.784462092695 1801.68011154219 118 122 121
-276.016256876587 165.079989991412 1789.61777802436 127 132 128
-266.330471500295 165.981180617601 1778.0298601253 112 117 113
-254.657102344423 167.07837038788 1766.10840199202 140 145 141
-240.002524331389 168.469659808837 1753.69420946644 138 143 139
-233.304107204145 169.073667386483 1742.3643096605 172 177 173
-256.432873683346 166.729090388075 1735.44756313397 139 144 140
-280.552470044037 164.287003860918 1728.80921604652 124 129 125
-303.674689502457 161.943929789559 1722.14996349952 95 100 96
-318.841768470056 160.387325731888 1714.36566598253 116 121 117
-333.012623915172 158.929370183723 1706.50566936266 138 143 139
-332.273677777717 158.944126110379 1696.2939261886 133 137 136
-326.565743168723 159.449336199125 1685.25461906812 124 128 127
-312.908897316887 160.738937765131 1672.84457461496 127 131 130
-310.184067340342 160.948700091898 1662.23178571135 132 137 133
20.107584279808 184.996126073786 2081.47770070122 131 133 130
7.86795972344079 183.762803910557 2071.10311811037 113 115 112
-145.156865312216 168.885977575492 2058.37628681657 153 157 156
-167.34728670212 166.693658971911 2049.18863847045 145 149 148
-170.603526826546 166.329005883511 2038.86576811764 139 143 142
-176.848248616764 165.675726133105 2028.76658686339 146 151 147
-181.09955195 165.21456716 2018.55774048863 139 143 144
-183.358094060886 164.945470892451 2008.22280442237 138 142 143
-186.612347806415 164.579996206034 1997.97668646938 148 152 153
-196.838281114835 163.541875010024 1988.30672650498 164 168 169
-212.042432500678 162.023629660949 1979.10537229584 161 165 166
-233.22004429006 159.929510574584 1970.49910892881 154 158 159
-246.428059275822 158.603986423229 1961.30428570434 152 156 157
-270.587333983809 156.222849088015 1953.18061389937 150 154 155
-284.786500138091 154.801980586507 1944.25395790587 151 155 156
-292.014484846615 154.053025791145 1934.73088895274 151 155 156
-296.254833526011 153.591782306176 1924.95009765673 150 154 155
-311.44487078483 152.075550851664 1916.31185957883 151 155 156
-315.683272778514 151.614315467912 1906.60716020261 149 153 154
-316.935316611254 151.440448054398 1896.6037511041 147 151 152
-311.220181587926 151.937251821881 1885.83683505906 141 145 146
-311.477007377416 151.858584221078 1875.714726301 138 142 143
-306.758091225593 152.258634452609 1865.01640102366 139 143 144
-305.025235653877 152.370849496384 1854.64656387281 137 141 142
-307.27224511899 152.09972506343 1844.75086107868 134 138 139
-308.524336563758 151.924104421812 1834.74370865583 133 137 138
-310.770778042935 151.652591031434 1824.86978708715 131 135 136
-305.058839222798 152.146383192899 1813.97471871856 127 131 130
-296.363800531685 152.926585846514 1802.65256730214 125 129 128
-285.680372925194 153.897423357982 1791.01325860194 118 123 119
-273.009449930564 155.058801621986 1779.04041901156 100 105 101
-267.301707990399 155.55012602596 1767.97867234687 129 134 130
-251.650763406166 156.996705132193 1755.45714097994 156 161 157
-242.962205626402 157.773474975152 1743.86868242094 150 155 151
-250.183444637726 157.02109441907 1734.60558036482 123 128 124
-272.31700268619 154.836111978786 1727.64822539481 71 76 72
-293.453152255831 152.747392659892 1720.65892227455 114 119 115
-312.5983349478 150.850318359988 1713.47295177721 109 114 110
-327.764617929957 149.335642590784 1705.75545870743 126 131 127
-331.995771238514 148.870992182634 1696.33972105486 131 135 134
-329.269032960141 149.07415029632 1685.79442410203 123 127 126
-319.586091603387 149.944544229437 1674.06228495006 122 126 125
-307.916933723215 151.005021542091 1661.93681656422 125 130 126
-299.230393941959 151.778763345876 1650.26623635759 145 147 142
14.4313817078832 173.406313173943 2081.85541296238 131 133 130
9.16829672804687 172.860675756516 2071.11076545189 119 121 118
-153.834125814046 157.469007380961 2058.9816544738 159 163 162
-172.039588307968 155.711143311463 2049.5645160564 146 151 147
-174.299110603283 155.448451340669 2039.18882263952 140 145 141
-173.56941548498 155.465695954325 2028.61818975015 132 137 133
-181.806420753818 154.642117554585 2018.68713863465 135 139 140
-184.065060349508 154.378757162533 2008.35455126595 141 145 146
-194.292629165736 153.368379491412 1998.65045885101 154 158 159
-205.514804276084 152.264768579364 1989.08176213587 162 166 167
-219.723761961707 150.88138288317 1979.82199011562 159 163 164
-233.930502635533 149.498230439592 1970.639792257 153 157 158
-246.143629601853 148.301875914375 1961.35916985696 151 155 156
-269.308990468464 146.08007850933 1953.14401917172 150 154 155
-283.509302936359 144.697887198988 1944.21408986026 152 156 157
-290.737903510224 143.968409676604 1934.68786395177 153 157 158
-292.987563562079 143.704799056493 1924.70595958737 154 158 159
-301.209963913507 142.882032925119 1915.34659138972 150 154 155
-305.449380776673 142.431870954533 1905.61411717666 149 153 154
-308.692876053574 142.074737216869 1895.79743331541 148 152 153
-307.954636662956 142.089800144561 1885.55839766075 141 145 146
-312.192691065037 141.639160633199 1875.87866040017 138 142 143
-306.47822219335 142.118936704088 1865.06742581217 138 142 143
-304.745234683942 142.226100259011 1854.69732134373 136 140 141
-304.007228171 142.239873932809 1844.43847493297 133 137 138
-308.244599007168 141.788392947029 1834.79387507412 132 136 137
-310.491212183528 141.522790736611 1824.91958995449 130 134 135
-306.768621882463 141.814652196634 1814.28272083797 124 128 127
-305.035954501218 141.920263192904 1803.88911284581 125 129 128
-294.351329140264 142.861631992237 1792.274300094 128 133 129
-284.662754396309 143.709428045078 1780.73806936557 113 118 114
-266.024342302489 145.392255411865 1767.88764748065 110 115 111
-247.388521566019 147.074017766523 1754.93480284553 156 161 157
-230.744243527899 148.569035271958 1742.1707067338 151 156 152
-235.978287538017 148.021655111537 1732.57785927662 136 141 137
-262.091614498564 145.526068728521 1726.1858181541 89 94 90
-286.212751105343 143.2169344714 1719.63002682176 127 132 128
-306.353954133564 141.279547388022 1712.58100827062 119 124 120
-321.522045004922 139.806310477868 1704.84667527161 117 122 118
-328.735763471626 139.075048171959 1695.90017730235 121 125 124
-327.99677208802 139.085152798632 1685.6758835087 122 126 125
-314.337715729669 140.299268719487 1673.2711826357 122 126 125
-303.661990039399 141.234727049315 1661.30219371645 121 126 122
-291.993839131862 142.262120862034 1649.10184683746 139 141 136
20.7168295517217 162.93771198487 2081.60449029799 135 137 134
6.48142921914774 161.588942859 2071.33909185139 125 127 124
-150.552699985999 147.189055040296 2058.85951187985 161 166 162
-165.769950846567 145.752741214794 2049.24348136746 137 142 138
-169.026743456585 145.404926429938 2038.91709763729 137 142 138
-174.275853015076 144.875580522915 2028.74547536392 139 144 140
-184.50626798382 143.892909159093 2018.95989434791 134 138 139
-188.757581703572 143.454026357546 2008.78388525771 153 157 158
-196.992995584098 142.652628536007 1998.93884690697 166 170 171
-211.204350634199 141.307725143777 1989.61737212392 164 168 169
-220.433331901912 140.415918342213 1979.96069081694 161 165 166
-235.637278254113 138.980910845872 1970.86604921654 154 158 159
-246.85506026147 137.908313975085 1961.50235067376 152 156 157
-269.026284270131 135.840364111514 1953.19854006448 150 154 155
-284.223426539856 134.406405947961 1944.3616274824 151 155 156
-293.444108144474 133.515518343344 1935.03031272368 154 158 159
-293.702263055683 133.438687587813 1924.85822954752 155 159 160
-295.951471272036 133.180707142217 1914.89070493932 153 157 158
-298.200605435012 132.92256321931 1904.93522385249 150 154 155
-306.422333249503 132.121924968381 1895.63522473018 148 152 153
-307.674847529644 131.953877329534 1885.61035295508 141 145 146
-309.922452591446 131.695288360703 1875.70483179497 139 143 144
-305.203122479761 132.068662164133 1865.00336719736 136 140 141
-303.469831998471 132.170702861552 1854.63027860154 136 140 141
-301.737019466797 132.272418117991 1844.24748543378 135 139 140
-303.984398148843 132.012809075008 1834.34971670176 135 139 140
-305.236774720638 131.843204457957 1824.33788007081 133 137 138
-301.514012468651 132.124476455014 1813.68703645398 128 132 131
-299.781798395327 132.224952041924 1803.27952239911 124 128 127
-293.075788724281 132.775898488372 1792.18939255094 125 130 126
-283.386544803763 133.596714075284 1780.65034601439 133 138 134
-263.752212545455 135.318071999779 1767.65714350695 110 115 111
-247.104120863098 136.768058325601 1754.98442202245 109 114 110
-228.469713034031 138.39719480647 1741.92917524948 166 171 167
-230.720727329136 138.134172083572 1731.88564881802 157 162 158
-250.87014239751 136.250416437189 1724.57326059613 144 149 145
-280.959704701251 133.467253858151 1718.9093628551 125 130 126
-299.114475678588 131.765048695017 1711.53318675798 122 127 123
-317.26646668799 130.063421721355 1704.25695746519 125 130 126
-321.498960722942 129.621611736208 1694.81334386765 114 118 117
-320.760398796962 129.629381324218 1684.56975819755 123 127 126
-307.100788776827 130.805577563626 1672.14598111161 127 131 130
-292.449027018649 132.070860596945 1659.4770988476 132 137 133
-281.774728957824 132.975824293239 1647.41957043517 138 140 135
-25.557882626785 147.845994019364 2095.03826365203 140 143 136
25.0094702141368 152.259135173196 2081.45862757452 130 132 129
9.77591308980941 150.860841735512 2071.23679036238 117 119 116
-158.235050228509 135.92390257911 2059.40426736619 160 165 161
-161.49280281808 135.584595001564 2049.04949869356 140 145 141
-164.750113914924 135.245089861937 2038.71177295915 133 138 134
-169.003439331946 134.817513382069 2028.45995483998 129 134 130
-183.220754035059 133.510755971195 2018.94651438872 136 140 139
-188.46877208007 132.995201806917 2008.84168554269 158 162 163
-196.704806658399 132.215980829033 1998.99619995831 166 170 171
-202.947342991375 131.612423506091 1989.03582205701 164 168 169
-215.165899412425 130.481938004499 1979.60439805377 160 164 165
-232.36365935225 128.912637923101 1970.66606995869 153 157 158
-250.55475241734 127.255998451889 1961.9099009879 151 155 156
-266.751511180602 125.775305236696 1953.07181911885 149 153 154
-283.94183857185 124.207221803645 1944.41596232491 150 154 155
-289.179942567164 123.692206374806 1934.69918733787 151 155 156
-289.438390996799 123.615597571563 1924.51587076006 152 156 157
-291.688045405209 123.363365199006 1914.53707925873 158 162 163
-296.92451616192 122.848004337122 1904.88376599471 153 157 158
-308.13338091173 121.806755690072 1895.90224407624 149 153 154
-310.381499301183 121.554253899889 1885.99252102512 141 145 146
-311.6337210375 121.389165058896 1875.98225980536 138 142 143
-306.913891767748 121.749272499668 1865.28605963565 135 139 140
-308.166176287578 121.583641777237 1855.27276278816 135 139 140
-304.442377110449 121.855448607259 1844.66160761886 134 138 139
-302.709221792675 121.951841539201 1834.277172229 134 138 139
-301.971537062544 121.960409786031 1824.00948503294 133 137 138
-299.243860804556 122.143606201757 1813.47941423895 129 133 132
-298.506271172112 122.15158208519 1803.19804947342 121 125 124
-289.810249653041 122.858658103137 1791.83579262894 125 130 126
-281.115195039785 123.565104719464 1780.42574516445 131 136 132
-262.474156822903 125.144738260736 1767.56715968403 135 140 136
-248.80907853156 126.286543932405 1755.32017563701 102 107 103
-244.09695220621 126.64148277489 1744.30804328463 128 133 129
-237.396597419144 127.170637291659 1732.97350248518 161 166 162
-250.58599238978 125.953393111456 1724.62267664876 154 159 155
-272.72296149486 123.951115827169 1717.72818049473 123 128 124
-294.856830480684 121.949588859039 1710.95565337231 124 129 125
-313.010480349289 120.297741189288 1703.66803929795 123 128 124
-317.243339937415 119.86739068574 1694.21311813656 116 120 119
-316.505237273235 119.872889188898 1683.95846919661 119 123 122
-300.856723468241 121.185551989001 1671.18882075239 119 123 122
-286.204499858177 122.410201910732 1658.50368534248 128 133 129
-270.560254621695 123.721143110693 1645.56535793207 138 140 135
35.2844442406752 142.06935654424 2080.99893938669 145 147 142
-133.750838675671 127.504725155438 2068.62172574489 169 171 168
-154.953487304047 125.639305251572 2059.28249554596 153 158 154
-152.23118867403 125.81965954204 2048.53919676651 137 142 138
-157.482569282241 125.318007998662 2038.30855007743 131 136 132
-169.709662154258 124.220012749877 2028.58770231788 135 140 136
-184.924681560656 122.866729165088 2019.14803624237 146 150 149
-189.176321881368 122.450284696572 2008.97403022086 168 172 173
-193.427378164793 122.033725629682 1998.82272735289 165 169 170
-197.677850789295 121.617051863685 1988.69411274244 163 167 168
-215.875490758007 120.009142305536 1979.74371531424 158 162 163
-236.062823466319 118.231593816982 1971.06341143587 153 157 158
-256.247341423407 116.454584628634 1962.49369684523 152 156 157
-266.468588203209 115.528296218106 1953.12698008629 152 156 157
-275.692505324374 114.68711327588 1943.72257917082 153 157 158
-282.923229767824 114.016024030072 1934.17603791594 153 157 158
-291.148712468608 113.259988729485 1924.7678512543 152 156 157
-301.364678162728 112.334145989466 1915.60801614515 152 156 157
-307.596474491258 111.748137623642 1906.08623754164 146 150 151
-312.831843942676 111.246994379987 1896.49123288708 142 146 147
-312.092845846356 111.255090155626 1886.26504450001 140 144 145
-309.363110628422 111.432547729677 1875.80928306715 141 145 146
-308.624691632291 111.440006044691 1865.5691017707 139 143 144
-309.876931377577 111.277583256889 1855.5609993006 138 142 143
-308.143364953261 111.369310987399 1845.19694703283 134 138 139
-303.424141263872 111.715020821296 1834.45229485506 133 137 138
-294.725288907439 112.399263002364 1823.17615972581 132 136 137
-294.983131466111 112.320369722958 1813.01406978958 130 134 135
-291.260732020334 112.580118330104 1802.32593629081 132 136 135
-289.529042812867 112.670040877746 1791.88657761918 126 131 127
-282.823151723463 113.183008710515 1780.75103467932 129 134 130
-271.144094864807 114.118640952392 1768.87840364279 150 155 151
-258.472008378827 115.138188857578 1756.79875080896 182 187 183
-250.775075784948 115.733942868285 1745.37727058919 150 155 151
-251.035806794663 115.652570058109 1735.09962765087 176 181 177
-251.296490834356 115.57101469078 1724.82362444787 170 175 171
-271.446083580335 113.798622101684 1717.62386504375 118 123 119
-284.632230540643 112.618494139992 1709.43983523951 113 118 114
-306.765144048443 110.678369088981 1702.76125536961 117 122 118
-310.004569075447 110.343820792054 1693.12790148127 104 108 107
-312.249433048057 110.093685896478 1683.34791370346 116 120 119
-297.594038285724 111.278625331954 1670.73475505967 114 118 117
-283.934871301077 112.378314377807 1658.21151508001 121 126 122
-278.229203396401 112.802225393676 1646.99632461945 130 132 127
-134.454998482196 116.814996176139 2068.74040011871 156 160 159
-150.674624441851 115.419864150682 2059.10045801413 146 150 149
-149.945881974043 115.427120186208 2048.47254248909 124 130 128
-156.194708013142 114.856879470203 2038.30211389039 129 135 135
-167.425948298844 113.874449377615 2028.50923334983 136 142 142
-184.635569893627 112.397661750574 2019.20664343636 157 161 160
-188.887527277267 111.992431456901 2009.03228641457 164 168 167
-199.117763897888 111.09279891474 1999.34283655235 166 170 169
-201.375240646634 110.852183360564 1989.07079413744 159 163 162
-222.562994512721 109.046981720177 1980.37836058058 155 159 158
-236.773758401568 107.818612648342 1971.20511600537 154 158 157
-255.963616354013 106.179040025181 1962.54956703337 154 158 157
-265.189584004287 105.3627292411 1953.09173014475 154 158 157
-274.414029867062 104.546541644953 1943.6841774648 154 158 157
-283.637428140476 103.730449754479 1934.32699575578 155 159 158
-291.863701159247 102.996708056932 1924.92118267158 152 156 155
-303.076142524514 102.016461876626 1915.86537398151 160 164 165
-310.30397281884 101.365139164756 1906.45316988209 145 149 150
-314.54365875461 100.960309970124 1896.75885422295 141 145 146
-315.796062475119 100.801786644657 1886.75785476367 141 145 146
-308.087896874552 101.382063474293 1875.74945636531 140 144 145
-306.35406446359 101.469240551226 1865.39091363574 134 138 139
-305.615589529181 101.474061050954 1855.14076152984 135 139 140
-308.858830594654 101.150410597262 1845.36996490338 137 141 142
-305.134630959844 101.400852225654 1834.75152069947 136 140 141
-296.434740374055 102.060946195169 1823.48070989213 133 137 138
-298.682852764401 101.818574216675 1813.58209791849 128 132 133
-297.945150483043 101.82200363795 1803.30025422184 122 126 125
-297.207782438488 101.825175888211 1793.01439605088 119 123 122
-284.531138014362 102.811111192929 1781.07679260772 127 131 130
-274.84089089409 103.550612967506 1769.48964608375 125 129 128
-257.193675689165 104.944489233522 1756.70704928965 132 136 135
-251.485551001247 105.355159905109 1745.57366196698 150 154 153
-247.767631811189 105.601678786035 1734.70554428141 141 145 144
-259.963513044883 104.538839618632 1726.23297857493 154 158 157
-273.152374950993 103.394540462084 1717.98130949525 115 119 118
-284.350620573715 102.414154214182 1709.48949399502 119 123 122
-300.518862579521 101.025337856501 1701.85527130012 117 121 120
-309.724892386861 100.209098431551 1693.17675100181 106 111 107
-308.987164873453 100.210130673067 1682.90264434234 114 119 115
-293.336760129193 101.436194249827 1670.11391677879 112 117 113
-286.635564071583 101.926455321425 1658.77049496059 114 119 115
-286.893531444753 101.844767936582 1648.60052674614 131 133 128
-129.17680046132 106.608574550454 2068.51233514374 160 165 161
-148.388911220354 105.018115065052 2059.03980330703 141 145 144
-149.654127315896 104.863326122878 2048.53273675191 127 133 133
-156.900173147004 104.230036179258 2038.42796857066 121 127 127
-167.13550604968 103.357675948266 2028.56862125852 147 153 153
-188.333119287218 101.609058254682 2019.55160479474 163 167 168
-196.571525803334 100.896487153638 2009.68497916931 168 172 171
-208.79516405036 99.8654475832461 2000.17104197264 168 172 171
-212.048750637629 99.5511366956595 1990.0059346223 162 166 165
-232.240771672164 97.8836453680316 1981.26056561697 158 162 161
-244.459382968707 96.8532689006104 1971.94381104838 156 160 159
-255.679859948642 95.9026785023312 1962.60578479492 150 154 153
-262.914035922508 95.2704329810149 1952.96605317438 145 149 148
-271.143260864658 94.5587007666818 1943.45917599822 150 154 153
-286.343960314556 93.2906003878129 1934.67064659572 154 158 157
-298.554550922753 92.2612939177566 1925.66851719364 153 157 156
-305.783727169025 91.6295241947557 1916.22470312309 152 156 157
-308.032529839063 91.3949691177534 1906.2981810264 154 158 159
-310.28125536249 91.160221377422 1896.38379200774 150 154 155
-314.520947523696 90.7665990828442 1886.70126614312 140 144 145
-307.808069440486 91.2459407893448 1875.80269398086 139 143 144
-305.078365885286 91.4074098620192 1865.32852783727 133 137 138
-300.358180108271 91.7271593759932 1854.6029279729 133 137 138
-302.606414794476 91.4913600695564 1844.69726869427 133 137 138
-301.868457577586 91.4932937313652 1834.43310751826 132 136 137
-298.144697060033 91.7327550063379 1823.78571123294 130 134 135
-301.387993798492 91.4171622930332 1814.02139049439 127 131 132
-296.66945681142 91.7352756064991 1803.22026859298 129 133 132
-295.932100720913 91.7361489456198 1792.93147482267 124 128 127
-285.244687926538 92.5285873350515 1781.26569462123 124 128 127
-275.553398122812 93.2412412266667 1769.68114780144 117 121 120
-259.894618645298 94.4280430926897 1757.18690241226 118 122 121
-244.237779709043 95.6140013619153 1744.60658337075 125 129 128
-240.520063919948 95.8499477533399 1733.71916414595 126 130 129
-249.733330944652 95.0576229111431 1724.77414117081 151 155 154
-270.880822376445 93.316857325601 1717.72448949599 110 114 113
-282.079822013864 92.3671232641103 1709.22679165814 112 116 115
-301.233074300944 90.7856414549372 1702.06429233975 117 121 120
-308.450857954341 90.1526284071104 1693.0644052784 106 111 107
-309.701647965963 89.9935775273645 1683.11658391724 110 115 111
-297.032765729216 90.9396043063716 1670.83275660036 109 114 110
-289.336670496787 91.490286153098 1659.33015437597 116 121 117
-296.553224647687 90.8570002433327 1650.37802755334 127 129 124
-101.689916068997 98.1437114435143 2077.71111059244 135 137 132
-138.854566784197 95.2184891153419 2069.15149800897 156 161 157
-148.097043121304 94.4506150171037 2059.10045203243 136 140 139
-154.347311236315 93.9137811041659 2048.90953176372 124 130 130
-153.618447677739 93.915694537315 2038.28993719863 122 128 128
-159.867250641236 93.3787436627668 2028.14682975401 169 175 175
-178.07664910738 91.9185765429679 2018.89550396406 171 175 176
-196.283278790806 90.4589096110052 2009.74360406925 170 174 175
-213.49082549389 89.0766073264968 2000.61423440676 169 173 174
-221.727180706986 88.3865311726664 1990.86125893951 166 170 171
-231.955215293314 87.5428224380843 1981.31791888323 167 171 172
-241.185490078719 86.7761410877028 1971.74503249654 162 166 167
-252.40702393892 85.8559690614985 1962.39836060624 158 162 163
-263.626996574799 84.9360026109655 1953.11292750215 152 156 157
-271.857009843647 84.2465195155235 1943.60845396628 146 150 151
-283.07406627356 83.3269243134249 1934.43739491157 141 145 146
-293.293567943826 82.4842869029421 1925.22870107996 160 164 165
-300.523635160749 81.8719362168195 1915.77091545604 156 160 161
-305.760988658864 81.4130283360449 1906.14371646325 141 145 146
-310.001590755319 81.0307924815965 1896.43785305941 140 144 145
-316.23326843172 80.4952317056946 1886.97487852888 143 147 148
-308.523856374179 81.0324616098209 1875.96897551375 138 142 143
-304.798296875759 81.2627087482459 1865.38199620258 136 140 141
-295.099744071045 81.9521151309831 1854.06567602546 136 140 141
-297.348733018332 81.7221287931863 1844.14610391713 134 138 139
-297.606432815634 81.6451041019203 1833.99159993577 133 137 138
-296.868559098112 81.6444528547474 1823.71207505083 131 135 136
-302.102864151568 81.1844959661668 1814.20289349189 129 133 134
-297.383897001674 81.4893845675274 1803.40438416641 126 130 129
-297.641503444111 81.4115744728187 1793.25268551085 124 128 127
-285.958117998153 82.2508250175479 1781.45506820608 110 114 113
-278.256158019421 82.7837452280679 1770.15328471857 115 119 118
-259.611101547815 84.1564944070189 1757.23893484641 120 124 123
-246.937744451386 85.0700118248786 1745.09509449945 113 117 116
-243.21929961017 85.2956221028662 1734.21574624632 105 109 108
-247.459695272467 84.9101970431271 1724.52385146972 137 141 140
-266.619251805096 83.3801418534651 1717.1608535512 121 125 124
-286.77113674601 81.774408971754 1710.05977837472 107 111 110
-300.952701491294 80.6269917686457 1702.11465736336 105 109 108
-304.19321476663 80.3187271830876 1692.46699238524 105 110 106
-302.461163657918 80.3915987711045 1682.01414527251 103 108 104
-290.786061302636 81.2262614994507 1669.87854525776 103 108 104
-291.043772233052 81.1460528346243 1659.72018745019 115 120 116
-291.301437082791 81.0657213949246 1649.5634988089 122 124 119
-118.347810460691 86.1857442308728 2078.70872286802 146 148 143
-142.550668481487 84.3281786346727 2069.44383522683 157 162 158
-150.796514883108 83.6594932474742 2059.34287899046 136 140 139
-156.049829228511 83.2136247563978 2049.09655069841 125 131 131
-154.32385856316 83.2872601792825 2038.4162037306 130 136 136
-158.579388972716 82.9153795310618 2028.13800875913 173 179 179
-175.793231318456 81.5790112781153 2018.81190399771 170 174 177
-194.001613357587 80.1688855566818 2009.65403429606 170 174 177
-213.203850998242 78.6851307429947 2000.67262459813 168 172 175
-224.4307313132 77.7948771515627 1991.15844363403 168 172 175
-236.652301115424 76.8307574590004 1981.7878770483 170 174 177
-244.88650576773 76.1632058129065 1972.14313802835 168 172 175
-254.11591395378 75.4216930908872 1962.63114548121 163 167 170
-257.365901549016 75.1246205245011 1952.62520838874 158 162 165
-268.585576807098 74.2352229214063 1943.3842203132 152 156 159
-274.822761803732 73.7160966215634 1933.72364670422 145 149 152
-291.020477937929 72.457128980538 1925.08621930735 147 151 154
-299.247230918646 71.7903639357748 1915.72423723078 159 163 164
-308.469002604241 71.049713896035 1906.51163185754 144 148 149
-305.73822023831 71.1963603831843 1896.06371402377 141 145 146
-310.974618335125 70.7514543549769 1886.47956474614 143 147 148
-307.248322229972 70.9714842940359 1875.91040413605 140 144 145
-304.518198342096 71.1173252755713 1865.43588580892 133 137 138
-296.81030621543 71.6320153711631 1854.35570190764 134 138 139
-297.068061956189 71.5556359956986 1844.19970435263 135 139 140
-298.321223344498 71.4052717453865 1834.16852840929 134 138 139
-298.57883217396 71.32854135807 1824.01789576721 131 135 136
-307.794846777735 70.5877734934907 1815.03017058385 126 130 131
-306.061043787647 70.6583506059204 1804.64332943299 128 132 131
-306.318042944595 70.5812123498093 1794.51608696665 131 135 134
-293.637810569717 71.4619741853318 1782.60578589718 117 121 120
-276.979000698117 72.6367276030485 1770.06576926736 114 118 117
-256.342443332413 74.1051916135925 1756.8632959948 115 119 118
-238.693419317131 75.3517256534409 1743.98386425266 105 109 108
-242.934502541627 74.9778544044813 1734.2681779674 97 101 100
-245.18548633185 74.7511481923517 1724.27416243291 136 140 139
-275.289056669746 72.4643650036448 1718.5957561502 136 140 139
-287.484260817868 71.5025949821557 1710.26749834655 105 109 108
-295.699118202971 70.8353357214646 1701.36990670416 104 108 107
-296.951286020911 70.6827870763237 1691.38454228609 106 111 107
-292.236142969307 70.9710526410958 1680.41872541561 102 107 103
-285.532986794126 71.4059278074185 1669.09244266285 103 108 104
-285.791065309055 71.3262214716263 1658.92025774136 118 123 119
-291.020301741713 70.8793058392608 1649.6138533502 124 126 121
-136.274987556869 74.1744748488736 2069.15862489219 146 151 147
-140.532916267102 73.8138694860332 2058.79880255512 130 134 133
-145.787316807423 73.3817112621902 2048.52474303188 132 138 138
-147.053081113975 73.2354309832141 2038.0147112268 138 144 144
-157.291349646824 72.4458057109231 2028.12946374458 160 166 166
-176.50048147804 71.01340421461 2018.94306922209 165 169 172
-197.700483642112 69.438674046461 2010.01006747791 168 172 175
-214.910492214196 68.1501713210821 2000.88519418895 168 172 175
-227.134710940829 67.2190139607939 1991.45581566289 168 172 175
-243.343717725956 66.002684914119 1982.42289255342 169 173 176
-246.594878526542 65.7142159711721 1972.37101565169 169 173 176
-251.838915238356 65.2830431961773 1962.51239333614 166 170 173
-254.092929994741 65.0657482977309 1952.41002228795 160 164 167
-268.302749471616 63.9929449498688 1943.44072309742 166 170 173
-272.5477370786 63.6331140292982 1933.58751544225 169 173 176
-285.758149647952 62.6320897673724 1924.64740933462 147 151 154
-297.970644478778 61.7025831750783 1915.67801373804 144 148 149
-312.173446421097 60.6309728803146 1906.98426511653 155 159 158
-309.442175172463 60.7698570169791 1896.54711989827 152 156 155
-311.691091176688 60.5525991323745 1886.64406549024 135 139 138
-302.984982268483 61.1178229603608 1875.51442401302 132 136 135
-301.250651885503 61.1846242368247 1865.14414100148 133 137 136
-293.542380848553 61.6777633371094 1854.05562642774 134 138 137
-295.791537403024 61.4596042797746 1844.13287808464 136 140 139
-299.03613434114 61.1702688598888 1834.34593409874 135 139 138
-298.298241556982 61.1650431010132 1824.07156743382 134 138 137
-319.460221772307 59.597209433746 1816.63200009351 131 135 134
-370.480917864065 55.9001309801471 1813.26226443878 125 129 128
-276.955735022217 62.3348749552394 1759.9137365246 111 115 114
-243.383557317859 64.6673604523018 1744.76443402237 105 109 108
-239.664993707609 64.8720675712892 1733.87660826054 115 119 118
-274.74768428606 62.3132161583501 1728.85494250507 142 146 145
-285.949938094335 61.4556421349884 1720.3383395364 145 149 148
-286.208135094165 61.3772996980382 1710.16298826404 102 106 105
-284.476815370795 61.4403885273501 1699.67105210566 111 115 114
-284.735055531724 61.3617044949161 1689.4936471691 107 112 108
-282.009583171457 61.4951285595119 1678.82399870014 104 109 105
-276.301018053671 61.8404957224091 1667.63770702434 105 110 106
