ply
format ascii 1.0
comment KinectMotionCapture
element vertex 757
property float x
property float y
property float z
property uchar red
property uchar green
property uchar blue
end_header
-1292.28579998016 576.515734195709 2617.00010299683 102 80 56
-1284.5299243927 576.233565807343 2615.9999370575 98 76 53
-1278.25045585632 576.614201068878 2618.00003051758 89 67 46
-1273.90766143799 577.877759933472 2624.00007247925 86 65 44
-1270.50268650055 579.583346843719 2631.99996948242 85 64 45
-1268.01908016205 581.730961799622 2641.99995994568 84 63 44
-1265.00880718231 583.660006523132 2651.00002288818 82 64 44
-1264.32597637177 586.69126033783 2664.99996185303 92 73 56
-1266.40129089355 591.044723987579 2684.99994277954 101 82 67
-1384.1210603714 571.9975233078 2625 131 127 116
-1377.80046463013 572.346091270447 2627.00009346008 133 123 111
-1367.82491207123 571.171998977661 2621.99997901917 145 124 103
-1360.99851131439 571.307480335236 2622.99990653992 134 110 86
-1352.62560844421 570.791840553284 2621.00005149841 132 101 73
-1348.89101982117 572.238326072693 2628.00002098084 127 96 67
-1341.0404920578 571.945011615753 2627.00009346008 136 102 74
-1335.2335691452 572.524666786194 2630.00011444092 130 96 68
-1325.88243484497 571.582734584808 2625.99992752075 119 88 60
-1321.07949256897 572.601914405823 2631.00004196167 115 88 61
-1313.75873088837 572.535037994385 2631.00004196167 108 82 57
-1306.44452571869 572.470128536224 2631.00004196167 106 82 56
-1299.13651943207 572.407364845276 2631.00004196167 102 78 52
-1290.3618812561 571.694016456604 2628.00002098084 99 75 51
-1283.56266021729 571.85286283493 2628.99994850159 88 66 43
-1278.22029590607 572.666168212891 2632.99989700317 87 65 42
-1275.75778961182 574.786126613617 2642.99988746643 88 66 45
-1274.68538284302 577.560126781464 2655.99989891052 89 67 46
-1271.63803577423 579.465627670288 2664.99996185303 90 69 48
-1274.23930168152 583.981871604919 2686.00010871887 103 82 63
-1277.2011756897 588.716447353363 2707.99994468689 106 87 72
-1389.28830623627 564.029216766357 2621.00005149841 193 196 189
-1381.92462921143 563.941657543182 2621.00005149841 176 176 166
-1371.42217159271 562.565684318542 2615.00000953674 182 178 167
-1366.69909954071 563.558518886566 2619.99988555908 143 131 117
-1360.91804504395 564.123272895813 2622.99990653992 116 103 87
-1355.64398765564 564.905166625977 2627.00009346008 117 96 77
-1350.86798667908 565.904021263123 2631.99996948242 127 102 80
-1341.98772907257 565.185070037842 2628.99994850159 126 96 72
-1334.65433120728 565.113246440887 2628.99994850159 122 90 65
-1325.81317424774 564.39882516861 2625.99992752075 126 95 67
-1321.51448726654 565.620958805084 2631.99996948242 122 92 66
-1315.19150733948 565.985321998596 2634.0000629425 113 86 59
-1308.86399745941 566.351592540741 2635.99991798401 108 82 55
-1303.51936817169 567.149579524994 2640.00010490417 100 74 47
-1296.19467258453 567.090153694153 2640.00010490417 97 71 46
-1289.36445713043 567.24750995636 2641.00003242493 95 69 46
-1285.44700145721 568.695425987244 2648.00000190735 93 69 45
-1283.42723846436 571.003913879395 2658.99991989136 94 70 46
-1281.3526391983 573.314011096954 2670.00007629395 97 72 50
-1279.22248840332 575.625479221344 2680.99999427795 100 75 53
-1280.83217144012 579.655945301056 2700.00004768372 111 88 70
-1386.02042198181 555.570006370544 2615.00000953674 200 203 196
-1376.03986263275 554.422378540039 2609.99989509583 178 179 171
-1367.14398860931 553.702294826508 2607.00011253357 165 165 155
-1364.53175544739 555.532872676849 2615.9999370575 180 173 163
-1358.76441001892 556.09130859375 2618.99995803833 183 175 164
-1355.05139827728 557.500958442688 2625.99992752075 122 104 90
-1350.28064250946 558.488011360168 2631.00004196167 112 91 74
-1343.95754337311 558.840155601501 2632.99989700317 131 104 83
-1336.61496639252 558.769881725311 2632.99989700317 127 97 73
-1327.2602558136 557.853102684021 2628.99994850159 117 85 60
-1321.44868373871 558.423757553101 2631.99996948242 117 87 61
-1314.62848186493 558.571994304657 2632.99989700317 110 83 56
-1309.79561805725 559.570848941803 2638.00001144409 107 80 53
-1304.44717407227 560.359358787537 2641.99995994568 100 74 47
-1298.59185218811 560.937523841858 2644.99998092651 98 72 47
-1294.19052600861 562.153816223145 2651.00002288818 97 71 46
-1289.76190090179 563.37171792984 2657.00006484985 93 67 44
-1287.71901130676 565.651476383209 2667.99998283386 94 70 46
-1284.6611738205 567.508578300476 2677.00004577637 100 75 53
-1282.99057483673 570.003271102905 2688.99989128113 103 78 56
-1282.68218040466 573.135256767273 2703.9999961853 116 93 75
-1284.18290615082 577.116429805756 2723.00004959106 109 91 77
-1406.00025653839 550.675749778748 2625 205 205 203
-1397.01497554779 549.957811832428 2621.99997901917 216 217 211
-1385.40470600128 548.19393157959 2614.00008201599 210 211 203
-1374.90212917328 546.852171421051 2608.00004005432 175 178 171
-1366.53852462769 546.351730823517 2605.99994659424 160 161 155
-1362.36679553986 547.530770301819 2611.99998855591 165 165 157
-1355.57508468628 547.663629055023 2612.99991607666 137 134 125
-1351.8807888031 549.055993556976 2619.99988555908 148 135 126
-1347.12886810303 550.031125545502 2625 122 106 93
-1342.3558473587 551.008224487305 2630.00011444092 106 85 68
-1336.5466594696 551.568150520325 2632.99989700317 117 92 72
-1329.2133808136 551.501631736755 2632.99989700317 117 89 67
-1323.89485836029 552.275061607361 2637.00008392334 113 87 62
-1316.06435775757 552.00320482254 2635.99991798401 111 87 61
-1308.24601650238 551.733434200287 2634.99999046326 108 84 60
-1301.92029476166 552.093803882599 2637.00008392334 100 76 52
-1298.04456233978 553.502798080444 2644.00005340576 97 73 49
-1294.62420940399 555.12273311615 2651.99995040894 95 71 47
-1290.67993164063 556.534945964813 2658.99991989136 95 71 47
-1287.66798973084 558.367371559143 2667.99998283386 97 72 50
-1285.09175777435 560.410618782043 2677.99997329712 102 77 55
-1284.85143184662 563.501596450806 2693.00007820129 106 81 59
-1280.73883056641 564.92006778717 2700.00004768372 118 97 78
-1283.1951379776 569.269120693207 2720.99995613098 126 110 97
-1409.53528881073 542.119443416595 2618.00003051758 219 219 217
-1401.62658691406 541.823446750641 2617.00010299683 209 209 207
-1392.66622066498 541.115939617157 2614.00008201599 199 200 194
-1382.6709985733 539.996922016144 2608.99996757507 195 196 188
-1373.23939800262 539.087533950806 2605.00001907349 186 191 185
-1366.45948886871 539.215207099915 2605.99994659424 161 166 162
-1362.28966712952 540.379524230957 2611.99998855591 46 50 49
-1354.98142242432 540.30454158783 2611.99998855591 40 42 39
-1349.74420070648 541.059017181396 2615.9999370575 42 39 34
-1343.97912025452 541.608691215515 2618.99995803833 74 65 58
-1339.73526954651 542.780578136444 2625 130 112 98
-1333.94193649292 543.334066867828 2628.00002098084 99 78 61
-1327.6344537735 543.682754039764 2630.00011444092 118 93 73
-1321.82395458221 544.23999786377 2632.99989700317 113 91 68
-1314.50593471527 544.179260730743 2632.99989700317 112 90 66
-1307.69073963165 544.327080249786 2634.0000629425 108 86 63
-1300.87614059448 544.476807117462 2634.99999046326 100 78 55
-1297.00767993927 545.868098735809 2641.99995994568 98 76 53
-1293.59483718872 547.467648983002 2650.00009536743 96 74 51
-1289.65795040131 548.862218856812 2657.00006484985 93 71 48
-1286.6530418396 550.671398639679 2665.99988937378 93 71 50
-1283.60414505005 552.482187747955 2674.99995231628 100 78 57
-1284.32786464691 555.94664812088 2691.99991226196 104 82 61
-1280.2197933197 557.347297668457 2698.99988174438 115 94 77
-1280.79402446747 560.814380645752 2716.00008010864 122 108 97
-1281.2796831131 564.282655715942 2733.00004005432 98 87 81
-1433.25173854828 535.831153392792 2621.00005149841 223 223 221
-1426.39005184174 535.941183567047 2621.99997901917 222 222 220
-1416.28456115723 534.827411174774 2617.00010299683 221 221 219
-1403.52416038513 532.694756984711 2607.00011253357 213 213 211
-1398.86200428009 533.629596233368 2611.99998855591 207 207 205
-1390.45083522797 533.136487007141 2609.99989509583 204 205 199
-1382.58922100067 532.85014629364 2608.99996757507 183 184 178
-1372.10559844971 531.545102596283 2602.9999256134 175 180 176
-1366.38224124908 532.080173492432 2605.99994659424 167 171 170
-1361.17136478424 532.821476459503 2609.99989509583 109 115 115
-1353.87086868286 532.748222351074 2609.99989509583 81 85 86
-1348.12545776367 533.289432525635 2612.99991607666 52 51 47
-1341.34447574615 533.424496650696 2614.00008201599 61 56 50
-1336.09580993652 534.173607826233 2618.00003051758 157 143 132
-1329.81657981873 534.516572952271 2619.99988555908 145 129 114
-1323.02844524384 534.657537937164 2621.00005149841 103 84 67
-1317.74699687958 535.412311553955 2625 104 86 66
-1311.45167350769 535.761117935181 2627.00009346008 102 84 62
-1307.13725090027 536.927342414856 2632.99989700317 101 83 61
-1301.80847644806 537.687540054321 2637.00008392334 98 80 60
-1298.91788959503 539.468765258789 2645.99990844727 94 76 56
-1294.03114318848 540.436208248138 2651.00002288818 91 73 53
-1289.60788249969 541.609108448029 2657.00006484985 91 73 53
-1284.67428684235 542.579770088196 2661.99994087219 93 75 55
-1282.59789943695 544.775009155273 2673.00009727478 103 85 65
-1281.42035007477 547.3792552948 2686.00010871887 105 87 67
-1277.33051776886 548.762142658234 2693.00007820129 111 94 78
-1274.62184429169 550.757825374603 2703.00006866455 113 103 94
-1270.45691013336 552.143752574921 2710.00003814697 128 119 114
-1269.52075958252 554.957330226898 2723.99997711182 147 140 134
-1425.4367351532 518.03594827652 2566.99991226196 226 225 223
-1419.26348209381 518.341779708862 2569.00000572205 226 225 223
-1420.78304290771 521.474123001099 2585.00003814697 223 222 220
-1419.4872379303 523.59926700592 2595.99995613098 216 215 213
-1415.41838645935 524.717748165131 2601.99999809265 214 213 211
-1409.16001796722 525.031745433807 2604.00009155273 212 211 209
-1397.51541614532 523.331940174103 2595.99995613098 208 207 205
-1391.81554317474 523.852229118347 2598.99997711182 206 205 203
-1385.04147529602 523.971438407898 2599.99990463257 192 192 190
-1379.32968139648 524.495959281921 2602.9999256134 194 194 192
-1370.97382545471 524.015128612518 2601.0000705719 178 180 177
-1365.78249931335 524.745225906372 2605.00001907349 174 178 177
-1360.57651042938 525.477290153503 2608.99996757507 175 179 178
-1353.799700737 525.607109069824 2609.99989509583 101 105 104
-1346.50850296021 525.537669658661 2609.99989509583 97 97 95
-1340.2510881424 525.872945785522 2611.99998855591 113 112 108
-1334.49947834015 526.411473751068 2615.00000953674 120 116 107
-1328.73809337616 526.951909065247 2618.00003051758 117 110 100
-1321.45273685455 526.890397071838 2618.00003051758 121 113 102
-1314.6755695343 527.032077312469 2618.99995803833 116 106 94
-1309.89646911621 527.98056602478 2624.00007247925 124 115 100
-1307.57796764374 529.936730861664 2634.0000629425 129 120 105
-1304.22270298004 531.491994857788 2641.99995994568 129 117 103
-1299.35669898987 532.445430755615 2647.0000743866 121 109 95
-1293.49267482758 532.998263835907 2650.00009536743 91 79 65
-1288.1031036377 533.753871917725 2654.00004386902 90 78 64
-1281.73184394836 534.108996391296 2655.99989891052 100 88 74
-1277.7544260025 535.471200942993 2663.00010681152 109 95 82
-1274.22058582306 537.036001682281 2671.0000038147 117 103 90
-1272.545337677 539.406538009644 2683.00008773804 131 119 107
-1268.45121383667 540.773212909698 2690.00005722046 131 122 115
-1264.32359218597 542.141377925873 2697.00002670288 149 142 136
-1261.09457015991 543.913066387177 2706.00008964539 150 145 139
-1263.38028907776 548.098146915436 2726.99999809265 192 191 186
-1274.76596832275 556.303739547729 2767.99988746643 200 201 196
-1435.94789505005 507.308423519135 2546.99993133545 217 219 216
-1429.26108837128 507.405281066895 2548.00009727478 216 215 213
-1428.15923690796 509.495556354523 2559.00001525879 219 218 216
-1424.78358745575 510.791122913361 2565.99998474121 222 221 219
-1417.51062870026 510.695517063141 2565.99998474121 217 216 214
-1415.19343852997 512.393176555634 2575.00004768372 206 205 203
-1411.74066066742 513.694643974304 2582.00001716614 209 208 206
-1406.08203411102 514.202356338501 2585.00003814697 210 209 207
-1400.95591545105 514.911115169525 2588.99998664856 209 208 206
-1392.58599281311 514.428615570068 2586.99989318848 202 201 199
-1388.5201215744 515.539288520813 2592.99993515015 198 197 195
-1382.29787349701 515.856623649597 2595.00002861023 196 196 194
-1377.13217735291 516.573548316956 2598.99997711182 186 188 187
-1368.26252937317 515.901327133179 2595.99995613098 190 192 191
-1362.56313323975 516.423583030701 2598.99997711182 185 187 184
-1357.37586021423 517.146468162537 2602.9999256134 168 170 167
-1352.69272327423 518.070042133331 2608.00004005432 161 163 160
-1345.40915489197 518.002212047577 2608.00004005432 150 151 146
-1338.64605426788 518.135011196136 2608.99996757507 137 138 133
-1334.9461555481 519.461274147034 2615.9999370575 123 122 117
-1329.69129085541 520.193457603455 2619.99988555908 126 126 118
-1322.90720939636 520.331978797913 2621.00005149841 116 113 104
-1314.61787223816 519.876837730408 2618.99995803833 125 121 110
-1310.33957004547 521.011531352997 2625 118 114 103
-1307.02722072601 522.544801235199 2632.99989700317 114 110 99
-1304.66365814209 524.476528167725 2642.99988746643 117 110 100
-1298.32410812378 524.822354316711 2644.99998092651 121 114 104
-1292.46735572815 525.368332862854 2648.00000190735 130 121 112
-1285.62903404236 525.519192218781 2648.9999294281 126 117 108
-1280.23874759674 526.266992092133 2653.00011634827 123 115 104
-1274.8316526413 527.016341686249 2657.00006484985 122 114 103
-1269.88482475281 527.965605258942 2661.99994087219 122 114 103
-1267.28737354279 529.908061027527 2671.99993133545 128 119 110
-1265.11132717133 532.050311565399 2683.00008773804 130 123 117
-1262.41099834442 533.995509147644 2693.00007820129 147 142 138
-1258.26239585876 535.347282886505 2700.00004768372 144 139 135
-1259.17625427246 538.881421089172 2717.99993515015 181 180 175
-1261.83760166168 543.209671974182 2740.00000953674 188 189 184
-1260.2630853653 545.754969120026 2753.00002098084 195 196 191
-1254.52637672424 546.517491340637 2756.99996948242 212 214 209
-1478.81734371185 507.90148973465 2584.00011062622 222 224 221
-1449.79679584503 500.324547290802 2546.0000038147 224 226 223
-1438.00175189972 498.647600412369 2538.00010681152 208 210 207
-1430.77194690704 498.545259237289 2538.00010681152 215 214 212
-1427.47831344604 499.82014298439 2545.00007629395 211 210 208
-1425.27103424072 501.489639282227 2553.99990081787 204 203 201
-1423.02203178406 503.160834312439 2562.99996376038 203 202 200
-1415.75992107391 503.067314624786 2562.99996376038 197 196 194
-1410.70568561554 503.761231899261 2566.99991226196 194 193 191
-1405.09068965912 504.260838031769 2569.9999332428 201 200 198
-1400.55572986603 505.154967308044 2575.00004768372 205 204 202
-1397.08352088928 506.443381309509 2582.00001716614 204 203 201
-1390.35058021545 506.556868553162 2582.99994468689 200 199 197
-1384.69135761261 507.064700126648 2585.99996566772 195 195 195
-1379.02355194092 507.574558258057 2588.99998664856 185 185 187
-1375.46634674072 508.870542049408 2595.99995613098 182 183 185
-1368.18838119507 508.796274662018 2595.99995613098 153 153 153
-1361.9669675827 509.116113185883 2598.00004959106 149 149 147
-1355.74150085449 509.437799453735 2599.99990463257 160 159 155
-1351.0684967041 510.349273681641 2605.00001907349 162 161 156
-1344.31147575378 510.479092597961 2605.99994659424 146 147 141
-1338.06908130646 510.806679725647 2608.00004005432 148 149 144
-1334.37371253967 512.115240097046 2615.00000953674 132 137 131
-1329.6309709549 513.033807277679 2619.99988555908 130 135 131
-1324.36299324036 513.758480548859 2624.00007247925 137 142 138
-1316.56908988953 513.505876064301 2622.99990653992 137 139 134
-1311.28334999084 514.234066009521 2627.00009346008 124 125 119
-1306.47790431976 515.159606933594 2631.99996948242 117 118 112
-1301.65088176727 516.08681678772 2637.00008392334 113 112 107
-1295.32957077026 516.428589820862 2638.99993896484 114 113 108
-1289.49105739594 516.9677734375 2641.99995994568 118 115 110
-1283.64193439484 517.508625984192 2644.99998092651 117 114 109
-1279.22916412354 518.638014793396 2651.00002288818 120 117 110
-1273.3496427536 519.182145595551 2654.00004386902 119 116 109
-1268.88990402222 520.314633846283 2660.00008583069 118 113 107
-1264.8766040802 521.644234657288 2667.00005531311 118 113 109
-1263.65876197815 524.148762226105 2680.0000667572 127 122 118
-1260.49935817719 525.87229013443 2688.99989128113 143 139 136
-1257.29548931122 527.59724855423 2697.99995422363 146 142 139
-1256.82640075684 530.496835708618 2713.00005912781 170 169 164
-1257.66086578369 533.984184265137 2730.99994659424 177 178 172
-1256.11245632172 536.49514913559 2743.99995803833 185 186 180
-1248.5818862915 536.465883255005 2743.99995803833 188 190 185
-1244.67384815216 538.002014160156 2752.00009346008 194 196 193
-1242.07484722137 540.126025676727 2763.00001144409 204 206 205
-1244.33445930481 544.401586055756 2785.00008583069 208 210 209
-1461.94231510162 492.767602205276 2542.00005531311 223 225 222
-1451.81155204773 491.69060587883 2536.99994087219 204 206 203
-1444.56672668457 491.585433483124 2536.99994087219 180 182 179
-1437.33251094818 491.482824087143 2536.99994087219 182 184 181
-1432.36291408539 492.157369852066 2540.99988937378 203 203 201
-1427.38032341003 492.834001779556 2545.00007629395 201 200 198
-1421.26893997192 493.125587701797 2546.99993133545 197 196 194
-1417.37651824951 494.193732738495 2552.99997329712 197 196 194
-1411.80229187012 494.683146476746 2555.99999427795 192 191 189
-1406.76987171173 495.368152856827 2559.99994277954 188 187 185
-1399.53684806824 495.281308889389 2559.99994277954 194 193 191
-1394.48833465576 495.970517396927 2563.99989128113 202 201 199
-1391.58999919891 497.435301542282 2572.00002670288 204 203 201
-1388.65518569946 498.901814222336 2579.99992370605 198 197 195
-1383.54218006134 499.596625566483 2584.00011062622 187 187 187
-1378.94713878632 500.486731529236 2588.99998664856 179 179 181
-1375.39184093475 501.765191555023 2595.99995613098 170 170 170
-1369.17018890381 502.079129219055 2598.00004959106 175 175 175
-1360.84794998169 501.622080802917 2595.99995613098 167 166 164
-1354.10892963409 501.746833324432 2596.99988365173 177 176 172
-1348.4091758728 502.259969711304 2599.99990463257 156 155 150
-1342.18370914459 502.581715583801 2601.99999809265 153 154 148
-1336.46738529205 503.098547458649 2605.00001907349 150 151 146
-1333.29248428345 504.582703113556 2612.99991607666 139 144 138
-1329.06484603882 505.682289600372 2618.99995803833 134 139 135
-1324.30589199066 506.590485572815 2624.00007247925 130 135 131
-1316.51413440704 506.341993808746 2622.99990653992 134 136 131
-1312.22808361053 507.446646690369 2628.99994850159 130 132 127
-1305.9298992157 507.780849933624 2631.00004196167 130 132 127
-1300.61376094818 508.502781391144 2634.99999046326 128 129 124
-1294.29984092712 508.840501308441 2637.00008392334 121 122 117
-1287.98055648804 509.179770946503 2638.99993896484 119 118 114
-1282.14132785797 509.713768959045 2641.99995994568 116 115 111
-1277.73857116699 510.828077793121 2648.00000190735 116 115 110
-1273.30815792084 511.943817138672 2654.00004386902 117 116 111
-1269.80412006378 513.446927070618 2661.99994087219 122 119 114
-1264.83833789825 514.372766017914 2667.00005531311 125 122 117
-1262.67898082733 516.457319259644 2677.99997329712 128 124 121
-1258.58902931213 517.77172088623 2684.99994277954 136 132 129
-1255.86366653442 519.666135311127 2694.9999332428 136 135 131
-1254.47773933411 522.140264511108 2707.99994468689 153 152 147
-1252.56431102753 524.422883987427 2720.00002861023 164 165 159
-1250.13208389282 526.513934135437 2730.99994659424 177 179 174
-1243.54875087738 526.87132358551 2733.00004005432 178 180 175
-1240.57674407959 528.772354125977 2743.00003051758 179 181 178
-1234.85708236694 529.518067836761 2746.99997901917 181 183 180
-1231.35364055634 531.229019165039 2756.00004196167 185 187 184
-1227.8048992157 532.941162586212 2765.00010490417 196 198 195
-1228.18267345428 536.389350891113 2782.99999237061 212 214 211
-1226.27282142639 538.875043392181 2796.0000038147 218 220 217
-1479.88557815552 487.147092819214 2548.00009727478 213 215 212
-1458.13119411469 482.257336378098 2523.00000190735 226 228 225
-1451.48289203644 482.34099149704 2523.9999294281 212 214 211
-1443.69530677795 482.044965028763 2523.00000190735 202 204 201
-1442.18647480011 483.852714300156 2532.99999237061 178 180 177
-1437.23213672638 484.516263008118 2536.99994087219 166 168 165
-1432.26480484009 485.181868076324 2540.99988937378 184 184 182
-1425.04119873047 485.085994005203 2540.99988937378 198 198 196
-1416.15390777588 484.419941902161 2538.00010681152 180 180 178
-1410.62331199646 484.901338815689 2540.99988937378 171 171 169
-1406.74221515656 485.957264900208 2546.99993133545 195 195 193
-1405.03442287445 487.778156995773 2556.99992179871 192 192 190
-1397.81200885773 487.693250179291 2556.99992179871 188 188 186
-1391.68655872345 487.992018461227 2559.00001525879 173 173 171
-1385.55812835693 488.292872905731 2561.00010871887 180 180 178
-1383.19444656372 489.930212497711 2569.9999332428 189 189 187
-1378.11136245728 490.616053342819 2573.99988174438 178 178 176
-1374.61173534393 491.87558889389 2581.00008964539 170 170 168
-1372.14028835297 493.517935276031 2589.99991416931 177 177 175
-1367.51842498779 494.399756193161 2595.00002861023 179 179 177
-1359.73119735718 494.140446186066 2594.00010108948 178 178 176
-1351.95684432983 493.883162736893 2592.99993515015 177 178 173
-1345.75140476227 494.199216365814 2595.00002861023 165 166 161
-1340.57343006134 494.898021221161 2598.99997711182 161 162 157
-1335.38055419922 495.598644018173 2602.9999256134 156 157 152
-1332.72314071655 497.252762317657 2611.99998855591 147 148 142
-1327.99255847931 498.14710021019 2617.00010299683 143 144 138
-1321.22218608856 498.281687498093 2618.00003051758 137 138 132
-1314.95475769043 498.608380556107 2619.99988555908 132 133 128
-1309.68058109283 499.317467212677 2624.00007247925 127 128 123
-1303.89428138733 499.837905168533 2627.00009346008 128 129 124
-1298.09737205505 500.360071659088 2630.00011444092 130 131 126
-1291.79906845093 500.693619251251 2631.99996948242 126 127 122
-1285.9833240509 501.219034194946 2634.99999046326 122 123 118
-1281.12745285034 502.126514911652 2640.00010490417 122 123 118
-1276.73161029816 503.225564956665 2645.99990844727 119 120 115
-1273.26798439026 504.706561565399 2654.00004386902 117 118 113
-1270.24245262146 506.379067897797 2663.00010681152 117 118 113
-1266.2239074707 507.672786712646 2670.00007629395 118 119 114
-1262.17186450958 508.967816829681 2677.00004577637 124 125 120
-1256.68013095856 509.693920612335 2680.99999427795 129 130 125
-1253.96704673767 511.562168598175 2690.99998474121 134 135 130
-1252.13027000427 513.811826705933 2703.00006866455 140 141 136
-1247.92969226837 515.112400054932 2710.00003814697 148 149 144
-1244.61054801941 516.794502735138 2719.00010108948 158 159 154
-1240.33665657043 518.097758293152 2726.0000705719 162 163 158
-1236.93311214447 519.782483577728 2734.99989509583 167 168 163
-1229.88831996918 519.948244094849 2736.00006103516 178 179 174
-1225.07584095001 521.065473556519 2742.00010299683 187 188 183
-1221.5667963028 522.754192352295 2750.99992752075 206 207 202
-1219.77758407593 525.204181671143 2763.99993896484 202 202 200
-1217.92101860046 527.655422687531 2776.99995040894 208 208 206
-1215.12544155121 529.727876186371 2788.00010681152 207 207 205
-1209.24162864685 530.471563339233 2792.00005531311 208 208 206
-1207.64303207397 533.116340637207 2805.99999427795 220 220 218
-1460.60919761658 473.922610282898 2515.00010490417 217 219 216
-1453.40061187744 473.815202713013 2515.00010490417 208 210 207
-1444.4774389267 473.145186901093 2512.00008392334 197 199 196
-1437.29877471924 473.042845726013 2512.00008392334 187 189 186
-1433.54606628418 474.072515964508 2517.99988746643 171 173 170
-1430.33623695374 475.292503833771 2525.00009536743 158 160 157
-1425.96876621246 476.137846708298 2529.99997138977 167 167 165
-1420.46129703522 476.608872413635 2532.99999237061 169 169 167
-1412.71483898163 476.329535245895 2532.00006484985 182 182 180
-1404.98328208923 476.052522659302 2530.99989891052 174 174 172
-1400.58028697968 476.906210184097 2536.00001335144 215 215 213
-1400.55358409882 479.26589846611 2549.00002479553 194 194 192
-1394.99616622925 479.747116565704 2552.00004577637 196 196 194
-1388.88680934906 480.042308568954 2553.99990081787 167 167 165
-1381.15155696869 479.775846004486 2552.99997329712 192 192 190
-1377.73585319519 481.01469874382 2559.99994277954 196 196 194
-1373.21841716766 481.879502534866 2565.00005722046 177 177 175
-1369.74596977234 483.12184214592 2572.00002670288 167 167 165
-1366.77181720734 484.553605318069 2579.99992370605 170 170 168
-1362.17999458313 485.423654317856 2585.00003814697 173 173 171
-1355.99493980408 485.732108354568 2586.99989318848 175 175 173
-1350.84915161133 486.418008804321 2591.00008010864 173 174 169
-1345.68846225739 487.10560798645 2595.00002861023 164 165 160
-1340.5122756958 487.7949655056 2598.99997711182 160 161 156
-1335.32094955444 488.486051559448 2602.9999256134 150 151 146
-1331.64489269257 489.741742610931 2609.99989509583 148 149 143
-1324.89204406738 489.873379468918 2611.00006103516 145 146 140
-1318.14014911652 490.00671505928 2611.99998855591 136 137 131
-1311.38932704926 490.141898393631 2612.99991607666 132 133 128
-1307.13450908661 491.216599941254 2618.99995803833 129 130 125
-1301.36382579803 491.73030257225 2621.99997901917 130 131 126
-1297.55651950836 492.995619773865 2628.99994850159 131 132 127
-1291.26274585724 493.324965238571 2631.00004196167 126 127 122
-1285.45153141022 493.843466043472 2634.0000629425 124 125 120
-1278.65886688232 493.988513946533 2634.99999046326 124 125 120
-1275.24352073669 495.447427034378 2642.99988746643 122 123 118
-1272.26936817169 497.095197439194 2651.99995040894 119 120 115
-1270.68185806274 499.306678771973 2664.00003433228 117 118 113
-1266.66212081909 500.582277774811 2671.0000038147 117 118 113
-1262.6086473465 501.859307289124 2677.99997329712 122 123 118
-1256.64687156677 502.388179302216 2680.99999427795 129 130 125
-1253.46946716309 504.04280424118 2690.00005722046 129 130 125
-1249.78387355804 505.511343479156 2697.99995422363 138 139 134
-1243.75641345978 506.044447422028 2700.99997520447 144 145 140
-1239.09044265747 507.14099407196 2707.00001716614 154 155 150
-1236.67061328888 509.175598621368 2717.99993515015 156 157 152
-1233.74271392822 511.024117469788 2727.9999256134 160 161 156
-1227.61738300323 511.562705039978 2730.99994659424 158 159 154
-1221.03321552277 511.915385723114 2733.00004005432 153 154 149
-1216.21787548065 513.018608093262 2739.00008201599 146 147 142
-1213.13893795013 514.872193336487 2749.00007247925 144 144 142
-1209.13183689117 516.352534294128 2756.99996948242 195 195 193
-1204.64873313904 517.646789550781 2763.99993896484 210 210 208
-1199.69797134399 518.755078315735 2769.99998092651 198 198 196
-1194.71776485443 519.864559173584 2776.00002288818 205 205 203
-1192.27409362793 522.09883928299 2788.00010681152 199 199 197
-1193.59254837036 526.019692420959 2809.00001525879 218 218 216
-1463.04976940155 465.630918741226 2506.99996948242 225 227 224
-1458.75942707062 466.452032327652 2512.00008392334 210 212 209
-1452.71754264832 466.718226671219 2513.99993896484 204 206 203
-1444.37503814697 466.24431014061 2512.00008392334 194 196 193
-1434.33797359467 465.216219425201 2506.99996948242 182 184 181
-1429.46326732636 465.860694646835 2510.99991798401 170 172 169
-1424.57604408264 466.507256031036 2515.00010490417 157 159 156
-1421.36645317078 467.712163925171 2522.0000743866 160 160 158
-1414.76249694824 467.806369066238 2523.00000190735 171 171 169
-1408.16247463226 467.902809381485 2523.9999294281 173 173 171
-1401.56602859497 468.001484870911 2525.00009536743 170 170 168
-1397.73416519165 469.028770923615 2530.99989891052 185 185 183
-1395.52581310272 470.613718032837 2539.99996185303 145 145 143
-1391.08908176422 471.459329128265 2545.00007629395 194 194 192
-1384.45782661438 471.565842628479 2546.0000038147 186 186 184
-1376.74736976624 471.304059028625 2545.00007629395 194 194 192
-1371.74153327942 471.970200538635 2549.00002479553 191 191 189
-1367.79224872589 473.008453845978 2555.0000667572 190 190 188
-1365.94724655151 474.788874387741 2565.00005722046 160 160 158
-1363.5241985321 476.385563611984 2573.99988174438 155 155 153
-1357.89716243744 476.87354683876 2576.99990272522 163 163 161
-1354.35736179352 478.103488683701 2584.00011062622 176 176 174
-1349.22170639038 478.779971599579 2588.00005912781 177 178 173
-1344.58959102631 479.643225669861 2592.99993515015 167 168 163
-1338.90521526337 480.138182640076 2595.99995613098 161 162 157
-1335.26301383972 481.374621391296 2602.9999256134 151 152 147
-1330.05821704865 482.057988643646 2607.00011253357 150 151 145
-1322.30043411255 481.818437576294 2605.99994659424 149 150 144
-1315.05978107452 481.765657663345 2605.99994659424 140 141 135
-1308.82918834686 482.084423303604 2608.00004005432 136 137 132
-1304.58998680115 483.144134283066 2614.00008201599 131 132 127
-1299.33106899261 483.835786581039 2618.00003051758 130 131 126
-1294.54934597015 484.713733196259 2622.99990653992 130 131 126
-1288.27381134033 485.038906335831 2625 129 130 125
-1283.94484519959 486.104786396027 2631.00004196167 124 125 120
-1278.13267707825 486.617833375931 2634.0000629425 124 125 120
-1274.72174167633 488.056123256683 2641.99995994568 124 125 120
-1270.79224586487 489.311009645462 2648.9999294281 122 123 118
-1268.73743534088 491.306155920029 2660.00008583069 119 120 115
-1264.73021507263 492.563813924789 2667.00005531311 119 120 115
-1261.16073131561 494.007557630539 2674.99995231628 119 120 115
-1255.67758083344 494.713962078094 2678.99990081787 127 128 123
-1252.0409822464 496.160417795181 2687.00003623962 123 124 119
-1246.51217460632 496.869593858719 2690.99998474121 136 137 132
-1242.34735965729 498.134076595306 2697.99995422363 140 141 136
-1238.14857006073 499.399900436401 2704.99992370605 142 143 138
-1234.82573032379 501.03622674942 2713.99998664856 144 145 140
-1229.64894771576 501.935482025146 2719.00010108948 142 143 138
-1223.10018539429 502.282202243805 2720.99995613098 137 138 133
-1217.43810176849 502.999484539032 2724.99990463257 133 134 129
-1212.20207214355 503.902614116669 2730.00001907349 134 135 130
-1207.82518386841 505.176246166229 2736.99998855591 131 131 129
-1202.53646373749 506.081998348236 2742.00010299683 141 141 139
-1198.53150844574 507.542610168457 2750 138 138 136
-1194.05329227448 508.819818496704 2756.99996948242 129 129 127
-1189.54014778137 510.098338127136 2763.99993896484 173 173 171
-1186.70284748077 512.116193771362 2775.00009536743 197 197 195
-1185.08338928223 514.688789844513 2789.00003433228 188 188 186
-1191.41244888306 520.768880844116 2822.00002670288 195 195 193
-1488.32404613495 464.520394802094 2538.00010681152 210 212 209
-1467.61071681976 460.202783346176 2515.00010490417 214 216 213
-1459.23483371735 459.731370210648 2513.00001144409 198 200 197
-1452.61454582214 459.811300039291 2513.99993896484 194 196 193
-1445.4243183136 459.710717201233 2513.99993896484 190 192 189
-1439.38899040222 459.978133440018 2516.00003242493 171 173 170
-1428.22921276093 458.602756261826 2509.0000629425 159 161 158
-1421.65064811707 458.692133426666 2509.99999046326 150 152 149
-1416.76676273346 459.331899881363 2513.99993896484 145 145 143
-1412.9912853241 460.338979959488 2519.99998092651 158 158 156
-1408.07545185089 460.982590913773 2523.9999294281 173 173 171
-1401.4812707901 461.080372333527 2525.00009536743 171 171 169
-1397.6514339447 462.093055248261 2530.99989891052 130 130 128
-1391.5992975235 462.377399206162 2532.99999237061 134 134 132
-1384.99796390533 462.481170892715 2533.99991989136 147 147 145
-1378.3997297287 462.587058544159 2535.00008583069 162 162 160
-1371.80435657501 462.694942951202 2536.00001335144 183 183 181
-1367.90192127228 463.716924190521 2542.00005531311 193 193 191
-1363.43884468079 464.558154344559 2546.99993133545 188 188 186
-1362.1506690979 466.495394706726 2558.00008773804 159 159 157
-1359.74895954132 468.069285154343 2566.99991226196 149 149 147
-1355.72409629822 469.09773349762 2572.99995422363 159 159 157
-1351.14896297455 469.945549964905 2578.00006866455 175 175 173
-1348.1171131134 471.341818571091 2585.99996566772 176 177 172
-1342.45550632477 471.828401088715 2588.99998664856 167 168 163
-1337.81552314758 472.681194543839 2594.00010108948 162 163 158
-1332.6416015625 473.353326320648 2598.00004959106 150 151 146
-1327.45242118835 474.027156829834 2601.99999809265 148 149 143
-1320.21796703339 473.974019289017 2601.99999809265 144 145 139
-1312.99030780792 473.922669887543 2601.99999809265 141 142 136
-1308.7797164917 474.965810775757 2608.00004005432 138 139 134
-1305.0411939621 476.192504167557 2615.00000953674 133 134 129
-1300.27735233307 477.056443691254 2619.99988555908 131 132 127
-1294.50488090515 477.557867765427 2622.99990653992 130 131 126
-1288.23089599609 477.878838777542 2625 130 131 126
-1284.87932682037 479.293465614319 2632.99989700317 124 125 120
-1278.09286117554 479.435503482819 2634.0000629425 125 126 121
-1273.71847629547 480.489045381546 2640.00010490417 124 125 120
-1268.83661746979 481.362015008926 2644.99998092651 122 123 118
-1266.31712913513 483.146280050278 2654.99997138977 121 122 117
-1262.32516765594 484.385967254639 2661.99994087219 122 123 118
-1258.2995891571 485.626995563507 2668.99991035461 120 121 116
-1254.2405128479 486.869424581528 2676.00011825562 126 127 122
-1249.21548366547 487.749218940735 2680.99999427795 123 124 119
-1243.7047958374 488.448560237885 2684.99994277954 135 136 131
-1239.55762386322 489.694952964783 2691.99991226196 139 140 135
-1235.83459854126 491.12457036972 2700.00004768372 133 134 129
-1231.61685466766 492.373585700989 2707.00001716614 137 138 133
-1225.55613517761 492.896378040314 2710.00003814697 141 142 137
-1218.58382225037 493.056654930115 2710.99996566772 138 139 134
-1214.29073810577 494.309514760971 2717.99993515015 136 137 132
-1209.51914787292 495.381772518158 2723.99997711182 139 140 135
-1205.16002178192 496.637135744095 2730.99994659424 144 144 142
-1200.32739639282 497.71186709404 2736.99998855591 137 137 135
-1195.90151309967 498.969614505768 2743.99995803833 141 141 139
-1192.30723381042 500.592291355133 2753.00002098084 125 125 123
-1186.51509284973 501.30695104599 2756.99996948242 146 146 144
-1183.27057361603 503.113746643066 2766.99995994568 199 199 197
-1180.82439899445 505.285441875458 2779.00004386902 197 197 195
-1181.27107620239 508.730888366699 2798.00009727478 201 201 199
-1182.45613574982 512.541055679321 2819.00000572205 193 193 191
-1464.75994586945 450.331538915634 2497.99990653992 213 215 212
-1464.0040397644 452.209085226059 2509.0000629425 209 211 208
-1459.71238613129 453.006982803345 2513.99993896484 194 196 193
-1451.35831832886 452.545762062073 2512.00008392334 191 193 190
-1445.90103626251 452.987730503082 2515.00010490417 189 191 188
-1438.72106075287 452.89158821106 2515.00010490417 168 170 167
-1429.27408218384 452.077507972717 2510.99991798401 157 159 156
-1420.9930896759 451.626092195511 2509.0000629425 150 152 149
-1415.55058956146 452.076852321625 2512.00008392334 147 147 145
-1411.78286075592 453.069478273392 2517.99988746643 149 149 147
-1407.43267536163 453.883945941925 2523.00000190735 169 169 167
-1401.39842033386 454.160690307617 2525.00009536743 160 160 158
-1398.67496490479 455.518454313278 2532.99999237061 133 133 131
-1391.52050018311 455.439358949661 2532.99999237061 131 131 129
-1385.46776771545 455.722004175186 2535.00008583069 139 139 137
-1376.15013122559 454.928070306778 2530.99989891052 144 144 142
-1369.56799030304 455.035001039505 2532.00006484985 173 173 171
-1365.14043807983 455.862611532211 2536.99994087219 178 178 176
-1360.15808582306 456.512272357941 2540.99988937378 184 184 182
-1356.75847530365 457.70263671875 2548.00009727478 160 160 158
-1354.91633415222 459.433317184448 2558.00008773804 145 145 143
-1351.44531726837 460.626691579819 2565.00005722046 156 156 154
-1346.37010097504 461.282908916473 2569.00000572205 175 175 173
-1341.27986431122 461.940914392471 2572.99995422363 176 177 172
-1338.24908733368 463.31861615181 2581.00008964539 164 165 160
-1335.18016338348 464.6977186203 2588.99998664856 159 160 155
-1331.0478925705 465.719401836395 2595.00002861023 146 147 142
-1324.84817504883 466.024845838547 2596.99988365173 142 143 137
-1318.1369304657 466.152548789978 2598.00004959106 140 141 135
-1311.4265203476 466.281980276108 2598.99997711182 140 141 135
-1307.72769451141 467.489391565323 2605.99994659424 136 137 132
-1305.992603302 469.415783882141 2617.00010299683 136 137 132
-1301.72121524811 470.446646213531 2622.99990653992 136 137 132
-1294.46136951447 470.402956008911 2622.99990653992 132 133 128
-1286.22603416443 470.002323389053 2621.00005149841 129 130 125
-1282.39929676056 471.217125654221 2628.00002098084 129 130 125
-1276.59845352173 471.716105937958 2631.00004196167 129 130 125
-1270.78640460968 472.216576337814 2634.0000629425 125 126 121
-1266.88206195831 473.435610532761 2641.00003242493 123 124 119
-1263.89825344086 475.014507770538 2650.00009536743 124 125 120
-1261.34395599365 476.773917675018 2660.00008583069 125 126 121
-1256.38234615326 477.638393640518 2664.99996185303 125 126 121
-1251.86681747437 478.68350148201 2671.0000038147 124 125 120
-1246.39129638672 479.371577501297 2674.99995231628 125 126 121
-1240.8983707428 480.060964822769 2678.99990081787 131 132 127
-1237.69009113312 481.64764046669 2687.99996376038 134 135 130
-1234.89475250244 483.414769172668 2697.99995422363 136 137 132
-1230.22878170013 484.466373920441 2703.9999961853 135 136 131
-1222.82087802887 484.444320201874 2703.9999961853 136 137 132
-1217.21494197845 485.140234231949 2707.99994468689 137 138 133
-1212.03780174255 486.016631126404 2713.00005912781 135 136 131
-1209.05733108521 487.789869308472 2723.00004959106 132 133 128
-1202.49557495117 488.131284713745 2724.99990463257 135 135 133
-1198.55797290802 489.548712968826 2733.00004005432 140 140 138
-1194.57995891571 490.967273712158 2740.9999370575 163 163 161
-1190.12892246246 492.207944393158 2747.99990653992 129 129 127
-1183.92133712769 492.733299732208 2750.99992752075 112 112 110
-1178.98368835449 493.797153234482 2756.99996948242 132 132 130
-1174.86619949341 495.220392942429 2765.00010490417 151 151 149
-1173.24137687683 497.719347476959 2779.00004386902 162 162 160
-1172.8013753891 500.756680965424 2796.0000038147 177 177 175
-1178.52294445038 506.481528282166 2828.00006866455 172 172 170
-1462.41080760956 440.72961807251 2482.00011253357 212 214 211
-1466.41385555267 443.997979164124 2500.99992752075 207 209 206
-1460.98339557648 444.42743062973 2503.99994850159 205 207 204
-1456.12776279449 445.036500692368 2507.99989700317 179 181 178
-1450.68192481995 445.470184087753 2510.99991798401 184 186 183
-1442.3553943634 445.019155740738 2509.0000629425 177 179 176
-1437.48295307159 445.634603500366 2513.00001144409 163 165 162
-1428.04431915283 444.83357667923 2509.0000629425 149 151 148
-1421.4700460434 444.921433925629 2509.99999046326 147 149 146
-1414.33644294739 444.834202528 2509.99999046326 149 149 147
-1412.25838661194 446.343928575516 2519.00005340576 137 137 135
-1406.23390674591 446.615010499954 2520.99990844727 169 169 167
-1400.76231956482 447.065263986588 2523.9999294281 158 158 156
-1395.83504199982 447.694540023804 2528.00011634827 155 155 153
-1389.79542255402 447.971493005753 2529.99997138977 152 152 150
-1381.56700134277 447.542279958725 2528.00011634827 130 130 128
-1373.35872650146 447.115212678909 2526.00002288818 145 145 143
-1367.87414550781 447.575122117996 2529.00004386902 143 143 141
-1363.45720291138 448.390781879425 2533.99991989136 159 159 157
-1357.94961452484 448.854178190231 2536.99994087219 191 191 189
-1353.49810123444 449.673295021057 2542.00005531311 149 149 147
-1349.55596923828 450.670808553696 2548.00009727478 138 138 136
-1347.16820716858 452.200502157211 2556.99992179871 160 160 158
-1340.54505825043 452.317029237747 2558.00008773804 182 182 180
-1338.6150598526 454.02655005455 2568.00007820129 177 178 173
-1334.56254005432 455.030292272568 2573.99988174438 158 159 154
-1334.60903167725 457.449704408646 2588.00005912781 150 151 146
-1329.45549488068 458.102911710739 2592.00000762939 139 140 135
-1323.77624511719 458.58097076416 2595.00002861023 140 141 135
-1316.05732440948 458.353847265244 2594.00010108948 138 139 133
-1308.85529518127 458.305269479752 2594.00010108948 134 135 129
-1305.67371845245 459.671527147293 2601.99999809265 139 140 135
-1303.95102500916 461.56919002533 2612.99991607666 140 141 136
-1298.69985580444 462.23172545433 2617.00010299683 138 139 134
-1291.95165634155 462.36589550972 2618.00003051758 135 136 131
-1283.73181819916 461.971879005432 2615.9999370575 132 133 128
-1279.43229675293 462.992191314697 2621.99997901917 129 130 125
-1274.13487434387 463.66074681282 2625.99992752075 129 130 125
-1270.26784420013 464.860379695892 2632.99989700317 125 126 121
-1266.84749126434 466.237932443619 2641.00003242493 126 127 122
-1263.86487483978 467.79328584671 2650.00009536743 126 127 122
-1260.83779335022 469.349890947342 2658.99991989136 121 122 117
-1254.93764877319 469.84875202179 2661.99994087219 124 125 120
-1249.49443340302 470.525562763214 2665.99988937378 125 126 121
-1242.17021465302 470.497727394104 2665.99988937378 125 126 121
-1237.62989044189 471.530199050903 2671.99993133545 128 129 124
-1234.44211483002 473.093330860138 2680.99999427795 132 133 128
-1232.58256912231 475.187003612518 2693.00007820129 133 134 129
-1227.93173789978 476.223170757294 2698.99988174438 133 134 129
-1220.53873538971 476.201921701431 2698.99988174438 137 138 133
-1214.94793891907 476.887881755829 2703.00006866455 142 143 138
-1208.89222621918 477.398544549942 2706.00008964539 139 140 135
-1204.6000957489 478.616118431091 2713.00005912781 131 132 127
-1199.39076900482 479.482084512711 2717.99993515015 132 132 130
-1195.47343254089 480.878502130508 2726.0000705719 152 152 150
-1191.5158033371 482.276022434235 2733.99996757507 140 140 138
-1186.2188577652 483.145534992218 2739.00008201599 168 168 166
-1180.89783191681 484.016209840775 2743.99995803833 111 111 109
-1176.83565616608 485.417246818542 2752.00009346008 117 117 115
-1171.45824432373 486.290127038956 2756.99996948242 134 134 132
-1168.16759109497 488.046109676361 2766.99995994568 143 143 141
-1166.9225692749 490.685045719147 2782.00006484985 177 177 175
-1169.34931278229 494.912475347519 2805.99999427795 160 160 158
-1472.32186794281 436.878859996796 2499.00007247925 209 211 208
-1466.89701080322 437.300086021423 2502.00009346008 206 208 205
-1456.79879188538 436.325490474701 2496.99997901917 202 204 201
-1451.38478279114 436.751246452332 2500 177 179 176
-1445.38640975952 437.004446983337 2502.00009346008 179 181 178
-1437.66260147095 436.735868453979 2500.99992752075 177 179 176
-1431.67114257813 436.993420124054 2503.00002098084 159 161 158
-1426.24747753143 437.427639961243 2506.00004196167 150 152 149
-1420.81665992737 437.863826751709 2509.0000629425 147 149 146
-1415.37833213806 438.30195069313 2512.00008392334 146 146 144
-1411.6142988205 439.265340566635 2517.99988746643 139 139 137
-1405.03716468811 439.358443021774 2519.00005340576 166 166 164
-1398.46336841583 439.453572034836 2519.99998092651 150 150 148
-1391.89279079437 439.550697803497 2520.99990844727 141 141 139
-1386.97361946106 440.172791481018 2525.00009536743 140 140 138
-1380.4007768631 440.273702144623 2526.00002288818 129 129 127
-1373.83115291595 440.376669168472 2526.99995040894 132 132 130
-1366.1824464798 440.132975578308 2526.00002288818 155 155 153
-1359.08544063568 440.065532922745 2526.00002288818 180 180 178
-1353.06715965271 440.348386764526 2528.00011634827 185 185 183
-1350.77214241028 441.852122545242 2536.99994087219 139 139 137
-1347.37503528595 443.008989095688 2543.99991035461 132 132 130
-1343.41990947723 443.993330001831 2549.99995231628 156 156 154
-1337.34214305878 444.28277015686 2552.00004577637 187 187 185
-1335.95168590546 446.140557527542 2562.99996376038 180 181 176
-1331.91478252411 447.129458189011 2569.00000572205 153 154 149
-1328.88281345367 448.467910289764 2576.99990272522 145 146 141
-1324.78725910187 449.459761381149 2582.99994468689 130 131 126
-1319.64468955994 450.10507106781 2586.99989318848 131 132 126
-1312.96455860138 450.230121612549 2588.00005912781 137 138 132
-1306.28526210785 450.356751680374 2588.99998664856 137 138 132
-1302.61719226837 451.528578996658 2595.99995613098 139 140 135
-1299.91471767426 453.049689531326 2605.00001907349 139 140 135
-1296.17583751678 454.224288463593 2611.99998855591 136 137 132
-1289.44337368011 454.356968402863 2612.99991607666 135 136 131
-1282.71114826202 454.491287469864 2614.00008201599 134 135 130
-1277.44269371033 455.148637294769 2618.00003051758 127 128 123
-1273.6132144928 456.328868865967 2625 128 129 124
-1270.23279666901 457.684248685837 2632.99989700317 126 127 122
-1266.8137550354 459.041059017181 2641.00003242493 127 128 123
-1262.87889480591 460.225254297256 2648.00000190735 127 128 123
-1260.33282279968 461.932122707367 2657.99999237061 123 124 119
-1254.4367313385 462.423801422119 2661.00001335144 125 126 121
-1248.06046485901 462.743073701859 2663.00010681152 125 126 121
-1240.74602127075 462.716221809387 2663.00010681152 125 126 121
-1235.75186729431 463.559478521347 2667.99998283386 128 129 124
-1233.49714279175 465.446412563324 2678.99990081787 131 132 127
-1231.18674755096 467.334598302841 2690.00005722046 132 133 128
-1227.00047492981 468.52895617485 2697.00002670288 133 134 129
-1220.0665473938 468.682289123535 2697.99995422363 137 138 133
-1214.03002738953 469.184309244156 2700.99997520447 142 143 138
-1206.64095878601 469.166487455368 2700.99997520447 141 142 137
-1201.47585868835 470.018476247787 2706.00008964539 136 137 132
-1196.2867975235 470.871567726135 2710.99996566772 135 135 133
-1191.95115566254 472.07322716713 2717.99993515015 149 149 147
-1187.14511394501 473.102360963821 2723.99997711182 140 140 138
-1182.74259567261 474.306255578995 2730.99994659424 161 161 159
-1177.87492275238 475.337654352188 2736.99998855591 129 129 127
-1172.97768592834 476.370185613632 2743.00003051758 110 110 108
-1167.62602329254 477.230131626129 2747.99990653992 118 118 116
-1162.25016117096 478.091180324554 2753.00002098084 149 149 147
-1161.04423999786 480.689913034439 2767.99988746643 169 169 167
-1163.09356689453 484.678983688354 2790.99988937378 161 161 159
-1171.23055458069 491.273909807205 2828.9999961853 187 187 185
-1475.16417503357 430.871367454529 2503.99994850159 208 210 207
-1463.2785320282 429.393947124481 2496.00005149841 207 209 206
-1459.61725711823 430.327415466309 2502.00009346008 195 197 194
-1451.28846168518 429.887026548386 2500 173 175 172
-1447.02529907227 430.652529001236 2505.00011444092 172 174 171
-1439.29529190063 430.388599634171 2503.99994850159 180 182 179
-1433.29739570618 430.642545223236 2506.00004196167 156 158 155
-1426.72896385193 430.726736783981 2506.99996948242 143 145 142
-1420.73106765747 430.984795093536 2509.0000629425 145 147 144
-1415.29476642609 431.416541337967 2512.00008392334 148 148 146
-1409.85119342804 431.850254535675 2515.00010490417 142 142 140
-1402.16886997223 431.599110364914 2513.99993896484 149 149 147
