ply
format ascii 1.0
comment KinectMotionCapture
element vertex 751
property float x
property float y
property float z
property uchar red
property uchar green
property uchar blue
end_header
-1267.65993069991 343.073521508049 2865.81156544383 196 199 204
-1274.61290970378 342.603701853283 2864.94511202307 169 172 177
-1281.56507696345 342.133695022513 2864.07876039612 158 161 166
-1288.39078980206 341.220224689829 2865.24473157505 150 153 158
-1295.40173851664 340.971934219203 2863.3627733897 204 208 211
-1302.69041767146 341.608506688832 2857.41259690202 208 212 215
-1309.72141405828 341.358580733271 2855.52814119269 188 192 195
-1316.9043432202 341.5501343252 2851.60794808543 180 184 187
-1323.79725271073 340.857426200967 2851.75726505186 185 189 192
-1331.15825347954 341.488617484093 2845.79831769422 189 193 196
-1338.13685805221 341.015851445291 2844.92867411317 187 191 194
-1345.53664827172 341.644210780739 2838.9646532505 187 191 194
-1352.61431805244 341.390535073611 2837.07438285238 185 189 192
-1360.05580131201 342.016061660427 2831.10540667347 183 187 190
-1366.78378768592 340.882161544396 2833.29184112963 191 195 198
-1374.35109849531 341.724954103732 2826.298903156 189 193 196
-1381.55887914955 341.688328715125 2823.38389672884 195 199 202
-1389.17869275803 342.527714318746 2816.38417541963 199 203 206
-1396.62363330182 342.926962358601 2811.42305078679 192 196 199
-1404.4070531823 343.981207213313 2803.39465945968 196 200 203
-1412.77022223728 346.126177424548 2790.25213044819 196 200 203
-1420.97468853068 347.829920208709 2779.14618302496 195 199 202
-1429.45998893651 349.966634678287 2765.98867475286 195 199 202
-1437.89254723944 351.881066375871 2753.84578058661 201 205 208
-1446.38368837354 353.791708792577 2741.69582587705 196 200 203
-1454.07935548722 354.17450633338 2736.70345537237 187 191 194
-1461.79619571571 354.556131687938 2731.70820540631 182 186 189
-1469.5339065071 354.936489693936 2726.71059452364 189 193 196
-1477.81259576052 356.184106623518 2717.61220017012 204 207 212
-1486.13383043082 357.429249550743 2708.50826264656 201 204 209
-1494.63287163037 358.888409317252 2698.37412548415 195 198 203
-1502.76556443543 359.694703517103 2691.31048702835 200 203 208
-1511.63375862847 361.581382708211 2679.11330116371 204 208 211
-1519.98704692131 362.599323674371 2671.01388923277 205 209 210
-1528.81568111555 364.263183936534 2659.83015437475 212 216 215
-1535.01989753798 362.037682268728 2667.12398321537 206 211 207
-1185.00715007959 354.121906365895 2819.6624862314 183 188 184
-1191.8190166337 350.986009299493 2830.91362981463 187 191 190
-1198.53770327268 347.632739755096 2843.18490151 190 196 196
-1205.27713782051 344.947481955825 2852.42852324054 193 199 199
-1212.3932477405 345.138574263778 2848.51666999443 192 198 198
-1219.23778712863 343.56162078841 2852.70558082258 189 193 196
-1226.09329705954 342.207097833307 2855.88460946206 192 196 199
-1232.67891956672 339.530981799695 2865.14740195143 198 202 205
-1239.60550337339 338.840846481443 2865.29250978689 196 200 203
-1246.6191410795 338.591011096202 2863.41022009977 188 192 195
-1253.68667083634 338.560513551676 2860.512700018 183 187 190
-1260.55622996165 337.650224681991 2861.67343133004 143 147 150
-1267.3595929558 336.520961252899 2863.8506872878 196 200 203
-1273.97386403505 334.734530002439 2869.07657299003 188 192 195
-1280.85541910651 334.046009107019 2869.22729589391 158 162 165
-1287.79358900848 333.576774543886 2868.3626890207 146 150 153
-1294.86199641159 333.545146088794 2865.46506239207 189 193 196
-1302.0084056221 333.731264830126 2861.54968134008 185 189 192
-1309.02857645243 333.479278799913 2859.66634175259 168 172 175
-1316.34740309403 334.099898490317 2853.71268531661 175 179 182
-1323.46372350537 334.064441313112 2850.80908951061 182 186 189
-1330.59012679156 334.028165136221 2847.904477847 186 190 193
-1337.48182338977 333.337863445688 2848.05393983796 183 187 190
-1344.7887127371 333.735753366402 2843.11004675484 188 192 195
-1352.2031775288 334.349501465355 2837.14423307048 187 191 194
-1359.73351138447 335.178581895265 2830.15570544374 182 186 189
-1366.55688680788 334.26944352669 2831.32219717894 185 189 192
-1373.84378508018 334.445176471965 2827.38907100448 187 191 194
-1380.85320645151 333.970029170874 2826.51558794011 190 194 197
-1388.6646194663 335.226511511442 2817.47548355193 195 199 202
-1396.3123290961 336.047576931147 2810.47232922973 189 193 196
-1404.09721363802 337.082557654809 2802.44380585294 191 195 198
-1412.13602034462 338.547085896995 2792.36684882794 191 195 198
-1420.55563818867 340.655493346267 2779.21737162803 189 193 196
-1429.38018434198 343.406305826441 2762.99260872367 191 195 198
-1438.05183317599 345.721072699539 2748.80344900781 198 202 205
-1446.31620885357 347.170573959536 2738.69838188181 194 198 201
-1453.89744888939 347.326958423218 2734.72857454893 186 190 193
-1461.4942726481 347.482350114309 2730.756825074 178 182 185
-1469.23395297655 347.851534043927 2725.75899783128 184 188 191
-1477.51379596668 349.077276369803 2716.6602768355 202 205 210
-1485.70372068384 350.086155098665 2708.58127557808 200 203 208
-1493.79545189561 350.878518243738 2701.52302584264 195 198 203
-1501.91891874624 351.668976586969 2694.46058043458 198 201 206
-1510.2148748518 352.671339396606 2686.36836424618 201 205 208
-1519.55067111123 355.166268729609 2671.08792103967 202 206 207
-1529.69063284276 358.723179050223 2650.66589055633 209 213 212
-1538.74355863312 360.568168960026 2638.44576106771 210 214 213
-1177.68633345314 349.866805394756 2809.50176736804 183 188 184
-1184.58531875713 346.978413596875 2819.73394042056 183 188 184
-1191.32462535276 343.218416601003 2834.0190841659 187 191 190
-1198.00996921829 339.682122586216 2847.3026859289 189 195 195
-1204.7708651041 337.243055863862 2855.53529397771 192 198 198
-1211.81265178763 336.989874450204 2853.64950027627 192 198 198
-1218.71627593516 335.863719638774 2855.81423604839 188 192 195
-1225.52621465625 334.302584580425 2860.00718290925 191 195 198
-1232.22617217416 332.307450191361 2866.23061216099 198 202 205
-1239.19427045942 331.837742351056 2865.36227164884 198 202 205
-1246.20796980347 331.585096096089 2863.47998167199 183 187 190
-1253.22626229233 331.33197806486 2861.59711974024 186 190 193
-1260.09365048607 330.427259711582 2862.75786703321 148 152 155
-1266.89495058332 329.306249919008 2864.93535869265 184 188 191
-1273.6221715354 327.969574703299 2868.13035003686 183 187 190
-1280.506693848 327.283495057934 2868.28093648639 158 162 165
-1287.51037621927 327.030349716084 2866.39965761411 157 161 164
-1294.45340489768 326.560626454429 2865.5344456813 169 173 176
-1301.73543649876 327.1704513178 2859.58540947664 162 166 169
-1308.69027455623 326.699557675574 2858.71872688529 152 156 159
-1316.01112141031 327.30648922532 2852.76461411723 168 172 175
-1323.12993370179 327.26538136325 2849.86096248894 173 177 180
-1330.41617342911 327.653836788671 2844.91967120174 183 187 190
-1337.3161536041 326.965694885406 2845.06809376356 178 182 185
-1344.46236270037 326.922480852588 2842.16078845379 185 189 192
-1351.61850338604 326.878397735644 2839.25248629782 184 188 191
-1358.9636246002 327.262621790985 2834.30361782358 179 183 186
-1365.86881402432 326.573911643771 2834.45163206711 182 186 189
-1373.24198880868 326.956112140799 2829.49950827086 186 190 193
-1380.6360267123 327.336921311309 2824.54454427595 187 191 194
-1388.45157445058 328.57134164609 2815.50398199822 191 195 198
-1396.30940550248 329.802886620651 2806.45791031635 186 190 193
-1403.99832225972 330.604786366471 2799.44990432912 189 193 196
-1411.71890448961 331.404606613864 2792.43771188565 188 192 195
-1420.02563379577 333.267571037246 2780.31065597154 186 190 193
-1428.50433095246 335.339310371184 2767.1541428556 188 192 195
-1437.39566401468 338.044955936371 2750.92092401658 195 199 202
-1445.77209459716 339.682858913678 2739.7936898535 194 198 201
-1453.4717082096 340.043427273113 2734.80088538886 186 190 193
-1460.94358504134 339.978570503536 2731.85299566641 178 182 185
-1468.67974518628 340.336930083481 2726.85563622732 176 180 183
-1476.56643831258 340.905785927439 2720.83124972949 194 198 201
-1484.87656969777 342.107859830735 2711.72881125101 199 202 207
-1493.22929069879 343.307223034954 2702.62130524754 194 197 202
-1501.21119076063 343.870369479956 2696.58481225376 191 194 199
-1509.35996748238 344.642851558459 2689.51925566327 196 200 203
-1518.39901078003 346.678595016224 2676.29290945553 198 202 203
-1529.68845533112 351.870223107622 2647.66090774915 199 203 204
-1539.34110315589 354.526651886661 2631.33281093926 206 210 209
-1170.00040670529 341.654736591005 2817.53684200317 183 188 184
-1177.04893646807 340.311091879279 2820.69199453003 175 179 178
-1183.98664570099 338.103359973396 2827.89400073949 178 182 181
-1190.83105894278 335.465940790328 2837.12439576836 183 187 188
-1197.5384059612 332.184044998269 2849.39689462111 182 188 188
-1204.38607710275 330.416905918235 2854.59360257016 185 190 193
-1211.23360441485 328.867410966083 2858.78182794328 187 192 195
-1218.12451088523 327.750188561823 2860.94812728315 187 191 194
-1225.03678227387 326.849123114272 2862.10350406769 183 187 190
-1231.89652853916 325.733527460763 2864.27368773295 177 181 184
-1238.87013492265 325.263289556411 2863.40466123861 191 195 198
-1245.84305504509 324.792975926442 2862.53572058501 191 195 198
-1252.81513019637 324.322417515024 2861.66688602344 176 180 183
-1259.78636408883 323.851673807853 2860.79815693397 169 173 176
-1266.64814652683 322.952568126307 2861.95958901135 146 150 153
-1273.38421125773 321.626082009621 2865.15369014036 163 167 170
-1280.1576931325 320.514665500774 2867.3343878172 155 159 162
-1286.97679724585 319.617803399805 2868.50138025753 153 157 160
-1294.17500211595 320.002012989175 2863.5710863813 145 149 150
-1301.39391511704 320.384724185173 2858.63821219871 140 144 145
-1308.42212656784 320.126731479602 2856.75388500769 145 149 150
-1315.60131636892 320.293977469265 2852.83422256377 161 165 166
-1322.7958131338 320.460071654794 2848.91289320324 164 168 169
-1330.08421432573 320.83757716183 2843.9711207455 180 184 185
-1336.98713222723 320.151878388871 2844.11941053127 173 177 178
-1344.05180872341 319.890845984316 2842.2305407231 178 182 183
-1351.2077296464 319.841342148021 2839.32228026748 178 182 183
-1358.46298569726 320.002906170311 2835.39314016855 173 177 178
-1365.73358192937 320.163373490627 2831.46208859381 180 184 185
-1373.01952205503 320.322803594667 2827.52912492334 185 189 190
-1380.3209794497 320.481125715228 2823.59422770727 183 187 188
-1387.9378558767 321.271547069949 2816.59500188656 186 190 191
-1395.6889758198 322.270695478075 2808.57078649521 183 187 188
-1403.47698162164 323.267374600913 2800.54197446953 186 190 191
-1411.30193231147 324.261580677962 2792.50855845293 186 190 191
-1419.71761064742 326.304962740385 2779.35974412238 183 187 188
-1428.08352729141 328.133939665261 2767.22563175203 184 188 189
-1436.85628071965 330.588893377858 2752.0157985053 196 200 201
-1445.22829942589 332.199784375148 2740.88918605338 192 196 197
-1453.28895373112 333.178494497679 2732.82615615834 186 190 191
-1461.01409697738 333.526507311736 2727.83019881092 180 184 185
-1468.63327543223 333.664051277514 2723.85570660342 173 177 178
-1476.52714270321 334.218713983064 2717.83046219186 189 193 196
-1484.97606182045 335.607367124767 2707.70252537696 197 201 204
-1493.60774278777 337.201596701344 2696.54355248722 193 197 200
-1501.87981408588 338.166900574109 2688.45441457498 186 189 194
-1509.34761974071 337.880009865753 2686.51554499674 193 197 200
-1518.67843553719 340.298931521141 2671.23592348608 194 198 199
-1529.53989735393 344.792591091126 2645.68247113332 195 199 200
-1539.49171160388 347.823430655297 2627.30067992836 207 211 210
-1540.32531273604 338.184933008891 2671.56338988984 164 169 165
-1169.577183229 334.498432516649 2817.60850366301 176 181 177
-1176.64588577711 333.379379310368 2819.75261992485 175 179 178
-1183.56600621743 330.979439878646 2827.96525465026 180 184 183
-1190.46155103839 328.795953799202 2835.17245887853 179 183 184
-1197.09468521217 324.909055033141 2850.47911387267 176 181 184
-1203.94101235948 323.15836545393 2855.67594622508 183 188 191
-1210.68880678472 320.983816649037 2862.901805562 184 189 192
-1217.64052198658 320.300859478932 2863.04375824452 191 195 198
-1224.47179082687 318.980489137397 2866.2257220891 181 185 188
-1231.40299317923 318.298360975998 2866.3702324708 171 175 178
-1238.32810439102 317.616444192524 2866.51574270292 171 175 178
-1245.38546019698 317.570589239539 2863.61953271325 194 198 201
-1252.355026605 317.100190649466 2862.75101080713 179 183 186
-1259.27236413957 316.418109645844 2862.89725131193 158 162 165
-1266.1834555358 315.73613045001 2863.0445112985 137 141 144
-1273.14531101766 315.265625868266 2862.1769519495 149 153 156
-1279.98709922744 314.372810597961 2863.34086262278 146 150 153
-1286.69283067158 313.058825209874 2866.53847597769 142 146 149
-1293.76602786512 313.010410796471 2863.6405360855 134 138 139
-1300.98450134084 313.382280553768 2858.70774530362 140 144 145
-1308.15333951795 313.542242949723 2854.78939386226 141 145 146
-1315.33756948091 313.70098591181 2850.86912482836 161 165 166
-1322.38559510511 313.438568157371 2848.98257686758 157 161 162
-1329.67346822779 313.80523786646 2844.04089884545 170 174 175
-1336.90102547881 313.960742854088 2840.11523134924 164 168 169
-1343.97635937341 313.69622707294 2838.22528100284 172 176 177
-1350.88338814287 313.012772242285 2838.37281159851 170 174 175
-1357.87350694833 312.538854625424 2837.50173414192 164 168 169
-1365.32186081218 313.109237987218 2831.53204576994 176 180 181
-1372.70188566568 313.469203495357 2826.57912568062 175 179 180
-1380.00554981806 313.619203092449 2822.6439749913 177 181 182
-1387.52433652475 314.184798363065 2816.66526935746 178 182 183
-1395.27433126678 315.164967073631 2808.64124436691 176 180 181
-1403.48216730287 316.974571599736 2796.52691053839 178 182 183
-1411.10081294471 317.533506672094 2790.5357606392 180 184 185
-1419.07747877308 318.71346843756 2781.47523519105 176 180 181
-1426.86986482255 319.475867163802 2774.45418060364 180 184 185
-1435.38963226739 321.479711224657 2761.2924806896 194 198 199
-1443.97310323916 323.479200898155 2748.12308268786 186 190 191
-1452.13507283749 324.647056635099 2739.03922403678 182 186 187
-1459.96728614369 325.191910947844 2733.02169950559 179 183 184
-1467.82586342669 325.735202664451 2727.00064875227 171 175 176
-1475.96941325793 326.689463546385 2718.9275786406 182 186 187
-1484.41409497799 328.053900535788 2708.80023440019 196 200 203
-1493.17596808169 329.827074999211 2696.61685595833 191 195 198
-1501.58417079544 330.979127332983 2687.5025507566 180 183 188
-1509.61454176745 331.511773416574 2681.46008920142 188 192 195
-1518.5280721601 333.27546560685 2669.25780979772 197 201 202
-1528.66355062015 336.677441056056 2648.83650654688 185 189 190
-1538.45622749753 339.457721414592 2631.48292168215 199 203 202
-1546.22297367727 339.363927002501 2628.49831021457 164 168 167
-1162.32758621316 332.470237791567 2796.34799391736 183 185 180
-1169.15380438707 327.341063340516 2817.68018751647 175 180 176
-1176.10884277099 324.963624422969 2825.88840543464 178 182 181
-1182.97102096733 322.167277677959 2836.12468913048 177 181 180
-1189.92002653168 320.638971857614 2840.30043508557 177 181 182
-1196.67839064895 317.849059498692 2850.54965722 171 176 179
-1203.55583048425 316.324954492876 2854.73432309229 170 175 178
-1210.27531597691 313.961625813544 2862.97189945991 182 187 190
-1217.19226603464 313.071427853981 2864.12642348632 188 192 195
-1223.9838439246 311.552255247146 2868.32179143248 185 189 192
-1230.86947877947 310.663574468197 2869.48021941563 176 180 183
-1237.83022792268 310.19433481042 2868.61279480002 160 164 167
-1244.88213988653 310.143394445815 2865.71751783066 174 178 181
-1251.89523837695 309.882542302256 2863.83508417797 189 193 196
-1258.86163558294 309.412166441964 2862.96695770966 179 183 186
-1265.82713621318 308.941668532117 2862.09894345012 123 127 130
-1272.79185461383 308.470981566015 2861.23102730609 131 135 138
-1279.57741052204 307.374983089927 2863.41041788083 125 129 132
-1286.47031069095 306.696372500793 2863.55993915392 134 138 141
-1293.61626466469 306.85002886685 2859.64446013256 133 137 138
-1300.84501241504 307.210372151009 2854.71017726777 135 139 140
-1307.95405653579 307.153761585572 2851.80778547526 139 143 144
-1315.14598668935 307.303891783178 2847.8865781845 153 157 158
-1322.27759092842 307.245542893873 2844.98113533167 151 155 156
-1329.49744915955 307.393535579496 2841.056448411 165 169 170
-1336.65169465517 307.333328760743 2838.14842522474 158 162 163
-1343.81594559976 307.27248203358 2835.23891483404 165 169 170
-1351.07644528791 307.417407847596 2831.3091641763 165 169 170
-1357.99635450076 306.735703016926 2831.45532302896 159 163 164
-1365.27685396885 306.879175563596 2827.52308034405 170 174 175
-1372.47838541535 306.815535799149 2824.60892492247 170 174 175
-1379.68989280567 306.751260509825 2821.69352623571 172 176 177
-1387.0111297088 306.89178201881 2817.75644779994 173 177 178
-1394.65495143512 307.647699319773 2810.75395023036 172 176 177
-1402.6454640195 309.017359779442 2800.68326985724 176 180 181
-1410.79136152238 310.588846299965 2789.58497976497 180 184 185
-1418.7694246291 311.747037391108 2780.5240970083 171 175 176
-1426.67652189987 312.69766861206 2772.48054433687 173 177 178
-1435.08386504035 314.463985628141 2760.34142719731 189 193 194
-1443.6680576481 316.430878230624 2747.17178471416 185 189 190
-1451.8312288944 317.576682152837 2738.08807444593 181 185 186
-1459.78922250106 318.31192795776 2731.0464245207 175 179 180
-1467.65211101945 318.8412114236 2725.02511290965 167 171 172
-1475.79982247062 319.776213025438 2716.95133390231 177 181 182
-1484.11629268801 320.912250923353 2707.84851854726 193 197 200
-1492.60985220201 322.248908851358 2697.71514780229 189 193 196
-1501.0138628022 323.379369924462 2688.60142261137 177 180 185
-1509.32045521072 324.30431212352 2680.50808295967 183 187 190
-1518.66240553043 326.646199484185 2665.2272747934 193 197 198
-1528.51473094111 329.590867382633 2646.85812613743 179 183 184
-1539.19774191936 333.541477087571 2623.34398796194 193 197 198
-1547.28663369993 333.84511315017 2618.30251354374 176 180 179
-1161.84606331941 324.417298978635 2800.46028091701 181 183 178
-1168.79525292972 321.016846398975 2813.71059855732 174 179 175
-1175.70604526308 318.037870447956 2824.94922381071 180 184 183
-1182.5298462284 314.854741928918 2837.20692979925 173 177 178
-1189.45292409695 313.132129538382 2842.39411017513 175 179 180
-1196.23498953688 310.580143338353 2851.63206085635 168 173 176
-1203.05146718829 308.654448409451 2857.84076621794 162 167 170
-1209.92652953048 307.353504826013 2861.01721373271 171 176 179
-1216.81438699756 306.261022481776 2863.1838284181 190 194 195
-1223.57194647169 304.547999007859 2868.39163925899 200 204 205
-1230.33685570457 303.044020059101 2872.59005501519 176 180 181
-1237.24663246128 302.368512384032 2872.73722174975 176 180 181
-1244.28767730684 302.312949042123 2869.84331310695 143 147 148
-1251.29012734752 302.050030548972 2867.96245402823 150 154 155
-1258.39955059127 302.1990266357 2864.05154609868 157 161 162
-1265.524277077 302.346808929315 2860.13873161148 104 108 109
-1272.66433260701 302.493316063869 2856.22400750827 100 104 105
-1279.52332836244 301.610333735326 2857.38574488688 118 122 123
-1286.43265443278 300.933304498455 2857.53321214015 127 131 132
-1293.52975794617 300.872435450201 2854.63208141067 126 130 131
-1300.70411281685 301.015861687013 2850.71308506595 123 127 128
-1307.96386508179 301.363064259585 2845.77520789537 144 148 149
-1314.88065073461 300.684960078686 2845.92150679893 127 131 132
-1321.86672250784 300.211718336352 2845.05093260815 140 144 145
-1328.85198624918 299.738348903709 2844.18045959124 151 155 156
-1336.24027497172 300.285922661999 2838.21832706207 142 146 147
-1343.48770397792 300.423678379712 2834.29022643036 149 153 154
-1350.92272529806 300.96797388847 2828.32203031371 152 156 157
-1358.2062063288 301.103193996535 2824.38943727991 147 151 152
-1365.23060256889 300.626794099396 2823.51408873913 153 157 158
-1372.06574253897 299.743781248186 2824.67904352783 156 160 161
-1379.27696371271 299.673970028621 2821.76369513789 167 171 172
-1386.59775476948 299.806397722434 2817.82669365588 166 170 171
-1394.34281698117 300.748835123145 2809.80314331128 168 172 173
-1402.33454867148 302.093874601643 2799.73261590815 175 179 180
-1410.48159047258 303.638114626331 2788.63425476691 180 184 185
-1418.46095489863 304.774424215795 2779.57326723744 174 178 179
-1426.14368098533 305.30180729149 2773.57444383736 172 176 177
-1434.19959521607 306.43306105247 2764.50391665917 183 187 188
-1443.00768529557 308.771455341615 2749.28998056236 182 186 187
-1451.28521416351 310.097449285025 2739.18359724808 181 185 186
-1459.36299811594 311.017797072242 2731.11882363822 182 186 185
-1466.97232025758 311.131303676343 2727.14562474187 173 177 176
-1474.98430824021 311.846686126756 2720.09728894717 175 179 180
-1483.2913364528 312.961526934398 2710.99570772028 190 194 197
-1491.90961212826 314.474850823821 2699.83862079396 187 191 194
-1500.58095510253 315.984794021737 2688.67492028541 170 174 177
-1509.30554246337 317.491345246639 2677.50458412483 174 178 181
-1518.65311908344 319.794714202723 2662.22341553514 190 194 197
-1528.65568976162 322.892560885764 2642.82718640021 176 180 183
-1539.34569479447 326.782880888765 2619.31209391009 185 189 190
-1548.34730644153 328.27178407669 2608.10723323183 179 183 182
-1161.33895993414 315.972761779044 2806.59240593632 178 180 177
-1168.35490592921 313.640651279617 2814.79266330518 173 177 176
-1175.24657834515 310.488614219637 2827.04181745969 181 185 186
-1182.0244726556 306.930053033073 2841.32185548106 171 175 178
-1188.84153083735 304.403190358601 2850.55537311307 173 177 180
-1195.73815841436 302.905452132442 2854.73733476391 167 172 175
-1202.66607054079 301.819018072199 2856.89893493667 158 163 167
-1209.60921173714 300.938262418431 2858.05040586659 163 168 171
-1216.40114733998 299.239532312878 2863.25388912877 160 164 165
-1223.19754658915 297.747283373566 2867.44834422654 178 182 183
-1230.0468130045 296.665083107996 2869.61974776955 192 196 197
-1237.00803438174 296.195813366201 2868.75226430115 177 181 182
-1243.96847724172 295.726414053847 2867.88487832832 158 162 163
-1251.02472362509 295.664208678469 2864.98909011503 142 146 147
-1258.29516315031 296.415066749766 2858.03320176004 137 141 142
-1265.48948152139 296.756942008359 2853.10350438187 109 113 114
-1272.47881140839 296.28462742713 2852.2325211561 87 91 92
-1279.34903216994 295.406304998575 2853.39284544863 126 130 131
-1286.39309265043 295.136853739094 2851.50681083683 115 119 120
-1293.57070214004 295.272129586433 2847.58742979867 113 117 118
-1300.76352632774 295.406197281412 2843.66615323776 117 121 122
-1307.8319582813 295.134596197297 2841.77708287169 141 145 146
-1314.61470152069 294.05430467434 2843.95678308718 115 119 120
-1321.68149902333 293.782626043665 2842.06767662639 137 141 142
-1328.67487557469 293.308680056269 2841.19619269709 143 147 148
-1335.98998544014 293.640769926676 2836.251447024 134 138 139
-1343.2423365497 293.770030137817 2832.32275451551 141 145 146
-1350.68208973465 294.300410043685 2826.35424480509 144 148 149
-1358.14783787158 294.829011973645 2820.38225549184 139 143 144
-1365.09156741151 294.151045204344 2820.52543186445 145 149 150
-1371.65310300704 292.671130651279 2824.74916407553 151 155 156
-1378.76727483947 292.395540674902 2822.85439614759 165 169 170
-1386.08493049702 292.519983667415 2818.91756670356 164 168 169
-1393.92826858061 293.643697815159 2809.87358762709 167 171 172
-1401.70912097408 294.564686856054 2801.84586763163 174 178 179
-1409.95658637553 296.281884864809 2789.72683164187 178 182 183
-1418.26236154239 297.995189040271 2777.60052919238 172 176 177
-1425.94964609947 298.508722273712 2771.60093312648 172 176 177
-1434.12502660045 299.817036166505 2761.50734388429 178 182 183
-1442.70253113699 301.719021263081 2748.33894723323 178 182 183
-1451.10201924945 303.219288745074 2737.2091980849 180 184 185
-1459.1839869213 304.120258903834 2729.14395340188 179 183 182
-1466.79805036624 304.225221797174 2725.17018531848 171 175 174
-1474.55651725572 304.527452277481 2720.16994967479 171 175 176
-1483.38841560052 306.412872695259 2706.96984980291 185 189 192
-1492.14992945322 308.096245364007 2694.78651241455 184 188 191
-1500.42214840879 308.985095424072 2686.69755741393 167 171 174
-1508.17287942463 309.081590697529 2682.70675632481 169 173 176
-1517.78920779662 311.74255275574 2665.37549293149 182 186 189
-1528.36054104719 315.580713144016 2641.87558760746 169 173 176
-1540.08295529812 320.789925654943 2611.17389306916 182 186 187
-1549.25450473212 322.447000041129 2598.93969518869 180 184 183
-1160.92619115573 308.983140559678 2805.65439659137 167 169 166
-1167.9307922317 306.471981701475 2814.86446862348 175 179 178
-1174.8062208188 303.152137532567 2828.12401919278 180 184 185
-1181.62677659591 300.039986548454 2840.38194324481 170 174 177
-1188.42446297425 297.337451035145 2850.62602808972 169 173 176
-1195.2954932615 295.650702969031 2855.81960924862 165 170 173
-1202.19220571091 294.370477360636 2858.99330039796 158 163 167
-1209.22673296697 294.101633422266 2857.10845387685 151 156 159
-1216.02261140606 292.419075738282 2862.31140250688 160 164 165
-1222.89769528423 291.343649077374 2864.47932607637 138 142 143
-1229.79585802888 290.470536584506 2865.63638992316 146 150 151
-1236.76811787651 290.000563628793 2864.7675307708 180 184 185
-1243.69401164273 289.329284760634 2864.91267506144 188 192 193
-1250.71005847834 289.060125076307 2863.03013561905 174 178 179
-1257.98515877296 289.794501515745 2856.07370903138 153 157 158
-1265.23802111102 290.325798557822 2850.12851977852 109 113 114
-1272.29191645765 290.053448813729 2848.24102519789 72 76 77
-1279.11440825709 288.979523686009 2850.41574826239 124 128 129
-1286.22820187505 288.906903613779 2847.51280592118 112 116 117
-1293.41622690092 289.033393713535 2843.59214822262 104 108 107
-1300.4854769102 288.759229678614 2841.70274224873 132 136 135
-1307.41987387496 288.085560223833 2841.84707195473 114 118 117
-1314.1308311133 286.814003012311 2845.04392142832 136 140 139
-1321.26998855519 286.738988226538 2842.13757986948 158 162 161
-1328.34129327693 286.464038854413 2840.24815981653 128 132 131
-1335.81937198038 287.182737183397 2833.26644401118 122 126 125
-1342.99633005999 287.104719562015 2830.35563333283 130 134 133
-1350.44076348614 287.621301590321 2824.38633562345 130 134 133
-1357.82263473496 287.93773143872 2819.43329976452 125 129 128
-1364.86048593251 287.460414661376 2818.55627453916 136 140 139
-1371.61589414596 286.389389532679 2820.73936160156 151 155 154
-1378.54760490232 285.714933145827 2820.8837883341 157 161 160
-1385.87012734631 285.830943877966 2816.94637374994 154 158 157
-1393.61574676721 286.735305248679 2808.92309440954 165 169 168
-1401.71184391513 288.228622711798 2797.83122496258 172 176 175
-1409.75373894023 289.521372352053 2787.75433490653 173 177 176
-1417.62329009471 290.417360782509 2779.71561166829 171 175 174
-1425.30432707546 290.917677866476 2773.71707033598 173 177 176
-1433.58815915526 292.398438315032 2762.60180574785 178 182 181
-1442.1610099534 294.268109060601 2749.43383468578 179 183 182
-1450.55609361426 295.741483533969 2738.30470600876 180 184 183
-1458.88098564926 297.015428251969 2728.19254912102 169 173 172
-1466.49707876414 297.112079903347 2724.21854963416 167 171 170
-1473.99992584695 297.012166560411 2721.26712759645 169 173 172
-1482.5642942696 298.474577456288 2710.11690205414 182 186 187
-1491.85226839909 300.909377054509 2693.83489801805 184 188 189
-1500.26259944432 301.973979956288 2684.7205575081 172 176 179
-1508.01813821735 302.062046729874 2680.72917863547 179 183 186
-1517.06838049381 303.900707676425 2667.50171360242 181 185 188
-1528.35469285314 308.65184524984 2638.87126279116 165 169 172
-1539.49042846152 313.005071307885 2612.27602515042 177 181 182
-1548.80743489662 314.826441739399 2599.01555533016 180 184 183
-1160.53909995048 302.388100155815 2802.69676952618 162 164 161
-1167.56947527933 300.103925682156 2810.89534023041 177 181 180
-1174.40300417704 296.22061470225 2827.1846647976 180 184 185
-1181.20744995279 292.943275860089 2840.45296166585 170 174 177
-1187.9834202302 290.070711294837 2851.70789141542 168 172 175
-1194.90611720635 288.79993865071 2854.87831495539 169 174 177
-1201.80636080178 287.530240586539 2858.05177798341 159 164 167
-1208.77999232785 286.859921935973 2858.19096235515 147 152 155
-1215.6782336591 285.791383623196 2860.35621813992 176 180 181
-1222.6712794125 285.32068370791 2859.48476694383 169 173 174
-1229.62349408868 284.650953045103 2859.62662246337 118 122 123
-1236.56945891418 283.981264704389 2859.76949808461 121 125 126
-1243.46388998043 283.113404101113 2860.92677352339 188 192 193
-1250.44270560357 282.642595449529 2860.05709844979 191 195 196
-1257.67438242632 283.162043526037 2854.11458422782 141 145 146
-1264.77186374379 283.08586152828 2851.21344667673 110 114 115
-1271.87915115803 283.008696492724 2848.31108797153 74 78 79
-1278.70230283087 281.942970989811 2850.48570709432 111 115 116
-1285.81602797161 281.864980282671 2847.58278744203 109 113 112
-1293.06790958777 282.180551217427 2842.64573551394 102 107 103
-1300.1398554709 281.903530445106 2840.75624090279 138 142 141
-1307.07722708246 281.232416205207 2840.89995239264 105 109 108
-1313.86393896041 280.168235737871 2843.07911491761 148 152 151
-1321.08316858881 280.283839318706 2839.15459173839 165 169 168
-1328.39531500199 280.594558266629 2834.21027216619 126 130 129
-1335.8084024661 281.099821667641 2828.24515632351 121 125 124
-1342.83257743846 280.623674755296 2827.3698347294 130 134 133
-1350.19861366374 280.930423113165 2822.41880048365 129 133 132
-1357.49697906309 281.040149180509 2818.4844171063 126 130 129
-1364.53760463555 280.56265565956 2817.6070461208 136 140 139
-1371.38996158977 279.694847642241 2818.76957202154 154 158 157
-1378.423617998 279.21773837486 2817.89306973461 156 160 159
-1385.65462610485 279.130245515112 2814.97553888511 151 155 154
-1393.20100124577 279.626059667161 2808.99357414387 165 169 168
-1401.08663172577 280.703365405687 2799.94467970999 173 177 176
-1409.22884603836 282.166451898877 2788.84713472571 175 179 178
-1417.09453083432 283.04369247754 2780.80870308922 170 174 173
-1425.22204566076 284.306265161344 2770.72144792681 170 174 175
-1433.74265048641 286.146894847022 2757.56007333184 175 179 180
-1442.5626500282 288.370341603494 2742.34495371478 175 179 180
-1450.4927234006 289.04185084269 2735.3069559177 172 176 177
-1458.45443645283 289.71134445269 2728.26501498371 166 170 171
-1465.69225277466 289.22087069391 2727.36306994147 165 169 170
-1473.31521595828 289.308902742142 2723.38823581006 166 170 171
-1481.60998525038 290.359307879447 2714.28835411302 177 181 182
-1491.01849717342 292.946553526283 2696.98321911347 179 183 184
-1499.41945638007 293.990134034376 2687.8701035153 173 177 180
-1507.30555832812 294.262613995315 2682.85401811781 162 166 169
-1516.63226832557 296.452884554681 2667.57575139986 167 171 174
-1528.05869997037 301.322672128515 2637.9198149714 151 155 156
-1539.48751012588 305.991151529732 2609.27155868623 159 163 164
-1548.81039212917 307.779419892481 2596.01044280292 166 170 171
-1153.08175803412 298.43514116111 2789.52923123715 160 165 161
-1160.18959312852 296.369522299662 2796.70987276397 164 169 165
-1167.15999226589 293.119950419432 2809.95714624174 178 182 183
-1173.87124395377 287.899481556933 2833.31954186434 179 183 184
-1180.6621941608 284.661341603489 2846.58917940215 168 172 173
-1187.54255252653 282.808203182989 2852.78996202201 162 166 167
-1194.51620732226 281.942521958713 2853.9373450684 169 173 174
-1201.39109455141 280.48672258991 2858.12214961038 166 170 169
-1208.36519941515 279.819240450247 2858.26126744252 157 161 160
-1215.2641522244 278.758779030383 2860.42641316883 131 132 134
-1222.22036361578 278.091839585683 2860.56776257137 156 157 159
-1229.17032886881 277.425001948772 2860.71013145568 164 166 165
-1236.11408490378 276.758378204223 2860.85303438167 129 131 130
-1243.14191347675 276.483331847074 2858.96904015046 107 109 108
-1250.07852678812 275.816685357475 2859.11283450603 115 117 116
-1257.26172419865 276.127078823462 2854.18460786417 172 174 173
-1264.30583351517 275.850335841505 2852.29834609168 164 166 165
-1271.57824985387 276.353094139657 2846.3507917709 114 116 113
-1278.46610081382 275.489952724761 2847.50887594024 116 118 115
-1285.58766739728 275.406087475412 2844.60499319265 105 107 104
-1292.65518144489 275.12689792268 2842.71581709104 128 133 127
-1299.86048094827 275.235806717901 2838.7932902083 126 131 125
-1306.80363110567 274.567071572311 2838.93627430453 121 126 122
-1313.668382882 273.704625319486 2840.09723928474 155 160 156
-1320.74580253277 273.424150282754 2838.20707067643 144 149 145
-1327.9051916505 273.33668107705 2835.29847739107 118 123 119
-1335.39503046981 274.022081624385 2828.31538168131 121 126 122
-1342.50219695854 273.739171539728 2826.42126698735 125 129 128
-1349.95582847317 274.227936781231 2820.45113493418 122 126 125
-1357.08284346589 273.943525848072 2818.55478748544 134 138 137
-1364.214374187 273.658824733208 2816.65763699594 149 153 152
-1371.25682595399 273.181155150994 2815.78003857581 160 164 163
-1378.49103799485 273.088023462767 2812.86212274394 150 154 153
-1385.93313641375 273.378576501939 2807.90139876715 152 156 155
-1393.19255023349 273.283779593563 2804.98034228756 167 171 170
-1400.9834303766 274.147035393467 2796.95152292666 175 179 180
-1409.13203887864 275.582481220427 2785.85325277605 174 178 179
-1417.22401612878 276.823068137865 2775.77025012307 170 174 175
-1425.25111641869 277.869144782037 2766.70378333399 170 174 177
-1433.66549291169 279.485586304311 2754.56394289665 176 180 183
-1442.60892639277 281.861354330486 2738.32533122286 166 170 173
-1450.66910504666 282.706618158958 2730.26295238111 170 174 177
-1458.52005448 283.168516687799 2724.24306788439 159 160 164
-1465.51702771324 282.296634395921 2725.38779752667 165 166 170
-1473.14473591247 282.376182219089 2721.41239358827 166 167 171
-1480.91906916324 282.644913048538 2716.41026613664 179 180 184
-1490.05199739286 284.809724471008 2701.15624928341 163 164 168
-1498.98653199173 286.590542530667 2687.9436164804 164 165 169
-1507.98490300634 288.367231618183 2674.72278787485 158 159 163
-1517.18893928842 290.329046404299 2660.46811883968 165 166 168
-1528.19599791484 294.55478110384 2633.8892750695 146 147 149
-1539.33664327959 298.771590009987 2607.29402423865 150 151 153
-1549.1122152969 301.092969921144 2590.95146955551 161 163 162
-1152.63201993339 290.799148253969 2791.62107947396 157 162 158
-1159.69791468681 288.169886004687 2801.83150053676 170 175 171
-1166.64198022361 284.764138675269 2816.09039894161 178 182 183
-1173.341333202 279.609883351557 2839.45410508182 179 183 184
-1180.16030198508 276.800037561298 2850.70374397316 165 169 170
-1187.10187098123 275.550100150122 2853.87175752777 162 166 167
-1194.15215628886 275.273085670357 2851.98496601182 164 168 169
-1201.03353092367 273.830546894717 2856.16868577388 163 167 166
-1207.95021790984 272.777436257299 2858.33159902174 162 166 165
-1214.85001139258 271.725222666431 2860.49661811661 136 137 139
-1221.8435958339 271.254607878017 2859.62509947127 130 131 133
-1228.79668701919 270.590375540428 2859.76683112801 167 169 168
-1235.78590311183 270.11956126336 2858.89585815211 148 150 149
-1242.9993776709 270.613711997369 2852.95568208469 109 111 110
-1250.04795391331 270.334474725481 2851.06886943488 85 87 86
-1257.20192860854 270.440021538327 2847.15251616969 127 129 128
-1264.05244677821 269.389274846328 2849.32368066929 146 148 147
-1271.27652495682 269.685716756232 2844.39038909018 113 115 112
-1278.22880013376 269.019804459483 2844.53222700405 112 114 111
-1285.35832621846 268.930057146921 2841.62736644797 100 102 99
-1292.49775435895 268.839437623917 2838.72103220207 137 142 136
-1299.71352841835 268.93955440777 2834.79698104137 110 115 111
-1306.73686621208 268.464237217007 2833.92176173716 140 145 141
-1313.61552883505 267.606282264602 2835.08121916701 154 159 155
-1320.63180149603 267.131235996768 2834.20688083613 129 134 130
-1327.8017806196 267.037774367914 2831.29674149274 116 121 117
-1335.14154797449 267.324815658771 2826.34903734457 117 122 118
-1342.33668452252 267.229455250518 2823.43600377244 126 130 129
-1349.7977079117 267.704190145661 2817.4647459367 117 121 120
-1356.75661590319 267.036302523558 2817.60576131648 143 147 146
-1363.89072072732 266.748692706603 2815.70853752284 165 169 168
-1370.93594686922 266.270846380784 2814.83059334257 161 165 164
-1378.36471159269 266.551441639973 2809.87179982435 146 150 149
-1385.71540369963 266.641171704086 2805.930939042 155 159 158
-1393.08143970013 266.729864551923 2801.98816616392 165 169 170
-1400.77513295262 267.384660355155 2794.97971122258 172 176 177
-1408.9275457816 268.792749949376 2783.88103835612 174 178 179
-1416.91387438245 269.819864272745 2774.81970956939 163 167 168
-1425.0544933095 271.032687170794 2764.73070983825 163 167 170
-1433.24274141941 272.242356372149 2754.63577457182 176 180 183
-1442.41883573232 274.953888933532 2736.35162951263 153 157 160
-1450.36299716377 275.591892365545 2729.31196184542 150 154 157
-1458.21572328691 276.040003830912 2723.29213220479 156 157 162
-1465.34112310369 275.361031946443 2723.41239957907 162 163 168
-1473.10192700968 275.619518848935 2718.41222775544 165 166 171
-1481.01437235011 276.064002520099 2712.38471479448 178 179 183
-1489.62124360853 277.4420655046 2701.22940727676 163 164 168
-1498.55375128026 279.190404374186 2688.01711295506 164 165 169
-1507.82795130325 281.307991265682 2672.74535031259 159 160 162
-1517.31829690437 283.607231760693 2656.43868877207 152 154 153
-1527.75458716123 287.019205298832 2633.96420519263 138 140 139
-1539.03804134532 291.354550084962 2606.34289313844 150 152 151
-1549.11304353025 294.007085112157 2587.94672505901 143 145 144
-1152.15314936815 282.59487380345 2796.7411211139 161 166 162
-1159.20771839027 279.996375834842 2806.95311481311 178 182 181
-1166.06473375908 275.67049334469 2826.2639754672 178 182 183
-1172.83117053543 271.543771489696 2844.57792821349 179 183 186
-1179.70085961443 269.343289444963 2852.79609094197 167 171 174
-1186.66141254305 268.296521790663 2854.95351327552 168 172 175
-1193.70913639916 268.016923269217 2853.06704821855 158 162 163
-1200.58888192679 266.588164659078 2857.25093499399 155 159 160
-1207.56654542784 265.925952759368 2857.38983511898 158 162 163
-1214.46979896119 264.881700683755 2859.55440145363 147 148 150
-1221.39275149097 264.029282813116 2860.70807691449 134 135 137
-1228.3830781864 263.558696395237 2859.83696474187 121 123 122
-1235.45692354828 263.468912932756 2856.93905290602 144 146 145
-1242.76505346807 264.330013260753 2848.97024332662 111 113 112
-1249.96713938706 264.617822875519 2844.03971898433 99 101 100
-1257.29045994361 265.283970495778 2837.07745447122 92 94 93
-1264.16857741622 264.239587787925 2839.24515798166 99 101 100
-1271.30785615368 264.14420251126 2836.33909519955 92 94 91
-1278.22366169572 263.290269112415 2837.49366655332 113 115 112
-1285.43290636727 263.383097692949 2833.57044941485 102 104 101
-1292.46630512032 262.90755761668 2832.69397514936 129 134 128
-1299.63153055909 262.80962355334 2829.78468108446 96 101 97
-1306.59939761933 262.144748518673 2829.92457049188 152 157 153
-1313.56106289564 261.480208851044 2830.06523296209 145 150 146
-1320.59081631638 261.004184337058 2829.18921488827 117 122 118
-1327.61982815914 260.528147343653 2828.31328939187 111 116 112
-1334.80752128559 260.427945848966 2825.40119746358 117 122 118
-1342.08762631171 260.514767163414 2821.4691531917 125 129 128
-1349.4681121962 260.788106122478 2816.51640369637 115 119 118
-1356.42996904167 260.122837584488 2816.65704417933 153 157 156
-1363.38550233239 259.457852448844 2816.79847305822 163 167 166
-1370.70778357613 259.541509118627 2812.8611737777 161 165 164
-1378.23732346679 259.997846908093 2806.8816542045 145 149 148
-1385.89146829021 260.639037181336 2799.87817050298 158 162 161
-1393.07054116483 260.345516809671 2797.97535052773 165 169 170
-1400.77402330713 260.983384845959 2790.96571856948 170 174 175
-1408.82890771199 262.177541759466 2780.88746715606 174 178 179
-1416.71268147248 262.996597777563 2772.84717161945 158 162 163
-1424.74522894217 263.998909371358 2763.78014030824 160 164 167
-1433.27869766443 265.740834879903 2750.61742030895 172 176 179
-1442.58016501936 268.591127685759 2731.30957691695 144 148 151
-1450.53671262776 269.212037888728 2724.26840854249 142 146 149
-1458.03374057072 269.090574709957 2721.31752918102 160 161 166
-1465.41542746139 268.783609162863 2719.3894595818 165 166 171
-1473.18612567368 269.030656024461 2714.38808313417 164 165 170
-1481.2393041699 269.645410285275 2707.33487200764 175 176 180
-1489.72427163486 270.811153162182 2697.2030235983 160 161 165
-1498.80155231149 272.710451376629 2682.96433754848 162 163 167
-1507.94801527311 274.60534228246 2668.71702956499 157 158 160
-1517.72951006426 277.230768493735 2650.3575608632 141 143 142
-1528.17821505269 280.58479950813 2627.88192085698 132 134 133
-1538.73915673234 283.931558452855 2605.39205325722 145 147 146
-1548.3653370161 285.988084427102 2590.07676662959 133 135 134
-1151.65625020938 274.036443459102 2803.8799597378 169 173 172
-1158.64439787215 270.709826693016 2818.13314856642 177 181 180
-1165.55092645511 267.388230364179 2832.39650975254 177 181 182
-1172.37576596652 264.07195503854 2846.66981097043 175 179 182
-1179.34439738355 262.842569973541 2849.83439317103 167 171 174
-1186.24423235709 261.236104897927 2855.02416825297 167 171 174
-1193.18854423103 260.198314943591 2857.18359373168 156 160 161
-1200.0872699788 258.972666604631 2860.35688990599 150 154 155
-1207.08866873945 258.502390109919 2859.48439518891 155 156 158
-1214.12306907438 258.220116763898 2857.59959987268 147 148 150
-1221.16202932716 257.93731403617 2855.71423689976 138 139 141
-1228.28408187184 258.029904202966 2851.8019014511 110 112 111
-1235.37934168292 257.933319293784 2848.90109486122 118 120 119
-1242.57398958164 258.211151369488 2843.97152501539 131 133 132
-1249.74173040057 258.299875375916 2840.0534981216 96 98 97
-1257.12516297871 259.13641295064 2832.0755961695 84 86 85
-1264.22861937972 258.847709782335 2830.18219999718 49 51 50
-1271.22554868182 258.184626369791 2830.31845789046 80 82 79
-1278.04170624973 256.961610321318 2833.50205115343 106 108 105
-1285.20054355277 256.859126276931 2830.59356627232 104 106 103
-1292.24214737205 256.383063490852 2829.71606943961 99 104 100
-1299.34911563627 256.093178537741 2827.82199785098 111 116 112
-1306.32270222257 255.430688861168 2827.96140748234 151 156 152
-1313.50481152338 255.326003086763 2825.04978392293 126 131 127
-1320.77107124654 255.406061985865 2821.11948527159 113 118 114
-1327.74466506406 254.743211011582 2821.25865468326 118 122 121
-1334.8713192259 254.45111890262 2819.36237249219 125 129 128
-1342.08482076861 254.343776318119 2816.4468383632 109 113 112
-1349.30813584222 254.235572170495 2813.5303221012 118 122 121
-1356.10280690333 253.203015196938 2815.70840808781 165 169 168
-1362.9709294171 252.356120867546 2816.86891146447 155 159 158
-1370.38596156188 252.616090981606 2811.91188600647 137 141 140
-1377.7257934569 252.690387911643 2807.97242115697 142 146 147
-1384.98255213094 252.57963515938 2805.05173804301 157 161 162
-1392.3503527551 252.651971154271 2801.10878802552 164 168 169
-1400.46003342177 254.008734448504 2790.01558304627 169 173 174
-1408.62270750872 255.361882868949 2778.91577432111 172 176 177
-1415.96482600207 255.245271647052 2775.98421396567 158 162 163
-1424.09993273442 256.409652672475 2765.89602969379 164 168 171
-1432.74068626313 258.302479633287 2751.71183669313 170 174 177
-1442.03663771104 261.104271080822 2732.40480938031 139 143 146
-1450.10926431396 261.891647487712 2724.34102955258 148 152 155
-1457.48331694014 261.582478284543 2722.41367819894 162 163 168
-1465.11263163829 261.637437665688 2718.43813853176 164 165 170
-1472.62936962572 261.509406072739 2715.48505703969 158 159 164
-1481.07055751837 262.653571305232 2705.35872888611 169 170 174
-1489.29282327867 263.431414838963 2697.27630008067 158 159 161
-1498.50388808058 265.476999959558 2682.01284622338 162 163 165
-1508.06667969804 267.880267191806 2664.68894253067 155 156 158
-1517.99749020498 270.640178637088 2645.30255858129 131 133 132
-1528.02394277727 273.393760749002 2625.9044960044 128 130 129
-1537.70644502738 275.598878133158 2609.57386205122 134 136 135
-1546.42315127652 276.534970175202 2600.42162615587 140 142 139
-1151.11361553324 264.578420688133 2816.06579095696 178 182 181
-1158.0967534573 261.668881625686 2828.30289214694 174 178 177
-1165.00895659643 258.763682349583 2840.54883415005 176 180 181
-1171.92090748614 256.609841019635 2848.76184029649 172 176 179
-1178.90545853182 255.578207039179 2850.91622795291 164 168 171
-1185.80393112396 253.988369298443 2856.10588899576 161 165 168
-1192.69493240234 252.58660723347 2860.28854029435 154 158 159
-1199.58648661411 251.372344923694 2863.46270144925 147 151 152
-1206.61115733949 251.088481688531 2861.57912451768 144 145 147
-1213.67412278118 250.989594395994 2858.68235413742 148 149 151
-1220.71050320479 250.704387963925 2856.797319442 145 146 148
-1227.86889585455 250.974376934389 2851.87229469144 128 130 129
-1235.08970038295 251.427865168014 2845.93107070169 109 111 110
-1242.33657357692 251.879336848759 2839.98683907585 118 120 119
-1249.60936413202 252.328736885616 2834.03913830343 106 108 107
-1256.95811378891 252.960775653656 2827.07379021337 93 95 94
-1264.18039061476 253.037365685566 2823.14898950273 48 50 49
-1271.19652762732 252.375808356355 2823.28308663715 97 99 96
-1278.14830830528 251.530452573866 2824.43314591779 113 115 112
-1285.20984934686 251.053358561068 2823.55316375331 116 118 115
-1292.08035440346 250.025167744365 2825.72177460749 99 104 100
-1298.80159368611 248.630995494465 2829.92559121201 131 136 132
-1305.77019710697 247.971747157664 2830.06537390827 141 146 142
-1312.94674450715 247.861983492644 2827.15469808236 120 125 121
-1320.28145623975 248.117392978917 2822.20746787846 109 113 112
-1327.25262725869 247.457505797732 2822.34717210477 120 124 123
-1334.45609180498 247.345547074591 2819.43290269003 121 125 124
-1341.58717948184 247.050425304434 2817.536075201 110 114 113
-1348.55298606992 246.390519031241 2817.6762086581 134 138 139
-1355.60018616343 245.912965008721 2816.79801737057 161 165 166
-1362.73668596999 245.617199843878 2814.90051617411 150 154 155
-1370.2494770449 246.047786860831 2808.9229142991 136 140 141
-1377.40573680207 245.750523984956 2807.02295112179 150 154 155
-1384.66490621804 245.634240153407 2804.10174145865 162 166 167
-1392.03492102455 245.69837259622 2800.15853672805 166 170 171
-1400.35310379892 247.389814202475 2787.02305635861 170 174 175
-1408.41581290802 248.534619884157 2776.94395843307 163 167 168
-1415.76302798382 248.412308983405 2774.01177706418 159 163 164
-1423.79022770455 249.371662670123 2764.94552624854 165 169 170
-1432.66048719408 251.589585710545 2748.71622166671 170 174 177
-1441.96148525899 254.342143184164 2729.40869422185 141 145 148
-1449.80150444832 254.750450559531 2723.39031488535 149 153 156
-1457.05560170713 254.258760445047 2722.48634128165 159 160 165
-1464.30899803953 253.767234427981 2721.58245471728 162 163 168
