ply
format ascii 1.0
comment KinectMotionCapture
element vertex 778
property float x
property float y
property float z
property uchar red
property uchar green
property uchar blue
end_header
-642.278998992605 -162.782158491692 2414.90594690419 24 21 12
-633.954171431999 -162.541492488998 2423.11542861866 36 30 18
-616.477082912718 -161.910557800706 2432.66042493107 66 56 44
-609.132511102521 -161.708677025517 2440.58859677543 80 62 48
-610.925364223773 -161.894886944106 2447.12754583054 64 45 30
-609.665565584327 -161.950537454134 2454.10491575265 61 38 24
-607.383147133482 -161.961925457433 2461.20976415691 79 57 43
-605.094728171311 -161.972446172438 2468.29288139911 78 59 45
-622.17231842729 -162.810362830687 2472.72108833636 43 27 14
-631.108806200412 -163.300825079507 2478.31476301122 48 36 24
-634.950048833843 -163.573144387969 2484.61104609972 61 55 43
-641.858885406382 -163.976949650091 2490.52472975151 41 37 25
-686.605678808631 -166.005445219682 2491.72258417987 24 22 10
-756.933769565977 -172.030454551984 2234.68167413067 21 22 14
-790.843727056151 -173.652822050462 2234.86687969275 18 19 11
-770.80563895022 -172.896084695023 2246.67270187566 16 17 9
-749.735162051743 -172.091124448023 2258.57223260804 16 17 9
-753.664546019453 -172.389465734358 2265.17933828092 15 16 10
-748.578149519315 -172.288194603716 2273.63458300758 14 15 10
-743.481467486435 -172.185329535067 2282.05264589609 16 19 12
-694.221262708025 -170.121569392691 2299.18931436351 21 24 17
-619.782695480528 -166.934144812175 2320.96759354806 29 32 25
-623.618230916737 -167.21989905519 2327.23420481751 28 31 24
-636.506952940799 -167.908328196179 2331.79055415768 27 30 23
-625.258839220609 -167.521852738234 2340.92839394223 28 31 24
-613.991808378642 -167.132900588684 2349.9975618147 28 31 24
-631.931852645898 -168.046343274386 2353.68295887278 28 31 24
-626.698921714449 -167.925120852238 2361.60674617695 26 29 22
-629.529416216605 -168.163569367784 2368.06895320753 24 27 20
-620.241925704531 -167.859118159725 2376.64084708373 23 26 19
-620.034168557907 -167.960123285101 2383.59928596011 22 23 17
-617.800674547069 -167.9697177793 2390.88691354894 21 22 16
-626.694189696579 -168.478143288421 2396.30969823256 19 20 14
-648.764157012082 -169.579082909095 2399.62410381717 18 19 13
-635.388998043511 -169.086649445921 2408.72417859006 19 20 12
-639.234083841372 -169.368027565485 2415.02994035826 20 20 12
-635.9772448675 -169.329000972304 2422.44510586299 29 22 12
-624.587346067307 -168.922314779524 2431.06928543454 35 27 16
-618.260434618443 -168.742749359679 2438.86542161312 57 41 28
-618.024800474871 -168.837461615103 2445.72340262972 63 44 30
-613.71447932637 -168.747317581254 2453.15671757972 57 35 22
-608.376816900583 -168.609823258174 2460.70193059863 82 63 49
-609.144548816259 -168.748130920383 2467.36136889697 80 62 48
-630.310083516058 -169.811321077942 2471.238875885 40 26 13
-647.420054399019 -170.691563532365 2475.75965442938 43 31 19
-657.401089445677 -171.24881148117 2481.29304302621 51 43 30
-665.349192322661 -171.713932158571 2487.12935802569 44 42 29
-700.922606727335 -173.43677059339 2489.53090060885 23 23 11
-808.951495540148 -181.589397300275 2223.05107548399 17 18 10
-750.950854264044 -179.00206654166 2243.13551289562 18 19 11
-756.881728276493 -179.400336406833 2249.31802838137 15 16 8
-737.792987564831 -178.626588751885 2260.76301040052 15 16 8
-731.696461361359 -178.459508632626 2269.40571025326 15 16 10
-744.634412712108 -179.184478646178 2274.12176844075 14 15 9
-736.521691475144 -178.921090888091 2283.13310469004 19 22 15
-660.130792089482 -175.44636779123 2305.63678322949 22 25 18
-627.829476116164 -174.038957715365 2319.08200526179 29 32 25
-638.70788417401 -174.661964079947 2324.00839814085 28 31 24
-643.562753952534 -175.001305603167 2330.12944545156 28 31 24
-642.381161743185 -175.055660892762 2337.39799825495 28 31 24
-629.10526672085 -174.538033276946 2346.88345589657 29 32 25
-635.971617804334 -174.970826616938 2352.62016867711 29 32 25
-624.684424324333 -174.544709421297 2361.63794069081 26 29 22
-614.387881266083 -174.163951923575 2370.40884543536 23 26 19
-599.022271693251 -173.541506632483 2379.99441968532 20 23 16
-598.798033559187 -173.635399536711 2386.89522914712 21 24 17
-601.605813812773 -173.872780728616 2393.27377647691 20 23 16
-617.577278350616 -174.735397068711 2397.47588171566 20 21 15
-617.357341947166 -174.828632161669 2404.39307796771 19 20 14
-615.106076461698 -174.82462515408 2411.62423985304 20 21 13
-625.024939327775 -175.399630525289 2416.91465519939 22 22 14
-624.801135466356 -175.49138566936 2423.81935572277 25 21 12
-628.638717511891 -175.776336817854 2430.09407268336 25 18 8
-632.478678839634 -176.061281447303 2436.37855659075 40 30 20
-632.251446082143 -176.151477557454 2443.27058156495 55 41 30
-626.929819878746 -175.997583722726 2450.88568772771 40 23 13
-615.484113826215 -175.549494473366 2459.3288056317 69 53 40
-614.216200722702 -175.587743082469 2466.28703478836 70 54 41
-621.106709468985 -176.016636612056 2472.11683139474 35 23 11
-641.278735078248 -177.083115218413 2476.19894905943 32 24 13
-659.432544924081 -178.053745675173 2480.64191044902 34 30 18
-680.676384324114 -179.173822737664 2484.77423202801 18 18 8
-706.04037729559 -180.493314914583 2488.49083644383 26 28 17
-797.058011033424 -188.262893421286 2225.33548356664 14 17 8
-754.023193478509 -186.255321271137 2242.17054014477 16 19 8
-750.950983582872 -186.219104940274 2250.26942297816 15 18 7
-719.831990722525 -184.794125429384 2264.21822201463 17 20 9
-710.711833320515 -184.455253754533 2273.4340512354 10 13 4
-712.607060906434 -184.660986721904 2280.34077078202 14 15 7
-700.452296826171 -184.169200320202 2290.0752036793 26 29 22
-713.3839931919 -184.921290315961 2294.75091619633 26 29 22
-658.996577019562 -182.328546253146 2312.66775736272 29 32 25
-667.888719536776 -182.8777622476 2318.05876373213 30 33 26
-662.700218420645 -182.726274692353 2326.1675470757 31 34 27
-657.501647106886 -182.573153200228 2334.2390443089 31 34 27
-650.277213764588 -182.318093117126 2342.6459123466 29 32 25
-628.91916497104 -181.356542490288 2353.57660796337 28 31 24
-630.741922840684 -181.550254690072 2360.2218509405 24 27 20
-616.40401222793 -180.935919907299 2369.72162907108 23 26 19
-600.021298271229 -180.217578545655 2379.48868725626 21 24 17
-600.807555701216 -180.356815681835 2386.21632033713 22 25 16
-610.701539432647 -180.951710753599 2391.40273603953 19 25 15
-612.503718014497 -181.1412520977 2397.97420541445 19 22 13
-603.155966616303 -180.770909694074 2406.36396268273 19 22 13
-606.978503769816 -181.060648428307 2412.57979827696 22 23 15
-614.863554764313 -181.554183609809 2418.16500358673 22 23 15
-614.631197095965 -181.639743350757 2425.04092793217 20 17 10
-626.593362245887 -182.338402706339 2430.0470147612 21 17 8
-644.672838001132 -183.345493842434 2434.19096887733 28 24 15
-643.434533377993 -183.379888254403 2441.26156185681 37 30 22
-637.098342254106 -183.156502461364 2449.05091031041 37 28 21
-622.595989329585 -182.520080347802 2457.95316212909 46 36 26
-622.351083985704 -182.602231967019 2464.7855801467 53 45 34
-620.061625043305 -182.580514287403 2471.8851897808 45 38 28
-641.260474506114 -183.746395765849 2475.82155403032 21 17 8
-677.819896571517 -185.690930505026 2477.84673295814 15 12 3
-696.014817267559 -186.707387543935 2482.41339837213 19 20 12
-777.15685795619 -194.449842324295 2229.36858926882 22 25 16
-778.10473217218 -194.611302136256 2236.68317258847 14 17 6
-756.026269858399 -193.572796221118 2248.88401992645 17 20 9
-728.903981284527 -192.268956269404 2262.00910691038 18 21 10
-699.734877906864 -190.855439925236 2275.39665639371 9 12 3
-688.579206129251 -190.379315611317 2284.9343145874 14 15 7
-621.182937380902 -186.963370442056 2305.72744297374 27 30 23
-618.991337767053 -186.950486727627 2313.18480781169 27 30 23
-631.874625185874 -187.725745651654 2317.66615974834 29 32 25
-641.755105391182 -188.34403405588 2322.78767017942 30 33 26
-653.660629063384 -189.068665022104 2327.56706118778 30 33 26
-651.4746337683 -189.054580950489 2335.04599160557 30 33 26
-648.27447773652 -188.986583689679 2342.68990032763 29 32 25
-639.012684292874 -188.599328516183 2351.41040949386 29 32 25
-623.676792913595 -187.891475566859 2361.16024349613 28 31 24
-619.43087610928 -187.765282121571 2368.85543886435 27 30 23
-608.098128505919 -187.265154353761 2377.75080374715 25 28 21
-613.948294859888 -187.668582203204 2383.62948201148 21 27 17
-621.828730440719 -188.178971274006 2389.18691053151 21 27 17
-614.518477656159 -187.888164165078 2397.29771660098 20 26 16
-617.334935966966 -188.130708198101 2403.70522430877 22 25 16
-618.123277679128 -188.265911678684 2410.44314255982 21 22 14
-623.987039557902 -188.668839465316 2416.37354307908 20 21 13
-629.856295294108 -189.071998279238 2422.32419535569 20 20 12
-640.815560257428 -189.744446027083 2427.51957937616 16 16 8
-644.664070311519 -190.040604011382 2433.82872350375 15 15 7
-662.771804233438 -191.092208551759 2438.04949122112 16 13 6
-655.426525977852 -190.794808850758 2446.03441679898 18 15 8
-631.751821728199 -189.629761776803 2456.28587155393 37 33 24
-628.450346014274 -189.544565718154 2463.56538759741 41 37 26
-624.120545177473 -189.403926684025 2470.95732915988 34 31 22
-650.43863978514 -190.892330775352 2474.21336342768 17 17 9
-702.356363831754 -193.744205034681 2474.23953893924 15 15 7
-715.457262232502 -194.532500812804 2479.52060701401 13 16 9
-790.195419565197 -202.431808361019 2233.7728266299 15 18 7
-744.079386890882 -200.014827602251 2251.11630470941 17 20 9
-788.092416497514 -202.52930724058 2249.28301307904 17 20 9
-725.855890369141 -199.223951574677 2269.6809031645 10 13 4
-698.654589248162 -197.834432953607 2282.56672507355 12 13 5
-683.463758080048 -197.101245240239 2292.87113425257 26 29 22
-621.009733845642 -193.770785461253 2312.47641689908 26 29 22
-642.95019571129 -195.072735681266 2315.18308656137 27 30 23
-621.639101153994 -193.997270173985 2326.36003394655 28 31 24
-634.540555456626 -194.802300292158 2330.89003998874 28 31 24
-630.322478186762 -194.665000562093 2338.69561001877 27 30 23
-628.112982761034 -194.637454033479 2346.09578854796 28 31 24
-621.860004020035 -194.386136874271 2354.2107936499 28 31 24
-625.696112780615 -194.69050757502 2360.46870912604 27 30 23
-618.416145352539 -194.380905290318 2368.7038250784 26 29 22
-620.226697324782 -194.572397087564 2375.3051517967 25 28 21
-627.098177407093 -195.043223383017 2381.03782455011 21 27 17
-618.782080788932 -194.673881600281 2389.36096169391 21 27 17
-616.533606166508 -194.639285211472 2396.62086901814 21 27 17
-623.408663996049 -195.10925443057 2402.36736635894 21 24 15
-633.336304622315 -195.748413663509 2407.64986841868 19 20 12
-621.942257782925 -195.205323401449 2416.34476552219 18 19 11
-623.744637734599 -195.393212809517 2422.91802548973 19 19 11
-649.961443796334 -196.936333728987 2425.76344989766 17 17 9
-648.726521304289 -196.955522374616 2432.85620019186 15 15 7
-643.41224645508 -196.747427386128 2440.53282026291 17 14 7
-657.456922109192 -197.615340122525 2445.37043291789 21 18 11
-649.075196440104 -197.235404159668 2453.45659086926 28 24 15
-647.824905696171 -197.251660062295 2460.49413343669 30 26 15
-640.440547007664 -196.925601297889 2468.35298388149 25 22 13
-690.291694993109 -199.790007395279 2468.49202536036 14 14 6
-718.726719306178 -201.462447935869 2471.6980439467 14 15 7
-721.605620451727 -201.709607169808 2478.33354684268 9 12 5
-796.287432337355 -209.965293717103 2232.15249683618 15 18 9
-800.249967085704 -210.294272664173 2238.86334184512 10 13 4
-807.222770475545 -210.795707117496 2244.95288379202 12 15 6
-758.016867758366 -208.070209548991 2262.70802251584 16 19 10
-703.717143565742 -205.047774168877 2281.22173141886 16 17 9
-664.407907484063 -202.882744698915 2296.4023415622 25 28 21
-653.192984645386 -202.330967927167 2305.76777518047 25 28 21
-645.984120507115 -202.008388826084 2314.27507659453 27 30 23
-642.789468638047 -201.915964670742 2321.95577207891 27 30 23
-602.305127797806 -199.673035756751 2336.71895058312 27 30 23
-608.14429789398 -200.098767660338 2342.54364930782 26 29 22
-607.934787530539 -200.175243228007 2349.51013648987 25 28 21
-612.770977399738 -200.542462851891 2355.5442281851 25 28 21
-615.590154191652 -200.793004221391 2361.95677998084 23 26 19
-622.455616668053 -201.277106881233 2367.65779951897 22 25 18
-628.315906410909 -201.702970721649 2373.56082805446 21 24 17
-634.181716684155 -202.12901090782 2379.48424190181 18 24 14
-622.825661723847 -201.557214451925 2388.33831899414 18 24 14
-617.535318269956 -201.335770424597 2396.11221952987 17 23 13
-629.486432834871 -202.113331481313 2401.02746329908 18 21 12
-640.436201387349 -202.833089160957 2406.1577199931 16 17 9
-643.26853685236 -203.081744179417 2412.62031830632 15 16 8
-643.848470289745 -203.28252444531 2426.33662552176 19 19 11
-668.06723569231 -204.773773000626 2429.58910683122 18 18 10
-663.781999688811 -204.607505760516 2437.16361821538 17 17 9
-659.487889658951 -204.439981129348 2444.70597592982 20 17 10
-668.452066559834 -205.044095111666 2450.33070115434 19 15 6
-661.086039434533 -204.696580657829 2458.27023007702 17 15 3
-680.278083503342 -205.896803343458 2462.52667874987 16 16 6
-684.153675359121 -206.204123002331 2468.92932540223 13 14 6
-715.664209978006 -208.12449071721 2471.70769255646 17 18 10
-720.588661871503 -208.49359992419 2478.06829086518 8 11 4
-837.45231173069 -219.528467845877 2215.29440498875 14 17 10
-856.464049687222 -220.865566285793 2226.58856601101 14 17 8
-819.346555544298 -218.73522744575 2242.09028374202 12 15 6
-808.269252308167 -218.165747026494 2251.97784912807 14 17 8
-664.277502138233 -209.784185323854 2303.25085393151 25 28 21
-672.170881520239 -210.347418598163 2308.82204816222 27 30 23
-662.948399331601 -209.879555164146 2317.73847512679 27 30 23
-632.541088594898 -208.133550444341 2330.63596852921 27 30 23
-598.052657128482 -206.138857302274 2344.12427995048 27 30 23
-613.985578448069 -207.183601383032 2348.06829585317 26 29 22
-613.775642794359 -207.254308890636 2355.03684566697 25 28 21
-612.551522871773 -207.263135861956 2362.17624560304 23 26 19
-618.404203635689 -207.699095301031 2368.04464965856 22 25 18
-628.311922891619 -208.380026287491 2373.22681507634 20 23 16
-634.17848871475 -208.816609574305 2379.14637777052 18 24 14
-628.899109036483 -208.578294914313 2386.97163589057 18 24 14
-623.609205763235 -208.338481453076 2394.75969725218 17 20 11
-619.324663599089 -208.15882775182 2402.34430721415 16 19 10
-635.349501314249 -209.209523344863 2406.62583320518 15 18 9
-635.127855581985 -209.275302143946 2413.55494654347 15 18 9
-617.608271638282 -208.290883082052 2423.16440817973 20 21 13
-617.368222844851 -208.354071344022 2430.02683008832 21 22 14
-648.707809693146 -210.335078917377 2432.1322168431 18 19 11
-664.795952120616 -211.390554295234 2436.64576311765 19 19 11
-661.519529014431 -211.269090079891 2444.04119239896 19 19 11
-644.963648157423 -210.33910283139 2453.29800893375 18 15 6
-659.031515527006 -211.271623381147 2458.18093789172 17 14 5
-681.295245044077 -212.703618417697 2462.00573349577 16 16 6
-703.587382030942 -214.138263489684 2465.93432737381 14 15 7
-710.550641881163 -214.639402914511 2471.98862229414 18 19 13
-707.275804548973 -214.516208673752 2479.39010246846 8 10 5
-831.528237486624 -226.551141293577 2223.93540056004 20 23 14
-809.44607929729 -225.260519748229 2236.28169844695 14 17 8
-816.427591539128 -225.788956301614 2242.38652694204 12 15 6
-789.276389299131 -224.177220767606 2255.59772328019 15 18 11
-669.486638108781 -216.836308215825 2294.75923326604 26 29 22
-685.432572435559 -217.92149186621 2298.72603248672 27 30 23
-673.202739527783 -217.236864111829 2308.30349947525 27 30 23
-660.952564104274 -216.549537045517 2317.80714289413 27 30 23
-652.715729923885 -216.113284017212 2326.46681019197 26 29 22
-649.50992450517 -215.992477458806 2334.124013896 25 28 21
-623.070039426431 -214.408236934594 2346.06251214547 24 27 20
-623.875453858652 -214.537905329162 2352.86731262348 23 26 19
-615.577158981508 -214.09328034063 2361.30500304015 24 27 20
-620.420784763616 -214.476148162148 2367.35682336982 25 28 21
-619.19202835396 -214.475773941304 2374.48481808916 23 26 19
-615.931989045682 -214.346666001769 2381.94497402576 21 24 15
-616.721144084771 -214.472374326075 2388.69190674488 21 24 15
-628.67234278986 -215.30268583281 2393.57415903745 20 23 14
-624.387921392154 -215.107283009975 2401.17008957493 19 22 13
-641.437353973003 -216.259831565041 2405.29511047472 20 23 14
-642.23559640009 -216.384915665704 2412.07617698652 21 24 15
-633.872285234176 -215.929875761787 2420.27812107568 19 22 13
-610.217142339702 -214.505813650934 2430.76573184316 18 19 11
-626.274694600862 -215.595176610262 2435.14337895831 18 19 11
-664.78992117572 -218.108040608274 2436.27862259234 18 19 11
-637.015729401705 -216.420274478461 2447.22571165376 18 19 11
-648.010872244917 -217.189355680996 2452.49329390592 19 16 7
-664.128841297153 -218.283633690841 2457.09308264187 16 16 6
-667.993216733832 -218.600573963502 2463.44801097657 16 17 9
-696.424191956488 -220.47738584382 2466.50996671888 13 14 8
-684.947984941205 -219.819947339781 2474.97201268604 16 19 12
-792.534745716206 -231.279772201106 2232.03876176549 21 24 15
-794.487953717595 -231.493192921871 2239.15589758586 16 19 10
-751.269925348322 -228.756619885885 2255.77098131427 13 16 7
-734.104736465066 -227.718682560531 2266.73003098025 14 17 10
-675.696950199846 -223.983474160902 2286.02845771843 15 16 10
-602.113574327776 -219.251955090722 2308.06043483487 27 30 23
-655.263188546671 -222.805628808428 2304.42372788286 27 30 23
-639.983170599373 -221.883512504683 2314.51628365233 27 30 23
-636.775677598359 -221.750322059575 2322.1750402318 27 30 23
-661.808089985265 -223.466215175583 2324.41028412406 26 29 22
-652.548838047464 -222.935755077282 2333.22971247351 26 29 22
-624.078468881764 -221.144549126152 2345.55365819896 25 28 21
-619.828312114785 -220.939822908132 2353.28269289828 24 27 20
-635.803308015443 -222.061583351927 2357.33429937432 25 28 21
-638.636964442488 -222.320955259502 2363.79410705542 25 28 21
-621.20889136719 -221.249155217515 2373.7994274093 23 26 19
-604.767087382705 -220.240635630697 2383.530299243 21 24 15
-610.620118256988 -220.696326765478 2389.38661660749 20 23 14
-611.401839090771 -220.818236337711 2396.10927493506 20 23 14
-625.390216288592 -221.808572470424 2400.66057073254 20 23 14
-621.094426855219 -221.595738053226 2408.22529937779 19 22 13
-641.208539343047 -222.989524014651 2411.88575224404 19 22 13
-640.984852027635 -223.044148845758 2418.8143276157 17 20 11
-616.305150089115 -221.486755230469 2429.47845037693 17 18 10
-625.234408165727 -222.143210678013 2434.9404831898 17 18 10
-642.33608878005 -223.338707568596 2439.23144644436 18 19 11
-668.648042805039 -225.142325886027 2442.26567217151 17 18 10
-649.015965883549 -223.914364220003 2451.97919126027 15 15 5
-657.982230173797 -224.57330886276 2457.57704934381 17 19 8
-669.00449713087 -225.368120902124 2462.93002203371 15 18 9
-626.797299745141 -222.645662303694 2475.49564217856 16 19 12
-690.062899508506 -226.893079766922 2473.90994286503 15 18 11
-795.625111493996 -238.652139372228 2231.06458772861 21 24 17
-779.516860673896 -237.639391976234 2242.03654630441 18 21 14
-758.361664920836 -236.282264886293 2253.9701417725 16 19 12
-756.266646693324 -236.218221351257 2261.81839400096 14 17 10
-750.142977794341 -235.879677905222 2270.46950033591 15 16 10
-607.948477024982 -226.358811142104 2313.54749790219 27 30 23
-626.89209037945 -227.719768213733 2316.77916372453 27 30 23
-643.842569047211 -228.945500023371 2320.49058406372 26 29 22
-636.593007655184 -228.523195498607 2328.91067498536 27 30 23
-645.489713339929 -229.200256381127 2334.23790893189 27 30 23
-613.969262178527 -227.12178630259 2347.10968073648 27 30 23
-617.799900260848 -227.452147463185 2353.32994661824 26 29 22
-638.838792364269 -228.956113894295 2356.45804238051 26 29 22
-649.776594677538 -229.771246330504 2361.4836561453 25 28 21
-623.226147871991 -228.026806086898 2373.11373111141 23 26 19
-617.934696896452 -227.73244831125 2380.92955355994 22 25 16
-612.632991800532 -227.436731296172 2388.70816262186 20 23 14
-629.665941793765 -228.66691788379 2392.72297031498 20 23 14
-617.244666897085 -227.883319601521 2401.65213553046 21 24 15
-623.111120164254 -228.349581797792 2407.5525426167 18 21 12
-641.197261927196 -229.65211027272 2411.5347226435 16 19 10
-622.63805505768 -228.446090570314 2421.32142456701 16 19 10
-626.47403383742 -228.772621396815 2427.56393768397 14 17 8
-634.392533478166 -229.378503234404 2433.20147244176 15 18 9
-657.629842700034 -231.0341725745 2436.60344204327 16 19 10
-647.190048876009 -230.381635476299 2445.01407218278 16 19 10
-669.441354899024 -231.970300297273 2448.69382868823 16 18 7
-688.652723224562 -233.351075654542 2452.90710401153 14 16 5
-651.591457221971 -230.870298630637 2464.94344276907 14 17 8
-643.155670675377 -230.35263394185 2472.91583798527 13 16 9
-686.980431547313 -233.423366878146 2473.92960163728 15 20 13
-795.70715209615 -245.8217894261 2230.73989610355 19 22 15
-797.660772514347 -246.035142312138 2237.858605974 18 21 14
-757.333625926272 -243.338692976689 2261.28438574775 13 16 9
-763.279117665007 -243.831137453587 2267.46171706646 14 15 10
-642.200533383763 -235.420609473924 2306.40966196059 28 31 24
-645.043435340614 -235.689253501318 2312.89794255073 27 30 23
-618.628995923376 -233.889028394344 2325.06820593526 26 29 22
-640.636225439358 -235.511563422861 2327.82037033187 27 30 23
-630.341158139333 -234.84918499127 2336.77362596957 27 30 23
-609.91777418818 -233.468778135139 2347.54267246833 27 30 23
-606.662826273318 -233.302544721701 2355.04609985398 26 29 22
-620.613123703019 -234.354214896712 2359.41728983243 26 29 22
-623.434904304291 -234.617534951127 2365.83144126931 26 29 22
-625.244025040982 -234.808687919647 2372.42766800923 23 26 19
-610.818733598757 -233.848328382505 2381.82055113895 25 28 19
-623.784878634638 -234.829575947405 2386.47948672389 23 26 17
-629.654027236899 -235.307472086096 2392.38255599885 22 25 16
-621.293490544676 -234.775115028817 2400.64361516807 24 27 18
-604.778334158556 -233.662963480439 2410.166642684 18 21 12
-626.929990413424 -235.295790112892 2413.44853767527 15 18 9
-652.166983864763 -237.148450652671 2416.35700317146 16 19 10
-610.138471238945 -234.221195598966 2429.71534256923 13 19 9
-636.413917501837 -236.147504381526 2432.53656179428 15 21 11
-637.196109400585 -236.261662834369 2439.26493372225 15 21 11
-644.107320745541 -236.811429599394 2445.09528198684 15 21 11
-638.755165781534 -236.488330939665 2452.70386791345 14 17 8
-662.043716418484 -238.203360520908 2456.2586098974 9 12 3
-697.649857203244 -240.796133254185 2458.23242814121 18 21 12
-671.821920932808 -239.014332930451 2468.67138090799 10 15 8
-655.183752664697 -237.88575932043 2477.74805744578 5 11 7
-786.756373914828 -252.324643839414 2232.36784008341 15 18 11
-789.707109276494 -252.610669482319 2239.24551112875 17 20 13
-797.683679060606 -253.263826568529 2245.06973085284 16 19 12
-769.463192997125 -251.26762471237 2258.45086724384 12 15 8
-735.160752766865 -248.824108396392 2272.91309112748 14 15 10
-675.627720880378 -244.530309060266 2292.2817578525 29 32 25
-658.337202711055 -243.327922352135 2302.88023819694 28 31 24
-636.984882285516 -241.826398547309 2314.17311291802 26 29 22
-638.813353436194 -242.022677807625 2320.83794748023 26 29 22
-626.501347082881 -241.181530808092 2330.20913862854 27 30 23
-629.330016228499 -241.449922270313 2336.64566405906 28 31 24
-610.919333418214 -240.159295728989 2347.03722303343 27 30 23
-600.577039786648 -239.459517656779 2355.83967775592 26 29 22
-612.50109357683 -240.393846381543 2360.5554752736 26 29 22
-610.248755675502 -240.286884023248 2367.84672708518 26 29 22
-614.07647271628 -240.625976674838 2374.05063510588 24 27 20
-611.816498193327 -240.517322373572 2381.31460184232 25 28 19
-636.976200977835 -242.424066998773 2383.90195638094 24 27 18
-643.871855882988 -242.988266940868 2389.6654342811 22 25 16
-634.49943590647 -242.35541154666 2398.1293389125 22 25 16
-623.075068488997 -241.57070147741 2406.86420774956 18 21 12
-598.389585796837 -239.808954979729 2417.63588541745 15 18 9
-615.459883173755 -241.120174751611 2421.73819651591 17 20 11
-624.391256007647 -241.83220785091 2427.17206316578 14 20 10
-625.16575770683 -241.943288907801 2433.87475481921 16 22 12
-650.454802020232 -243.860486748088 2436.93572949158 16 22 12
-648.176747002581 -243.746333129979 2444.13603887564 15 21 11
-697.039398492737 -247.402432642183 2444.00147321538 13 16 7
-688.643253206203 -246.837016309119 2452.15119654907 10 13 4
-682.281402955797 -246.421008697535 2459.96596000479 12 15 8
-681.033107636481 -246.381635276861 2467.04603263523 12 17 11
-669.522299583051 -245.584328428487 2475.46791727978 13 18 12
-810.881467660233 -261.344218629714 2234.41586620133 18 21 14
-798.766803564397 -260.491184781596 2244.52818423003 16 19 12
-795.687139549659 -260.321821299692 2252.68345352099 13 16 9
-663.561612100496 -250.426002983598 2294.41630943151 30 33 26
-632.138332848688 -248.100894996723 2307.80364673241 27 30 23
-616.811278005969 -246.995475910344 2317.83729150909 26 29 22
-616.605053298822 -247.036870051003 2324.83905528798 26 29 22
-625.489605978652 -247.768046020611 2330.08793109866 28 31 24
-624.272590696283 -247.731654862114 2337.28225753135 29 32 25
-627.098716443826 -248.002055686391 2343.7071421948 25 28 21
-619.800035900534 -247.502324423624 2351.99374652391 24 27 20
-619.581252044669 -247.540128679377 2358.95114711053 26 29 22
-615.303382716625 -247.268654330556 2366.61943177761 26 29 22
-616.090458587969 -247.381875712952 2373.36652855581 24 27 20
-621.952972523495 -247.880782450271 2379.23169962149 23 26 17
-640.01506905526 -249.308020408233 2383.04586937871 23 26 17
-647.931072525324 -249.963003819081 2388.64313618115 20 23 14
-644.661723926031 -249.76610616418 2396.11245644473 17 20 11
-599.634133301527 -246.387761044044 2410.31049186505 15 18 9
-626.891769553941 -248.514759761536 2412.75443549176 16 19 10
-620.533288759517 -248.080367765938 2420.59331601478 15 21 11
-614.162882496851 -247.644488134635 2428.38978784936 15 21 11
-622.077509311759 -248.297174971817 2433.9833933374 16 22 12
-638.175591335503 -249.573832112823 2438.39420079856 15 21 11
-661.452024480304 -251.398364587229 2441.83388949243 13 19 9
-666.33820612565 -251.82006308087 2448.01919574801 15 19 5
-698.877716623758 -254.35217451645 2450.33540532368 15 19 5
-692.518798072665 -253.915543906148 2458.17500290862 6 9 2
-677.944416963809 -252.850836817469 2467.0811539308 14 19 15
-691.054405052367 -253.899836672607 2472.23044630617 11 16 12
-813.980143881075 -268.765153591763 2233.44281307257 15 18 11
-823.988950618117 -269.609701469657 2238.89699735531 21 24 17
-789.722374517114 -266.982072337532 2253.60861691539 11 14 7
-751.375001069663 -264.032197796592 2268.95869518356 23 24 18
-657.532691736745 -256.72582369605 2295.33083349393 28 31 24
-600.87432301082 -252.333237882709 2313.74596857285 27 30 23
-598.639406165307 -252.21026724125 2321.11200814218 27 30 23
-622.661251782341 -254.148439598803 2323.35120059123 27 30 23
-636.60605234345 -255.295604452119 2327.64262045579 28 31 24
-641.464185016523 -255.728847139168 2333.71649797539 28 31 24
-646.326430505126 -256.162161129111 2339.80560055606 27 30 23
-625.868277961785 -254.604722758093 2350.55732651728 26 29 22
-630.720760024236 -255.036098829499 2356.61140291054 26 29 22
-622.38997690561 -254.430353616061 2365.02926470685 26 29 22
-624.195876893874 -254.621076322541 2371.61380508405 23 26 19
-616.858922488615 -254.092194479319 2379.7767102156 21 27 17
-640.005895309751 -255.961542439605 2382.70744394957 20 26 16
-654.026952199158 -257.112905406594 2387.27933814607 18 24 14
-644.651299549493 -256.422140808003 2395.76780133572 16 22 12
-622.016355769906 -254.686328639744 2406.34278472236 15 21 11
-622.793683778063 -254.79351248948 2413.05750137713 15 21 11
-639.891506277663 -256.18624691114 2417.2105437788 16 22 10
-636.593559211212 -255.971708497596 2424.58389196797 17 23 11
-623.072195296349 -254.950851409914 2433.47568446637 16 22 10
-606.46241217002 -253.685534941447 2442.7440817545 15 21 9
-627.677820723884 -255.402227848362 2446.39417316303 14 20 8
-641.754403224699 -256.556192910535 2451.16965122278 13 17 0
-659.945677764022 -258.034879312093 2455.43095174993 19 21 0
-723.266700180064 -263.074972223621 2453.55150112478 16 16 4
-698.447870190379 -261.160146125197 2463.92473285842 15 16 18
-690.017129551606 -260.537930181652 2471.98187073031 8 12 15
-789.932728532667 -273.996848979934 2238.27096722786 14 17 10
-832.124596471107 -277.469112080857 2236.86493471482 21 24 17
-827.049017269748 -277.112378164734 2245.52162778081 18 21 14
-610.956478515785 -259.749099236368 2311.42737875471 27 30 23
-611.7554412115 -259.861854001793 2318.21983260209 27 30 23
-632.76301606392 -261.613540021756 2321.07525636928 27 30 23
-651.775139993035 -263.203557581326 2324.41760074946 28 31 24
-649.560880668868 -263.0710184416 2331.86637869567 28 31 24
-641.264674982199 -262.444028366203 2340.42603261351 26 29 22
-630.927299945098 -261.650479493649 2349.3050220651 24 27 20
-631.727177875951 -261.760682856412 2356.10248482324 25 28 21
-621.362831476303 -260.963436947098 2364.8836690074 24 27 20
-622.151514591141 -261.071594610331 2371.64085915539 22 25 18
-614.808931697145 -260.51842821159 2379.79726978595 22 28 18
-632.876846403247 -262.030107480527 2383.58065848346 21 27 17
-638.755771734981 -262.550950079861 2389.49198366929 17 23 13
-646.676602645269 -263.237577265943 2395.08812461052 17 23 13
-624.032729907298 -261.437998113894 2405.67021566002 18 24 14
-615.631752496399 -260.79588681268 2413.85041945088 19 25 15
-635.791601185538 -262.477035701847 2417.49925595959 15 21 9
-654.955604101136 -264.077398025482 2421.39896610663 15 21 9
-635.30842203599 -262.518659124331 2431.26616720988 15 21 9
-618.699303618145 -261.206397687055 2440.56667102605 14 20 8
-613.321579805319 -260.807729503514 2448.12803546957 13 20 4
-615.102476718904 -260.991574598244 2454.62408649496 12 17 0
-695.796063938014 -267.603396994473 2450.01116469295 14 19 0
-725.32173164956 -270.048256490762 2452.8825431813 14 14 2
-729.229074187499 -270.40608968405 2459.37025326984 14 15 19
-704.383116656314 -268.420077336437 2469.68770902983 23 27 30
-792.017667478931 -281.280793885653 2237.51691502001 18 21 14
-777.85698427393 -280.145916280753 2248.00334726708 16 19 12
-818.067970243995 -283.557604722719 2247.07357268483 16 19 12
-685.807444081934 -272.58691074296 2288.98382505697 28 31 24
-625.083462950912 -267.549766258242 2308.29728927572 28 31 24
-644.074637564798 -269.18299637704 2311.53457080672 28 31 24
-646.915585528418 -269.464072392956 2318.00867671873 28 31 24
-646.723143895851 -269.490763354545 2325.06996814717 29 32 25
-632.354733802901 -268.3295504416 2334.80177790747 30 33 26
-621.002326738697 -267.419953639412 2343.88266837765 26 29 22
-633.961500453385 -268.546659448754 2348.42388609264 25 28 21
-632.733462186551 -268.484327176305 2355.59366420577 25 28 21
-626.424993604658 -267.995526759147 2363.65258090085 25 28 21
-628.232139374276 -268.186566845649 2370.24154624291 22 25 18
-619.872637352431 -267.524528363228 2378.58832100338 19 25 15
-629.810928739124 -268.396512025094 2383.76430311569 19 25 15
-639.760708069415 -269.269239524012 2388.98153906873 18 24 14
-637.495901718545 -269.117055336767 2396.25597768881 18 24 14
-630.127966621058 -268.536175045525 2404.3357576576 17 23 13
-628.868057808948 -268.467268465555 2411.39135735618 17 23 13
-632.708219447158 -268.826003948538 2417.62999729515 15 21 9
-660.049454163523 -271.157575063273 2420.25516933154 15 21 9
-678.224823242954 -272.719800650999 2424.40467373469 15 21 9
-665.730144881769 -271.706294298718 2433.20645819271 14 20 8
-612.262579074804 -267.250486154151 2447.92212384005 13 19 5
-597.649501328266 -266.056990323626 2456.76591230028 16 25 4
-658.881334228161 -271.235696105558 2454.83483833031 10 19 0
-698.650749386568 -274.611928571644 2456.18523232368 13 15 14
-724.099529102399 -276.785193792459 2459.67760569921 17 17 17
-707.458140596793 -275.420560853607 2468.89136162869 17 14 9
-782.02814376993 -287.52788652454 2239.34599542352 22 25 18
-803.097532721891 -289.388802011209 2242.36289008253 15 18 11
-709.180491772634 -281.374022375873 2276.69745548607 22 23 15
-692.895894692698 -280.010051508918 2287.23641907481 28 31 24
-691.733298633973 -279.950031212777 2294.64771161952 28 31 24
-657.217298159686 -277.010781264546 2308.62907941468 29 32 25
-648.942954929273 -276.335254198097 2317.30054806288 29 32 25
-630.533620087976 -274.783744353421 2327.86274886474 31 34 27
-616.146760742428 -273.578683217886 2337.55281461587 32 35 28
-619.978495489848 -273.946148843242 2343.7546554061 27 30 23
-620.77061636362 -274.050711082143 2350.52595021942 26 29 22
-644.903503808688 -276.171385884394 2353.06219672288 26 29 22
-632.505722730947 -275.135588814832 2362.23874401745 26 29 22
-630.251111699456 -274.975680605287 2369.55498338098 24 27 20
-624.939410331204 -274.551028205272 2377.37788129515 16 22 12
-627.75936517941 -274.828636467412 2383.77623324237 17 23 13
-618.359033345472 -274.049292267454 2392.22899198091 19 25 15
-626.268915415153 -274.766244246526 2397.7644075136 19 25 15
-614.808862759541 -273.80768933223 2406.47654058984 15 21 11
-621.701075353309 -274.435842918033 2412.18686087988 14 20 10
-631.664549548866 -275.329563805304 2417.44168905714 16 22 10
-649.815608520651 -276.931551640883 2421.47583099354 16 22 10
-683.330853300302 -279.863138642482 2423.26622237402 15 21 9
-697.444177377743 -281.115974406809 2428.11569292124 15 21 9
-646.025044510013 -276.696023910875 2442.62058015681 15 21 9
-619.12929971934 -274.397642846249 2453.31836061594 4 15 0
-675.270135699482 -279.288113617846 2452.15084935375 6 17 1
-688.379880599287 -280.453080268483 2457.22602345321 20 22 21
-698.423689186064 -281.352517849948 2462.77643728101 21 20 16
-806.25642828043 -296.755724158474 2233.85302160215 20 23 16
-812.23903944832 -297.326344902192 2240.1188136838 18 21 14
-805.121838371669 -296.732820819082 2249.13843158019 14 17 10
-667.853114984814 -284.572291878315 2284.89531891771 28 29 21
-685.855699628949 -286.208057876772 2288.35687901199 27 30 23
-675.593620066344 -285.331144805126 2297.56898661651 27 30 23
-668.347325068078 -284.721643432953 2306.11846228505 28 31 24
-629.724922136398 -281.3214499624 2320.73264680276 29 32 25
-613.318303877751 -279.895297958764 2330.85689856243 31 34 27
-614.10890273977 -279.998066710338 2337.62367475842 31 34 27
-614.89761653963 -280.100162450955 2344.38480601448 26 29 22
-618.728632164826 -280.472332379974 2350.58007777127 25 28 21
-630.68450692129 -281.567234887714 2355.31264241959 25 28 21
-626.398442163461 -281.216423698259 2363.00058818998 25 28 21
-623.120465316417 -280.954920205268 2370.47773318226 23 26 19
-628.99184018344 -281.507188107598 2376.34211370379 21 24 15
-627.741696935978 -281.42520043075 2383.44222974967 21 24 15
-624.449196983397 -281.160869077213 2390.86816768316 20 23 14
-618.090770484491 -280.62302374742 2398.77256481415 19 22 13
-624.984641375983 -281.264937089444 2404.47942582638 16 19 10
-616.569777330469 -280.542953401178 2412.65942753093 16 19 10
-634.705827627541 -282.185605942606 2416.61217163329 18 21 10
-645.707444941129 -283.192740301325 2421.75349802441 17 20 9
-654.675280949075 -284.018349471954 2427.25196832981 17 20 9
-677.987565716601 -286.122111939399 2430.6484758724 16 19 8
-654.197652828591 -284.028143047535 2441.05865613956 17 20 9
-643.700874177881 -283.118020382477 2449.42033882846 9 21 9
-653.707653394299 -284.035234958183 2454.82111737565 13 26 16
-694.528037325727 -287.699605665888 2455.99531665318 14 16 13
-683.001756602468 -286.696767250208 2464.48951617909 20 16 5
-859.70764925675 -308.774762987816 2222.09614170139 13 15 10
-833.480088615269 -306.411374989437 2235.31487189823 16 19 12
-720.350097670064 -296.131079920548 2273.78150888213 22 23 15
-656.590177534175 -290.329878594136 2293.99540226993 26 29 22
-656.408253962665 -290.343467093083 2301.10494642907 26 29 22
-637.007283974617 -288.598016889486 2312.00323543772 27 30 23
-607.454757126144 -285.922447232575 2324.76493213775 29 32 25
-601.152478632974 -285.373708015173 2332.88467363966 30 33 26
-602.946693309345 -285.565620978349 2339.42507727829 30 33 26
-605.75485765272 -285.849779605847 2345.77551783418 26 29 22
-607.549384667219 -286.040804430164 2352.31764184744 25 28 21
-610.359525752795 -286.32426027839 2358.67493633523 25 28 21
-621.301794779093 -287.352207951568 2363.58370275294 25 28 21
-627.171529976147 -287.915254695898 2369.43426128218 22 25 18
-629.993014948144 -288.198758797619 2375.83457195468 24 27 18
-626.704379510325 -287.922223553977 2383.28256297138 20 23 14
-619.331573557474 -287.270940352225 2391.38870712092 18 21 12
-627.245074385672 -288.01980068122 2396.91834215552 17 20 11
-625.981054820104 -287.927420509744 2403.9725704065 17 20 11
-629.819232739597 -288.302101156394 2410.19377824508 18 21 12
-631.615955313193 -288.489394026823 2416.74641009926 18 21 10
-646.709570343034 -289.895223253184 2421.24259637405 17 20 9
-642.373695140576 -289.519761625773 2428.76116872217 15 18 7
-645.199228064966 -289.800376305431 2435.17740385585 15 18 7
-638.800662723765 -289.235135895386 2442.95099817444 16 19 8
-633.416288903331 -288.762277516989 2450.5345122482 9 21 9
-693.713381053328 -294.312122843783 2448.79586040561 10 21 13
-713.005928017532 -296.102210806917 2453.05304657466 7 13 11
-625.147755645598 -288.084077612162 2478.71269964266 101 79 30
-885.998879255652 -318.511683802932 2216.14750189135 11 13 8
-810.376817542186 -311.429803530975 2239.8867738386 16 19 12
-774.999878294085 -308.1311725721 2254.79671749156 18 21 14
-721.396743736037 -303.116683803139 2273.25715599755 18 19 11
-650.538468328274 -296.477390933281 2294.9214753614 26 29 22
-640.240009433703 -295.533824936994 2304.04059480378 27 30 23
-634.983142219252 -295.063986756289 2312.09560912023 28 31 24
-618.57843779026 -293.544481673501 2322.28683382389 28 31 24
-591.002705798117 -290.972902166833 2334.52782963377 28 31 24
-581.635522067743 -290.114099705864 2343.15475559281 27 30 23
-585.443004121536 -290.494812306852 2349.25725841557 26 29 22
-590.268449901744 -290.970949838756 2355.18269434896 25 28 21
-597.130020117861 -291.638422145731 2360.75442171434 26 29 22
-616.200477611532 -293.455153569168 2364.16928289912 26 29 22
-635.294871735066 -295.273967323734 2367.67263044676 24 27 20
-643.212965349025 -296.040219481674 2373.2074082819 22 25 16
-627.7033538666 -294.599675820932 2382.77576517026 19 22 13
-622.36605739512 -294.116607480015 2390.54051424962 18 21 12
-612.937035822419 -293.247642174079 2398.94333568577 17 20 11
-625.95607032801 -294.492760325579 2403.63204543111 18 21 12
-604.248960907531 -292.466178776131 2413.93915212357 19 22 13
-626.477643229024 -294.578478912979 2417.2043153336 19 22 11
-643.618638208329 -296.211250772448 2421.36517259622 19 22 11
-673.068341423126 -299.003743253403 2423.73503252908 18 21 10
-648.24833884416 -296.6821061172 2434.36074986096 16 19 8
-640.822592771591 -295.999001217363 2442.29135729876 16 19 8
-665.193500019019 -298.312358322506 2445.58967515876 10 16 4
-732.722714399854 -304.69363434334 2442.90052413024 18 24 14
-720.194291653907 -303.529043646575 2451.67333806962 16 18 13
-728.211114046669 -304.300706575862 2457.57126043236 30 23 4
-814.485780726005 -318.951398805789 2238.70484615642 16 19 12
-770.012823875008 -314.676768628999 2255.52706651363 18 21 14
-707.29282500131 -308.636811414773 2275.85640131319 21 22 14
-629.319830706191 -301.12096833946 2298.93467254186 25 28 21
-630.126866083133 -301.219514818202 2305.76514001832 27 30 23
-635.993014681407 -301.806646843077 2311.5881050465 28 31 24
-639.839100504464 -302.198178466284 2317.82710553416 29 32 25
-576.789380643437 -296.120376204811 2336.95614431295 29 32 25
-565.378443395053 -295.035101154984 2345.93063772955 28 31 24
-575.264725018104 -296.008854584205 2350.84833665721 27 30 23
-581.099054697584 -296.590400301137 2356.55669117863 25 28 21
-596.087319441261 -298.057119730538 2360.62328960243 25 28 21
-610.076648581158 -299.426809481433 2364.93954478166 25 28 21
-639.352064097983 -302.275158158488 2366.6261149508 23 26 19
-645.237245129042 -302.860505498019 2372.52087042855 19 22 13
-630.740999739233 -301.47348715288 2381.92061451549 18 21 12
-607.040978508064 -299.195472994032 2392.78074143289 18 21 12
-593.51293429035 -297.900947708131 2401.81958202725 18 21 12
-590.177931423747 -297.592361765166 2409.11565500232 18 21 12
-607.280060554682 -299.261075071742 2413.10951943929 19 22 13
-604.967750188485 -299.050764484775 2420.24335390433 19 22 11
-631.311506212147 -301.613529778198 2422.91636856073 19 22 11
-596.227605233029 -298.230525380474 2435.07032543802 17 20 9
-655.399413249261 -303.970377168627 2432.93007440798 16 19 8
-692.083618948037 -307.533754754737 2434.39742690603 16 19 8
-685.702927167041 -306.928231606497 2442.26188564009 12 15 4
-692.664293939701 -307.613889019189 2448.19265693658 24 26 15
-708.884427780126 -309.195624257867 2452.86307950923 12 10 0
-709.694143292732 -309.285360754309 2459.70998898824 29 23 1
-782.273848937204 -322.883317210302 2245.21371225514 20 23 16
-788.24368260172 -323.49404483939 2251.40581356079 17 20 13
-658.822678881986 -310.666512328339 2285.5484359282 24 25 17
-634.37312702877 -308.256185587269 2297.60555817197 25 28 21
-640.241653553964 -308.854568246352 2303.43024891527 27 30 23
-664.342169394073 -311.262468443238 2305.66496691646 28 31 24
-628.689980067223 -307.738190044971 2319.6944939325 30 33 26
-570.676225349808 -301.992803689796 2337.82775429984 31 34 27
-574.475945485015 -302.383651967604 2343.89503950445 28 31 24
-578.278101246297 -302.77432694363 2349.97240614748 27 30 23
-590.212362331535 -303.972153393505 2354.55974268178 25 28 21
-596.059471773605 -304.565228506578 2360.30826689979 24 27 20
-609.035506817265 -305.865905600589 2364.80132204038 23 26 19
-611.843742912992 -306.156369063677 2371.14804845556 20 23 16
-636.052965774545 -308.571989393418 2373.78150023364 21 22 14
-632.760216287402 -308.255870489893 2381.23920764215 20 21 13
-605.989712285647 -305.607461057556 2392.62204316866 19 20 12
-590.411736663105 -304.070158889689 2401.99673663729 17 18 10
-603.422147404236 -305.372103821314 2406.61755058135 16 17 9
-609.289875041431 -305.964270847121 2412.44319943555 16 17 9
-621.303122024216 -307.166553332593 2417.32098181903 20 22 11
-615.921802412451 -306.640672039552 2424.9493114635 19 21 10
-630.000748375447 -308.047638426786 2429.57383280324 17 19 8
-626.663357265505 -307.724045840781 2436.87051310768 17 19 8
-698.231009443772 -314.842225505083 2433.1238371661 16 18 7
-703.146582635494 -315.33820264475 2439.37137282423 16 16 4
-645.380868147303 -309.605896623921 2454.52097932552 13 13 3
-660.544348685467 -311.119395410582 2459.20858561564 24 22 10
-688.075030711345 -313.861471593283 2462.27796697189 22 16 0
-805.551488797152 -332.292071671847 2239.97328013798 21 24 17
-636.395116472734 -315.102829885922 2296.89294648766 25 28 21
-654.412708519289 -316.949106454623 2300.27824979458 27 30 23
-660.297856363635 -317.559397901599 2306.15620463046 29 32 25
-653.01034165271 -316.827408487464 2314.63090114461 30 33 26
-581.802211637998 -309.583679868693 2335.37788801177 31 34 27
-583.579475805067 -309.773921252772 2341.8564130791 27 30 23
-594.499141605243 -310.894908763277 2346.62158864324 26 29 22
-602.381868355519 -311.706345301843 2351.99652919274 25 28 21
-602.134647977051 -311.68898650885 2358.88317760551 24 27 20
-604.938388555388 -311.98222272742 2365.21146247305 23 26 19
-608.762214782436 -312.378805081319 2371.36462867654 20 23 16
-621.763404417607 -313.71024196902 2375.93258678432 21 22 14
-619.47811230138 -313.483646668849 2383.17701603146 19 20 12
-610.040938592969 -312.528128730059 2391.60421498679 18 19 11
-595.479761177438 -311.049954931593 2400.82042996973 16 17 9
-617.698038376122 -313.319042754791 2403.9479734609 16 17 9
-629.714697490863 -314.54835017854 2408.82136229031 16 17 9
-628.4370186493 -314.422683629676 2415.8468206253 19 21 10
-643.545943380539 -315.966381126492 2420.31280601229 19 21 10
-638.170141654215 -315.422479458827 2427.97299960509 17 19 8
-623.551143860956 -313.936289817761 2436.9795996414 16 18 7
-662.29187680946 -317.887392050582 2438.04407591398 16 18 7
-699.029242853077 -321.634029663703 2439.59310156601 16 16 4
-661.797544695984 -317.842513007147 2451.82326250115 12 14 3
-644.057119655167 -316.037000912043 2461.13210860641 16 16 4
-694.233392025106 -321.152501998561 2461.05704967243 10 5 0
-820.768175227909 -340.973360762415 2236.43674153568 21 24 17
-620.202604527973 -320.05152417502 2299.89199744356 26 29 22
-620.999467743379 -320.141211261911 2306.69029103415 28 31 24
-634.968526306331 -321.606174690098 2310.8702056994 29 32 25
-619.546083734305 -320.001019833233 2320.86520153665 30 33 26
-598.010191638195 -317.756878304882 2331.94536057808 31 34 27
-592.689235957058 -317.205751890507 2339.81467713647 26 29 22
-595.488348656796 -317.502373849613 2346.12271299599 25 28 21
-617.610669872909 -319.816801652181 2348.86536544134 23 26 19
-617.372606276271 -319.795360677577 2355.78858846611 23 26 19
-593.708729119862 -317.326558040778 2366.90243608362 23 26 19
-609.753805558292 -319.005088870126 2370.86272218687 20 23 16
-623.779246077244 -320.472240673529 2375.25059037863 20 21 13
-630.677713455614 -321.194699216585 2380.92459424492 17 18 10
-600.818088669644 -318.077160655723 2392.82420349867 15 16 8
-610.770627379992 -319.11785250656 2397.94656961278 16 17 9
-631.984178176769 -321.334349334089 2401.27328448044 16 17 9
-636.850216911184 -321.842967279994 2407.32892766377 17 18 10
-645.816790999886 -322.779573047659 2412.75263526972 19 21 10
-644.544819289314 -322.64647926168 2419.80397223221 19 21 10
-636.089447017553 -321.762563329998 2427.93488135083 17 19 8
-629.671957766821 -321.091270296777 2435.70517097665 16 18 7
-667.403586972008 -325.031271441816 2436.9263718592 16 18 7
-718.545328231202 -330.371581228714 2436.39672783297 17 19 8
-667.941642195367 -325.084063155842 2450.58062569822 15 17 6
-710.916322759419 -329.570662638761 2451.44062414654 12 14 1
-841.046891389905 -350.268687582927 2231.82339595091 14 16 11
-709.578668337997 -336.203023130515 2266.93942664131 21 24 17
-622.43163481546 -326.879635820016 2292.1671476112 22 25 16
-564.515754049261 -320.68395781243 2310.94808535288 24 27 20
-627.067993825845 -327.380021766781 2305.16787301699 27 30 23
-615.701053885326 -326.165008459067 2314.38762975861 30 33 26
-603.300612681031 -324.83885866245 2323.73761403635 32 35 28
-602.047256269051 -324.705202808168 2330.85842081451 30 33 26
-599.773589726369 -324.461986714753 2338.15650703642 25 28 21
-593.427515453774 -323.782598153599 2346.19612854913 24 27 20
-597.243043249445 -324.190185533314 2352.3124653287 23 26 19
-603.097731591622 -324.815612732349 2358.06777408144 21 24 17
-583.487913144744 -322.715360452365 2368.41558217506 20 23 16
-595.452609151756 -323.99394052331 2373.06493399998 20 23 16
-621.714728544573 -326.802122330996 2375.27897568451 17 20 13
-619.424411121927 -326.554330363019 2382.51905844275 16 19 10
-610.998439678553 -325.649552898035 2390.77229795477 15 18 9
-628.117340695524 -327.478081515001 2394.72753409686 15 18 7
-645.257312564683 -329.308534320779 2398.76071637376 16 19 8
-649.109332216415 -329.716580213189 2405.01132175925 16 20 6
-637.596080839343 -328.480081711758 2413.70141743975 16 20 6
-632.215480428379 -327.899521055264 2421.36693902342 16 19 8
-644.265823539994 -329.183847461234 2426.33065382625 15 18 9
-626.556808992759 -327.283476442858 2435.81600989612 15 18 9
-654.025573495171 -330.217050187653 2438.53460208755 15 18 9
-681.529688029452 -333.153910747742 2441.3832959183 9 19 20
