ply
format ascii 1.0
comment KinectMotionCapture
element vertex 752
property float x
property float y
property float z
property uchar red
property uchar green
property uchar blue
end_header
-1027.00963260666 386.513699349765 2322.09424413124 180 184 185
-1030.20314555007 385.872342899898 2313.92586655312 185 189 190
-1032.40068466521 385.428449867427 2305.77813079455 169 173 174
-1028.62623879618 386.170995414641 2297.65186677419 171 175 176
-1026.84269019079 386.517279527773 2289.50528954094 184 188 189
-1029.04030252695 386.071683333124 2281.36218811506 186 190 193
-1032.2326613694 385.42781324246 2273.23621784633 190 194 195
-1034.42938759378 384.981195691233 2265.11732729663 198 202 203
-1036.62606186025 384.534048665954 2257.0092237215 161 165 166
-1029.86830177631 385.866011056013 2248.78027405109 182 186 187
-1020.12699826267 387.790332226781 2240.46075606526 178 182 183
-1009.39238480056 389.911344460005 2232.06626174145 176 178 177
-1006.61669763671 390.449926482892 2223.79420916184 172 174 171
-1003.84141410151 390.9878608769 2215.50568600197 182 184 179
-997.088383997683 392.315683097286 2207.08742692807 198 201 194
-786.114627131419 425.545764136995 2587.92576906616 197 201 200
-798.309497786894 423.163882148471 2578.08573845323 201 205 204
-827.461015278731 417.457792025345 2566.83730519279 202 206 205
-856.608272277643 411.751999035272 2555.7463810054 200 204 203
-874.780314503649 408.196939162906 2545.70573199419 206 210 211
-881.978957238228 406.792195418268 2536.62531336238 204 208 209
-887.182244836026 405.77823780594 2527.73355811138 199 203 204
-894.379103079231 404.372888800803 2518.72223370216 197 201 202
-898.583583462612 403.553727848091 2509.958995458 200 204 205
-903.784505705943 402.538662543287 2501.14917231051 205 209 210
-904.997061446918 402.304965657855 2492.62485435343 192 196 197
-914.184528821405 400.507453203967 2483.60887804303 196 200 201
-924.368006213453 398.514145096159 2474.58196101401 196 200 201
-938.5369477904 395.739100886546 2465.38257662591 201 205 206
-951.70730203529 393.159271814722 2456.31288959821 203 207 208
-959.892515893824 391.55614996963 2447.5690124994 204 208 209
-970.069864624251 389.562015840216 2438.7714130908 200 204 205
-971.277215763613 389.325746445876 2430.4384220443 199 203 204
-976.470357225934 388.307527813838 2421.93863776113 200 204 205
-987.640808353392 386.117178011412 2413.22463695621 198 202 203
-1000.8024128516 383.535897171052 2404.49536154247 196 200 199
-1006.98865381663 382.3215236556 2396.07935425408 189 193 192
-1008.19315933135 382.083130933157 2387.85530021018 195 199 198
-1012.38604779298 381.258470220576 2379.54853399434 173 177 176
-1015.5821930194 380.62856683953 2371.28957510053 177 181 180
-1016.78593096612 380.38872794168 2363.09396748155 179 183 182
-1015.00186999276 380.734008099809 2354.96633739363 178 182 181
-1016.20577235831 380.493131979394 2346.77251481567 176 180 179
-1020.39652840269 379.666041159788 2338.53715680289 176 180 179
-1024.58672757611 378.838708471261 2330.32330353654 176 180 179
-1029.77212616157 377.815619013205 2322.1209077861 174 178 177
-1031.96997524329 377.377675373257 2313.9674454594 179 183 184
-1032.17676106125 377.329405256407 2305.83371061381 167 171 172
-1030.39290083039 377.67072759769 2297.70331000301 164 168 169
-1028.60907446822 378.011503886004 2289.56167458884 185 189 190
-1029.81129468613 377.766457269651 2281.41979342238 189 193 194
-1032.00871306784 377.325774254184 2273.28954780183 190 194 195
-1033.21056399674 377.079625572089 2265.16091641561 172 176 175
-1035.40747278193 376.637907854258 2257.04947660878 138 142 141
-1031.63420919643 377.365704062612 2248.86116814821 178 182 183
-1023.88168912856 378.872779719098 2240.58142118531 163 167 168
-1014.14074451286 380.768886416457 2232.21758169588 174 176 175
-1005.39586936419 382.469097874745 2223.82172149354 176 178 175
-1002.62044462708 382.998847250979 2215.52992855223 172 174 169
-998.850866836381 383.72275127198 2207.1933873315 184 186 181
-795.627247444413 414.902438326297 2595.82122306646 214 218 217
-796.847829187187 414.674527205281 2586.98943346366 196 200 199
-815.028817760301 411.168465002138 2576.64241535099 201 205 204
-838.195553979502 406.698197921827 2565.95927755547 199 203 202
-858.366416947535 402.806466742549 2555.6526216366 201 205 204
-870.554727774686 400.456940882107 2546.10371335745 205 209 210
-879.748872923656 398.685559472506 2536.8548039899 204 208 209
-891.934077872385 396.335720123352 2527.42694759877 196 200 201
-897.136713546994 395.334780148063 2518.57464910047 194 198 199
-899.346786965303 394.911857842326 2509.95954610424 200 204 205
-903.550957554749 394.102922584895 2501.21939524425 203 207 208
-908.751816890484 393.100955045334 2492.43541890337 189 193 194
-919.933782694733 390.942410775862 2483.3055349721 196 200 201
-923.138898147946 390.325154037001 2474.70956753094 193 197 198
-934.318609769112 388.16600637895 2465.6764617995 201 205 206
-951.477340412999 384.850837728462 2456.37962979876 203 207 208
-966.640176444148 381.920870150215 2447.2772241725 202 206 207
-974.824645008415 380.339160322287 2438.59479111869 198 202 203
-975.035222628622 380.298103329517 2430.32060440298 199 203 204
-983.217789016947 378.715702669252 2421.70244842369 200 204 205
-990.402877349478 377.325610997225 2413.167515046 197 201 200
-1003.5652646925 374.779743047013 2404.44566697915 196 200 199
-1008.75552800756 373.774144421902 2396.07192105259 188 192 191
-1012.94869869605 372.960755308086 2387.75690222004 194 198 197
-1013.15671278117 372.9170797536 2379.58009572607 169 174 170
-1014.36074771739 372.680402817349 2371.37627579912 173 178 174
-1011.58059718343 373.213120878092 2363.27237091432 179 184 180
-1008.80086412779 373.745277651358 2355.15154686339 175 180 176
-1011.00108135385 373.31441285654 2346.92245475917 173 178 174
-1015.19250079297 372.498158917908 2338.67280479019 172 176 175
-1022.37061578267 371.104161919462 2330.40622056843 171 175 174
-1027.5565432903 370.094615990497 2322.19769470597 168 172 171
-1030.75046582768 369.469595714545 2314.03084930182 174 178 177
-1028.96616797923 369.806026106755 2305.90297491606 165 169 170
-1028.1777741926 369.949483074548 2297.76200643345 159 163 164
-1028.38483507904 369.899939345659 2289.6161534526 185 189 190
-1031.57788976981 369.272809372251 2281.48096126942 190 194 195
-1033.77509546682 368.83761783874 2273.35559964615 187 191 192
-1031.99154764781 369.1710545307 2265.20452189513 161 165 164
-1030.20803260041 369.504005480812 2257.04231697576 135 139 138
-1029.41999555513 369.643916378577 2248.8835983088 173 177 176
-1027.63694264995 369.975573921818 2240.70194250967 156 160 159
-1018.89005478252 371.652190430049 2232.368736677 172 174 173
-1008.15439548688 373.712414846616 2223.94052308652 172 174 171
-999.409884159852 375.387171396933 2215.50311195452 182 184 179
-995.640230166964 376.100172238166 2207.15784198465 182 184 179
-994.855031505092 376.235966410737 2198.88376923888 184 187 180
-800.375265052324 405.227819296873 2595.42384495274 198 202 201
-808.580188748589 403.671846762051 2585.96026441481 188 192 191
-827.759640330438 400.024556509498 2575.55569989368 202 206 205
-844.940969566746 396.757448633952 2565.42724057385 196 200 199
-857.131915532333 394.440531796988 2555.81035501395 199 203 202
-871.316185899111 391.743452667588 2546.0955813159 203 207 208
-884.501099490298 389.236211752164 2536.53480417032 198 202 203
-896.686866942673 386.918873011309 2527.11985983816 199 203 204
-898.897224001907 386.501637021012 2518.49977669952 190 194 195
-900.110340254126 386.273852835507 2509.9599006231 202 206 207
-906.309035513638 385.095779340212 2501.08678774022 199 203 204
-913.50421182329 383.727309676529 2492.18079731727 187 191 192
-922.692664408572 381.978597368951 2483.18803818291 195 199 200
-926.89473568081 381.179403924033 2474.54039591987 191 195 196
-934.087320691074 379.809910459808 2465.74390796384 204 208 209
-950.250311928795 376.730855103632 2456.50005501621 203 207 208
-965.414595301504 373.841582105788 2447.39410176244 199 203 204
-974.596398594536 372.091609067044 2438.65986632758 200 204 205
-979.790143084527 371.100991837427 2430.15682510597 195 199 198
-985.979945923415 369.920060964998 2421.63751558284 198 202 201
-990.175790753045 369.118563919045 2413.23075083713 199 203 202
-1002.34279355736 366.797848204137 2404.54556802071 192 196 195
-1006.53697136856 365.995624594471 2396.20317600212 188 193 189
-1013.71953711169 364.623489993707 2387.78611507721 190 195 191
-1013.92749070507 364.579680496222 2379.61152899238 171 176 172
-1012.14325251488 364.914951508491 2371.48940289066 169 174 170
-1007.37073701134 365.819026854436 2363.42710930583 174 179 175
-1005.58726028899 366.152984789887 2355.27381252256 169 174 170
-1010.77551143464 365.158248273284 2346.98104725463 168 173 169
-1014.96724319158 364.352774634669 2338.73076587899 167 172 168
-1019.15841490828 363.546909923263 2330.50195291248 164 169 165
-1022.35334711405 362.930353616516 2322.30473412825 156 160 159
-1023.55663590187 362.69261179089 2314.1382576578 165 169 168
-1022.76822647874 362.833765323449 2305.98610226414 166 170 169
-1024.96683328079 362.405339907482 2297.82257032636 146 150 149
-1028.1605533931 361.78679556111 2289.67058974929 181 185 186
-1032.34917966998 360.978277460988 2281.53841238424 183 187 188
-1033.55121755846 360.738050900332 2273.40883268816 182 186 187
-1032.76272459596 360.876462661905 2265.2663231883 139 144 140
-1026.9982763134 361.962097742501 2257.05898185859 136 141 137
-1025.21533527876 362.288770795781 2248.8769265983 165 169 168
-1024.42740593183 362.425355108754 2240.70110208792 154 158 157
-1021.64977606762 362.940296666448 2232.47959365735 173 175 174
-1012.90325333556 364.591487926479 2224.10481739619 173 175 174
-1004.15773192939 366.241845559376 2215.68068597763 169 171 166
-999.392501727789 367.133508026533 2207.32032956228 184 186 181
-1000.59647000633 366.887752815215 2199.11869208394 175 178 171
-807.119830688082 395.204349964245 2594.83620860646 187 191 190
-815.32487401439 393.669952438221 2585.39111809481 184 188 187
-831.511721047293 390.636459332783 2575.27314405443 197 201 200
-846.698654435997 387.790251838377 2565.32819013236 194 198 197
-861.883274536359 384.943883094798 2555.4641496072 194 198 197
-876.06849627356 382.284749673069 2545.76226102396 200 204 205
-887.258822007028 380.187479906613 2536.37143394057 195 199 200
-897.450203602868 378.277297659998 2527.11552260508 195 199 200
-896.668580797149 378.427054571632 2518.71668512725 188 192 193
-900.873778217522 377.640083000324 2509.95998507208 201 205 206
-908.070314472877 376.290817490442 2501.02146320129 192 196 197
-919.254711588382 374.192215166916 2491.8609162486 185 189 190
-925.451963695486 373.029677554509 2483.07021278392 191 195 196
-927.660120462768 372.61566504743 2474.54891059327 190 194 195
-931.861883029335 371.82684705569 2465.92447397981 203 207 208
-947.0293610439 368.978439927762 2456.72821689092 199 203 204
-968.176260740837 365.00669874778 2447.30624249426 197 201 202
-982.342425589713 362.34528961379 2438.33739485068 196 200 201
-987.53623612075 361.368215972011 2429.85563936598 192 196 195
-990.73593713715 360.765064729698 2421.48643226787 194 198 197
-989.948667989755 360.910056002805 2413.2938316189 191 195 194
-999.126997203155 359.183304939712 2404.72030921993 190 194 193
-1004.31831355693 358.204674614077 2396.33436337557 186 191 187
-1014.49072829356 356.290238932512 2387.81517559232 187 192 188
-1013.7021429552 356.433419927337 2379.67207250838 169 174 170
-1012.9139351142 356.576047143473 2371.52294570315 166 171 167
-1009.13732294836 357.279286762335 2363.43914438764 170 175 171
-1009.34563265476 357.233701924052 2355.24873394827 167 172 168
-1013.53802962407 356.439544834901 2346.98460460816 165 170 166
-1013.74605543907 356.392955233703 2338.80421079135 163 168 164
-1014.94990108647 356.158849491591 2330.61054967747 162 167 163
-1016.15384114708 355.924235326321 2322.4219774509 159 163 162
-1019.3487672342 355.315246184014 2314.22379805479 171 175 174
-1021.54789241624 354.892684665463 2306.04630223249 156 160 159
-1022.75094817019 354.656538501119 2297.88132204273 141 145 144
-1026.94076022787 353.859195225052 2289.72412371013 178 182 183
-1032.12517458942 352.874573055518 2281.59217326284 184 188 189
-1036.31354930365 352.07650522405 2273.48104853139 186 190 189
-1035.52478338855 352.212138748535 2265.34622390782 133 138 134
-1029.75968839935 353.281470771832 2257.14665314677 138 143 139
-1024.99078126313 354.163155531857 2248.92861556862 157 161 160
-1023.20773054676 354.48370896827 2240.73495148882 156 160 159
-1021.42494668097 354.803681199544 2232.53023391034 175 177 176
-1015.66275363297 355.870046812933 2224.22338491994 174 176 175
-1008.90629253889 357.12231819185 2215.85810015571 171 173 170
-1003.14557269786 358.187154368964 2207.48270615425 172 174 169
-1002.35945813606 358.317673762911 2199.22944151114 176 178 173
-998.589543889757 359.007576538009 2190.86954222186 161 162 156
-793.681521479955 388.946228586802 2604.88899332637 208 212 211
-803.884830425806 387.064260902932 2595.1972144583 166 170 169
-814.08676388615 385.182089231481 2585.55897530266 188 192 191
-830.274891680519 382.191919009203 2575.43746144272 191 195 194
-844.465014502803 379.57097644882 2565.57570309342 194 198 197
-863.642225706033 376.026825194411 2555.36944304255 189 193 192
-881.818930060601 372.66729971891 2545.34720688429 195 199 200
-894.007483824268 370.415330165417 2535.89355225337 192 196 197
-902.203898898403 368.901385488054 2526.80764442025 187 191 192
-901.421857998658 369.048342784328 2518.42214149392 185 189 190
-907.621974505605 367.902928263838 2509.53787281785 199 203 204
-911.826445039985 367.126233410537 2500.82061633369 187 191 192
-920.019734655463 365.611107045782 2491.86491823541 187 191 192
-923.225681776372 365.018296722544 2483.26269501793 190 194 195
-932.413954007874 363.318040928754 2474.31968881833 196 200 201
-939.606956508039 361.986581557898 2465.53839720264 199 203 204
-951.784185455303 359.73234531648 2456.52492183318 190 194 195
-965.953497729809 357.109050611165 2447.47398623074 196 200 199
-978.127258191311 354.854537398377 2438.5957739098 194 198 197
-989.302379750771 352.784302711572 2429.82820680318 198 202 201
-992.502176613271 352.189228523946 2421.46392622675 200 204 203
-990.718345055059 352.515778545647 2413.31654361061 193 197 196
-993.917422268304 351.919758722477 2404.97004928121 190 195 191
-1001.10262387933 350.585811587285 2396.50029705544 186 191 187
-1010.27938875041 348.882917570636 2388.00420564426 188 193 189
-1011.48412526274 348.654423376947 2379.79107647968 169 174 170
-1008.70325886058 349.162844250093 2371.68906175519 164 169 165
-1008.91158129092 349.117706167203 2363.4986337116 167 172 168
-1011.11211707383 348.703414984926 2355.26556198252 163 168 164
-1018.29303969146 347.367219098547 2346.95130831809 160 165 161
-1017.50475992668 347.504883881754 2338.79966426491 156 161 157
-1018.70841396823 347.273499998262 2330.61641429365 157 162 158
-1016.92443623887 347.594297096633 2322.46856750656 158 163 159
-1018.12801007285 347.361824214267 2314.28728304167 161 165 164
-1021.32305901354 346.760481667864 2306.10183721639 134 138 137
-1024.51768064444 346.158592673945 2297.93250540461 151 155 154
-1028.70743025508 345.372192625296 2289.78017292518 176 180 179
-1030.90565091717 344.953623106272 2281.6423151775 178 182 181
-1033.10334681868 344.534626247761 2273.5151832588 171 175 174
-1035.30099161361 344.115099688553 2265.39880479863 129 134 130
-1028.54018393165 345.35208303337 2257.18698463247 157 162 158
-1027.7520308065 345.483712196582 2249.02391048028 145 149 148
-1023.97813086784 346.167026782914 2240.80338717753 165 169 168
-1021.20007569773 346.665546321082 2232.5808684752 170 172 171
-1017.42743266737 347.347502823539 2224.31908742435 166 168 167
-1015.64541545069 347.66060570126 2216.08635554844 174 176 173
-1013.86342711554 347.973223872782 2207.84264965385 169 171 168
-1007.10753629631 349.205026980143 2199.43309931937 177 179 174
-1005.32641982194 349.516272675578 2191.15384442602 185 186 180
-793.439704038487 380.215535836097 2604.96571117848 192 196 195
-803.643770897488 378.360615022526 2595.2733512852 159 163 162
-810.852245095026 377.051204951001 2585.91104697874 188 192 191
-828.039719010858 373.922545647791 2575.69108771082 188 192 191
-847.220790003137 370.429973504341 2565.38935540975 188 192 191
-866.399232919185 366.937440820031 2555.1903798001 185 189 188
-882.581661740235 363.990561084892 2545.33808355075 193 197 198
-894.770816720794 361.771024949362 2535.88643099904 192 196 197
-900.972620339609 360.642446757858 2526.95430170007 185 189 190
-901.188085489502 360.604620003814 2518.49256177445 187 191 192
-911.378647519222 358.748072902833 2509.32627121066 200 204 205
-912.590807961764 358.527598554628 2500.82227543958 181 185 186
-919.787339823184 357.215842985021 2491.93352537218 184 188 189
-921.996052668601 356.812819103029 2483.39296367272 189 193 194
-934.177033702618 354.591584740727 2474.26827863107 197 201 202
-941.370430745528 353.278986350919 2465.49181838698 193 197 198
-953.548434923965 351.057404150351 2456.48310569184 187 191 192
-965.724534960432 348.835611793254 2447.53926302311 193 197 196
-978.896089234072 346.431949253869 2438.61182876936 191 195 194
-990.072218487336 344.391572717727 2429.84626166886 197 201 200
-992.275202461043 343.986292824315 2421.52718179043 197 201 200
-991.487897117393 344.12546875084 2413.33907653346 189 194 190
-993.690540511085 343.719229196158 2405.03227729148 186 191 187
-1004.86264382849 341.677643754841 2396.42275968173 182 187 183
-1013.04335577474 340.180813802105 2387.96896095819 184 189 185
-1012.25494639037 340.318243008015 2379.82212994315 166 171 167
-1008.4774715966 340.999985387161 2371.74896103512 160 165 159
-1008.68580150849 340.9546352458 2363.5580128948 161 166 160
-1010.88650032721 340.545762392229 2355.32438694557 161 166 160
-1015.07962063213 339.773226519668 2347.06452712954 159 164 160
-1016.28357304404 339.544944211105 2338.87294604327 155 160 156
-1017.4873829427 339.316159672181 2330.68639561231 154 159 155
-1016.69923864929 339.449857141329 2322.52519707242 154 159 155
-1012.92348546681 340.127480016555 2314.38031842536 166 171 167
-1015.12311656427 339.715650392112 2306.18524796901 124 128 127
-1019.3140912365 338.940357826082 2297.99696219823 148 152 151
-1025.49599189992 337.801773510145 2289.83196553785 167 171 170
-1029.68593762428 337.025761429726 2281.69244684303 183 187 186
-1032.879352152 336.430709003147 2273.56830859653 170 174 173
-1034.0817430255 336.19797774228 2265.442305687 130 135 129
-1031.30211889276 336.690312887532 2257.27446715427 160 165 161
-1030.5136942719 336.81922344484 2249.11908496528 148 152 151
-1026.739297325 337.491656853377 2240.90630309563 170 174 173
-1020.97516800883 338.526070786104 2232.63149813068 164 166 165
-1017.20223355981 339.196971338869 2224.3692357032 162 164 163
-1015.42008128995 339.504678447635 2216.13598861222 172 174 171
-1014.63288592918 339.630564018989 2207.91998989519 168 170 167
-1006.88155022215 341.024485417093 2199.48178246835 174 176 171
-1009.07993614817 340.605331728666 2191.33683839783 170 171 165
-790.202992049939 372.021105093088 2605.33526931022 180 184 183
-803.402681833456 369.655596567235 2595.34916870491 165 169 168
-810.611686851842 368.365041205173 2585.98636281572 181 185 184
-829.796685871681 364.924090024698 2575.58653620451 188 192 191
-846.9829591925 361.841454860031 2565.46291752412 185 189 188
-872.150480696527 357.325592870985 2554.75885188952 185 189 188
-886.337884753817 354.780457953793 2545.08474870333 188 192 193
-895.534509147301 353.130882233409 2535.8790522278 191 195 196
-899.741158602138 352.376684613902 2527.10079178094 182 186 187
-900.954279528359 352.159465671988 2518.56275238498 187 191 192
-914.138377707754 349.7926763509 2509.18465046181 197 201 202
-914.352968449895 349.753882008099 2500.75604649799 181 185 186
-920.552283380691 348.64010086226 2491.93707167611 184 188 189
-922.7613225767 348.242328656554 2483.39871869874 194 198 199
-937.934849410465 345.516580602238 2474.09775466766 203 207 208
-947.123069692859 343.864860904796 2465.21821792957 184 188 189
-956.310047050493 342.212961947378 2456.38706652125 190 194 195
-963.501489310487 340.918799662605 2447.70680123496 192 196 195
-973.683067731229 339.087391473644 2438.91861345853 191 195 194
-982.866135177654 337.434766019185 2430.23017008015 196 200 199
-991.051374606528 335.960795225191 2421.63329084392 192 196 195
-994.251296888744 335.381352619115 2413.2808924189 185 190 186
-997.450805558394 334.801479957031 2404.94419764474 182 187 183
-1004.63656503314 333.505529543702 2396.48411533732 178 183 179
-1008.83150169476 332.746017526655 2388.15792523423 182 187 183
-1010.03624053773 332.522747505044 2379.94098950533 166 171 165
-1005.26221363628 333.37227465328 2371.88852172154 158 163 157
-1007.46342104431 332.969118256062 2363.64115623078 158 163 157
-1007.67183186813 332.923206402198 2355.44644264822 154 159 153
-1011.86547221387 332.161395527882 2347.17777351266 158 163 159
-1013.06971915406 331.935675645673 2338.97743257677 153 158 154
-1016.26616305326 331.351907417336 2330.75633688981 151 156 152
-1014.48180460277 331.661525428532 2322.60204197232 150 155 151
-1010.70590210221 332.328204570472 2314.45124865502 154 159 155
-1010.91415089034 332.279124835985 2306.25946656215 116 120 119
-1015.10571870408 331.514657844813 2298.05962243469 145 149 148
-1019.29672149251 330.74977109849 2289.88141075307 149 153 152
-1027.4701621417 329.269608513262 2281.73902043164 175 179 178
-1027.67726936456 329.218762038739 2273.58995767483 147 152 148
-1030.87108251817 328.631342808674 2265.46776047437 130 135 129
-1026.1003685555 329.472668769603 2257.26768097497 153 158 154
-1027.30317483274 329.241477440289 2249.12709610755 154 158 157
-1024.52421880895 329.724241734725 2240.92286912055 171 175 174
-1023.73609791626 329.84923334708 2232.74208353298 159 161 160
-1021.9531953122 330.152158635077 2224.53302775101 161 163 162
-1018.18016998227 330.811619744525 2216.26203447098 169 171 168
-1014.40744871918 331.470402847517 2207.96910442657 163 165 162
-1007.65046017948 332.663995979229 2199.56142988179 171 173 168
-1006.86410589181 332.785873297606 2191.31758014902 167 168 162
-1006.07787070231 332.907058699121 2183.06833272042 187 188 180
-803.161560897208 360.949176149578 2595.42472648205 166 170 169
-810.3710981836 359.677445102181 2586.06132981458 172 176 175
-827.561145756404 356.64092007787 2575.83970980933 185 189 188
-846.745096575952 353.251564245228 2565.5362496074 182 186 185
-868.920463774031 349.33293431631 2555.08339108288 182 186 185
-883.109137348091 346.825693551982 2545.40035860627 186 190 191
-891.308620596794 345.376862964808 2536.26445037743 190 194 195
-897.511547059984 344.280456145807 2527.32297957259 181 185 186
-900.720441761306 343.712939369669 2518.63271296441 186 190 191
-909.914936733564 342.086887848144 2509.53550012012 195 199 200
-913.122604163642 341.518737501749 2500.8925192447 183 187 188
-918.324762941291 340.597542894078 2492.13515917739 183 187 188
-924.523850853513 339.499577187466 2483.34203842842 193 197 198
-936.706448610781 337.343483218703 2474.22410897913 201 205 206
-943.900709429386 336.06882698253 2465.45462875097 174 178 179
-955.082921549316 334.088653770158 2456.50663905307 184 188 189
-968.25804822589 331.755732909748 2447.51553988378 188 192 191
-980.434341015642 329.598976759844 2438.64331940752 189 193 192
-986.626724374692 328.499584976949 2430.11070461149 194 198 197
-991.821146857423 327.57606860055 2421.65321281312 190 194 193
-997.01511632392 326.652219551816 2413.22239404891 186 191 187
-1000.21464964053 326.080412890129 2404.89339663598 178 183 179
-1007.40073770919 324.803461053406 2396.44087094893 175 180 176
-1010.59916280727 324.230929107193 2388.15440780071 179 184 180
-1012.80039039238 323.834159367003 2379.91311122004 163 168 162
-1009.02225981223 324.493779258362 2371.84181929239 155 160 154
-1010.22694510246 324.272144008345 2363.62873188212 155 160 154
-1007.44591424833 324.754470367347 2355.50512623057 151 156 150
-1006.65806817056 324.884007147661 2347.32780496357 151 156 150
-1007.8627484994 324.660812723227 2339.11323734014 147 152 148
-1008.07116349919 324.613279243272 2330.91661936905 146 151 147
-1006.287460412 324.917197890296 2322.73991583293 149 154 150
-1001.51559909883 325.748746108311 2314.57418017852 146 151 147
-1001.72448650264 325.699466346633 2306.3572239989 109 113 112
-1005.91723133634 324.945636340455 2298.13212381748 135 139 138
-1008.11738109007 324.543391720925 2289.92707411711 118 122 121
-1018.2836208658 322.732992487653 2281.76093152261 163 167 166
-1024.4656704574 321.626238637934 2273.62429133617 115 120 116
-1029.65130423365 320.69497572976 2265.51129979207 141 146 142
-1026.87153020751 321.17075551379 2257.33154374086 141 146 142
-1023.09649653672 321.821811597676 2249.12069392197 164 169 165
-1021.31320380947 322.120429347449 2240.9222604029 167 172 168
-1023.51133511041 321.714970906918 2232.79264807668 149 151 150
-1020.73283853174 322.18833994088 2224.56037647527 161 163 162
-1016.95959351692 322.836816031642 2216.28617437501 161 163 160
-1013.18689085514 323.484607561146 2207.99004020982 172 174 171
-1008.41971916667 324.307521789275 2199.64107205133 166 168 165
-1005.64311128081 324.778197304165 2191.33209169868 177 179 174
-1004.85664870103 324.896745521511 2183.07957507672 172 173 167
-1016.00912555151 322.905849634002 2175.29155432304 100 100 90
-796.930192152295 353.283831850278 2596.0701266406 156 160 159
-805.139137280704 351.857116925888 2586.59748625873 172 176 175
-830.316503942554 347.47692090035 2575.64498062568 186 190 189
-846.507201330457 344.660271869523 2565.60935184013 176 180 179
-867.68598518703 340.975159019207 2555.23966866887 186 190 189
-876.885842152224 339.374298430902 2545.95993864962 190 194 195
-890.076187256143 337.078499059818 2536.41390881637 190 194 195
-898.275487084242 335.650930903049 2527.31732404854 183 187 188
-902.482276164113 334.917762797662 2518.55618644432 191 195 196
-911.67707893375 333.316090229553 2509.46379526651 190 194 195
-915.882670692844 332.582247435438 2500.75805346543 187 191 192
-922.082764420086 331.500849295551 2491.94341095832 187 191 192
-928.281796267774 330.419196822057 2483.16067251061 201 205 206
-934.480241914358 329.33724713383 2474.40985049473 190 194 195
-944.667359901262 327.560662022885 2465.46402208144 175 179 180
-956.847823118065 325.436736358954 2456.46405771615 190 194 195
-973.015567110966 322.618575755828 2447.32390411233 190 194 195
-982.200628869455 321.015055112453 2438.61024107405 189 193 194
-987.396297396078 320.105398373572 2430.12825576348 192 196 195
-993.58824033807 319.021878842652 2421.62989639347 189 193 192
-998.782218015955 318.111565038692 2413.20396501487 182 186 185
-1000.9850187106 317.721275547358 2404.91746864445 176 180 179
-1005.18106083699 316.983676272343 2396.57160136333 172 176 175
-1008.37986146002 316.41917693187 2388.27908619234 174 179 175
-1010.5816258999 316.027662844816 2380.03177537175 167 172 168
-1008.79643838636 316.329338985492 2371.9013557409 158 163 159
-1009.00472948652 316.283729091196 2363.71164559484 153 158 154
-1004.23073049569 317.104439665204 2355.62714594935 149 151 148
-1002.44644990255 317.40449391973 2347.45953927135 148 150 147
-1001.65895395444 317.530576418805 2339.26482478275 146 148 145
-1003.86019761775 317.136113131537 2331.02537630197 142 144 141
-1002.07663342118 317.434443039876 2322.83724368264 143 145 142
-999.297044420791 317.905552097995 2314.64524111837 137 139 136
-999.50608303843 317.856172059844 2306.42226730933 105 107 104
-1004.69496466059 316.93992265646 2298.18913425265 119 121 118
-1005.89973342483 316.716341438432 2289.98001974672 119 121 118
-1013.07928956816 315.452772281661 2281.79715361982 127 129 126
-1017.27048603048 314.708660583917 2273.63367913863 104 106 103
-1022.45676218892 313.791034171925 2265.50089810447 136 140 139
-1020.67307116049 314.085166503542 2257.31321547874 128 132 131
-1020.88066068146 314.032511094159 2249.14336054601 162 166 165
-1022.08367306686 313.80615958078 2240.9905920912 144 148 147
-1026.27286833329 313.059939820167 2232.90306780248 156 160 159
-1021.50335629953 313.871293247818 2224.63315534773 164 168 167
-1016.73428999779 314.68199097276 2216.33579331054 157 161 160
-1010.97074856199 315.665022136491 2207.98284108441 161 165 164
-1009.18885075317 315.955075919061 2199.72069399208 164 168 167
-1001.43639938029 317.282796367905 2191.24568438271 167 172 168
-1000.65039215879 317.398549372945 2182.98169428603 174 176 171
-1000.85938320864 317.340689303226 2174.75147438591 132 133 125
-790.697886458111 345.584436106906 2596.71558420431 141 145 144
-797.909319995518 344.350162272159 2587.31829414829 157 161 160
-824.087532016 339.866876253672 2576.25608132764 176 180 179
-841.278016686586 336.922574168723 2566.11639991643 172 176 175
-857.468063218581 334.149222101128 2556.15269777898 173 177 176
-872.657881293112 331.546794237327 2546.35675213383 191 195 196
-887.845389570373 328.944414261603 2536.64180799786 190 194 195
-897.043314859307 327.367475369686 2527.46325985372 178 182 183
-897.25900717726 327.328627832252 2518.99154537479 188 192 193
-907.452818931068 325.58027017468 2509.81440982783 189 193 194
-917.645250658975 323.831709738307 2500.69099274551 179 183 184
-923.845664855502 322.766491442716 2491.88119785924 186 190 191
-933.038082866337 321.18837790679 2482.91663197921 186 190 191
-936.244018512159 320.635243230083 2474.35745790141 170 174 175
-946.431758200416 318.885741252894 2465.41641102872 178 182 183
-960.607638053146 316.452789038399 2456.31316682491 192 196 197
-975.779067298205 313.848984813665 2447.23444250763 188 192 193
-982.97024420423 312.611521146612 2438.6254267826 188 192 193
-987.16887517941 311.886106732433 2430.19146148735 191 195 194
-989.372870054857 311.501861335404 2421.86478207743 187 191 190
-994.567510397589 310.604965425854 2413.42735856263 179 183 182
-995.773608209016 310.390696579846 2405.16697440799 175 179 178
-1001.96421453305 309.322327590299 2396.73712218263 170 174 173
-1003.16992851082 309.107167482141 2388.5001073964 172 176 175
-1009.35897995216 308.038165248534 2380.12102065618 166 171 167
-1009.56720859454 307.992902087045 2371.93412387116 158 163 159
-1007.782327154 308.28843168313 2363.79446694981 153 158 154
-1005.00100125531 308.754091276656 2355.66449717252 147 149 146
-1002.22009321332 309.219189481972 2347.51759333309 145 147 144
-1004.42180719737 308.830539732532 2339.27533000601 141 143 140
-1001.64138234467 309.294488975269 2331.10830778735 137 139 136
-999.857579170864 309.587273860325 2322.91423661882 137 139 136
-997.077914670373 310.050090380404 2314.71628097158 132 134 131
-996.291035500842 310.171147132483 2306.49206437959 113 115 112
-1000.48451583822 309.438911364443 2298.25207960795 91 93 90
-1001.6894127793 309.217970005064 2290.03146519585 106 108 105
-1009.86588382301 307.802871549096 2281.84049740934 124 126 123
-1014.0576036183 307.069604011231 2273.66821288643 113 115 112
-1018.24875595719 306.335887355918 2265.51762429799 120 124 123
-1021.44369348085 305.772296444335 2257.37706783393 143 147 146
-1023.64262273917 305.37871626798 2249.23834732247 143 147 146
-1025.84102458835 304.98470945726 2241.11045691211 147 151 150
-1026.04825374994 304.931009623863 2232.95356465021 150 154 153
-1020.28276791885 305.899073526253 2224.66053543524 150 154 153
-1015.51364492582 306.696068855999 2216.36000130132 159 163 162
-1009.74973535669 307.662752807811 2208.00388462371 150 154 153
-1005.97720749005 308.287990658415 2199.67670245553 146 150 149
-1001.2098898523 309.082857962638 2191.29399908532 164 168 167
-993.458182313951 310.387840093296 2182.77482797883 167 172 168
-990.682577796456 310.840722920603 2174.40752809734 176 177 171
-766.266972605411 340.917411569884 2607.88808140587 165 169 168
-784.464645195509 337.85092853279 2597.36098036615 147 151 150
-798.666342824793 335.45743446218 2587.30037992109 162 166 165
-830.836503163974 330.035315329674 2575.70231877138 176 180 179
-847.029554862796 327.305427249952 2565.66783258652 167 171 170
-863.220395643753 324.575557598515 2555.71977651776 175 179 178
-873.419991069265 322.855099506589 2546.34655144972 192 196 197
-885.614495384985 320.797958085386 2536.86952007404 189 193 194
-894.813242862992 319.245288075425 2527.68489598906 176 180 181
-898.022969353044 318.701587482671 2518.98769217929 187 191 192
-913.206784547778 316.139473178329 2509.46032067879 188 192 193
-925.395287610823 314.08170875655 2500.21717011714 181 185 186
-931.595602290259 313.032782117581 2491.42875742963 189 193 194
-936.79724854243 312.151696645562 2482.73449473427 182 186 187
-937.010291003101 312.110913737379 2474.36426780549 169 173 174
-947.198723724457 310.388565931978 2465.42529085682 184 188 189
-963.370630138326 307.657495166772 2456.21596578269 193 197 198
-977.545422919012 305.262494315179 2447.19595737078 188 192 193
-981.744983631302 304.548175978826 2438.73756884233 189 193 194
-980.957814665709 304.673691273458 2430.52946572397 191 195 194
-985.156623400887 303.958642839549 2422.09968314349 186 190 189
-991.349213608425 302.907091188981 2413.61035104154 177 181 180
-995.546778670005 302.19135353254 2405.22843549955 172 176 175
-998.746880280458 301.643193127878 2396.90261672438 167 171 170
-1000.94972743049 301.262614354774 2388.6247313381 170 174 173
-1006.14260816984 300.377740568693 2380.2689876493 166 171 167
-1006.35105486424 300.332299317454 2372.07337741702 160 165 161
-1003.56960956033 300.790125069321 2363.94898782211 156 161 157
-998.794985032831 301.583276513529 2355.85002065723 146 148 145
-999.003988393753 301.536186585589 2347.63088374678 143 145 142
-1001.20607351497 301.152899762353 2339.37987339069 139 141 138
-1000.41834571044 301.272805142367 2331.17826335133 135 137 134
-998.63470835078 301.55996097612 2322.98099233808 134 136 133
-996.851107886732 301.846569951049 2314.77236735334 127 129 126
-995.067782758224 302.132625471427 2306.55238704503 117 119 116
-1000.25795776059 301.243427294117 2298.30707452086 78 80 77
-1006.4434344917 300.186147034156 2290.08961078056 104 106 103
-1011.63189702189 299.296357567591 2281.90126793227 118 120 117
-1009.84836515085 299.580454355286 2273.69658949022 109 111 108
-1011.05248772162 299.36076948868 2265.50758927726 124 128 127
-1016.23983876172 298.46974231137 2257.37068314165 149 153 152
-1021.42624625627 297.578429296576 2249.26102233639 130 134 133
-1022.62936356027 297.357451565313 2241.10992325295 149 153 152
-1023.83256994279 297.136056859711 2232.9642197455 151 155 154
-1017.07133706955 298.25533600892 2224.64263582744 156 160 159
-1013.29719698912 298.870983030776 2216.35884187793 145 149 148
-1008.52853025338 299.653542348609 2208.02497535099 144 148 147
-1008.73697157064 299.59744914768 2199.81813803268 151 155 154
-1000.98334102666 300.881519571868 2191.34234647967 167 171 170
-993.231044314288 302.164691585402 2182.82278431108 167 172 168
-990.455227527075 302.609408315204 2174.45501253893 184 185 179
-751.043022515078 334.591159622866 2609.43109574921 194 198 197
-777.231949841844 330.248856536378 2598.10146825339 140 144 143
-795.429222584937 327.231092244526 2587.65162984451 139 143 142
-831.595999086928 321.233758257091 2575.68563959203 166 170 169
-847.790192507409 318.547320105457 2565.65318415601 164 168 167
-861.985461341903 316.191912242079 2555.8754125297 185 189 188
-872.185884167316 314.498422502052 2546.49880634651 191 195 196
-883.383030800222 312.639292976856 2537.09709153436 186 190 191
-891.584570992582 311.276399087396 2527.9823878174 176 180 181
-899.784776125062 309.913323592706 2518.91034308349 190 194 195
-912.973806965344 307.722757404523 2509.52867051304 184 188 189
-926.161043156782 305.53212883149 2500.2170720524 178 182 183
-928.370503149635 305.160983084119 2491.69086231691 186 190 191
-934.570423068462 304.127919677359 2482.92558617034 178 182 183
-934.783609600841 304.086888346516 2474.54946168299 169 173 174
-943.975398914666 302.556957427004 2465.66120224267 188 192 193
-962.143912667985 299.538566967855 2456.33469245056 189 193 194
-974.324795411897 297.512333789861 2447.41390139175 190 194 195
-981.517111789894 296.3126788592 2438.8009472639 190 194 195
-979.732610745139 296.600634811472 2430.63829116179 189 193 192
-985.926422502682 295.565623302362 2422.11897618398 182 186 185
-993.116528489577 294.36502635496 2413.59140033258 176 180 179
-997.314262713983 293.660047091421 2405.21442485507 173 177 176
-1000.5144594138 293.119963942909 2396.89356239361 166 170 169
-999.726343211552 293.240509761613 2388.71714472476 167 171 170
-1007.91045313514 291.873376621721 2380.26979972414 162 167 163
-1004.13142693917 292.488700816974 2372.18595025846 157 162 158
-1003.34331498893 292.607745027441 2364.00775409502 153 158 154
-996.574810855382 293.717499489947 2355.95080455574 146 148 145
-1000.77070755619 293.00961521592 2347.65185147764 141 143 140
-998.986347263533 293.292285164451 2339.46869380397 137 139 136
-999.195356939851 293.244113212287 2331.24814827169 134 136 133
-997.411410794415 293.525742607778 2323.04768702422 131 133 130
-997.620554371549 293.476574702619 2314.8208388066 127 129 126
-994.84080016431 293.92218963806 2306.60791947306 121 123 120
-995.050143790021 293.871978159965 2298.3721321558 80 82 79
-997.251877539375 293.491155634361 2290.13750060226 106 108 105
-1002.44159243069 292.614743971092 2281.92389998568 94 96 93
-1002.6504279344 292.563137283778 2273.70647376822 81 83 80
-1007.83884421976 291.685994138765 2265.53351697436 117 121 120
-1014.02259488894 290.643577977424 2257.39947363799 123 127 126
-1016.22233708146 290.260704841808 2249.24047723748 155 159 158
-1015.43433107646 290.372311629338 2241.04082984683 152 156 155
-1014.64668792569 290.483248498499 2232.83560633757 154 158 157
-1011.86789381187 290.923626248663 2224.57953994103 140 144 143
-1010.08495563965 291.198445216633 2216.33237109565 146 150 149
-1009.29790198585 291.307754678219 2208.10236061781 161 165 164
-1010.50160171908 291.086891973442 2199.9286216889 163 167 166
-1002.74747828385 292.349093502486 2191.45793768633 157 161 160
-993.999039515089 293.775276423834 2182.90712536419 167 171 170
-995.203832147439 293.552559127649 2174.69800562239 176 177 172
-1000.38860786056 292.67029327307 2166.66183463185 180 181 176
-743.806787016339 326.878994872753 2610.1917356498 191 195 194
-768.999574884585 322.77005754578 2598.93709733594 145 149 148
-791.193095449103 319.149750891742 2588.0950589208 143 147 146
-829.359780472235 312.924870726376 2575.93771774363 161 165 164
-848.550713870943 309.793358358446 2565.63820661318 158 162 161
-864.743839608681 307.150388160258 2555.69415245802 182 186 185
-872.948084797649 305.80946445961 2546.48799321142 190 194 195
-885.144409198666 303.81731926261 2537.00961453696 184 188 189
-894.344524223442 302.313320735997 2527.82380167707 178 182 183
-906.537507721142 300.320957765404 2518.46643846101 194 198 199
-914.736971030956 298.979323373164 2509.45573331943 182 186 187
-921.93719902845 297.800159316279 2500.5555672164 177 181 182
-921.153375303351 297.922263212625 2492.21305761426 187 191 192
-928.352235343718 296.742533049593 2483.36574817348 180 184 185
-932.556831765269 296.050521569525 2474.73449806668 169 173 174
-944.742300136461 294.057068358437 2465.6696814121 188 192 193
-961.914561526029 291.250256792995 2456.39918047097 193 197 198
-977.089029936758 288.768715651586 2447.32362692528 190 194 195
-983.284263637837 287.750641076343 2438.76692304338 190 194 195
-984.491496783878 287.545252886484 2430.47170144362 186 190 189
-987.693372436733 287.014205762672 2422.09492186873 179 183 182
-993.886675491872 285.995174713614 2413.61264733032 174 178 177
-998.084649255199 285.300935106857 2405.23784125827 169 173 172
-1000.28794944788 284.931429273586 2396.9541386657 163 167 166
-1000.49675426764 284.886492869677 2388.74507371989 165 169 168
-1005.69040691969 284.028662226818 2380.38819785328 163 168 164
-1002.9083149286 284.470364973349 2372.27177139197 159 164 160
-999.129384647539 285.073993063529 2364.1622900742 156 161 157
-993.357588383319 286.001933715014 2356.07281318973 144 146 143
-993.566958295219 285.954536134101 2347.83901986323 139 141 138
-993.776328413929 285.906718364784 2339.60476728788 136 138 135
-992.989192699798 286.020731159004 2331.38301408818 133 135 132
-993.198627534897 285.971875836505 2323.14511812747 130 132 129
-993.408060240304 285.922570938123 2314.90682268254 125 127 124
-989.632072789041 286.522141389801 2306.68729339012 119 121 118
-984.86017727357 287.283506435372 2298.44753719464 84 86 83
-987.062768606287 286.907857311103 2290.18494311234 87 89 86
-988.26875315548 286.694158790169 2281.92959800931 90 92 89
-990.470842790528 286.317622908259 2273.68565987783 82 84 81
-997.652613327448 285.12932829512 2265.49707158618 122 126 125
-1005.82951495101 283.778545655885 2257.35833261811 129 133 132
-1009.02554682796 283.238794189384 2249.19127720859 143 147 146
-1007.24246461422 283.509657103254 2240.95481508708 136 140 139
-1007.4509840608 283.455553740226 2232.74706073914 145 149 148
-1007.65949375843 283.401032839301 2224.53923909378 141 145 144
-1010.85481004828 282.859428099495 2216.407486193 155 159 158
-1009.0719283275 283.128200124039 2208.15161828786 161 165 164
-1014.25774564183 282.261498859294 2200.10077476018 155 159 158
-1008.49339229625 283.177764917578 2191.7078675524 151 155 154
-1005.71584161607 283.606918172888 2183.39115146364 162 166 165
-999.952916906736 284.521753554187 2174.9408720518 170 172 167
-1001.15705723059 284.301493780238 2166.7505606958 173 175 170
-738.567176360662 318.806942738226 2610.75658913358 137 141 140
-755.772143892588 316.04670454656 2600.24850096233 115 119 118
-784.958901493164 311.365480759864 2588.72318471363 136 140 139
-822.130348636384 305.404005938463 2576.63785009537 142 146 145
-844.31882400215 301.843921147198 2566.0576571231 174 178 177
-862.510218345392 298.924145590532 2555.93345491305 185 189 188
-876.705606304862 296.644540081391 2546.23241819993 188 192 193
-885.907572288255 295.165046710922 2537.00057521457 180 184 185
-895.108301400746 293.685372468768 2527.81687922271 180 184 185
-907.30236268313 291.725459817292 2518.46155988924 191 195 196
-914.504085258353 290.565434061805 2509.52352974513 186 190 191
-918.710691929043 289.885041253677 2500.82618737318 188 192 193
-917.927005485053 290.004167668473 2492.47511535936 178 182 183
-927.122273174812 288.523399738158 2483.49437158097 168 172 173
-935.318774506406 287.202360195056 2474.62154397192 165 169 170
-947.504946332354 285.241460095645 2465.56418689278 193 197 198
-965.675911775107 282.32099821535 2456.24700475024 192 196 197
-979.853687417598 280.040199739372 2447.23303748118 192 196 197
-988.044378013585 278.718576503201 2438.5866868245 193 197 198
-990.248759028185 278.35595833604 2430.25881262429 186 190 189
-992.453104610116 277.992836304865 2421.94110703344 179 183 182
-997.649004917884 277.149892186789 2413.51236899873 170 174 173
-997.857948562749 277.105759090375 2405.29874081666 167 171 170
-1001.05854271962 276.581745261252 2396.9795983543 166 170 169
-999.273152926535 276.856253480398 2388.83723847557 166 170 169
-1004.46725887436 276.011836452902 2380.47704874673 163 168 164
-1004.67579840896 275.96592034209 2372.27730013016 159 164 160
-1002.89062621953 276.239020200343 2364.12492335719 154 159 155
-996.121079776219 277.310219830522 2356.06731368487 147 149 146
-991.34642181672 278.061303686494 2347.93380901032 141 143 140
-992.552587498832 277.85358885727 2339.67780943266 135 137 134
-989.772060214356 278.284134759843 2331.4789246687 131 133 130
-990.978460322764 278.075454098649 2323.22205065154 133 135 132
-988.198484655283 278.504892840293 2315.00041800042 136 138 135
-987.41166384875 278.614563579934 2306.75237016883 134 136 133
-980.646938832679 279.681295464085 2298.51085008413 92 94 91
-977.868344622992 280.109015993744 2290.23338039309 74 76 73
-976.086559561917 280.376502606675 2281.94259583992 96 98 95
-979.285737178833 279.845573586318 2273.67139166643 74 76 73
-989.457117428655 278.197597797888 2265.47873932225 101 106 102
-999.627094193876 276.54942547603 2257.34072899571 98 103 99
-1001.8278985663 276.177166150612 2249.14229042888 117 122 118
-1001.04097861884 276.282988920433 2240.90331050271 147 152 148
-1002.2456718036 276.069334102215 2232.69848331992 138 143 139
-1007.43338050093 275.217344126468 2224.58951384145 151 156 152
-1010.6289365005 274.683958197906 2216.4572169809 146 151 147
-1008.84591752601 274.947305029814 2208.20088827204 144 149 145
-1008.05886410927 275.050642532891 2199.96445630007 139 144 140
-1008.2673291959 274.994062851483 2191.75616764694 150 155 151
-1004.49424237513 275.574465234192 2183.40269047054 153 158 154
-999.726201654398 276.313527270755 2174.98832828951 181 183 180
-989.982675376305 277.848556460914 2166.33769189194 166 168 165
-739.31990172625 309.762163547512 2610.73404882421 177 181 180
-754.528597540755 307.362735916721 2600.41826172044 94 98 97
-778.723768875571 303.547069611224 2589.35133866123 141 145 144
-811.903778799029 298.315657312583 2577.60711039858 126 130 129
-833.095841765796 294.972568861148 2567.08567305733 164 168 167
-858.279336088221 291.000308334611 2556.34101173065 197 201 200
-883.459369928986 287.028308877229 2545.73187833094 188 192 193
-894.658182452794 285.25861437068 2536.36108316637 180 184 185
-898.867207941709 284.589701452249 2527.58153122036 182 186 187
-903.07569219554 283.920512492655 2518.82283622461 191 195 196
-911.276579714408 282.622012746122 2509.80278271991 181 185 186
-914.485654289731 282.109485550545 2501.16452958912 183 187 188
-918.69230124091 281.439435304595 2492.47671796283 172 176 177
-925.892368414476 280.297465855086 2483.62277412085 166 170 171
-936.085226010311 278.683654844158 2474.6273961996 166 170 171
-950.268014216514 276.440894377365 2465.45836286091 193 197 198
-965.446801233491 274.040996643199 2456.31101041354 193 197 198
-979.625641517244 271.79823689235 2447.29627632928 190 194 195
-988.814501051448 270.341138832142 2438.60072514078 191 195 196
-995.009406523951 269.355261832021 2430.0914208451 185 189 188
-997.21332354384 268.997508698344 2421.7869048638 181 185 184
-998.419855527062 268.796505376147 2413.53312005744 176 180 179
-997.631215373962 268.909241296735 2405.35946974748 161 165 164
-1000.83204183448 268.393208174365 2397.03981712199 163 167 166
-999.04650828279 268.662112875517 2388.89705920165 165 169 168
-1000.25247213107 268.459343332714 2380.65425785716 162 167 163
-1004.44954796958 267.785179074866 2372.33610116103 156 161 157
-1003.66116372991 267.895623023913 2364.15931271317 150 155 151
-999.882092573019 268.476568273836 2356.04030701212 145 147 144
-988.128517285214 270.312758970499 2348.04706464314 140 142 139
-989.334975603781 270.107607071288 2339.78237969594 137 139 136
-985.557785603428 270.686731084724 2331.58789637712 132 134 131
-987.761133982021 270.323694480308 2323.3092566719 129 131 128
-982.987883039123 271.058651883279 2315.09412078294 133 135 132
-982.201581420686 271.165330360156 2306.83189320897 129 131 128
-976.43306158135 272.055907152168 2298.5742438552 106 108 105
-973.654527695251 272.47520895508 2290.28537712893 71 73 70
-970.876405924038 272.893920888887 2281.97977016926 104 106 103
-970.091267454046 272.998429112021 2273.66975247339 75 77 74
-978.271608057675 271.691148150134 2265.4339902137 97 102 98
-987.447090936076 270.22686792656 2257.25353341942 94 99 95
-994.629157877139 269.075976298442 2249.09352107168 114 119 115
-998.82233856427 268.395136592913 2240.92043280338 139 144 140
-1003.01518828652 267.71390171198 2232.76918026853 139 144 140
-1008.20298003197 266.875637124013 2224.6623774579 146 151 147
