ply
format ascii 1.0
comment KinectMotionCapture
element vertex 757
property float x
property float y
property float z
property uchar red
property uchar green
property uchar blue
end_header
-1271.79558335732 575.965658590256 2697.06188698808 25 17 4
-1278.96089172836 573.945291194636 2688.6232814969 30 17 1
-1277.15671361128 574.493746759878 2681.5093779679 98 71 50
-1270.3704452159 576.469200700257 2675.08556353385 89 62 41
-1266.5740970292 577.588198031966 2668.21019810646 81 50 29
-1262.77855424456 578.706857769347 2661.31231708189 104 72 49
-1260.97616260067 579.254417591243 2654.12763021182 137 106 85
-1257.18138005396 580.372637990735 2647.19023993975 132 101 81
-1246.41468774032 583.488183467786 2641.11735146217 114 87 68
-1228.67730767588 588.600911879353 2635.85172674469 106 87 72
-1219.90597213838 591.144893411388 2629.39600552227 133 119 108
-1339.78062750363 548.789766864382 2787.67610600579 18 19 13
-1330.98588472226 551.314291917785 2782.11433009266 18 19 11
-1296.25582002777 561.192457131333 2781.21307018528 18 19 11
-1287.46540761121 563.716669585082 2775.48171296899 12 14 3
-1353.66682548114 545.008518992559 2749.33877510979 13 15 4
-1351.85539046207 545.553387934378 2742.49532062159 17 18 10
-1375.15672173733 539.007600451029 2724.32320781423 17 17 9
-1337.44950045308 549.732465350728 2723.3548514368 17 17 7
-1305.72945864997 558.760165649697 2721.22279147657 17 14 5
-1299.93446215459 560.435278044667 2714.84231546901 21 17 6
-1302.11545506848 559.848260123565 2707.19691088059 24 18 6
-1278.37896137895 566.612601147193 2703.49385764042 25 16 1
-1290.52859004977 563.197832215476 2694.3130060649 28 16 2
-1285.73326031536 564.589511055569 2687.67524752205 32 16 0
-1279.94187583542 566.263721848288 2681.15263336731 116 90 65
-1270.16527552995 569.068556509949 2675.15806385284 105 77 55
-1265.3722453594 570.459446218836 2668.42025829178 93 61 38
-1258.58729023325 572.415524490968 2661.92431264625 117 85 62
-1254.79229905375 573.523053889358 2654.99292208151 134 104 80
-1248.00910684842 575.4785427837 2648.42744255479 126 95 75
-1242.22300329839 577.150867490199 2641.69640623084 120 93 74
-1225.48059811085 581.932258993914 2636.29611434177 122 103 88
-1212.72468495824 585.582506808279 2630.31734098503 140 124 111
-1371.69180378989 532.598623698416 2774.64641499567 8 9 1
-1332.15235050335 543.762261992426 2767.52418026303 11 11 3
-1317.56029768994 547.922119414687 2755.63896142932 12 12 2
-1337.69336785101 542.299537214328 2744.95092480729 20 20 10
-1324.91285492453 545.919722568524 2739.90131707709 21 21 11
-1315.12587241413 548.699652486899 2734.28577930178 17 17 7
-1304.34320592339 551.759371676213 2728.77727503493 23 20 11
-1295.55611246056 554.258692910337 2722.88947533455 22 18 7
-1299.73155879655 553.117216895602 2714.91491115213 31 23 10
-1296.92783938235 553.935988460942 2708.03930197628 29 20 5
-1289.1402690803 556.154735265961 2701.90290204262 44 32 16
-1290.32495365707 555.853017667996 2694.38552554304 61 48 31
-1286.5259241819 556.951178861048 2687.60190670483 76 59 39
-1277.74398433063 559.449248095213 2681.51134171043 131 104 77
-1269.96007901527 561.667079195526 2675.23071818731 130 100 76
-1263.17375832634 563.604494980726 2668.76810512465 122 90 65
-1258.38120746615 564.98169277843 2661.99686513454 134 102 77
-1249.60383436114 567.478486195731 2655.72644600225 144 114 90
-1240.82796160359 569.974877042564 2649.40628063307 137 106 86
-1235.04190575396 571.631103944665 2642.6560954295 132 105 86
-1220.29094536323 575.806501725496 2636.9888964557 132 113 98
-1208.53069445202 579.141551682126 2630.87524499867 139 123 108
-1369.49872513513 526.033928310605 2775.08521325832 21 22 14
-1368.86518427588 526.270661711667 2760.99220898379 19 16 9
-1368.04954891718 526.527788070735 2754.02866015734 19 16 7
-1346.28665230903 532.60985495422 2750.69299591877 25 23 11
-1310.56245291289 542.574919021044 2749.62178267831 23 19 8
-1301.77228420398 545.050451163009 2743.82863135299 23 19 8
-1298.96724343535 545.861651996004 2736.9965364167 29 25 13
-1293.17090855952 547.504710419354 2730.63395186718 26 18 7
-1297.34730189809 546.374202712508 2722.64347725601 31 21 9
-1300.52565699067 545.52111636721 2714.8308569547 35 22 6
-1297.72188536833 546.331796124917 2707.95792468245 42 26 10
-1289.93341144895 548.529059738043 2701.82444945887 86 68 48
-1288.12742617525 549.06209450704 2694.7552934192 112 91 70
-1284.32824280452 550.14955326166 2687.96619789884 126 104 81
-1278.5360387972 551.791451911208 2681.44091942204 146 116 88
-1270.75146758482 553.987553339292 2675.16298981307 147 116 88
-1261.97124767318 556.460796942595 2668.97854776898 138 106 81
-1256.18193184748 558.101806637907 2662.33943465895 142 110 85
-1247.40426449997 560.574187483574 2656.06362799213 140 109 88
-1240.62052042523 562.491711205002 2649.47895335515 135 107 86
-1231.84500383055 564.963462575289 2643.10908714641 134 109 89
-1217.09313207629 569.098230014503 2637.4338816848 130 113 97
-1203.33971587366 572.955168033571 2631.55474923349 128 114 101
-1204.84702383465 564.212454887015 2797.92430117969 11 11 3
-1294.83572260533 539.469481234623 2774.27345182574 32 29 22
-1331.93619249628 529.285716483255 2760.42858436709 18 14 3
-1306.18384606885 536.406684976157 2757.68795961352 21 17 5
-1299.38753139115 538.308712503649 2751.56862427944 27 23 11
-1291.59506864372 540.485187987118 2745.57805036995 34 28 16
-1292.7799622491 540.189656720911 2738.05914671496 39 33 21
-1293.96497440892 539.894090756856 2730.54489707406 32 22 10
-1297.14419851434 539.049232606269 2722.71647233043 37 25 11
-1297.33148831079 539.028179876224 2715.37393347718 48 32 16
-1294.52746925692 539.83094610898 2708.49284996453 61 44 26
-1287.73556672583 541.731979054633 2702.20000475106 107 85 62
-1281.94201511111 543.357968178002 2695.7196378044 127 102 80
-1279.13977398008 544.160081019952 2688.76836534694 136 110 85
-1275.34121539122 545.236630030046 2681.94313714319 144 114 86
-1269.54961978394 546.861921486705 2675.37624876097 146 115 87
-1261.76541261329 549.036262255029 2669.05140143097 140 108 83
-1257.96897586259 550.111886257125 2662.1422512388 141 111 87
-1254.17310790929 551.187238791069 2655.2105789924 136 108 87
-1245.39531481885 553.635168476278 2648.90410823356 133 106 87
-1231.63686876449 557.455153431608 2643.18188245819 134 108 91
-1214.89134821328 562.098370215785 2637.75498840149 135 117 103
-1204.12561446956 565.093925626323 2631.50647481057 129 115 102
-1285.46435718782 534.608526870128 2783.31812707407 24 24 16
-1300.61933585752 530.508325930851 2773.275632686 26 23 16
-1294.819739971 532.119602165271 2767.00637446468 35 29 17
-1293.01182707308 532.642883729992 2760.01140920552 34 28 14
-1290.20645123097 533.438148682941 2753.17529938092 46 38 25
-1291.39154973081 533.145563820457 2745.65155136199 78 70 57
-1290.5817621703 533.39668878431 2738.46233127686 80 71 56
-1292.76406720203 532.832131914085 2730.7804367362 84 71 54
-1288.96241369734 533.898941526183 2724.06571114876 81 66 47
-1288.15309201864 534.149822420941 2716.85802072579 108 87 66
-1286.34658120019 534.672553790342 2709.79834179872 119 97 74
-1281.54925768889 536.010746286279 2703.1810774465 137 109 85
-1277.74937087597 537.076848613835 2696.3872192086 138 111 84
-1275.94432279465 537.598947349509 2689.27901696233 138 108 80
-1274.13932931794 538.120974664111 2682.15927910362 149 119 91
-1268.34736280554 539.730219742026 2675.58965761267 148 118 90
-1261.55955312746 541.6109538227 2669.1243789553 140 110 86
-1256.76620531563 542.947667740955 2662.35014291256 139 109 85
-1251.97332742179 544.28413965085 2655.54795620867 129 102 81
-1244.19171748977 546.435698814944 2649.10646345175 124 98 81
-1230.43229971223 550.217890393429 2643.38163636702 116 95 78
-1218.6675170799 553.455898774885 2637.33157971242 121 105 92
-1208.89719542447 556.149827211643 2630.9725362415 126 112 101
-1295.24010605552 524.561357061215 2781.57903681733 16 16 8
-1292.43362386459 525.34869394596 2774.77765438823 33 30 23
-1291.62304625557 525.597511578422 2767.60750991268 34 28 14
-1293.80609401216 525.038515667148 2759.91188282917 42 35 19
-1291.99802378016 525.556620596677 2752.90818367066 55 46 31
-1296.17611631203 524.459031107586 2744.88664374566 72 63 48
-1297.36082576522 524.169250677608 2737.38111220127 76 64 50
-1297.54802581471 524.148701993154 2730.04262217565 83 70 53
-1290.75353795486 526.012368014406 2723.82002362883 84 67 49
-1286.9517826238 527.068284403902 2717.08825667695 113 91 68
-1285.14543290939 527.585568033113 2710.02575667029 124 100 76
-1281.34492063683 528.641150349781 2703.25437277249 141 111 85
-1277.54473904354 529.6965277274 2696.46051994748 147 117 89
-1273.7453669012 530.751686470862 2689.64412101107 149 119 91
-1273.934408759 530.729927216031 2682.23234691913 151 121 93
-1268.14199678388 532.322965707408 2675.6627342697 149 119 91
-1262.35066704221 533.915532885018 2669.05964291628 142 112 88
-1253.56963211193 536.31535009608 2662.82821501933 137 107 83
-1248.77659408973 537.638300331575 2656.01776815368 124 97 76
-1238.00469810403 540.575594159886 2649.95686431478 123 97 80
-1226.2376200513 543.781563284798 2643.96211935516 116 95 78
-1218.4583598001 545.910589944023 2637.40459926369 116 102 89
-1210.67998580223 548.039323773625 2630.80280211627 125 113 101
-1290.04668656049 518.566183735427 2782.55924744939 137 137 135
-1292.23019930851 518.012705820828 2774.85137168978 141 141 139
-1295.41126388354 517.192745742675 2766.97774865048 141 141 133
-1294.6004929026 517.439034037129 2759.81244601122 137 137 127
-1296.78336354387 516.885547012473 2752.12965622609 151 148 139
-1300.96118057149 515.799197548891 2744.12162784726 164 161 154
-1302.14562054171 515.512189720162 2736.62960563629 174 171 162
-1301.33501450216 515.758190891047 2729.46687301322 189 186 177
-1294.53972787195 517.603043529095 2723.25529281708 192 188 179
-1292.73228675069 518.115279161769 2716.22070383299 192 188 177
-1289.92788165072 518.893780436997 2709.32865449653 196 189 179
-1289.11852066193 519.13921006374 2702.11664729642 197 191 179
-1284.32060848027 520.450190594034 2695.49317210823 182 176 164
-1277.52884064212 522.293989526681 2689.13360915281 169 159 147
-1275.72365807504 522.805260618381 2682.01903718561 130 114 99
-1268.93375279384 524.648440511984 2675.59533916388 128 111 95
-1259.15408215074 527.290600694811 2669.54610175361 145 124 105
-1245.38826247426 530.998035507549 2663.98189021146 115 92 74
-1238.60201296636 532.840242130265 2657.41426688169 128 105 87
-1226.83336191997 536.013976532794 2651.45571358937 118 95 79
-1215.0661518116 539.187270432846 2645.43104568142 112 93 78
-1208.28355211682 541.028205276201 2638.719409473 115 101 90
-1209.47378846104 540.737853716284 2630.99725464535 99 89 80
-1273.68490027003 515.465608998601 2792.92816407753 228 230 229
-1281.85841829231 513.33460925419 2784.08393093166 178 180 179
-1291.02856104565 510.939958119951 2775.10389930651 195 197 196
-1298.20170301835 509.072954534134 2766.52379977303 194 195 190
-1302.38044256789 507.997459857791 2758.50069586455 188 189 183
-1304.56267727513 507.449727043728 2750.83961422419 185 186 180
-1308.74024285508 506.374307970581 2742.85314950277 186 187 181
-1308.92660155096 506.354043297448 2735.54784744004 184 185 179
-1308.11543851019 506.597431881645 2728.40407915985 184 185 179
-1301.31914082677 508.423347595078 2722.21168141451 183 184 178
-1301.5061027319 508.402622235233 2714.88230919515 181 182 176
-1297.70352714315 509.436966950521 2708.1687635411 177 178 172
-1297.89079752979 509.416039426019 2700.82711772663 183 184 178
-1293.09165443099 510.713666453541 2694.22808829329 186 187 181
-1290.2877013201 511.483584710473 2687.30915787391 186 186 178
-1283.49573490662 513.308227278494 2680.94611208976 164 154 144
-1272.71658470165 516.187433337187 2675.1063580964 138 126 114
-1253.96295467837 521.175919430852 2670.30841378023 128 111 95
-1232.22120798005 526.954964352832 2665.81145136534 130 111 94
-1226.43235263369 528.514282432264 2659.0759517503 109 88 71
-1216.6570495573 531.128091215244 2652.82557315346 102 81 64
-1205.88627538215 534.005190509816 2646.64686802941 125 106 91
-1196.11384433077 536.61799460181 2640.28316198608 116 102 91
-1281.46613516123 505.990262045133 2791.52992024632 186 188 187
-1285.6468304509 504.925593430695 2783.4326786417 192 194 193
-1293.81934714383 502.816590299751 2774.64187439678 193 195 194
-1300.99281016258 500.968767357141 2766.06982196892 213 213 211
-1304.17351921875 500.165407166762 2758.22791751922 213 214 209
-1308.35164661187 499.100942047068 2750.23125670439 220 221 216
-1312.52947760496 498.036432664119 2742.2554574914 224 224 222
-1310.71996035571 498.538417592284 2735.29100436423 226 227 222
-1311.9038116809 498.257088230141 2727.82808554018 225 226 221
-1308.09958560656 499.280888865655 2721.16772515995 218 218 216
-1311.27873041938 498.477224892783 2713.3866305813 212 212 210
-1306.47775531827 499.761772211051 2706.85448294869 213 214 209
-1305.66683562102 500.002098193097 2699.68859078617 212 213 208
-1304.85630801743 500.242136596223 2692.51639025312 201 201 199
-1303.04849725403 500.74300699975 2685.48404505638 195 191 182
-1295.25797872716 502.809790225839 2679.29970517442 184 176 165
-1279.49140538434 506.964245805025 2674.19553066865 188 178 166
-1258.74188839117 512.42318486033 2669.6925757193 128 112 97
-1228.0251565373 520.491450572685 2666.42568217315 116 99 83
-1213.26377273134 524.383329363196 2660.87077030747 111 92 75
-1205.48218594095 526.447977918334 2654.32573038906 109 90 75
-1203.68270525947 526.946387405523 2646.97449918002 109 92 76
-1191.91614971274 530.054086278985 2640.85381784821 93 80 71
-1292.05600285007 495.802572772465 2796.92020428418 226 228 227
-1290.24655881754 496.299316550973 2789.94726205097 223 225 224
-1290.43399767445 496.279244460629 2782.59995033394 236 238 237
-1298.60700974715 494.192013263181 2773.82248674529 241 243 242
-1304.78262119296 492.621675751977 2765.43971116756 242 244 243
-1310.9571784981 491.051501980201 2757.08898608174 242 244 241
-1313.13933341598 490.514710740015 2749.45209589358 238 240 237
-1319.31277651985 488.944470350749 2741.15417091259 236 238 237
-1316.50486763708 489.699536698681 2734.37389892539 234 236 233
-1319.68399847616 488.904279112908 2726.60237661999 229 231 228
-1315.87892026871 489.917323124498 2719.9637709195 228 230 229
-1315.06706244243 490.155258025022 2712.83197673007 216 218 217
-1310.26543823134 491.426353830664 2706.3107553656 217 219 216
-1306.46193678858 492.438858024523 2699.60994462387 219 221 218
-1310.63821377466 491.384728659913 2691.69670186409 214 216 215
-1308.82984306941 491.880286402416 2684.68053680843 201 200 195
-1299.04366851488 494.442072052216 2678.79919480448 171 171 163
-1286.26725624593 497.77823589664 2673.28435875001 183 179 170
-1266.51274134574 502.92191590359 2668.6629360975 181 173 162
-1240.7785758001 509.614792928524 2664.74276306548 112 100 88
-1208.06908473675 518.114746864576 2661.60699258377 97 83 70
-1200.28748814887 520.157607977936 2655.0482666966 93 77 64
-1196.4941628303 521.167106037981 2647.93718522651 103 89 78
-1184.72743562535 524.24213709464 2641.79746149521 95 84 78
-1303.647742363 485.417830496692 2802.05977306497 221 225 224
-1303.83417450085 485.397906385513 2794.75196630496 231 233 232
-1304.02062644635 485.378037020023 2787.44344417508 226 228 227
-1306.20359737303 484.846853518129 2779.77135790564 223 225 224
-1307.38812623774 484.57128566156 2772.2881447513 230 232 231
-1311.56734597866 483.528733640726 2764.28164458614 227 229 228
-1317.74187276195 481.974893176123 2755.94964984711 229 231 230
-1321.91987790875 480.932304400517 2747.99058076394 230 232 231
-1326.09710739231 479.889805225717 2740.05259870477 231 233 232
-1324.28632345331 480.381203915783 2733.12628551402 234 236 235
-1325.4696013745 480.105365770204 2725.70099813846 234 236 235
-1326.65252010041 479.829626387912 2718.28053061509 238 240 239
-1324.84220378296 480.320540469516 2711.33542081852 235 237 236
-1326.02532453014 480.044504091937 2703.91606350177 232 234 233
-1318.22999109077 482.068698395054 2697.86485358666 219 221 220
-1323.40339937243 480.769982603913 2689.8351341166 217 219 218
-1315.60941732417 482.79375710921 2683.73065640883 212 214 209
-1304.82472928324 485.58398879025 2678.01180639488 197 198 192
-1293.04413564033 488.629344031215 2672.37284270157 177 177 169
-1282.26260406205 491.418795391121 2666.52978934387 184 177 167
-1256.52537574526 498.041125163368 2662.65357181202 172 164 153
-1219.8240542334 507.473780592472 2660.09185454749 83 73 61
-1197.08587381788 513.32808940977 2655.51162435765 104 91 82
-1185.31709409086 516.37089964062 2649.40819926987 98 85 76
-1177.53763957395 518.391163482664 2642.74149061905 69 60 55
-1287.27993879663 482.181294069132 2812.51788048875 235 239 240
-1299.45057582039 479.125550975331 2802.89211920911 229 233 232
-1309.62263920345 476.575787159945 2793.70449712109 210 212 211
-1312.80409632789 475.797075698886 2785.85982147956 209 211 210
-1315.98515995158 475.018468998925 2778.03063769482 225 227 226
-1316.17081706304 474.998691202778 2770.75327875291 219 221 220
-1318.35310410281 474.473028331141 2763.12317356867 221 222 224
-1324.52783710153 472.93551503128 2754.80997485645 226 227 229
-1328.70542394796 471.903964221373 2746.86978132963 232 233 235
-1332.88247022237 470.872437289023 2738.95074086793 235 236 238
-1333.06710935745 470.852510373811 2731.71300785665 240 241 243
-1335.24768182938 470.326703778434 2724.14975960382 238 239 241
-1338.42576167376 469.547871121601 2716.43694963584 242 243 245
-1339.60780500049 469.2748255765 2709.05358817985 233 234 236
-1339.79209408851 469.254451682335 2701.82905628871 237 238 240
-1335.98591571341 470.245581541648 2695.20991922204 240 241 243
-1337.16800792357 469.972042829995 2687.82411770815 238 239 241
-1331.36754019288 471.468434637732 2681.46558012792 234 240 238
-1319.58332707448 474.481863047098 2675.9337975022 222 228 224
-1309.79559828764 476.988964990579 2670.05448512855 229 234 230
-1296.02018092991 480.507251000692 2664.67161558957 193 192 187
-1280.25219355109 484.530701337747 2659.48204316951 178 175 168
-1240.55496136631 494.621547908942 2657.3837980165 119 114 108
-1207.84282039161 502.941790064841 2654.15863458179 58 51 45
-1275.90147679982 477.605920494512 2822.08782918406 236 240 241
-1290.07242564997 474.081961231592 2812.01519108867 229 233 234
-1302.24376014093 471.058802853049 2802.3971573322 211 215 214
-1312.41636994997 468.536322269015 2793.21747365693 213 215 214
-1318.59349529603 467.015097430091 2784.82826301786 217 219 218
-1323.77140648803 465.744112017803 2776.65232895808 229 231 230
-1322.95794166038 465.974732290475 2769.57548806532 234 236 235
-1327.13665547904 464.954041856365 2761.61223438309 242 243 245
-1331.31459666141 463.933440217206 2753.66994855675 241 242 246
-1337.48848476181 462.41241701566 2745.40747719511 239 240 244
-1344.65961075171 460.641140353905 2737.00895345175 239 240 244
-1345.84140203926 460.371222880317 2729.63880124229 240 241 245
-1347.02307323267 460.10109730301 2722.27311928206 241 242 246
-1350.2005498352 459.330587837018 2714.59282289658 241 242 246
-1354.37540570352 458.309727253371 2706.77084379635 236 237 241
-1358.54995987469 457.288823816716 2698.96993484219 234 235 239
-1359.73058683239 457.018316035132 2691.64465484979 235 236 240
-1361.90889892101 456.497552627758 2684.17516519367 238 239 243
-1356.10624823151 457.977840305567 2677.88465383126 233 239 239
-1350.30444721968 459.457841755955 2671.5606267936 238 244 242
-1337.52150373899 462.688610391942 2666.18788786159 231 236 232
-1326.73519829913 465.418533392791 2660.46749658488 239 241 238
-1313.95575799706 468.648489421036 2654.9569687813 248 249 244
-1305.16698103285 470.877452901038 2648.84467681269 218 215 210
-1263.33211476979 473.237945654249 2839.32612840461 237 243 243
-1266.51808914561 472.474956944202 2831.32178480953 247 251 252
-1281.6902539907 468.741341491637 2820.99188162488 247 251 252
-1299.85709268507 464.265234179948 2810.16565485237 233 237 238
-1305.03737586623 463.007724888491 2801.90216007159 233 237 236
-1314.21191598453 460.759966909716 2792.91731153588 238 240 239
-1321.38790237598 459.007562671291 2784.34909021703 237 239 238
-1327.56445662817 457.502695017097 2775.99976298988 231 233 232
-1328.74769286799 457.235633884754 2768.57620395946 230 232 231
-1329.93080776543 456.968485019106 2761.15729320827 233 237 238
-1336.10561633009 455.463782021366 2752.87637029274 234 238 239
-1341.28141211776 454.206563980741 2744.79789590599 237 241 242
-1349.4509190333 452.20681656014 2736.24203455531 237 241 242
-1353.62685814223 451.19713122542 2728.38971778128 234 238 239
-1359.79847825099 449.692436818688 2720.23341999217 233 237 238
-1361.97736220184 449.177583089287 2712.74792533623 233 237 238
-1366.15168814505 448.167727034698 2704.95847336129 233 237 238
-1366.33410895492 448.147550434098 2697.80717209102 233 237 238
-1370.50763726344 447.137546618266 2690.04873578827 230 234 235
-1375.67850666233 445.8798995701 2682.16234110547 228 232 233
-1376.85792699842 445.611933730346 2674.88694940669 226 231 234
-1372.05196218915 446.828367410968 2668.47668167573 224 233 232
-1365.25136292799 448.53941463994 2662.31974277008 236 242 240
-1360.44695734597 449.75525315275 2655.84789599165 236 238 237
-1355.64302395213 450.970849052808 2649.34800917596 230 232 231
-1353.83195449147 451.443834754423 2642.4224094999 247 247 245
-1356.00980552172 450.92709846739 2634.96593882577 237 237 237
-1266.93417384645 464.866118381172 2845.99813032039 229 235 235
-1262.1272818191 466.070258067626 2839.60157635186 234 240 240
-1271.30783213409 463.846348080326 2830.40743464549 232 236 237
-1284.48298578321 460.643203844353 2820.48090245684 227 231 232
-1298.6551807967 457.195440240333 2810.43204822362 192 196 197
-1305.83366663994 455.461876767709 2801.78636943332 186 190 189
-1313.01143823436 453.72832025602 2793.17793822371 207 209 208
-1325.1813578741 450.770719238594 2783.68559219966 216 218 217
-1334.35398281585 448.547838868303 2774.80230705798 227 229 228
-1335.5368086879 448.283527825703 2767.39773945603 231 233 232
-1338.71657587676 447.529513969473 2759.64563073696 233 237 238
-1345.88955802244 445.796395413926 2751.21553323097 233 237 238
-1350.06676498841 444.797592966508 2743.33467420649 235 239 240
-1356.23960587773 443.309322003264 2735.13897352447 234 238 239
-1361.41373411391 442.065692084078 2727.14026270465 231 235 236
-1369.58138430125 440.087805758887 2718.6804414847 229 233 234
-1373.75595673929 439.088864431086 2710.90239981901 230 234 235
-1375.9336651671 438.579548451933 2703.45946989701 231 235 236
-1376.11539481525 438.559435820155 2696.33525030629 232 236 237
-1379.29074542656 437.805097306324 2688.75540814532 229 233 234
-1381.4679769153 437.295244957104 2681.33986753009 227 231 232
-1381.64941113371 437.274730824734 2674.22676325616 224 229 232
-1376.84248832241 438.477618306719 2667.83006791045 219 224 227
-1374.03153389658 439.190821920887 2661.12387731724 231 235 236
-1376.20869101507 438.680209123505 2653.7104268385 236 237 239
-1375.39323513768 438.903553858597 2646.71291594297 232 232 232
-1374.57769498508 439.126684089232 2639.70914370799 235 235 235
-1371.76784366431 439.8388137778 2632.95868684901 232 232 232
-1369.95582535617 440.305930146595 2626.0638693819 231 233 232
-1361.16373236921 442.485420463921 2620.02805859789 232 234 233
-1349.38159539855 445.398484464816 2614.30736935434 237 241 242
-1235.56101558896 464.991206960754 2859.85788277055 240 246 246
-1252.7394139122 460.853999838151 2848.91905291602 234 240 240
-1261.92163171236 458.654376902403 2839.67649288948 227 233 233
-1274.10022503893 455.72849436834 2829.88853078981 217 221 222
-1280.2828589809 454.255618795279 2821.33593885777 205 209 210
-1297.45333774576 450.119562914981 2810.6985441065 208 212 213
-1306.63032557186 447.920669002344 2801.67049714159 206 210 209
-1315.80584759495 445.72204842536 2792.69070753414 218 220 219
-1327.97670308525 442.797085561578 2783.20615435218 224 226 225
-1333.15505294837 441.566976373173 2775.05696524634 230 232 231
-1340.32984276 439.852822737458 2766.57658096345 233 235 234
-1344.50797893938 438.86493958542 2758.66180456972 232 236 237
-1356.67363961147 435.940399425291 2749.38073674587 231 235 236
-1359.85180035786 435.194735764261 2741.7003791602 229 233 234
-1363.02932592799 434.44900426431 2734.03544883461 227 231 232
-1366.20668815034 433.703133059757 2726.3860774902 225 229 230
-1372.37831456457 432.231087337107 2718.26458890381 225 229 230
-1376.55274566624 431.24311023931 2710.49451891065 223 227 228
-1381.72487828806 430.012975724092 2702.58829393884 222 226 227
-1382.90412849097 429.750937045455 2695.32591576298 222 226 227
-1384.08349533703 429.488684120667 2688.06807351635 223 227 228
-1384.2647073414 429.468349186097 2680.96384654586 224 228 229
-1383.44797487563 429.689876234852 2674.00495266654 216 219 224
-1381.63398165324 430.153136991429 2667.18318183046 224 227 232
-1379.82004352698 430.616206157982 2660.34972714396 219 223 226
-1382.99445376856 429.869080207045 2652.81438218435 218 219 221
-1382.17844138146 430.089692186497 2645.83568739373 230 231 233
-1381.36234396241 430.310089862955 2638.85076105568 230 231 233
-1375.55986388706 431.739912981797 2632.50872133322 224 225 227
-1375.741897149 431.717738890762 2625.37042202733 226 230 231
-1375.92394577186 431.695320634014 2618.23126019687 227 233 233
-1376.10600899892 431.672658413017 2611.09126563389 228 234 234
-1369.308164726 433.343119537035 2604.78307401054 225 233 235
-1355.53234731864 436.706482847595 2599.24949573343 221 225 224
-1231.16469613963 458.48221886812 2868.25045422744 224 228 229
-1241.34981724774 456.067142566048 2858.69710808903 232 238 238
-1255.53107419071 452.694507894834 2848.38407470928 226 232 232
-1269.71017203136 449.32227111623 2838.14652896561 229 235 235
-1276.89304921591 447.626250830334 2829.36953232745 228 232 233
-1282.07663823286 446.40915453718 2821.02022639712 221 225 226
-1290.25697055439 444.473923342435 2812.11986802167 225 229 230
-1306.4279669558 440.623649551836 2801.74439537601 230 234 233
-1319.60000582796 437.491856940971 2792.01621134119 230 232 231
-1331.7712495345 434.599564259132 2782.54223926046 229 231 230
-1339.94604210055 432.664907619208 2773.85901063282 227 229 228
-1347.1208755964 430.969828411163 2765.39739967045 228 230 229
-1354.29475507922 429.274763112339 2756.9730897769 223 227 228
-1362.46617671052 427.340346836912 2748.41254225325 223 227 228
-1365.64414801496 426.602836182364 2740.74834278545 224 228 229
-1369.82031427527 425.62579762003 2732.93152652683 223 227 228
-1372.99741894978 424.888097553688 2725.30099458318 219 223 224
-1376.17389022672 424.150449212985 2717.68594876147 218 222 223
-1379.35019878001 423.412600982473 2710.08637290595 217 221 222
-1383.52442634713 422.435418345896 2702.34517279734 217 221 222
-1385.70162297246 421.936741956745 2694.933669862 217 221 222
-1385.88268313888 421.916567483857 2687.83554953595 217 221 222
-1383.06991458699 422.614048926715 2681.18338001663 217 221 222
-1382.2534188122 422.832808969104 2674.22158922442 215 216 221
-1381.43707523424 423.051228397116 2667.25348432684 225 226 231
-1382.61621136531 422.791020659128 2659.99753039712 219 220 224
-1389.78124554637 421.094949164593 2651.91784516244 212 213 217
-1388.96467589283 421.312828589868 2644.95799626874 220 221 223
-1384.15797555021 422.487567929322 2638.52238276873 223 224 226
-1377.35721686794 424.140315949604 2632.31840218028 214 218 219
-1378.53643056037 423.87888718159 2625.05810583573 223 227 228
-1383.70497085548 422.660272398632 2617.30465043704 226 232 232
-1385.88107080962 422.159183982064 2609.94274414973 223 232 231
-1382.07356230748 423.093112826122 2603.30485022262 219 228 227
-1371.28713745838 425.70086883289 2597.4579523637 210 214 213
-1354.51998343809 429.743292550719 2592.23148389807 213 215 214
-1239.95269750305 448.852632953383 2866.44684096654 236 240 243
-1250.13794718833 446.464891106854 2856.91781921974 225 229 230
-1263.32006351917 443.367087228783 2846.83226767319 223 227 228
-1273.50237010134 440.979708786711 2837.41866278718 212 216 217
-1278.68711173311 439.77616689978 2829.04818714226 206 210 211
-1281.87245438277 439.04617992842 2821.09464353092 204 208 209
-1295.04889679024 435.949226400675 2811.23176160581 211 215 216
-1312.2199743137 431.905677390522 2800.67961683519 210 214 215
-1321.39643597097 429.756022276544 2791.71567841203 210 214 215
-1330.57190766367 427.606327488781 2782.79971342338 213 217 218
-1336.74958166498 426.166822565361 2774.47680398827 216 220 221
-1350.91658075541 422.834058324104 2764.75450188655 216 220 221
-1357.09207128013 421.394654551894 2756.51703888882 213 217 216
-1364.26531739813 419.718603854265 2748.13789950078 213 217 216
-1368.44187684023 418.752507256086 2740.30814018584 214 218 217
-1373.6165696303 417.549840085307 2732.33134728854 218 222 221
-1377.79198547848 416.58362781103 2724.54615938158 213 217 218
-1379.97028164737 416.090597442683 2717.10706952509 211 215 216
-1380.15163875699 416.070824067461 2709.99777429817 214 218 219
-1383.32770917224 415.341021769616 2702.41614480462 215 219 220
-1385.50505861749 414.847766428932 2695.00448984159 214 218 219
-1389.67841403227 413.881142395875 2687.29938869495 213 217 218
-1388.86127196185 414.097313624286 2680.36007770543 212 216 217
-1390.04003635743 413.840205805324 2673.12198094038 216 217 221
-1391.21891347988 413.582824763785 2665.88850984176 220 221 225
-1393.39517173307 413.088839605642 2658.51871882271 218 219 223
-1398.56464101962 411.884922241984 2650.74473617741 212 213 217
-1392.75891189596 413.282783065301 2644.48603707856 207 208 210
-1388.94932495362 414.207238932787 2637.9285292303 206 207 209
-1384.1426149008 415.367996418904 2631.47828260128 216 220 221
-1388.31382461349 414.399722927981 2623.8552718641 223 229 229
-1394.47937192748 412.95828483559 2616.00423969063 225 231 231
-1392.66562475459 413.408515972156 2609.15886218521 213 222 221
-1387.86015451013 414.568043100265 2602.65883848663 206 212 212
-1377.07248748662 417.145820189352 2596.82830005381 210 214 213
-1365.28908635406 419.959709162506 2591.05053212987 204 206 205
-1350.51645017825 423.482405529851 2585.53900220578 202 204 203
-1234.55635858806 442.568233609315 2875.04729685925 232 236 239
-1249.74158207934 439.037303872319 2864.43396964322 231 235 238
-1259.92688894374 436.676795451428 2854.93195429313 221 225 226
-1267.1123707859 435.018433904008 2846.09359366551 217 221 222
-1274.2969021724 433.36032539493 2837.29265183046 208 212 213
-1278.48267959065 432.404315555184 2829.12277724723 204 208 209
-1283.66688300685 431.21442437791 2820.77866922376 202 206 207
-1295.84503631122 428.386790135758 2811.11339616476 203 207 208
-1310.01966879422 425.091486202559 2801.13297663149 204 208 209
-1321.19516652735 422.498205391727 2791.78910071022 208 212 213
-1331.37023629529 420.139041939108 2782.68863067661 211 215 216
-1342.54303193776 417.545997214032 2773.459940098 212 216 217
-1354.7128636874 414.719201103712 2764.11147735858 212 216 217
-1360.88853254836 413.296075034708 2755.88452210674 209 213 212
-1365.06585950218 412.340817608125 2748.03640404263 208 212 211
-1370.2414634968 411.151652211038 2740.03849527997 213 217 216
-1376.41489867162 409.728520622358 2731.8988342937 215 219 218
-1381.58884537105 408.539319427299 2723.95633514282 202 206 205
-1386.76235718846 407.350110836833 2716.04014953568 206 210 209
-1386.94322794554 407.330226866297 2708.94974390162 202 206 205
-1388.12234635077 407.076385866648 2701.70131887212 201 205 204
-1389.30134403774 406.822396948488 2694.45745310686 203 207 206
-1391.47854572139 406.334339449102 2687.06647900921 206 210 209
-1390.66119145441 406.547686255913 2680.13242874989 205 209 208
-1391.83989433577 406.293235651952 2672.89958928642 209 213 214
-1393.01847574215 406.038637330942 2665.67133887921 219 223 224
-1399.18646773483 404.614554110281 2657.74339451822 197 201 202
-1401.36243796572 404.125684096723 2650.39967744459 199 203 204
-1398.54930769897 404.805796295051 2643.74299523867 188 192 193
-1395.73660975258 405.485553321196 2637.06903509839 201 205 206
-1393.92187830886 405.931248110009 2630.24793073776 215 219 220
-1397.09523504243 405.207630004933 2622.77900143486 226 230 231
-1400.26819320442 404.48387793476 2615.32550584907 226 230 231
-1396.4589936721 405.396226852828 2608.73985716506 186 190 191
-1390.65561759089 406.77581562881 2602.36957389881 178 182 183
-1379.86692067582 409.323737341627 2596.54723079196 212 216 215
-1371.07400038773 411.403696250246 2590.43688464102 203 207 206
-1360.28824814396 413.950593931566 2584.49835405257 201 205 204
-1211.16171645497 440.419895817639 2887.53123911394 218 222 225
-1237.34798740793 434.384922478642 2874.48797295635 231 235 238
-1256.53285311652 429.969567515734 2863.04711687466 226 230 233
-1262.71998085023 428.561396483476 2854.38836674656 216 220 221
-1265.90761237498 427.847242232641 2846.37169071211 213 217 218
-1266.09637150331 427.82705872467 2838.97265858264 205 209 210
-1277.27864533876 425.262943751968 2829.39526513982 203 207 208
-1288.45965705126 422.698981599883 2819.87668870907 198 202 203
-1304.63518890264 418.979065234613 2809.45459794226 196 200 201
-1315.81283939802 416.415397743688 2800.06770590522 201 205 206
-1322.99224604249 414.777079434889 2791.48830593455 210 214 215
-1335.16616586912 411.982622437275 2782.02411502147 213 217 218
-1343.34224994977 410.113165896441 2773.35109158544 211 215 216
-1356.51201605539 407.08767190639 2763.82587041251 211 215 216
-1360.69017862683 406.143235519674 2755.95671231635 205 209 208
-1368.86316382392 404.274000664061 2747.41436680196 202 206 205
-1373.03997874897 403.32962296392 2739.59794240843 211 215 214
-1380.21223977432 401.691586507948 2731.2981206184 209 213 212
-1383.38926523724 400.978335283022 2723.6969358214 197 201 200
-1387.56433367907 400.033762336871 2715.94856040168 203 207 206
-1388.74350888554 399.782667091383 2708.70086356266 199 203 202
-1391.9194116778 399.069174581888 2701.14329755079 199 203 202
-1395.09491349567 398.355488727943 2693.60119540915 198 202 201
-1399.26818221782 397.410614670749 2685.92283595955 200 204 203
-1397.45210471701 397.852403330488 2679.15947086021 200 204 203
-1396.63434729174 398.06285651705 2672.2380704773 209 213 214
-1399.8085707657 397.348613844174 2664.73600778644 215 219 220
-1401.98474642888 396.865330929324 2657.39026070379 187 191 192
-1402.16478801059 396.84404719454 2650.33075915676 199 203 204
-1400.34911513831 397.284830980193 2643.54117602837 196 200 201
-1403.52260220772 396.569820919098 2636.07639540446 206 210 211
-1402.7050161786 396.779028094141 2629.14695839471 215 219 220
-1403.88265997798 396.525699714631 2621.95671648211 221 225 226
-1403.06524288749 396.734261722913 2615.01998403539 226 230 231
-1398.25813916448 397.866731869671 2608.56407542262 167 171 172
-1393.45150674032 398.998899621398 2602.08009734167 181 185 186
-1384.65630034523 401.054799327527 2596.03326725313 211 215 214
-1379.85160259387 402.186088764723 2589.48205717889 195 199 198
-1372.05576973921 404.010072440092 2583.23539539093 199 203 202
-1362.26695664934 406.295572630913 2577.16052244099 203 207 206
-1222.95125912621 430.124017630152 2885.03539065383 226 230 233
-1245.13935373551 425.074151338676 2872.87046632706 228 232 235
-1259.32613715511 421.853397168161 2862.49519189218 222 226 229
-1263.51401321697 420.918738698009 2854.2568957145 210 214 215
-1268.70115194282 419.755551647039 2845.83606324394 215 219 220
-1271.88840194825 419.049661558196 2837.84317172652 209 213 214
-1284.07051001204 416.286998535971 2828.08376927327 202 206 207
-1295.2518634813 413.752954923125 2818.58396002798 199 203 204
-1308.43026951962 410.761952414289 2808.75809465063 198 202 203
-1317.60957641438 408.685483285767 2799.76153596456 204 208 209
-1323.79022757081 407.294581436442 2791.37445523169 215 219 220
-1336.96405089361 404.304138767351 2781.7282993652 213 217 218
-1344.14159760402 402.684861512138 2773.24203687753 206 210 211
-1352.31736531707 400.837152938854 2764.61405426451 204 208 209
-1360.49180317369 398.989561470279 2756.02884799721 202 206 205
-1366.66756055871 397.598942158331 2747.83333617062 195 199 198
-1376.83764935751 395.294461716206 2738.98625407134 208 212 211
-1382.01284826154 394.132352718862 2731.03322873022 195 199 198
-1384.19113623895 393.65571286704 2723.60273311141 187 191 190
-1384.37212869731 393.635736477112 2716.50747173717 192 196 195
-1386.55027576368 393.158830909292 2709.09152289263 189 193 192
-1394.71867648126 391.311166165556 2700.74219025567 190 194 193
-1399.89105252472 390.148668332094 2692.89907458249 190 194 193
-1401.06932139965 389.899975063623 2685.68937937729 193 197 196
-1396.25820531301 391.021449586872 2679.37848158159 194 198 197
-1397.43664819741 390.772349877834 2672.16154907911 199 203 204
-1400.61126768764 390.066101210522 2664.66191683626 204 208 209
-1400.79136566537 390.04498251866 2657.60038834775 176 180 181
-1399.9733496986 390.252086585799 2650.6761718471 202 206 207
-1401.15161161989 390.002071614224 2643.47465405986 204 208 209
-1407.31875900793 388.610023347442 2635.61411644024 205 209 210
-1406.5005839169 388.816389530347 2628.69532678369 215 219 220
-1405.68280167627 389.022467932869 2621.77019896458 218 222 223
-1402.86984443908 389.684948484378 2615.08782265928 204 208 209
-1399.05984391357 390.575423639516 2608.50999320226 162 166 167
-1392.25795810429 392.150567007191 2602.26673874296 206 210 211
-1387.45173279676 393.268581915366 2595.75165290023 195 199 198
-1382.64645440022 394.386221555511 2589.20848035027 186 190 189
-1380.83347806263 394.818544989542 2582.30442323087 195 199 198
-1378.02366591395 395.478867809905 2575.49680916586 197 201 200
-1210.55044928759 425.334973134656 2895.22464938314 224 228 231
-1228.74265357488 421.247998428964 2883.82486799023 226 230 233
-1249.93190893672 416.483926203834 2871.8874186394 223 227 230
-1261.12008186831 413.978796809251 2862.1521270428 218 222 225
-1268.30746440088 412.377367474061 2853.30061027417 207 211 212
-1272.49475894722 411.453667248751 2845.09680785701 214 218 219
-1275.68195723597 410.755893500006 2837.11465230757 208 212 213
-1285.86569778276 408.477367965332 2827.76188098482 199 203 204
-1296.04807594636 406.199085097737 2818.46261687426 200 204 205
-1307.2284446081 403.695196290472 2809.02435043795 201 205 206
-1317.4080187747 401.41717977428 2799.83496223127 210 214 215
-1325.58779214817 399.590791885559 2791.07331704136 216 220 221
-1337.76307172792 396.861576839051 2781.61670925995 211 215 216
-1346.93946992418 394.809706516106 2772.76956967868 206 210 211
-1352.11836639863 393.661077711156 2764.68650446898 203 207 208
-1360.29340783501 391.83511246734 2756.10092878823 200 204 203
-1368.46759729731 390.009190850843 2747.55802283806 194 198 197
-1375.64165946329 388.409087071486 2739.22853541985 205 209 208
-1378.81960196569 387.71197690499 2731.60884056817 188 192 191
-1379.99958433915 387.466368578351 2724.33548827743 186 190 189
-1381.17944977802 387.220611325883 2717.06654629076 185 189 188
-1384.35647935721 386.523264053131 2709.48227705424 185 189 188
-1394.5227700266 384.245783029454 2700.81262890571 186 190 189
-1400.69391307441 382.871216890544 2692.81469802315 188 192 191
-1401.87218662972 382.624983157041 2685.60746075178 192 196 195
-1398.05887086985 383.507097988327 2679.15022546594 193 197 196
-1400.23566612308 383.034873683179 2671.79213654137 196 200 201
-1403.41030667553 382.336781999199 2664.30043945437 203 207 208
-1401.59388649702 382.766961310177 2657.52867737418 176 180 181
-1399.77775788669 383.196822921211 2650.74517867764 199 203 204
-1399.95796288361 383.175135566351 2643.67885692178 199 203 204
-1406.12563456713 381.799332917631 2635.81527131225 196 200 201
-1408.30121346332 381.325931965112 2628.5034584412 211 215 216
-1406.48529172189 381.754838216019 2621.71084879918 222 226 227
-1402.6744210343 382.634621566105 2615.15554825365 191 195 196
-1395.87123144906 384.190965959342 2608.94306498463 170 174 175
-1389.06902811216 385.746807709004 2602.69149601361 207 211 212
-1390.24759118436 385.497615983502 2595.46976735503 184 188 187
-1388.43376004459 385.924825294821 2588.59362771524 185 189 188
-1388.61500656288 385.900579933462 2581.48385310584 196 200 199
-1380.81815816305 387.680416744149 2575.23880562607 194 198 197
-1370.03079758318 390.136513655489 2569.26563951063 195 199 198
-1202.14715338685 419.587703284529 2904.5996436734 214 218 219
-1220.34249058348 415.549230167677 2893.12949460111 214 218 219
-1237.53513373444 411.734557372471 2881.97091526441 224 228 229
-1251.72545106414 408.589566719425 2871.53887241012 213 217 218
-1257.91459891301 407.230013476339 2862.85337122121 206 210 211
-1266.10248920556 405.424395044854 2853.78746457058 207 211 212
-1274.28953397572 403.618998580211 2844.76416698319 211 215 216
-1281.47561143049 402.036882713425 2835.9843944907 200 204 205
-1287.66116867871 400.677985295168 2827.43993058816 196 200 201
-1294.84542049756 399.096175407469 2818.73183880867 202 206 207
-1306.02668168448 396.621998490163 2809.29059173533 200 204 205
-1318.20604124344 393.924884636022 2799.7183168087 213 217 218
-1328.38493526677 391.674177803573 2790.58483399223 209 213 214
-1339.56168473838 389.200481804686 2781.32043675575 202 206 207
-1351.73632345872 386.503784505441 2771.93311582094 203 207 208
-1355.91592358146 385.591735802536 2764.04254864036 201 205 206
-1366.08955922107 383.341468596686 2755.11505371271 194 198 197
-1370.26767686648 382.429454457141 2747.28246399354 191 195 194
-1378.44124044498 380.625246307393 2738.7873339985 197 201 200
-1379.62134834969 380.382305417979 2731.51193960032 179 183 182
-1381.80031287211 379.916225725153 2724.07566573249 187 191 190
-1383.97878234634 379.450100906376 2716.64936682172 177 181 180
-1385.15839593337 379.206871485053 2709.39298226781 182 186 185
-1392.3297824754 377.625482612418 2701.19748691576 181 185 184
-1396.50435783419 376.713031092245 2693.50287240333 185 189 188
-1397.68298469714 376.469404155409 2686.2846256228 189 193 192
-1396.86485166113 376.671614692395 2679.36905508624 188 192 191
-1399.04162870009 376.204740067065 2672.00809732419 194 198 197
-1402.21656714614 375.514671646976 2664.51337228624 205 209 208
-1402.39653140856 375.49334847774 2657.45685030354 181 185 184
-1402.57651254536 375.471780739864 2650.39940621221 196 200 199
-1403.75472168169 375.227001478429 2643.20557314615 199 203 202
-1405.93047750685 374.75919834829 2635.88353100016 195 199 198
-1407.10837456534 374.514022018462 2628.70146867561 207 211 210
-1407.28814231945 374.491490765296 2621.65132977079 196 200 199
-1403.47666693747 375.360334713411 2615.09859210135 151 155 154
-1399.66600225467 376.228839656953 2608.5231302905 204 208 207
-1390.86764601791 378.211454414781 2602.52071919294 203 207 206
-1390.05117258192 378.410522261796 2595.53691135963 171 175 174
-1388.23719592432 378.832188542523 2588.66050738128 185 189 188
-1387.42109739073 379.030616408408 2581.66135990118 196 200 199
-1383.61307559149 379.897217360154 2574.980560686 189 193 192
-1369.8328152235 382.991797829861 2569.3320303881 187 191 190
-1347.07954043733 388.091244339789 2564.53122748495 184 186 183
-1179.73659707574 416.882975212348 2917.1328557661 210 214 215
-1199.93643802053 412.452180628225 2905.11483536317 211 215 216
-1219.13339731013 408.24229224405 2893.42193442915 218 222 223
-1242.32822757954 403.150970987859 2880.97394368605 220 224 225
-1257.51948310264 399.823640481632 2870.34347294379 210 214 215
-1266.70866875352 397.819141890008 2861.04741945449 205 209 210
-1274.89653605156 396.035316495184 2852.00581119317 202 206 207
-1279.0839420365 395.133253478517 2843.82088573761 210 214 215
-1284.27076822468 394.010902568394 2835.45611502515 185 189 190
-1287.45739226002 393.32942682649 2827.51390283278 199 203 204
-1294.64216588523 391.766504057691 2818.80569658644 197 201 202
-1304.82475224188 389.542663059878 2809.55675105728 201 205 206
-1321.00307072167 385.996597093737 2799.22174115608 209 213 214
-1334.18084992495 383.111815126207 2789.53442610022 202 206 207
-1345.35801228614 380.668018728976 2780.28599559815 201 205 206
-1355.5344393499 378.444677148273 2771.27831280733 202 206 207
-1362.71178362037 376.882471885098 2762.86124188358 199 203 204
-1369.88817525866 375.320220144472 2754.48135322161 193 197 196
-1376.0645946508 373.978340112506 2746.31230034827 195 200 196
-1379.24310760934 373.297463274789 2738.68774019272 192 197 193
-1381.42234300191 372.836773202101 2731.24666674015 180 185 181
-1382.6022696298 372.596431383329 2723.9811479502 182 187 183
-1388.7762724329 371.254354449449 2715.90633233034 178 183 179
-1389.9556132448 371.013778467741 2708.66345783204 181 186 182
-1392.13367960714 370.552769424151 2701.26773164412 177 182 178
-1394.31124769545 370.091626084847 2693.88201074693 181 186 182
-1396.48879559098 369.630364948057 2686.5062773598 185 190 186
-1399.66448091069 368.94865040346 2678.99133166007 182 187 183
-1401.84120315972 368.487132060148 2671.63826644122 191 195 194
-1405.01616171235 367.805130849239 2664.1514175167 186 190 189
-1407.19253379442 367.343222442663 2656.82094400413 189 193 192
-1407.37216952981 367.321596612851 2649.7769370221 191 195 194
-1408.5498706672 367.079476530536 2642.59648874758 186 190 189
-1408.72947204547 367.057379695172 2635.55331883121 203 207 206
-1411.9030596414 366.374483071915 2628.11909021871 205 209 208
-1411.08464294868 366.572027621501 2621.20959599115 172 176 175
-1405.27704989443 367.870332921126 2614.91685070273 148 152 151
-1399.4703037835 369.168142654617 2608.59047183477 208 212 211
-1394.66227917411 370.245400366055 2602.11127179141 179 183 182
-1394.84301921228 370.221529920317 2595.02169473553 182 186 185
-1393.02854805069 370.63768606145 2588.15870132253 189 193 192
-1390.21694657023 371.273637366474 2581.3948522858 190 194 193
-1381.42117078708 373.229876981047 2575.26326852434 190 194 193
-1369.63480626136 375.846008743678 2569.39830859714 193 197 196
-1349.87168493354 380.222355758383 2564.28935188168 191 193 190
-1183.52670389228 408.375133865718 2916.31858392515 209 213 214
-1202.72725421303 404.216389116863 2904.53092236196 205 209 210
-1224.92628699226 399.404887351158 2892.19443393218 214 218 219
-1247.12229671998 394.593890312545 2879.97663876454 214 218 219
-1258.31358642327 392.178142910904 2870.20617964483 203 207 208
-1265.50314193723 390.633513277286 2861.33072238058 197 201 202
-1274.69184592759 388.653630689484 2852.07992462209 202 206 207
-1279.87940850246 387.544711191721 2843.69147019462 203 207 208
-1287.06635767185 386.000472210672 2834.92762214588 184 188 189
-1289.25303918614 385.544825132521 2827.19161845257 195 199 200
-1293.43900690209 384.653888433802 2819.07485211512 194 198 199
-1303.62241006438 382.45701860838 2809.82294255926 200 204 205
-1322.80077950856 378.301415028544 2798.91488402501 202 206 207
-1334.97995630894 375.669590536443 2789.41985462518 195 199 200
-1342.16014056069 374.126135380427 2780.91191981544 195 199 200
-1354.33637619663 371.494523729034 2771.53206984287 196 200 201
-1362.51355058024 369.733621464293 2762.93299081143 192 196 197
-1368.69130361243 368.407951636981 2754.72921993457 189 193 192
-1374.8682440742 367.082228053315 2746.557149405 189 194 190
-1380.04510744287 365.974206369619 2738.58782102347 186 191 187
-1384.22233918119 365.083764855749 2730.81301864611 175 180 176
-1385.40237025821 364.845912894435 2723.55541582783 173 178 174
-1389.57873990699 363.955280759989 2715.81410222244 170 175 171
-1391.75707575862 363.499721723208 2708.41369525681 178 183 179
-1393.93491402665 363.043998197377 2701.02323417841 176 181 177
-1397.11134470655 362.3706379312 2693.48812740095 177 182 178
-1397.29151454648 362.349830212347 2686.42412418775 178 183 179
-1398.47017449412 362.111236067562 2679.2099881678 176 181 177
-1399.6489534877 361.872487055979 2672.00035792395 194 198 197
