ply
format ascii 1.0
comment KinectMotionCapture
element vertex 766
property float x
property float y
property float z
property uchar red
property uchar green
property uchar blue
end_header
-1217.40992886066 31.295902527914 2284.16790078243 140 142 139
-1217.67675007375 30.9975869973185 2292.76378463304 124 126 123
-1216.93981644053 30.6733033324969 2301.5128489337 119 121 118
-1217.19968686923 30.3766075614271 2310.08301949308 106 108 107
-1191.40364337222 29.387951979363 2322.78851245977 84 85 87
-1104.40025459642 26.7834588427519 2344.91523932308 151 152 154
-1052.38953492355 25.1202662255749 2361.17574336249 147 148 150
-1023.39660047199 24.0732036685586 2373.6648218575 159 160 162
-1002.39803438715 23.2419900549615 2384.79834882597 148 149 151
-984.382928787042 22.4934055851264 2395.37115737232 129 130 132
-973.383013366912 21.9315346588087 2404.83177253897 124 125 127
-964.378252318913 21.4242491868298 2413.94089745699 126 127 129
-960.396038833562 21.0491479054104 2422.29868031674 125 126 128
-957.413515236603 20.7012141079025 2430.48801851854 127 131 130
-954.423231076346 20.3544017868281 2438.65018033386 126 130 129
-949.405726691469 19.9570374396641 2447.0463956452 122 126 125
-940.33530411102 19.4582414310338 2455.91709196527 120 124 123
-938.327978025468 19.1409000562134 2463.85107048581 115 119 118
-933.278523109473 18.7477797283281 2472.13133918884 114 118 117
-932.269813325834 18.4579899518365 2479.89312954498 124 128 127
-924.161905928064 17.9910003288428 2488.46121659303 124 128 127
-922.124704710455 17.677872262474 2496.28600564349 122 126 125
-925.155962564554 17.4919939728714 2503.52679773986 123 127 126
-928.18853284993 17.3062598630699 2510.7716246414 122 126 125
-926.140218576629 16.9949947410561 2518.55632925971 128 130 129
-923.068522360076 16.6596199547966 2526.42344512705 128 130 129
-921.007328564962 16.3501043625952 2534.16143516672 130 132 131
-919.95847037227 16.0663732268434 2541.77798745751 131 133 132
-915.847223970861 15.7088525008954 2549.66779583207 129 131 130
-915.806817732052 15.4514127513416 2557.14881119704 127 129 128
-918.825454153355 15.268561023217 2564.34372417713 122 124 123
-915.71657775381 14.9381217411916 2572.07591333114 93 95 94
-913.62245896089 14.6331939357898 2579.69455579549 88 90 89
-911.522250324283 14.3290571008233 2587.29108724114 85 87 86
-908.392299379642 14.0012862607917 2594.94671545428 82 84 83
-883.745799103476 13.1640043748344 2604.22223673185 133 137 136
-843.687510747399 11.9672210100423 2614.49836093739 133 137 136
-823.057893414934 11.2356539752256 2623.16831356049 136 140 139
-817.79247793395 10.8687814261517 2630.6633344863 135 139 138
-812.516728787653 10.5030751338929 2638.12072485164 134 138 137
-809.286128148542 10.1864250362404 2645.40968153058 140 144 143
-807.076801109815 9.89444615839134 2652.60875363343 145 149 148
-808.978388432437 9.69837560683222 2659.54518597947 143 147 146
-812.939694067519 9.54976996577077 2666.36534579449 139 143 142
-815.872725244815 9.37736055543052 2673.24994503706 135 139 138
-821.901049403506 9.27562833070099 2679.98149215832 131 135 134
-839.288115813721 9.43178563938789 2686.18540064036 111 115 116
-886.647816507167 10.2650660632853 2691.0986025029 108 112 115
-1021.89069864793 12.8201638398815 2699.97315130338 137 141 144
-1034.27728585011 12.8423862350342 2707.01016102676 142 146 149
-1037.35671817117 12.6550377417405 2714.42888726738 149 153 154
-1249.07420548983 24.1993745998694 2260.86934495461 169 173 172
-1227.39463683988 23.3670144426384 2273.37096841087 139 141 140
-1214.67635997457 22.7574294983365 2284.21416095666 143 145 142
-1214.93935048833 22.465044814794 2292.79956659783 117 119 116
-1215.19909341538 22.1735267452351 2301.37346172077 108 110 107
-1215.45585475844 21.8827072461889 2309.93579882505 77 79 78
-1195.66082745604 21.1133641292945 2321.68057081394 82 84 83
-1118.65509277183 18.9862301948269 2342.26201653243 147 149 148
-1047.55861646835 17.0145600916887 2361.50175180931 137 139 138
-1014.53055559929 15.9563477478707 2374.58836794729 156 158 157
-986.478438620984 15.022170459456 2386.74453776749 156 158 157
-974.479075387282 14.4702549812153 2396.3970048218 152 154 153
-964.472575604669 13.967839385164 2405.68719414514 151 153 152
-960.493184570235 13.6082107822754 2414.06522485118 149 151 150
-957.513202520447 13.273182663437 2422.27214728938 151 153 152
-954.525428340689 12.9392796718754 2430.45177844519 149 151 150
-952.539915509621 12.6296761574118 2438.47070156178 148 150 147
-946.50705268318 12.2285393584321 2446.99102864012 148 150 147
-941.473360305207 11.851936844752 2455.34024904063 148 150 147
-938.452604938087 11.5226859049882 2463.40036457387 146 148 145
-933.399532827877 11.1486713525189 2471.67926573013 144 146 143
-930.362289550903 10.8217028034593 2479.67960586763 145 147 144
-925.289849072018 10.4503037811459 2487.88824737592 146 148 145
-922.23637852024 10.1255368497084 2495.82879978614 147 149 146
-924.251949645647 9.91481045890306 2503.17917872203 147 149 146
-926.267170694018 9.70429785544095 2510.52839286465 147 149 146
-925.231659086576 9.42685046698054 2518.19846563969 145 147 146
-918.086566071913 9.01572121238352 2526.48024071375 146 148 147
-916.019318254411 8.71779476360156 2534.20307013331 139 141 140
-914.96486884814 8.44288422454568 2541.80443220692 134 136 135
-912.886210306954 8.14647966534031 2549.48585668728 133 135 134
-910.8014609742 7.85092395259256 2557.14520316953 136 138 137
-912.794860910268 7.64417704726632 2564.41577726365 132 134 133
-913.765966652728 7.41567862900665 2571.77429002132 121 123 122
-913.713109688119 7.16575147663727 2579.21289231973 118 120 119
-911.61050181929 6.87272332395571 2586.80752932682 129 131 130
-903.357966345883 6.45023915937924 2594.86766811543 119 121 120
-875.62299968061 5.6183847673376 2604.36870680151 135 140 136
-836.566832662862 4.5538393077925 2614.5536078547 141 146 142
-822.079346970953 4.01100286936849 2622.76653667941 141 146 142
-816.809619828968 3.66331641426342 2630.25766234832 136 141 137
-812.557007840614 3.33814661606284 2637.64303268765 123 128 124
-809.32362155314 3.03527826263227 2644.93034787201 116 121 117
-810.198710209245 2.81803625308523 2651.93854569156 106 111 107
-811.072110048396 2.60098956365483 2658.94059657966 102 107 103
-815.034589513312 2.44735976585957 2665.76287162776 101 106 102
-811.782415898338 2.1467002809578 2672.98089868878 109 114 110
-818.840427739808 2.05586375178439 2679.64603295042 122 127 123
-838.295433837755 2.21419228250223 2685.73652621524 133 137 138
-911.501805491667 3.44904863911776 2689.45144377879 142 146 149
-983.772512195035 4.65315242707869 2693.56932558864 160 164 167
-1017.85796071905 5.0850072127777 2699.60027278112 158 162 165
-1032.31570078617 5.12238038430839 2706.54306277313 148 152 155
-1036.42958902252 4.95341278264987 2713.91687640532 162 166 167
-1227.38723786872 15.1647701925648 2264.2677804478 176 180 179
-1218.67125019158 14.6805461519677 2274.46455309678 130 132 131
-1215.93903256993 14.3280695200331 2283.5803602184 114 116 113
-1217.2016540485 14.0628808813469 2291.99804948431 103 105 102
-1215.45852735254 13.7340535748421 2300.90476791824 102 104 101
-1208.69871913815 13.2994200595384 2310.60219058219 96 98 95
-1182.87225658162 12.4621717023423 2323.28940511588 107 109 106
-1115.85999957633 10.760081507823 2342.27703424379 154 156 153
-1059.79495432819 9.30145704182171 2359.20091525186 172 174 171
-1005.65624953985 7.89422778859659 2375.51579929041 183 185 182
-981.607499349425 7.12538378940146 2387.05385757943 189 191 188
-969.598082197433 6.61165935633444 2396.69310823224 165 167 164
-964.618081620684 6.24635033537434 2405.24880588747 167 169 166
-957.611884156619 5.84090616431308 2414.04986218224 161 163 160
-953.618151503811 5.49919748146847 2422.38595896953 160 162 159
-949.615697500354 5.15876455222868 2430.68955151274 154 154 152
-946.613972538138 4.84007902440757 2438.82699365752 151 152 147
-942.594079942766 4.50206018314046 2447.06829327809 144 145 140
-940.588192864145 4.20599084964544 2455.0201155801 145 146 141
-935.539716262101 3.85004558294476 2463.32748695859 149 150 145
-931.49362963348 3.51563387642022 2471.47381062364 150 151 146
-931.492913921832 3.26301964154839 2479.10523571416 148 149 144
-925.403330183874 2.89053854547193 2487.4330608757 146 148 145
-922.347009902508 2.57961853596538 2495.37177502011 146 148 145
-919.282930953607 2.2697042508477 2503.28324673684 147 149 146
-925.359515538473 2.13937055828427 2510.17591789222 147 149 146
-924.321281812712 1.87038305812358 2517.84122510606 144 146 143
-919.206902188772 1.52324401620806 2525.9094712702 142 144 141
-914.082143125644 1.17742094107275 2533.94001144349 137 139 136
-910.985734735937 0.872003817473474 2541.73336053276 135 137 136
-909.921757749884 0.606513551516016 2549.30529603727 132 134 133
-907.832199492149 0.322309193801815 2556.95488359741 130 132 129
-909.822623001868 0.116224242224225 2564.2148247268 129 131 130
-908.746403085473 -0.147467449055652 2571.74151113389 124 126 125
-908.688089527924 -0.391225082317051 2579.16467830607 127 129 126
-902.484884165652 -0.749243779943023 2587.08070846954 129 131 128
-887.051096877504 -1.27715850179229 2595.68687513494 127 129 128
-855.1918699722 -2.10564409902515 2605.46461034555 143 148 144
-832.51706620837 -2.75914798976386 2614.38311234566 143 148 144
-822.125140634475 -3.1832804761759 2622.29171510463 131 136 132
-814.797596202371 -3.54929923870563 2629.92363520587 128 133 129
-811.568179534347 -3.83916712838102 2637.23389662146 134 139 135
-809.360083265533 -4.10962595273108 2644.45112496696 134 139 135
-813.321798263602 -4.26827966208911 2651.26738986473 132 137 133
-812.136168261991 -4.51931753048319 2658.39584703054 119 124 120
-815.068736112327 -4.69638131595197 2665.27578750212 114 119 115
-814.907965976955 -4.92834710058727 2672.32599823769 116 121 117
-824.03381985322 -4.99593812558292 2678.8897308919 115 120 116
-853.827683645071 -4.70150568821472 2684.48538536207 118 122 123
-927.071560525315 -3.65182469844073 2688.22264244759 165 169 172
-983.864314520202 -2.90023520014761 2693.03767649048 154 158 161
-1010.71606054524 -2.67623721526673 2699.35617490367 120 124 127
-1024.13693284411 -2.68792878033615 2706.31555059335 124 128 131
-1034.46403774531 -2.75455219346811 2713.44265435705 140 144 145
-1208.67803344509 6.31205394824418 2267.14794057887 169 173 172
-1212.93845258547 6.10603661005908 2275.04240347435 119 121 120
-1210.19904324069 5.76776465730904 2284.14047722837 109 111 108
-1212.45728637556 5.52492838874046 2292.37157727713 98 100 97
-1209.70617441399 5.18872484496029 2301.42843641632 86 88 85
-1198.92761902661 4.70425000768836 2311.75978183807 101 103 98
-1158.03346053746 3.66398726971399 2326.82487278641 163 165 162
-1113.06142676181 2.55666196787173 2342.29348280529 167 169 166
-1072.04007605505 1.53076304685006 2356.89540254071 167 169 164
-1012.85968807598 0.18106531569094 2374.01128739269 0 1 0
-975.72547357507 -0.756346544343436 2387.51503754085 0 1 0
-969.74619612295 -1.12237778699172 2396.25648042206 41 43 40
-964.762538893646 -1.46857646898164 2404.81066691063 66 68 63
-958.760057512195 -1.83149795038791 2413.46885051303 78 80 75
-946.692172943456 -2.30082552819817 2422.91905295697 113 115 112
-941.671585540524 -2.64220427037844 2431.33916800664 169 170 165
-938.661284341393 -2.94655387627631 2439.45381921526 167 168 163
-939.688105425932 -3.17865836173782 2447.01598641361 165 166 161
-940.713146145765 -3.41026810715185 2454.57185581971 164 165 160
-933.635835847715 -3.78241710823431 2463.12990492693 163 164 159
-929.58507773767 -4.10020059354312 2471.26938248541 162 163 158
-930.595453203328 -4.32947879870833 2478.77227468953 144 145 140
-931.604029049051 -4.55828892006034 2486.26878078115 121 122 117
-927.533591951635 -4.87324765142412 2494.33697751827 95 96 91
-920.405774019465 -5.23877534598767 2502.71168202554 46 47 42
-922.416450403937 -5.4480980228236 2510.0447739792 26 27 22
-925.44428337321 -5.64007892684433 2517.2689972782 10 12 7
-920.326980073959 -5.96813463587416 2525.3384366263 5 7 2
-917.237411346842 -6.26096988013687 2533.16512358217 16 18 13
-912.10081354757 -6.58659190147544 2541.16446273632 43 45 40
-908.994559728524 -6.87733126938313 2548.93145346516 105 107 102
-908.944283283828 -7.11693499211875 2556.38708342377 121 123 118
-910.934623137463 -7.32272143647651 2563.64690241635 130 132 127
-911.902098514938 -7.54481402593284 2570.99505162282 131 133 128
-907.751207735957 -7.84913926004872 2578.77125304227 132 134 129
-888.231308740574 -8.39882825427486 2587.7789512187 89 91 86
-853.309975094212 -9.19059999769396 2597.90075363696 130 132 127
-832.692997549506 -9.74888554172577 2606.72703617655 132 137 133
-823.332156132132 -10.1255083941636 2614.59659801064 134 139 135
-821.143346934773 -10.3873666655776 2621.89086541118 139 144 140
-812.782923246111 -10.7449139952619 2629.59050509762 140 145 141
-810.577551123366 -11.0049215850726 2636.82537504843 138 143 139
-809.395549272168 -11.2483206550597 2643.97212556304 137 142 138
-812.327584313632 -11.4277201239205 2650.84861319148 126 131 127
-813.200030749008 -11.6387354919372 2657.85093213882 137 142 138
-816.132916194855 -11.8181177815225 2664.73058799816 160 165 161
-814.93947721095 -12.0600279278536 2671.83674373161 164 169 165
-830.262955523997 -12.0526723580157 2678.07857822412 159 164 160
-875.570516315145 -11.5983232680858 2682.92599019947 153 157 156
-939.549956638793 -10.8728521387991 2687.13119152311 136 140 141
-981.885496965458 -10.4779912197668 2692.59640647244 142 146 147
-1007.70929945339 -10.3329083975272 2698.94484948565 120 124 125
-1021.13163877539 -10.3733351135597 2705.89153007467 109 113 114
-1034.56941924804 -10.4153743766107 2712.89452255187 113 117 118
-1213.93628214195 -2.03878284304472 2265.81136664133 162 166 165
-1212.19978392883 -2.34810789905611 2274.75593705542 134 136 135
-1209.4567691501 -2.67256106168075 2283.84934900047 122 124 121
-1208.70901334023 -2.96344608880196 2292.57931883169 113 115 112
-1205.95237753151 -3.28560183132882 2301.62360903284 103 105 100
-1196.16770351117 -3.71861808161524 2311.78120904863 121 122 116
-1156.25682193945 -4.62720022964504 2326.68383032102 120 121 115
-1112.26791718978 -5.592372119633 2341.99603356348 95 96 90
-1080.27334373667 -6.36073391873611 2355.20553297216 49 50 44
-1017.05034982623 -7.61020927960117 2372.96150004759 20 21 15
-987.95461435803 -8.31812861985116 2385.28208676648 21 22 16
-977.95084616326 -8.72545893606404 2394.64244980801 0 1 0
-963.897844223673 -9.19250645360405 2404.51730982813 5 6 0
-959.908004202771 -9.50280717183884 2412.88768853938 1 2 0
-946.825076143203 -9.94968880048737 2422.4797250265 0 1 0
-945.84114098427 -10.2110056167039 2430.35147504501 3 4 0
-944.852557313252 -10.4715248604991 2438.20646959471 2 3 0
-944.870740096576 -10.7161001487726 2445.9131364631 1 2 0
-941.849247245522 -11.0051687795318 2453.99495384687 1 2 0
-934.768208873206 -11.3528846730111 2462.55458713007 1 2 0
-931.728527721778 -11.6394525082692 2470.57138281322 0 1 0
-935.78228585635 -11.8214529360203 2477.71371691858 0 1 0
-937.808237357816 -12.0328310884154 2485.10222466814 0 1 0
-939.833841306259 -12.2439090957891 2492.48963151729 0 1 0
-924.577982928115 -12.7024310244079 2501.8002243293 3 4 0
-928.625312494518 -12.8826770442224 2508.91979806233 4 5 0
-932.674911807656 -13.0629616430626 2516.04870358587 0 1 0
-935.708412603717 -13.2576198833944 2523.29228008488 1 2 0
-928.549203975909 -13.5949303490013 2531.56732295032 7 8 2
-919.336177258624 -13.959021686214 2539.99453256014 9 10 4
-916.232388484457 -14.2365505585457 2547.7780869103 3 4 0
-911.077849793912 -14.5411502485747 2555.72408745093 0 1 0
-915.113186636564 -14.7186877599505 2562.80177358412 8 9 3
-909.944409481176 -15.0215251676055 2570.69602210828 0 1 0
-903.741626985759 -15.3368673856115 2578.63963696609 4 5 0
-869.867684019074 -16.0222811984558 2588.82102414019 15 16 10
-835.943341079999 -16.7023570170916 2598.81865622503 157 159 154
-820.433960982456 -17.132164439607 2607.20610141775 122 127 123
-820.298436337889 -17.3562694216044 2614.35407758947 120 125 121
-819.132322607281 -17.5934258738381 2621.5646878664 121 126 122
-813.84965164275 -17.883495258304 2629.04413206122 126 131 127
-808.556710146251 -18.1724056876415 2636.48617548741 138 143 139
-809.429731791096 -18.3807508147945 2643.49324494756 143 148 144
-810.30127853228 -18.5887738089254 2650.49411273492 136 141 137
-813.232661441972 -18.7704373944934 2657.36674968115 132 137 133
-815.133686858015 -18.9651432148586 2664.30195739802 97 102 98
-821.163471283217 -19.1079429344824 2671.01299833627 101 106 102
-841.660704603182 -19.0710027165525 2676.99918937276 136 141 137
-896.295258106202 -18.6141083239255 2681.40876271394 106 110 109
-944.796061617414 -18.2409849475827 2686.37088721171 146 150 149
-978.869053757235 -18.0516009853608 2692.20157388413 150 154 153
-1218.1975747189 -10.423313179706 2264.64926709476 125 129 128
-1212.45983640321 -10.7765325752988 2274.29651520116 115 117 116
-1203.70702791361 -11.1686282808992 2284.41381537538 125 127 124
-1203.95467889886 -11.437229874786 2292.95728375139 126 128 125
-1205.20184982587 -11.6916128853001 2301.32350123301 109 111 106
-1202.43385843558 -11.9987429163005 2310.33604585557 57 58 52
-1104.43940050225 -13.8216461293885 2342.80442317427 14 15 9
-1051.31004539686 -14.7731297717513 2359.25730927182 7 8 2
-1043.37911518123 -15.1296890384574 2368.55219785642 44 45 39
-982.06782168543 -16.1706337598606 2385.74494844887 34 35 29
-981.122921340368 -16.4292083276381 2393.76242937028 8 9 3
-972.106361710467 -16.7893339903418 2402.92158648832 7 8 2
-940.874715376012 -17.4273053687292 2415.14968606026 9 10 4
-954.025273829644 -17.5034455670443 2421.06382090704 9 10 4
-966.180623705242 -17.5934942499518 2427.17140967688 13 14 9
-964.192977677083 -17.8596200397924 2435.21079123252 12 13 8
-956.127897922902 -18.1992778487711 2444.01827956869 10 11 6
-946.023014437423 -18.5618063950287 2453.03057782352 12 13 8
-942.993773444956 -18.8363242991312 2461.09374346639 15 16 11
-958.210418951456 -18.8902362521993 2466.90024758029 15 16 11
-952.134900977529 -19.200310075106 2475.31969685208 8 9 4
-958.233478538416 -19.3643812185964 2482.27272355658 13 14 9
-953.15905862985 -19.6603683466706 2490.52162695258 13 14 9
-942.989453458287 -20.014523264565 2499.29984196517 13 14 9
-924.661142758686 -20.461129699143 2508.90043448633 16 17 12
-918.524391745569 -20.7635439512417 2517.09737333699 8 9 3
-926.642758169543 -20.9011297940739 2523.77356088607 10 11 3
-931.71017795999 -21.0741069686915 2530.7887984728 17 18 10
-927.59705548177 -21.3510216410525 2538.72160276182 18 19 11
-922.453334195665 -21.6381921261628 2546.71969911503 16 17 9
-920.36538018511 -21.8900524055399 2554.39473426585 15 16 8
-926.452590239148 -22.0506714834585 2561.30773509887 16 17 9
-926.405069596566 -22.27894686279 2568.77981991109 18 19 11
-908.944498827989 -22.6964763161061 2577.72419802326 17 18 10
-861.736753600694 -23.4323429688283 2589.02381856146 7 8 0
-830.868761459221 -23.9848076031 2598.75882995281 157 160 153
-819.453143777667 -24.3246947536996 2606.81617303324 147 149 144
-815.207299336571 -24.5864687875163 2614.26669471595 135 140 136
-815.063192998535 -24.8040428169188 2621.38786106586 132 137 133
-812.859271874534 -25.0425486867364 2628.64076432848 125 130 126
-812.70743864564 -25.2591712962183 2635.73384292379 108 113 109
-812.552646879502 -25.4753001830429 2642.8153197383 105 110 106
-812.394458014222 -25.6910144322432 2649.88537459251 116 121 117
-813.264543804905 -25.8959223739973 2656.88278483799 124 129 125
-813.100779002239 -26.1109628549882 2663.93256271152 145 150 146
-817.06476123499 -26.2844865422812 2670.74692825918 140 145 141
-839.632173392782 -26.2746039183899 2676.60956405958 175 180 176
-883.943900793734 -26.0547586799402 2681.50883778656 5 9 8
-1226.46139111686 -18.778365944842 2262.78015405819 155 155 153
-1213.71955155221 -19.1871519132965 2273.66356590339 157 156 152
-1204.96219322992 -19.549607144855 2283.78268688419 151 150 146
-1205.20886935178 -19.8125504169853 2292.32610815164 125 124 120
-1206.45549665754 -20.0640400016231 2300.69213403173 110 109 104
-1208.70398472086 -20.3042461211631 2308.88867595016 69 68 63
-1139.63804473419 -21.2949866787211 2328.49406139134 40 39 34
-1064.43907903723 -22.3374927868233 2348.67489367996 22 21 16
-1041.43359237439 -22.8256535634341 2360.36727328131 31 32 26
-1021.50382569742 -23.522215445174 2379.45037541084 21 22 16
-987.320168279656 -24.1118575469585 2392.43863915935 12 13 7
-966.198020057672 -24.564070133189 2403.35261128178 11 12 6
-956.146358565297 -24.901971717241 2412.57898956298 13 14 8
-965.270629522135 -25.0482525452391 2419.08623550294 17 18 12
-968.339002452705 -25.2545690862838 2426.45192496189 12 13 7
-974.443299444672 -25.4312015879527 2433.41825620905 13 14 8
-979.540732350558 -25.6178168148431 2440.53631625875 15 16 10
-954.251035014474 -26.0946892727168 2451.54763694551 16 17 12
-945.142123779527 -26.4136333543299 2460.38991054885 10 11 6
-955.29234052302 -26.5497121624989 2466.81641275173 7 8 2
-956.316916119563 -26.7716788924835 2474.37664334134 12 13 8
-952.260079419983 -27.0400622874232 2482.52474091918 17 18 13
-945.144399039729 -27.3351034717114 2490.98901127039 15 16 10
-968.535618509342 -27.3519197370006 2495.99710549257 8 9 3
-924.765171813304 -27.9752061001136 2508.43899988854 10 11 6
-899.267650243961 -28.4282159464627 2518.69377553335 18 19 11
-923.685819968466 -28.4360439252003 2523.62408912449 16 17 9
-934.872762197477 -28.562907490783 2530.00924749991 16 17 9
-931.779163473346 -28.8147606566093 2537.84777482811 16 17 9
-917.440399652243 -29.1621883048851 2546.73624969076 12 15 6
-909.212295915051 -29.4547438086468 2554.96819985953 10 13 4
-916.315425104771 -29.616247710241 2561.75623031299 16 19 10
-922.401639067015 -29.7867451715319 2568.6592961583 16 18 7
-896.733943155963 -30.2206511691508 2578.2943089956 17 19 8
-852.573298137127 -30.8017334871088 2589.31504794302 5 3 0
-835.02236312008 -31.1592700427838 2597.96086866393 145 141 132
-823.603610341725 -31.4642791826657 2606.02859189447 154 151 144
-815.248054281507 -31.7427007357626 2613.79626000435 143 142 137
-813.046128746105 -31.970757759323 2621.06409837335 143 142 137
-810.838409988514 -32.19813763074 2628.3099261397 141 142 136
-813.772066403912 -32.3849165357936 2635.18777462208 131 132 127
-815.676691677066 -32.5796343328497 2642.1363403414 131 132 127
-816.550166421177 -32.7820170210406 2649.14792741964 125 127 122
-812.263572316551 -33.0229035620688 2656.46034085787 105 110 106
-810.032970245759 -33.2475502144136 2663.62293297875 124 129 125
-813.99483316878 -33.4258544693292 2670.42641174462 118 123 119
-828.296897141591 -33.5290813548379 2676.70336841712 150 155 151
-865.375131449701 -33.4697993213715 2681.91990052677 4 9 5
-1220.72346986843 -27.2865158710264 2263.38087734346 146 137 128
-1210.97414971772 -27.6295483984086 2273.72655035995 110 96 85
-1203.21121685749 -27.9538075915842 2283.66557277406 117 103 92
-1206.46280567317 -28.1865418237128 2291.6948281579 112 98 89
-1209.71574006293 -28.4189912931833 2299.7283301563 80 67 59
-1204.93656661042 -28.7149056966529 2309.07440071393 39 30 25
-1058.59395341052 -30.3664915182033 2349.18009910069 30 25 19
-1036.57947360811 -30.7791770347621 2360.70322368651 29 26 19
-995.39778255545 -31.3336432557369 2375.00746907046 30 30 22
-968.261911797256 -31.774763394158 2386.97952259244 20 21 13
-934.024958927031 -32.2637935545449 2399.8334318843 15 16 8
-948.174161587515 -32.3895177935407 2405.5286408129 13 14 6
-1001.72469885781 -32.2292567714979 2405.72526653967 14 15 7
-965.407331357583 -32.7255789874363 2418.6439700294 13 14 6
-957.351221102191 -33.0136489777583 2427.51733020465 14 17 8
-968.508503697942 -33.1640880483374 2433.77748383524 14 17 8
-980.691012108856 -33.3084587776352 2439.95161082748 14 17 8
-971.605410415415 -33.6008906743453 2448.89623757301 15 18 9
-936.135393068548 -34.0712077705289 2461.08108399303 12 15 6
-937.14761343223 -34.2892904843211 2468.59789418908 10 13 4
-943.235879426333 -34.4730227122592 2475.50022308767 12 15 6
-953.394949981722 -34.630285979914 2481.94622300012 11 14 5
-947.292496565677 -34.8943312898405 2490.29565527051 11 14 5
-959.497656554748 -35.0390688978908 2496.55365150482 11 14 5
-891.258852638806 -35.6963274092436 2511.64700437729 12 15 6
-915.665536029134 -35.7608172597452 2516.49796909884 17 20 9
-903.387417350096 -36.0560130666636 2525.27755118024 18 21 10
-925.789347631724 -36.1363145400231 2530.46884769021 17 20 11
-933.921190225177 -36.3058658391691 2537.1739592771 18 21 14
-924.686446509734 -36.5797272260028 2545.57750439624 15 20 13
-914.413201188157 -36.8577966903444 2554.0180311945 10 17 9
-927.661926887184 -36.9968829489011 2560.25782995851 9 17 6
-924.539374262213 -37.2315163795651 2567.99879974453 13 15 2
-894.761707619105 -37.6161933753279 2577.99251698272 31 29 14
-848.529772625772 -38.0879457768147 2589.18462817093 108 91 75
-833.020106369338 -38.3826911549237 2597.65628201603 136 110 95
-825.702057367726 -38.6301232776955 2605.39925520839 112 98 85
-814.259860130648 -38.898136593284 2613.40329098538 145 135 123
-811.02640380045 -39.1204993742595 2620.74117311877 155 145 135
-808.814914556167 -39.3367275037527 2627.98004243308 157 149 138
-812.776801550891 -39.5203490510364 2634.78025351243 140 133 125
-813.649389860133 -39.7198275484412 2641.79038298577 150 145 139
-815.551556085134 -39.9139721123189 2648.73018065067 135 136 130
-813.325006484648 -40.1282345078649 2655.91530389816 109 111 106
-813.158344217172 -40.3318415976465 2662.96061347489 87 92 88
-816.08876760573 -40.5203261772222 2669.82538148867 81 87 83
-837.635774190665 -40.6213377229885 2675.72575900204 83 89 85
-877.837735256191 -40.6389168379311 2680.80258907002 6 11 7
-1213.2332945608 -36.0211223584998 2272.91999150371 121 105 92
-1202.4598415254 -36.3349965961907 2283.37798924586 127 111 98
-1204.7072471737 -36.575481893793 2291.57033611106 121 104 96
-1205.95060029704 -36.820873929757 2299.92805526657 91 76 69
-1202.1695636945 -37.0921851364339 2309.09829608232 52 43 38
-1037.65374404051 -38.4339955515474 2352.06535778307 30 25 19
-1018.63394593687 -38.7653425767409 2363.06768224229 23 23 15
-1025.77527317992 -38.9631513241442 2369.97461360212 22 22 14
-977.478300471445 -39.4319975016921 2385.1913695033 21 22 14
-973.496941129019 -39.6796204852825 2393.632806752 16 17 9
-963.487022390589 -40.1804183455017 2410.70396428467 15 16 8
-986.773480130865 -40.2993514399238 2415.25862751853 15 16 8
-984.797725932701 -40.5346117937448 2423.36071890617 16 19 10
-991.927586439494 -40.7287187965596 2430.22648458691 16 19 10
-999.064035011553 -40.9232193975214 2437.117390988 15 18 9
-958.557009472485 -41.3211437772005 2450.12904913234 16 19 10
-939.295184624429 -41.6232283397256 2460.25125051255 14 17 8
-947.415179255811 -41.8092880621784 2466.90195038416 13 16 7
-945.383576020789 -42.0369049848061 2474.80151090638 13 16 7
-981.980566457482 -42.1108101765347 2478.14812042366 12 15 6
-957.580677464976 -42.426215676187 2488.66874649269 12 15 6
-899.54461295415 -42.8652899530562 2502.81463028724 13 16 7
-870.970536081355 -43.1852357754988 2513.42065891276 14 17 8
-915.762257708489 -43.2322256561639 2516.03634199328 15 21 11
-925.923882727559 -43.4093165389283 2522.48023703302 17 23 13
-912.613773829075 -43.6695640557496 2531.34662659927 18 21 14
-934.019970625787 -43.8081934298766 2536.70138406193 18 21 14
-940.116913366036 -44.0008937923235 2543.62933698522 16 21 14
-939.056970478046 -44.2174025876108 2551.24717464155 13 18 11
-926.729722859148 -44.4694042506211 2559.87255014198 12 18 8
-905.161038525795 -44.747941195224 2569.2382709097 19 20 6
-862.027962622966 -45.0887741345075 2580.32860406051 65 52 36
-836.273819850911 -45.3709522702873 2589.73844967495 135 116 101
-827.935033090104 -45.5981393098773 2597.60072569651 129 102 85
-821.636409208387 -45.8178918937363 2605.24977958471 137 111 94
-817.382679835049 -46.03062745152 2612.70105736349 132 109 93
-813.119803808489 -46.242254523832 2620.12000427374 124 102 88
-808.848055023078 -46.4529420668541 2627.50660153901 94 75 61
-809.719066850442 -46.6494654492867 2634.51274354901 70 53 43
-812.650219468759 -46.8406338557093 2641.3785246222 111 97 88
-814.550853442654 -47.0342834919193 2648.31294581048 156 147 140
-815.418867064428 -47.2302579345155 2655.30830264262 158 151 145
-819.384374934317 -47.4189844691662 2662.11966332252 142 141 136
-834.725225076328 -47.5830668751474 2668.31775904815 130 131 126
-861.464728948109 -47.7248906608678 2673.9885636302 5 7 2
-872.708862127489 -47.9018956243015 2680.55440414155 26 28 23
-1211.23247967865 -44.1801813184253 2264.23647568449 148 134 123
-1208.4787733105 -44.4370892607344 2273.33376539211 128 109 94
-1197.69564235727 -44.7155309601558 2283.77820117194 130 111 97
-1198.93518787208 -44.9580853217738 2292.12357498227 101 83 69
-1197.16036614451 -45.2080928594367 2300.96237865166 70 56 45
-1205.42853155972 -45.4308143147553 2308.14006130406 40 33 27
-1021.72746855524 -46.3700450342506 2354.16590383039 29 26 19
-1023.83510012109 -46.5933538490966 2361.85014125446 28 25 18
-1002.76347884661 -46.8696481668092 2373.06277561525 21 22 14
-995.777393753129 -47.1105602015571 2382.04238217759 24 25 17
-1016.02703573972 -47.291098535748 2386.97201054718 18 19 11
-956.517259473876 -47.6395039931618 2403.49710477206 15 16 8
-917.13282576339 -47.9379699354766 2416.84226979778 15 16 8
-978.825899795638 -48.0352713943411 2415.93550604188 16 16 8
-1001.13194419298 -48.214008271445 2420.70865009588 18 21 12
-1010.29988919316 -48.4187812733055 2427.34204932492 17 20 11
-948.531178418255 -48.7445823102208 2443.28707447302 16 19 10
-926.226824976987 -48.9964831239037 2453.83546609568 17 20 11
-937.38143804994 -49.192653267784 2460.05683610571 16 19 10
-958.705298935823 -49.3748113794371 2465.07748568025 16 19 10
-948.547916339896 -49.6035537786708 2473.98025961947 13 16 7
-947.526961664652 -49.8180441528645 2481.74412719365 12 15 6
-957.697598561004 -50.017832565382 2488.20622251291 13 16 7
-916.952235083032 -50.2784358210535 2500.41967597192 16 19 10
-901.627829724429 -50.5044342045663 2509.62257047395 15 18 9
-929.117299176398 -50.6834507415534 2514.15804832565 12 17 10
-920.918352365268 -50.9000940120945 2522.54617945628 15 21 11
-910.662105047337 -51.1168462945622 2531.0885289692 16 19 12
-919.808403466761 -51.3157653103086 2537.64525458688 17 20 13
-934.078662539567 -51.5116898935348 2543.7446724032 17 20 13
-944.271413542394 -51.7119345765667 2550.28951402274 13 19 9
-927.844300406562 -51.9288951413794 2559.30122608512 24 30 20
-867.317216471134 -52.1661354674981 2572.11851114155 29 27 14
-833.370397970073 -52.3821450273328 2582.32568301146 119 103 88
-824.007265932843 -52.5835574303809 2590.29735892834 134 113 96
-820.79062728768 -52.7812060692697 2597.71328504559 133 104 88
-816.539010743389 -52.9781846948258 2605.18235544664 137 108 92
-815.363975019861 -53.1736417318135 2612.38616694031 146 119 102
-812.125684161705 -53.368699534519 2619.72333835277 117 89 75
-808.880206728017 -53.5628901536091 2627.03344589065 107 81 68
-809.749787385413 -53.7563957145838 2634.03710856405 94 72 61
-811.649215510236 -53.9497614723371 2640.96723189706 69 49 40
-814.58068498619 -54.1432411604787 2647.83180115576 63 48 41
-817.513037171074 -54.3367145425856 2654.70058074352 67 56 50
-827.681422152975 -54.5326681305063 2661.15766527578 153 146 140
-848.203852418686 -54.733751293544 2667.0871321313 108 103 99
-886.346195898293 -54.9456202618272 2672.18791112566 27 24 19
-891.396065048481 -55.1447287348726 2679.12148869111 16 17 12
-835.301639771634 -55.3071742983238 2688.96105712317 25 27 22
-1198.46577494518 -52.5793839367029 2266.08558785551 138 120 108
-1202.71679196654 -52.8196740437587 2273.92443351631 127 106 89
-1192.9266027762 -53.0624271078935 2284.18074997968 130 107 93
-1195.16507378881 -53.3015613550739 2292.3407772762 99 80 65
-1194.38943881085 -53.5402938804364 2301.00016357987 74 58 45
-1022.90190610652 -54.2172262272103 2353.57206087466 31 28 21
-1029.0391940946 -54.4414323467176 2360.63084573257 26 26 18
-1023.08388578996 -54.6615161566474 2369.55342492911 17 18 10
-1006.01875354751 -54.875344756496 2380.09459483995 22 23 15
-979.839381536835 -55.08126753492 2391.8710406814 18 19 11
-969.785086919393 -55.2918580280732 2401.16709122078 16 17 9
-942.52515827267 -55.4891315010485 2412.83342315887 15 16 8
-964.799967943153 -55.717429892716 2417.45930824814 16 16 8
-991.152998401881 -55.9514624542302 2421.63699700043 18 19 11
-965.866914264123 -56.1439644683691 2432.8412693956 16 19 10
-946.625332384005 -56.3378253509064 2443.1069557142 17 20 11
-922.279963896999 -56.5230055443876 2453.91222317536 18 21 12
-936.480334367803 -56.7459185006057 2459.7360482869 17 20 11
-935.456836459978 -56.9525690856195 2467.49449394693 16 19 10
-920.193265501275 -57.1409281017608 2476.94794720118 13 16 7
-948.657924848144 -57.38346740198 2481.16675964661 12 15 6
-943.558214195246 -57.5833523337353 2489.3824373615 14 17 8
-931.315572236027 -57.7715375394133 2498.36129844188 17 20 11
-929.249090330762 -57.9729093906583 2506.14793106165 16 19 10
-926.155990182378 -58.1717617853 2514.02177141619 13 18 11
-941.435080272679 -58.4001294804174 2519.94997780827 16 21 14
-916.882127454719 -58.561185976298 2529.9997557738 17 19 14
-916.832200074282 -58.7622638642267 2537.48007591233 17 18 13
-923.941475770324 -58.9763528628399 2544.2577276617 19 22 15
-932.081676973075 -59.1928818106545 2550.96421389861 18 21 12
-916.662837645377 -59.3626118137147 2559.85201849167 31 31 19
-845.848695717878 -59.4143537137648 2573.55950735998 20 14 0
-822.133284999956 -59.5570440945366 2582.833260986 126 107 90
-816.864268706069 -59.7370013848168 2590.4329213085 135 108 91
-814.66729469707 -59.9227972951238 2597.74582517906 145 108 90
-813.492703309854 -60.1102761928975 2604.95632338581 144 107 89
-812.313530335421 -60.2971963240258 2612.1501638332 139 102 86
-809.070572350031 -60.4783342926135 2619.47786634902 135 99 83
-806.850480063928 -60.661276022448 2626.70580954539 135 99 85
-809.779755170579 -60.8570796624619 2633.56169334191 125 93 80
-815.805602280665 -61.0612629379501 2640.21936143712 115 85 74
-819.772018056519 -61.2602542249516 2647.02668334415 126 101 94
-821.674410285238 -61.4535295481633 2653.96786890961 135 112 106
-829.780300389248 -61.6647616189272 2660.55030893256 84 69 62
-855.483821372969 -61.9291953164584 2666.19362300303 37 24 18
-898.82138033354 -62.2504925226493 2671.03067161657 27 16 10
-828.071848713324 -62.4089016584732 2688.80702216821 18 20 15
-1196.46906058936 -60.6915558360028 2257.44782754487 112 94 82
-1194.70642045627 -60.9233027783644 2266.34338787099 110 88 74
-1196.94898188793 -61.1635455332874 2274.51790223799 128 102 85
-1192.16640148512 -61.3858976293992 2283.89683782421 114 88 71
-1196.41192333797 -61.629762002556 2291.71209537436 70 48 34
-1194.62977192591 -61.857584279639 2300.53862099645 56 40 27
-1192.84178119815 -62.084319708868 2309.34322354017 38 35 28
-1003.93327878817 -62.0057111249563 2356.16000557967 27 27 19
-1031.22263060414 -62.3007711868559 2359.87922206422 26 27 19
-1030.30772575151 -62.5144355272154 2368.03642433655 18 19 11
-983.969498438308 -62.5877433068161 2382.98269945599 20 23 14
-967.862423534344 -62.7486273460044 2393.21805453014 20 21 13
-972.954725257188 -62.9747101209921 2400.29214575917 17 18 10
-980.073982811367 -63.2074785352352 2407.09413596376 15 16 8
-990.236378435283 -63.4508588311602 2413.49904044309 17 17 9
-969.010571362553 -63.5872603981228 2424.22753411394 18 19 11
-941.669996483823 -63.6984569384814 2435.64785784539 17 20 11
-947.759792843589 -63.9246511621148 2442.52906041058 19 22 13
-924.418902415405 -64.0438569862654 2453.20909041052 20 23 14
-900.026130476403 -64.1551304386565 2463.8850189925 18 21 12
-892.875947704155 -64.3276663522204 2472.29760311673 16 19 10
-881.643572991993 -64.4828092688062 2481.15192926572 14 17 8
-953.860427145607 -64.9636652020557 2480.1097513697 13 16 7
-943.667444894695 -65.1245451062953 2488.923195594 15 18 9
-953.843647730306 -65.3662007075012 2495.38045242618 19 22 13
-938.529823094016 -65.5033649943384 2504.6787162745 18 21 12
-942.585943559167 -65.7192297962105 2511.8084410573 14 19 12
-933.365034689162 -65.8783497321626 2520.33579399129 17 22 16
-947.638904055747 -66.1376861178276 2526.4085812284 17 19 14
-916.921143963679 -66.1999974281865 2537.01176094588 17 18 13
-912.771948782833 -66.3765590643445 2544.87399201361 21 22 16
-895.297064252924 -66.4914701408451 2553.95628333622 20 21 13
-866.519019509173 -66.5512149055401 2563.96929655968 33 31 18
-823.336685572331 -66.5391820092426 2575.10045432284 32 25 9
-812.93920516229 -66.6766057251845 2583.16851694969 132 111 92
-812.796089835337 -66.8616274735023 2590.31391453565 132 103 85
-813.677909335234 -67.0512268723346 2597.3645547563 142 104 85
-813.52918366058 -67.2353975735328 2604.48965952744 136 98 79
-809.259951270983 -67.3984589255101 2611.91566836093 140 101 84
-806.01207878263 -67.5656844699978 2619.23390786672 135 98 80
-805.84887347332 -67.7480361131306 2626.30640105035 136 99 83
-808.777051990778 -67.9461391157235 2633.15676172897 145 109 95
-813.770895599386 -68.1552024944484 2639.87604243293 138 104 92
-815.669915242224 -68.3479144620706 2646.80506192126 125 98 87
-818.602535711265 -68.5462641127158 2653.67082995232 123 99 89
-829.810738366929 -68.790028918725 2660.06204782413 73 56 48
-859.663120685047 -69.1385168680035 2665.46906383819 34 19 12
-888.517606077392 -69.4850992409857 2671.07046565972 28 15 9
-869.730391350538 -69.5641219939891 2679.19931056375 23 22 17
-1208.73974486221 -69.097488345404 2254.83616721405 112 92 81
-1193.95056620722 -69.2539698217767 2266.07014290091 107 84 68
-1192.17843359851 -69.4735926674959 2274.93904306791 127 100 81
-1191.40433884073 -69.6971952322977 2283.61370017229 109 83 66
-1201.67709591488 -69.9774497141483 2290.40414563296 57 35 21
-1202.91251111156 -70.2106881253826 2298.74006598499 50 34 21
-1198.10920541379 -70.4107787347251 2308.0570363729 40 37 30
-1079.65724942581 -70.2073159944819 2343.78205617688 27 27 19
-1053.57206211713 -70.2766180770526 2355.99351748983 23 24 16
-1007.26651732244 -70.227168464564 2371.13863898582 25 28 19
-999.260318915503 -70.3895346940832 2380.27667484582 19 22 13
-956.885403589586 -70.3510691527624 2394.42137882737 19 20 12
-924.558061775259 -70.3647639984158 2406.87276076127 16 17 9
-974.141793542859 -70.8590425314761 2407.51438367931 14 15 7
-1019.74218927584 -71.3356346685966 2408.96496645998 16 16 8
-979.274671517308 -71.2955510838793 2422.39984454886 20 21 13
-964.096721477226 -71.4044119533786 2432.22045343821 17 20 11
-993.577452319696 -71.9895615868511 2443.89175435788 22 25 16
-980.399807815161 -72.1070297860133 2453.34103066562 16 19 10
-883.816919927599 -71.6870459450533 2472.98380142964 15 18 9
-980.436523549119 -72.5057804324674 2468.81180926585 15 18 9
-950.91908409215 -72.5107591948969 2480.01142063011 18 21 12
-951.927708148028 -72.713175649403 2487.52476929611 20 23 14
-945.796471142817 -72.8674791565063 2495.8356899481 20 23 14
-912.100986973966 -72.8341227626368 2507.133453542 17 20 11
-933.498305112386 -73.1715609826007 2512.32879976661 14 19 13
-990.688329566317 -73.7579111611599 2513.87779570685 15 20 14
-921.15300877312 -73.4698742378774 2528.65056595933 18 20 15
-931.335644563302 -73.7318277671774 2535.11889204181 19 20 15
-900.568408321986 -73.7043307885069 2545.59414774386 21 20 15
-866.680548664577 -73.6499094195231 2556.19095817584 22 22 14
-838.895117529265 -73.6346535845754 2566.04038224848 33 29 17
-816.198887698961 -73.6522709206987 2575.28079894467 16 7 0
-810.925163617917 -73.7946265893784 2582.88671987157 131 105 88
-813.86187496829 -73.9967203092701 2589.76624175642 136 105 85
-815.771472609528 -74.1910889232106 2596.73348935981 143 102 84
-814.593628345365 -74.3619881356724 2603.94237781735 131 94 75
-810.321931617372 -74.5087631831432 2611.36951936544 130 95 75
-808.102379425922 -74.6703360450156 2618.61295901195 133 98 78
-811.032606657828 -74.8711310634627 2625.46922656789 127 92 72
-812.932178717427 -75.0639069208426 2632.40025673472 139 104 85
-815.86420072024 -75.2646713108712 2639.26227823795 129 98 80
-812.597160218623 -75.4162275458605 2646.52017247154 128 102 89
-814.493032662059 -75.6084311081629 2653.43782800582 129 107 94
-825.70147736949 -75.8756699280471 2659.81419528241 35 21 10
-871.092870991663 -76.4219701496722 2664.34110453791 37 24 15
-898.928708317305 -76.8299708568349 2670.01800980072 28 19 12
-881.176721334958 -76.8645987105515 2678.12216065202 23 24 18
-874.81118985486 -76.9914005265088 2685.58055496729 16 18 13
-1204.98359719012 -77.4390630508761 2255.10735347671 97 75 64
-1195.19853456556 -77.5879609718548 2265.44195909804 92 66 51
-1189.41016766442 -77.765578366442 2275.01209910018 120 93 76
-1193.65371044988 -78.019900633675 2282.81340619415 97 74 58
-1209.96046428347 -78.3689325850961 2288.58462516961 49 31 17
-1233.32748662493 -78.7755596363911 2293.25677407401 59 47 35
-1171.17153648235 -78.4990230904242 2312.04066014811 34 31 24
-1110.9376243069 -78.2286560911134 2330.16416058767 29 29 21
-1103.02735977213 -78.3758338423622 2339.66796932257 22 23 15
-1048.70399615176 -78.1393949373947 2356.33497733792 24 25 17
-1012.46860729775 -78.0447455987148 2369.93115997549 23 26 17
-990.319841711164 -78.0621657578592 2381.20432859576 17 20 11
-966.11455509611 -78.0584764167348 2392.64893492887 18 19 11
-893.318227714715 -77.6377727521589 2410.98419625407 16 17 9
-899.370674099002 -77.8820895090778 2417.71528406192 14 15 7
-1017.86800334335 -79.0976645987847 2408.79583224788 16 16 8
-975.354198575253 -78.927227527787 2422.50818686725 20 21 13
-963.208743148018 -79.0167594116145 2431.9110960582 17 20 11
-970.330410559287 -79.2742706062207 2438.70641229362 21 24 15
-983.553741661317 -79.5864918252496 2444.74261754588 22 25 16
-890.054659741117 -78.9422806798038 2464.28570164098 16 19 10
-958.166062227589 -79.7457815349551 2463.38422482055 15 18 9
-958.165534881521 -79.9375535208811 2471.05383286391 16 19 10
-967.329972012047 -80.2128579533577 2477.62967820752 18 21 12
-927.571858195011 -80.0368002722739 2489.88796063364 19 22 13
-920.399337473127 -80.1581422688462 2498.24992948813 18 21 12
-911.171533876392 -80.2586695168471 2506.78867600891 16 19 10
-936.661115848562 -80.6849744385987 2511.53547944349 14 19 12
-964.227994756407 -81.133896318943 2516.18703030644 16 21 15
-951.933280608665 -81.2045410900362 2525.04676643379 19 21 16
-916.072525571486 -81.0461979461256 2536.17778355701 19 20 15
-898.598574409932 -81.0608696058763 2545.32589719102 22 21 16
-881.09688856474 -81.0725718135618 2554.37384115961 23 23 15
-836.895286397962 -80.8193340317852 2565.76926027788 31 27 15
-815.213751338419 -80.7825565634787 2574.91506143079 24 15 0
-810.962942037285 -80.916006003521 2582.4281669919 123 97 80
-814.927446695567 -81.1308064348875 2589.21841222782 124 91 74
-814.779431105885 -81.3042280618661 2596.35293980804 126 85 67
-813.598892818183 -81.4666995185272 2603.55714672801 125 90 70
-810.353621648895 -81.6075956103872 2610.90166745967 121 89 68
-810.193275482266 -81.779360078967 2617.99146026747 125 93 72
-813.12481581774 -81.9826971327419 2624.85006918906 125 93 72
-811.928116022214 -82.1430972479095 2631.99557933464 131 98 79
-811.759772752255 -82.313763512356 2639.05637381376 130 99 81
-807.453485653299 -82.4405944855716 2646.36767973839 124 98 85
-810.379615456785 -82.6430169523193 2653.20677783751 121 99 86
-816.412147591714 -82.8785606905648 2659.8694667653 20 7 0
-886.673820758959 -83.8023483102772 2662.97833136814 30 21 12
-895.871277190607 -84.0769369278479 2669.67722283327 28 21 13
-899.89211538572 -84.2962596735156 2676.67376829786 21 22 16
-910.143385596405 -84.583740983721 2683.38080362722 21 23 18
-997.271238585502 -85.7144882385271 2686.63405348739 17 19 14
-1202.98454933697 -85.5521132603994 2246.45944580626 112 93 86
-1205.2337473528 -85.7935857005944 2254.65782415065 90 66 56
-1197.44949754628 -85.9308447330889 2264.63576303306 87 59 47
-1188.64660706996 -86.0556686190336 2274.7358600415 119 91 77
-1196.90805767678 -86.3569916372363 2281.83991603694 92 69 55
-1218.24914680813 -86.7963253321847 2286.76216351028 45 31 18
-1243.64192716561 -87.2807832210462 2291.11284678303 73 63 53
-1131.12119128819 -86.2966295559774 2318.1797906312 27 27 19
-1019.61350332667 -85.7055039712016 2360.44880663714 26 29 20
-1017.67386423496 -85.8823513283253 2368.72186524484 19 22 13
-996.528667787422 -85.8468338519273 2379.85819105168 16 19 10
-966.249121531034 -85.7066944377507 2392.2161896425 17 18 10
-917.708655475471 -85.3584059682163 2407.04479850798 18 18 10
-939.981512792288 -85.7964594068596 2411.5310065349 16 16 8
-978.496666995877 -86.4198628984745 2413.85888791782 16 16 8
-968.386986813258 -86.4964489444863 2423.03483512418 20 21 13
-958.259749245461 -86.5708599752109 2432.14696839131 18 21 12
-941.006648816608 -86.5616838575357 2442.13011374848 21 24 15
-928.806727687567 -86.6078016019851 2451.35821187846 21 24 15
-928.790207016658 -86.7931025683891 2458.97252530425 15 18 9
-956.247230641665 -87.2980971670226 2463.1817326767 15 18 9
-972.53787067023 -87.6751813320378 2468.8744845307 15 18 9
-955.217616345417 -87.6574947047656 2478.61460274672 20 23 14
-926.651872464717 -87.5036800438924 2489.55067770616 15 18 9
-927.638381454754 -87.6978487906399 2496.98712463804 13 16 7
-958.239243577921 -88.2464682076792 2501.15135557672 14 17 8
-969.462646908164 -88.5649717508688 2507.55089542545 16 22 12
-976.607681172895 -88.8349839798404 2514.42600473183 19 22 13
-943.84723357812 -88.619764965218 2525.41294499445 21 22 16
-883.386474539965 -88.0609504949271 2538.97999774208 22 21 16
-903.799915046994 -88.488581323931 2544.36177664866 23 23 15
-915.008834311796 -88.8045143334758 2550.70916290158 24 24 14
-848.234239249608 -88.1526520171795 2564.27270585963 20 16 4
-816.280863671226 -87.9267855709876 2574.36654818394 52 43 28
-810.99997117874 -88.0311106185888 2581.96986474734 110 84 69
-810.850653067138 -88.1990670940457 2589.10300672953 107 75 60
-808.640100210191 -88.3404516236835 2596.39260499733 127 88 71
-808.483305107472 -88.5073629115242 2603.49771723118 115 84 66
-809.353583174729 -88.6869407806051 2610.51276246625 106 77 59
-812.28502316694 -88.8928079505678 2617.36940145006 103 75 54
-815.217381854527 -89.0987018597055 2624.23036351054 114 83 63
-812.987524710129 -89.2375360368965 2631.44989890159 117 86 66
-811.784990007197 -89.3891451373549 2638.57929536605 118 89 71
-807.4755327395 -89.4996370564563 2645.88914669888 108 85 71
-811.436088786196 -89.7181399916205 2652.66239394682 115 96 82
-827.82566667808 -90.1010994946726 2658.71970233768 19 9 0
-862.887841552814 -90.733632434463 2663.807794942 30 23 13
-893.847367234608 -91.31550137236 2669.28268137086 23 19 10
-903.05515318704 -91.6092788827021 2676.00780945979 18 19 13
-954.847422108144 -92.4771659837765 2680.71710069179 26 28 23
-993.199157433739 -93.1693178548509 2686.29208508892 16 18 13
-1204.23673098588 -93.9129909411692 2245.82993037754 118 99 92
-1199.46481269068 -94.0635016734006 2255.29380915582 91 67 57
-1196.68981781094 -94.2385475828471 2264.36374219438 84 56 44
-1191.89859111714 -94.3860164727973 2273.75785313295 110 84 69
-1199.15890013396 -94.6901495678752 2281.03848384948 83 61 48
-1214.47289210399 -95.1005609864323 2286.98134120356 52 39 30
-1225.77873773791 -95.4592227203576 2293.66254841074 105 96 87
-1158.52744366911 -94.7723501492183 2313.27094579831 25 25 17
-991.446945794819 -92.9317265746053 2356.51772291745 25 26 18
-1056.11376686339 -93.9966816392995 2354.35108306414 23 26 17
-1010.75961177965 -93.5754256667376 2369.36694677679 21 24 15
-995.664764334493 -93.5603996272281 2379.57431502219 16 19 10
-968.405724465685 -93.3759689029569 2391.48493486616 16 17 9
-959.326837262945 -93.4377651850208 2400.60010245281 19 19 11
-970.492806410715 -93.7778450621482 2406.77277827111 16 16 8
