ply
format ascii 1.0
comment KinectMotionCapture
element vertex 752
property float x
property float y
property float z
property uchar red
property uchar green
property uchar blue
end_header
-1077.27638104984 346.816130913227 2579.17023937073 165 169 170
-1085.04090843978 346.897712563294 2575.17775585019 166 170 171
-1092.84350169932 346.578624524059 2573.19719154866 173 177 178
-1100.65936511208 346.059448066107 2572.22318523438 168 172 173
-1108.44460047144 346.535745453492 2566.21146354671 189 193 196
-1116.2461614554 347.606820796126 2557.17307689646 189 193 196
-1124.08825003888 349.271127281526 2545.10452855622 192 196 199
-1131.97816592009 349.93779173544 2538.07179520394 192 196 199
-1139.88990365422 350.205114940331 2533.05252419204 194 197 202
-1147.84488064018 351.065441825756 2525.00323422848 187 190 195
-1155.87745571418 352.715226844635 2512.91119281087 199 202 207
-1164.04579517109 355.548292478777 2494.75248954689 201 204 209
-1172.24244189338 357.583839312392 2480.62334260243 200 203 208
-1180.47155783366 359.219249658221 2468.50657163311 198 201 206
-1188.65411347942 359.863508781454 2461.43737757192 192 195 200
-1196.77326348289 359.716387849826 2458.40892862402 184 187 192
-1204.92867593351 359.765363715295 2454.36775082497 202 205 210
-1213.44787245785 362.174906678189 2438.18199247023 197 200 205
-1222.01505203923 364.382207029466 2422.99822554181 199 202 207
-1230.72546242354 366.977017436174 2405.78018956564 201 205 208
-1239.55808908867 369.762090554299 2387.53871357189 202 204 203
-1248.91915050107 374.697998543159 2358.14034901233 187 189 188
-1258.3449036792 379.231597838622 2330.75034496488 192 194 193
-888.34592002317 353.469663617373 2591.64484323358 179 183 182
-896.354236988773 352.560105963507 2592.66322210504 173 177 176
-904.580326139605 351.047431429255 2596.67955441415 177 181 180
-912.999863737946 348.93324429073 2603.69639085726 165 169 168
-921.872065176473 345.416010854616 2617.7149628953 164 168 169
-930.0491233217 343.708590453455 2622.74561393854 148 152 153
-938.127830300895 342.203033062224 2626.78007965986 158 162 163
-945.739587910223 342.100240098856 2623.81483354695 158 162 163
-953.782334578745 340.595841368039 2627.8540241199 163 167 168
-961.568034913235 339.892123986635 2627.89195505962 194 198 199
-969.293166525682 339.387924882711 2626.92923209529 202 206 209
-976.965797954167 339.082670321892 2624.96484983197 178 182 183
-984.692570880868 338.577231935178 2624.00192530493 158 162 163
-992.372211573347 338.270336400169 2622.03667264835 166 170 171
-999.837180699305 338.957500456283 2615.05667588516 102 106 107
-1007.21037137276 340.23838376235 2605.06326742842 126 130 131
-1014.6700663421 341.317024050456 2596.06752371368 144 148 149
-1022.42283601769 341.003197832316 2594.09292297531 139 143 142
-1030.27969871939 340.093795359633 2595.1304423036 148 152 151
-1038.09465697863 339.382659916621 2595.16474156248 148 152 151
-1045.84814179561 339.06723786676 2593.19029605 157 161 160
-1053.60628231501 338.75092200001 2591.21527188722 163 167 166
-1061.27987464418 339.224059472113 2585.21749091121 160 164 165
-1068.96015466091 339.892311158011 2578.21067442681 156 160 161
-1076.7057815103 340.163530197987 2573.21236308048 159 163 164
-1084.54331726336 339.447850885042 2573.24385676773 162 166 167
-1092.37468799731 338.732148767739 2573.2763601417 169 173 174
-1100.21749346841 337.623025177108 2575.32384678591 169 173 174
-1107.98815730543 338.282831396257 2568.30577317592 189 193 196
-1115.78688113207 339.136450013089 2560.27600034886 187 191 194
-1123.61737852419 341.359864596714 2545.18412456619 191 195 198
-1131.50872983457 342.206328145171 2537.14281121939 191 195 198
-1139.44156657739 343.245689091358 2528.08812564925 192 195 200
-1147.40935297841 344.086208286392 2520.03728930927 185 188 193
-1155.42390420823 345.119226325227 2510.97218268933 198 201 206
-1163.54435301072 347.125107976542 2496.85262291698 200 203 208
-1171.73391374805 349.125929856836 2482.72445170848 200 203 208
-1179.97447639765 350.926830146957 2469.59836961617 197 200 205
-1188.17454923181 351.749804142179 2461.51859150725 190 193 198
-1196.24678915016 351.208322810157 2460.51264965984 182 185 190
-1204.44913605022 351.63827975281 2454.44899695375 197 200 205
-1212.96627671815 354.007282872638 2438.26360191796 197 200 205
-1221.7210164448 357.340396123473 2417.00686067743 199 202 207
-1230.37687630213 359.503409277709 2401.81238387234 202 206 209
-1239.365739359 363.016135013185 2379.51850559178 197 199 198
-1248.58557717544 367.101242378106 2354.17099411677 182 184 183
-1258.35700069452 373.109768407415 2318.67175069553 186 188 187
-887.288448926697 346.993390804956 2584.73933391509 169 173 172
-895.712450156825 345.09518566994 2590.74759771298 175 179 178
-904.098288781197 343.198931430515 2596.7603785721 176 180 179
-912.593486272796 340.908153497187 2604.7759252516 159 163 162
-921.466083461952 337.431804551174 2618.79434023445 166 170 171
-929.642011593976 335.740820019014 2623.82508901338 171 175 176
-937.588129328421 334.644285667972 2625.85964974458 139 143 144
-945.265755960031 334.338352047003 2623.89440562899 156 160 161
-953.249653881725 333.044888404479 2626.9326975894 153 157 158
-961.211470956894 331.75229143499 2629.97350255781 118 122 123
-968.82203046475 331.642408134492 2627.00842463303 119 123 124
-976.390736132575 331.728043923044 2623.0403678293 193 197 198
-983.925634408468 332.008745917913 2618.06832919011 209 213 214
-991.621842839852 331.698107424196 2616.10101883461 158 162 163
-999.102610794469 332.368020567959 2609.11909590066 91 95 96
-1006.73921765365 332.447001495415 2605.14258295502 128 132 131
-1014.19812211614 333.503953265367 2596.1469950068 131 135 134
-1021.98723254311 332.991736679072 2595.17630897841 127 131 130
-1029.70919326203 332.870217595446 2592.19735948351 140 144 143
-1037.56348269794 331.965876274328 2593.23518661179 137 141 140
-1045.35055968421 331.452176730685 2592.2647582501 151 155 154
-1053.18728020718 330.548116035576 2593.30453686709 160 164 163
-1060.78779084869 331.592642514237 2584.29131002647 151 155 156
-1068.47024869386 332.244511023673 2577.28426490646 146 150 151
-1076.1842758687 332.893711441508 2570.27328714707 150 154 155
-1084.05931851932 331.791671652934 2572.31673212692 157 161 162
-1091.91736427334 330.690296608879 2574.3622964684 164 168 169
-1099.7404681097 329.977447802009 2574.39558371949 168 172 173
-1107.50699544194 330.814663362918 2566.36987202146 186 190 193
-1115.29969630835 332.229722848345 2555.31607072637 184 188 191
-1123.1427689905 334.221024966678 2541.2311642487 192 196 199
-1131.04601655939 335.241129257013 2532.18022194426 193 197 200
-1139.00501130892 336.837190956963 2520.09726412585 190 194 197
-1146.98643174713 337.464462173375 2513.05321528652 183 187 190
-1154.99922975242 338.089313899444 2506.00501681522 196 200 203
-1163.06859584816 339.096623261202 2496.93313732696 196 200 203
-1171.2412109278 340.869960550847 2483.81560727587 194 198 201
-1179.47754418074 342.638698623534 2470.68989741657 187 191 194
-1187.65347974507 343.250947829672 2463.62137353065 183 187 190
-1195.76745693936 343.093588111537 2460.59383735097 181 185 188
-1203.94331855975 343.318404566303 2455.54171717956 190 194 197
-1212.45568802561 345.647040826168 2439.35702386628 195 199 202
-1221.14211396127 348.54385862614 2420.12557121666 190 194 197
-1229.95855326605 351.62483103607 2399.86996187314 190 194 197
-1238.76573796503 354.126043074063 2382.64009552259 190 192 191
-1248.05299880039 358.528237419228 2355.26772055102 174 176 175
-1257.43696966199 362.73028329979 2328.89149092196 173 175 174
-877.745725671514 342.35986631193 2571.83383113351 215 220 216
-886.638717944806 339.497562726214 2582.82478230052 170 174 173
-895.307861575238 337.030504545173 2591.82701312495 175 179 178
-904.152555629179 333.979380629081 2603.832175974 173 177 176
-912.704857817291 331.518690919051 2612.84897114853 164 168 167
-921.416458960578 328.475030507969 2624.87072355113 164 168 169
-929.509196101926 326.996409856471 2628.90336745421 159 163 164
-937.179590831757 326.688789454119 2626.93927054803 151 155 156
-944.72869658018 326.769940539573 2622.97367150867 128 132 133
-952.71652045602 325.48715344853 2626.01120514815 184 188 189
-960.624518912911 324.399676677588 2628.05049908702 157 161 162
-968.240728365968 324.283941505355 2625.08497176192 105 109 110
-975.710252277075 324.749355706203 2619.11267765701 133 137 138
-983.255823284555 325.018508347826 2614.13933753882 182 186 187
-990.916307736706 324.898337600962 2611.16805636777 191 195 196
-998.542784515543 324.970498598645 2607.1928255563 124 128 129
-1006.22635628809 324.847545672624 2604.21891081966 126 130 129
-1013.80364804264 325.303168055905 2598.23319371141 128 132 131
-1021.40731827437 325.75651526076 2592.2444309855 128 132 131
-1029.10411273163 325.821807731059 2588.2604430315 139 143 142
-1036.90861466855 325.307655062166 2587.28784133227 132 136 135
-1044.85252122377 323.830512999437 2591.33905451881 152 156 155
-1052.66743325567 323.123862169678 2591.37358800526 157 161 160
-1060.29515836549 323.954332736617 2583.3652157667 149 153 154
-1068.0197073809 324.205929562225 2578.3693462151 144 148 149
-1075.7478356096 324.647466135866 2572.36508296983 146 150 151
-1083.61846161783 323.553949375292 2574.40905667545 154 158 159
-1091.4602044433 322.652495118108 2575.44820167482 163 167 168
-1099.24465188212 322.707604981606 2571.45330196246 168 172 173
-1107.01861325503 323.525295572132 2563.42671395841 186 190 193
-1114.8182211965 324.912860884148 2552.37212310612 183 187 190
-1122.67513969929 325.53366803619 2545.34338812642 193 197 200
-1130.57003144089 326.913909057232 2534.27692570744 193 197 200
-1138.52661737952 328.670908658139 2521.18639784071 190 194 197
-1146.51888336093 329.662585305554 2512.12418115911 183 187 190
-1154.53385919465 330.271053855161 2505.07575405221 195 199 202
-1162.60500256556 331.256513620201 2496.00395057939 194 198 201
-1170.74858344812 332.618045050418 2484.9065024969 186 190 193
-1178.96285608326 334.16517854865 2472.79205662698 181 185 188
-1187.15340325177 334.950895513562 2464.71356537988 179 183 186
-1195.28791386204 334.977373791519 2460.67505525353 180 184 187
-1203.54109440336 335.758202314336 2452.58852033658 188 192 195
-1211.97384150355 337.479671885662 2439.43866393899 199 203 206
-1220.65779525105 340.327854147143 2420.2076478838 191 195 198
-1229.47153628399 343.357517922762 2399.95251038812 191 195 196
-1238.34987281113 346.191883552933 2380.69727289681 189 191 190
-1247.5206544855 349.959457825025 2356.3644066486 174 176 175
-1256.68808019123 353.154901225787 2335.05676745504 170 172 171
-877.341882949311 334.239237699698 2572.91330080236 128 133 129
-886.152567543836 331.602860886325 2582.90624141277 176 180 179
-895.141971123062 328.390336196624 2595.90145750997 174 178 177
-903.901820343975 325.568167349391 2606.90891844938 174 178 177
-912.596438288141 322.749494660871 2617.92427039073 173 177 176
-921.225869292468 319.934439758708 2628.94798801822 159 163 164
-929.171860786927 318.854993996859 2630.98251950124 172 176 177
-936.507288005195 319.506335638105 2624.01878313933 168 172 173
-944.127879000772 319.386738004932 2621.05271919528 172 176 177
-952.061717194407 318.306391752827 2623.08852944106 121 125 126
-960.094673217071 316.843108388686 2627.12883355288 153 157 158
-967.768976703577 316.530222311952 2625.16426272394 180 184 185
-975.028269011865 317.747590799775 2615.18523537382 113 117 118
-982.385402350169 318.770113768864 2606.20219825852 90 94 95
-989.926445554137 319.2161034583 2600.22127039118 170 174 175
-997.53828334507 319.469030364847 2595.23970330008 152 156 155
-1005.42122919967 318.576119288179 2596.27368390684 120 124 123
-1013.13679624064 318.445215582894 2593.29579728796 123 127 126
-1020.86250507477 318.313245227943 2590.31640757349 131 135 134
-1028.59834087177 318.17997528711 2587.33599776507 130 135 131
-1036.40606361532 317.665677156542 2586.36299451128 117 122 118
-1044.26943654844 316.771325488657 2587.39942149668 153 158 154
-1051.99383454786 316.825244181941 2583.41201873625 149 153 152
-1059.66527482566 317.445863200803 2576.40643083794 147 151 152
-1067.48895682186 316.928517819709 2575.43144398859 140 144 145
-1075.2944093214 316.599692079716 2573.4505485147 140 144 145
-1083.14862809771 315.703477478165 2574.48836305946 148 152 153
-1090.99122162999 314.807582912147 2575.5273872544 159 163 164
-1098.78487845362 314.665911386873 2572.53978384897 172 176 177
-1106.56214222984 315.276683287527 2565.52101573571 187 191 194
-1114.35522809123 316.63760994039 2554.46730895242 182 186 189
-1122.20253607669 317.806529571366 2544.41502831044 192 196 199
-1130.10340793022 319.72308014198 2530.32310569342 193 197 200
-1138.06927475606 321.446939902332 2517.23150689943 188 192 195
-1146.05765555344 322.041395771832 2510.18643559773 181 185 188
-1154.10619705637 323.195166507294 2500.10908209653 193 197 200
-1162.2145125087 324.53242789446 2489.01609884554 192 196 199
-1170.33083825064 325.304956532556 2480.94690472467 183 187 190
-1178.46633758941 325.887949829874 2473.88350408504 177 181 184
-1186.63312224855 326.468472295189 2466.81620572923 177 181 184
-1194.85427968039 327.232829498163 2458.7339507524 177 181 184
-1203.0606876764 327.621976357162 2452.66989871744 183 187 190
-1211.37816169388 328.567078180836 2443.56746091743 199 203 206
-1219.95548719228 330.80981418355 2427.37464742183 191 195 198
-1228.78147135926 333.974991340544 2406.1096978188 192 196 197
-1237.71411377855 337.132776532792 2384.83145736291 188 190 189
-1247.14511043369 342.135912973044 2353.40857378966 173 175 174
-1256.27583632436 345.091690239216 2333.11383276648 165 167 166
-877.363619678432 325.168745369119 2578.98107813242 133 138 134
-886.16051401485 322.563167892649 2588.97565857656 175 179 178
-895.136632257578 319.389652035977 2601.97242987684 170 174 173
-903.805860698829 316.791249550787 2611.98268310612 175 179 178
-912.415321800575 314.196059870116 2622.00062675396 172 176 175
-920.678718472985 312.36374474648 2628.02851926343 167 171 172
-928.69731302752 311.102527930344 2631.06215609957 164 168 169
-936.098475440582 311.548109663111 2625.09844533356 163 167 168
-943.780028112385 311.233865938784 2623.13297342447 167 171 172
-951.527274064721 310.729571912716 2622.16749097123 142 146 147
-959.390164430531 309.846720151937 2623.20418816232 123 127 128
-967.020322821219 309.719463298212 2620.23671016547 142 146 147
-974.450148881752 310.345620367706 2613.2612597088 140 144 145
-981.662061609532 311.911519689805 2601.2718530103 100 104 105
-989.121824756607 312.719783469839 2593.28449991249 97 101 100
-996.797023930188 312.77259613505 2589.30323978734 86 90 89
-1004.61332150053 312.259901737723 2588.32916222249 115 119 118
-1012.35066459086 312.122292994116 2585.34833547012 127 131 130
-1020.098167871 311.98344227007 2582.36648432558 136 141 137
-1027.92331185289 311.468631528555 2581.39130835418 111 116 112
-1035.74769560322 310.953271996232 2580.4162287004 128 133 129
-1043.54309817894 310.624606212642 2578.43634670761 150 155 151
-1051.29179463417 310.668795014496 2574.44593726687 147 151 150
-1059.07887601704 310.524795161693 2571.45916056914 149 153 154
-1066.95704838661 309.633502071648 2572.4937326177 147 151 152
-1074.80605508815 308.928800047015 2572.52400615883 140 144 145
-1082.67862436266 307.851702536477 2574.5676941168 149 153 154
-1090.48548113026 307.51926122332 2572.5863926513 161 165 166
-1098.29691249054 307.186053208703 2570.6047625915 173 177 178
-1106.07224280737 307.965852441953 2562.57810353688 179 183 186
-1113.89262605773 308.371946852181 2556.56218047725 183 187 190
-1121.73218678768 309.702201691978 2545.50275467824 190 194 197
-1129.63000740539 311.76891886902 2530.40313028081 193 197 200
-1137.58233334921 312.90558715503 2520.33782895126 185 189 192
-1145.56884714109 313.669185568016 2512.28485811175 178 182 185
-1153.64854861982 315.537315905944 2498.1707461277 190 194 197
-1161.82148748858 317.769146735739 2482.02866667989 193 197 200
-1169.89688573641 317.784758873351 2477.9975620425 180 184 187
-1177.96996832414 317.615011602222 2474.9749216214 182 186 189
-1186.09311211538 317.811775116039 2469.92969446856 180 184 187
-1194.25963718152 318.190505534743 2463.87088728753 175 179 182
-1202.55444919813 319.301055494421 2453.76291450254 181 185 188
-1211.0096268616 321.141324179697 2439.60201868309 193 197 200
-1219.65747012656 323.708955287118 2421.38417519104 189 193 196
-1228.32865469675 325.904443893426 2405.17977306251 192 196 197
-1237.3338130051 329.373556901367 2381.87604871654 187 189 188
-1246.84639815462 334.66009292012 2348.42686286244 172 174 173
-1256.23816735103 338.658049048633 2322.0501975104 165 167 166
-877.983882421041 314.812821637987 2592.03183831711 148 153 149
-886.335382385395 313.178735471596 2597.04052692951 176 180 179
-894.813836646888 311.170805785486 2604.0499713649 172 176 175
-903.557190199727 308.415021381412 2615.05907577635 173 177 176
-911.937670244021 306.412258215788 2622.08073320898 171 175 174
-919.987613746658 305.160510952646 2625.110432944 170 174 175
-927.946542659857 304.096664605838 2627.14330883314 166 170 171
-935.490876311418 304.154290546545 2623.17836727589 160 164 165
-943.369113136453 303.277087787686 2624.21289417441 163 167 168
-950.992378215842 303.1459725835 2621.24652685162 163 167 168
-958.684185748909 302.827253345351 2619.27978698257 157 161 162
-966.15882242148 303.252327965145 2613.30696106811 127 131 130
-973.554292193521 304.046950111076 2605.32766732816 146 150 149
-980.836680407716 305.395918101924 2594.33772408473 147 151 150
-988.314761160046 306.18408301043 2586.34813798774 79 83 82
-995.874724977322 306.783794011468 2579.35651675318 63 67 66
-1003.80260736937 305.898949380638 2580.38486830303 117 122 118
-1011.48312429218 306.124687154871 2575.39480206391 132 137 133
-1019.40427689898 305.239079310029 2576.42423572982 127 132 128
-1027.21222626908 304.908004228324 2574.4430345848 118 123 119
-1035.11849208165 304.022446420943 2575.47408563411 141 146 142
-1042.87066098713 304.058889011564 2571.48326325147 141 146 142
-1050.68990277047 303.725482039132 2569.500659021 143 147 146
-1058.51377074162 303.391183130064 2567.51747981851 146 150 151
-1066.40356294442 302.50470395383 2568.55058910332 142 146 147
-1074.28171878521 301.618371362606 2569.58539042002 141 145 146
-1082.13326836717 300.915953447891 2569.61510034085 152 156 157
-1089.96628385824 300.396699581376 2568.63895375245 162 166 167
-1097.79841001424 299.876964870879 2567.66291941409 173 177 178
-1105.57425456236 300.820379951862 2558.62807821175 180 184 187
-1113.40928531348 301.029465978505 2553.61877341212 184 188 191
-1121.25115266306 302.879900509742 2539.5343883226 190 194 197
-1129.15755578773 303.99578463258 2529.47487262374 193 197 200
-1137.10388204601 304.743608509088 2521.42695849252 187 191 194
-1145.07393161069 305.124461379542 2515.39242443437 180 184 187
-1153.17154239496 307.503535765738 2498.25143035858 192 196 199
-1161.35447235644 309.876577608745 2481.09980484037 195 199 202
-1169.46171631672 310.246960969103 2475.04841757256 181 185 188
-1177.54293549345 310.071320353254 2472.02477727316 183 187 190
-1185.63383158098 309.894528266806 2469.00017265361 178 182 185
-1193.78004415504 310.078713839 2463.95209977662 173 177 180
-1202.02291333981 310.803522893968 2455.86699918129 179 183 186
-1210.4990967969 312.789618671788 2440.69541083433 192 196 199
-1219.2342635388 315.852782862992 2419.44206335656 189 193 196
-1227.97575353751 318.367864826049 2401.21267169207 191 195 196
-1237.09692191803 322.316887590606 2374.86990458635 185 187 186
-1246.35156250674 326.25657380265 2348.51074579435 170 172 171
-870.257679068895 306.142800860692 2600.07314523456 185 188 181
-878.437566013336 304.896514062618 2603.08685468506 176 180 179
-886.430116620389 304.02146496613 2604.10711022781 174 178 177
-894.891545645182 302.036418485481 2611.11861904998 171 175 174
-903.386679867312 299.86879174319 2619.13384931086 172 176 175
-911.609062754289 298.257801901548 2624.15859014784 172 176 175
-919.295391703751 297.939610847194 2622.19253258268 167 171 172
-927.401840980629 296.514762459867 2626.22332368498 165 169 170
-935.214934267536 295.827637207082 2626.25803272013 160 164 165
-943.149734020177 294.772434967166 2628.29389702191 161 165 166
-950.579149502217 295.187968220352 2622.32673957153 165 169 170
-957.97672983004 295.78482537716 2615.35539035195 162 166 167
-965.239174344071 296.929253925119 2605.37640197867 137 141 140
-972.708651842691 297.520336375659 2598.39609562471 111 115 114
-980.260212687639 297.925699380501 2592.41372193814 151 155 154
-987.838222084014 298.328723020591 2586.42829405809 79 83 82
-995.397755397584 298.912276733088 2579.4367690975 54 58 57
-1003.24216202951 298.397970793786 2578.45918793187 123 128 124
-1011.00689055478 298.247867446193 2575.47497654322 130 135 131
-1018.89213366777 297.549994449592 2575.50071001043 118 123 119
-1026.77126334728 296.851970910171 2575.5269665257 125 130 126
-1034.67569032331 295.972084411111 2576.55823211574 144 149 145
-1042.42517770491 296.000697560319 2572.56800525873 150 155 151
-1050.13814839961 296.390701445001 2566.56552902485 146 150 149
-1057.94717347163 296.234610876957 2563.57580545618 140 144 145
-1065.84858180483 295.352888632121 2564.60769285811 132 136 137
-1073.75623574302 294.29051712974 2566.64696367705 150 154 155
-1081.64688535997 293.228691400486 2568.68835509748 158 162 163
-1089.48303682611 292.709357198746 2567.71181736949 158 162 163
-1097.26939444449 293.091580361197 2561.70020337165 174 178 179
-1105.07477061995 293.651890257881 2554.6783001558 182 186 189
-1112.91602507612 294.029660621616 2548.65984708344 187 191 194
-1120.77989532699 294.764820761368 2540.62225632397 191 195 198
-1128.67965129269 295.317562842847 2533.58835472909 190 194 197
-1136.614437399 296.047130236135 2525.54192881841 184 188 189
-1144.58609451476 296.773990401352 2517.49090875311 178 182 183
-1152.68523463307 299.289263203362 2499.3416780536 191 195 196
-1160.82799259905 301.082366794568 2485.21989457299 194 198 199
-1169.02536321853 302.691620425258 2472.09946701661 176 180 181
-1177.11471898426 302.510086464689 2469.07482683892 177 181 182
-1185.19395088361 302.149127746316 2467.05984993556 179 183 184
-1193.23247786653 301.431035799916 2467.06626745915 174 178 179
-1201.46652225448 302.137417891845 2458.98255694178 178 182 183
-1209.98867902153 304.442086563862 2441.78877798202 193 197 198
-1218.81018529143 307.984542363562 2417.50009208088 190 194 195
-1227.65456822604 310.985864161785 2396.23327792768 190 194 195
-1236.4975409999 313.447658890897 2377.99136214285 179 181 180
-1245.23730361277 315.017165711784 2364.80359221283 167 169 168
-870.919940229527 295.906452916813 2613.1183493664 124 127 120
-878.210223473458 296.499636911736 2606.16064013043 178 182 181
-886.11269676441 295.81290679943 2606.18395376016 171 175 174
-894.570629333019 293.849938881582 2613.19560050755 173 177 176
-902.98498333487 291.889152450515 2620.2129201263 175 179 178
-911.206221451329 290.294599417999 2625.23776053812 178 182 181
-918.890225102781 289.973926218128 2623.2717594243 165 169 170
-926.926046709173 288.744459145651 2626.3031628144 167 171 172
-934.739842026116 288.060036390367 2626.33777712343 167 171 172
-942.611741149336 287.194285985053 2627.3730647703 165 169 170
-950.104837375071 287.415062152962 2622.40640059237 156 160 161
-957.560537548139 287.814709542605 2616.43624507154 150 154 155
-964.763485196927 289.115764768888 2605.45634171758 143 147 146
-972.073077085446 290.232223378249 2595.4713030198 107 111 110
-979.430692708021 291.344965656011 2585.48028103074 117 121 120
-987.027361243161 291.733363108616 2579.49256311803 58 62 61
-994.74046257383 291.75939453445 2575.5066435552 52 57 53
-1002.63852020915 291.064584617836 2575.53052951052 126 131 127
-1010.45123824832 290.728965468892 2573.54874523044 114 119 115
-1018.37946020898 289.854072811697 2574.57702819597 100 105 101
-1026.33048650136 288.800106291374 2576.6108642673 142 147 143
-1034.29612680707 287.567585174325 2579.65103391153 154 159 155
-1041.97983983751 287.94649572831 2573.65247834382 143 148 144
-1049.66364780635 288.502006053222 2566.64551849221 146 150 149
-1057.40251588157 288.876327914839 2560.64009198514 135 139 140
-1065.31279917823 287.999591943885 2561.67061844419 131 135 136
-1073.26560788048 286.588415789346 2565.72078724528 157 161 162
-1081.17532057727 285.356650638938 2568.76793433366 162 166 167
-1089.01195170208 284.837405324571 2567.79133651302 157 161 162
-1096.78799168375 285.383934386915 2560.77289030332 174 178 179
-1104.61005742041 285.572824147719 2555.76525664699 182 186 189
-1112.43000865881 286.646676886864 2545.71664032059 187 191 194
-1120.30129086036 287.362432907876 2537.67817569355 191 195 198
-1128.21022165996 288.252339097856 2528.62686702758 190 194 197
-1136.15433167172 288.785533358209 2521.58748178847 186 190 191
-1144.14848102953 289.845959511862 2511.51716192505 179 183 184
-1152.22583229212 291.608531291773 2497.40362121878 193 197 198
-1160.40714983608 293.894959231891 2480.25242501537 195 199 200
-1168.54486670993 294.59051683673 2472.18076410818 178 182 183
-1176.66830817277 294.755489180883 2467.1355835286 178 182 183
-1184.73343190559 294.215834801143 2466.13052492787 180 184 185
-1192.8423941292 294.027019855262 2463.10345715437 175 179 180
-1200.98616783436 294.01247609676 2459.06389907861 177 181 182
-1209.42277337397 295.748398819221 2444.9055957418 192 196 197
-1218.26334705424 299.404196880637 2419.60654475957 188 192 193
-1227.2321467543 303.051109542349 2394.29151532751 188 192 193
-1235.8988594696 304.593435628617 2381.1126929036 180 182 181
-1244.20501970175 304.212167498179 2379.06945017 168 170 169
-869.994478409663 288.980886539517 2608.2134040031 122 125 118
-877.640775415095 288.837312682192 2605.24395497278 178 182 181
-885.297616254498 288.692352959709 2602.27343405268 169 173 172
-894.250259017408 285.672922827023 2615.27272917479 172 176 175
-902.583469156502 283.913619868216 2621.29171710141 173 177 176
-910.953411866964 281.977040732239 2628.31427496898 178 182 181
-918.701942671243 281.475173185803 2627.34862578377 165 169 170
-926.589132909754 280.615020593719 2628.38223071696 166 170 171
-934.398240161532 279.93370093424 2628.41718162817 161 165 166
-942.009143679295 279.787785740301 2625.45239593043 162 166 167
-949.69179148486 279.462361418022 2623.48657653008 170 174 175
-956.968356775564 280.3832959805 2614.514101629 171 175 176
-964.119608359738 281.834929269343 2602.53256599813 173 177 176
-971.223116145067 283.637801590025 2588.54044907048 132 136 135
-978.598707839385 284.724972312218 2578.54725111572 91 95 94
-986.2618989492 284.921176355557 2573.55942481166 98 102 101
-994.036444741734 284.760772596551 2570.57401541186 85 90 86
-1001.99123978374 283.890759026597 2571.59920963378 96 101 97
-1009.85489348065 283.374808883443 2570.61923087819 100 105 101
-1017.90338407804 281.974555563932 2574.6571901108 121 126 122
-1025.88981080781 280.752236615472 2577.69473886515 146 151 145
-1033.85392059302 279.530804388623 2580.73531057583 140 145 139
-1041.50563275996 280.072712185956 2573.73239191232 147 152 146
-1049.16265181508 280.788083283954 2565.72066707292 142 146 145
-1056.92750783753 280.97285374691 2560.72018369873 139 143 144
-1064.83861232637 280.101679347372 2561.75059303165 144 148 149
-1072.7927175818 278.704156699171 2565.80056407455 158 162 163
-1080.6569764295 278.009290238199 2565.82866806767 161 165 166
-1088.48936673666 277.664833134463 2563.84445207928 161 165 166
-1096.29592228512 277.844495984512 2558.83853803274 174 178 179
-1104.15289604449 277.323118616879 2557.85940718626 181 185 188
-1111.9616758124 278.547595545812 2546.8041012317 184 188 191
-1119.82759570756 279.41921956559 2537.75820821778 189 193 196
-1127.73835910197 280.984680363719 2524.67366287555 190 194 197
-1135.68259018519 280.978668062026 2520.65898407203 181 185 186
-1143.67234176521 281.840790793572 2511.59766261723 174 178 179
-1151.76552506461 283.915673699434 2495.465709241 186 190 191
-1159.96149650351 286.332088948208 2477.30465490299 189 193 194
-1168.13488550674 287.35494069141 2467.2123062111 175 179 180
-1176.20420792513 286.815616053224 2466.20672277086 177 181 182
-1184.27243811839 286.275883218509 2465.20127670884 175 179 180
-1192.38414317895 286.081637985255 2462.17388094597 172 176 177
-1200.55541954087 286.231558811153 2457.12277049142 173 177 178
-1209.02323608616 288.104474051353 2441.95228407377 192 196 197
-1217.83816790305 291.522589021843 2417.66474607265 189 193 194
-1226.64385420493 294.243703585192 2397.41142631315 187 191 192
-1235.26521084108 295.582389972767 2385.24648743586 183 185 184
-868.712756308352 282.736367906064 2599.31989537149 97 99 94
-876.555436163125 282.23130946779 2598.34250534448 176 180 179
-884.730650066996 281.017567849145 2601.3564719875 166 170 169
-893.769408201017 277.858986110248 2615.35331423814 170 174 173
-902.259948053892 275.765292022573 2623.36916341887 170 174 173
-910.401108007111 274.380396233671 2627.39551762022 175 179 178
-918.225287659656 273.701998318253 2627.42857989061 157 161 162
-926.183033876308 272.671074521738 2629.46151667292 162 166 167
-933.990172093896 271.992630025769 2629.49694600506 167 171 172
-941.470026619051 272.193284772638 2624.53174703338 166 170 171
-948.971002305513 272.391939540082 2619.56415780126 158 162 163
-956.257608957367 273.290495532246 2610.59048873084 152 156 155
-963.306029113663 275.062238379564 2596.60532839197 143 147 146
-970.370682891028 277.004001211105 2581.61000735341 168 172 171
-977.8149854481 277.890597454992 2572.61644999314 104 109 105
-985.638489703786 277.550707830615 2570.63333090314 92 97 93
-993.421352885396 277.384458931079 2567.64689893533 96 101 97
-1001.29971247499 276.868169160081 2566.66508586566 105 110 106
-1009.21739927792 276.177127920868 2566.68675256098 107 112 108
-1017.3525816854 274.441727959454 2572.73039023009 128 133 129
-1025.31100773768 273.403773357015 2574.76326068831 143 148 142
-1033.18873488707 272.713901662766 2574.78967076346 142 147 141
-1040.88535758927 273.065112306169 2568.78933682302 143 148 144
-1048.71404371881 272.720652291038 2566.80558310177 145 149 148
-1056.54733023385 272.375361705216 2564.82125746688 148 152 153
-1064.40631561985 271.856304795303 2563.84186947045 153 157 158
-1072.2828243252 271.164002390858 2563.86843800139 155 159 160
-1080.1531754266 270.471793650165 2563.89577471825 157 161 162
-1088.00422453852 269.951868716038 2562.91737940781 161 165 166
-1095.83382156585 269.775956220663 2559.92538104981 174 178 179
-1103.66579889181 269.771242352733 2555.92470743219 180 184 187
-1111.49834279554 270.280667641096 2548.89930757853 183 187 190
-1119.34703650334 271.98978264263 2534.81444275981 189 193 196
-1127.26288001186 273.007658463283 2524.75400705824 190 194 197
-1135.20386432067 272.822261071095 2521.74813320416 183 187 190
-1143.18415104558 273.491775675855 2513.69618723216 175 179 180
-1151.27856650942 275.697620376023 2496.55604810768 187 191 192
-1159.54848181378 279.264054932639 2471.32820698393 190 194 195
-1167.70905056748 279.920292871693 2463.25379784417 177 181 182
-1175.83959973008 279.891840210968 2459.21592674174 179 183 184
-1183.90772596329 279.180823455169 2459.21887209036 175 179 180
-1191.96941781444 278.46973632501 2459.22238032841 173 177 178
-1200.09894378993 278.268562744545 2456.19277886627 173 177 178
-1208.56762011534 280.103502123629 2441.02252542996 194 198 199
-1217.41202484553 283.628861746084 2415.72333986033 192 196 197
-1226.31896194047 286.806576602898 2392.43264032777 190 194 195
-1234.98786324651 288.283788022099 2379.25395652657 183 185 184
-867.960556393879 275.393513798398 2596.40980105548 172 174 171
-875.897989496702 274.713455152072 2596.4287343383 170 174 175
-884.413334983725 272.812825228126 2603.43329239674 170 174 175
-893.369084030788 269.869522168999 2616.43199939501 169 173 174
-902.01490651551 267.452436802313 2626.44493632585 178 182 183
-909.622519544316 267.298188454027 2623.48034293801 177 181 182
-917.603345889607 266.274573483112 2625.51038020919 161 165 164
-925.358008219629 265.771956990142 2624.54396781814 161 165 164
-933.380796776929 264.575570181505 2627.57691054001 160 164 163
-940.930390395209 264.591891608263 2623.61142134397 160 164 163
-948.433951805544 264.779512211269 2618.64353848687 155 159 158
-955.545358017139 266.17455890871 2606.66712434171 152 157 153
-962.433960656409 268.428136098784 2589.67733782723 143 148 144
-969.408454295792 270.675584595075 2572.67684876342 115 120 114
-977.080071070868 270.850110219124 2567.68802807549 117 122 116
-984.869189513945 270.678685048152 2564.70082911955 69 74 68
-992.713987285221 270.334094461855 2562.71506510451 97 102 96
-1000.64924028145 269.64533581638 2562.73429336289 99 104 100
-1008.69880762682 268.441927770141 2565.7639127405 118 123 119
-1016.8757866518 266.554014847384 2572.81066344323 147 152 148
-1024.8352009507 265.524298672686 2574.84338887852 148 153 149
-1032.64955345534 265.179256233032 2572.86118517397 137 142 138
-1040.35123268324 265.516530590783 2566.86049717847 138 143 139
-1048.15902860921 265.339794725688 2563.8709813686 146 150 149
-1056.12043466099 264.139136394613 2566.91159551318 146 150 151
-1064.03817338729 263.109686305391 2568.94952111281 151 155 156
-1071.90184434316 262.421070908384 2568.97792227814 156 160 161
-1079.71176087417 262.242229116233 2565.98814737519 155 159 160
-1087.49218030066 262.571558380107 2559.97741372279 155 159 160
-1095.33003940013 262.3898639904 2556.98439953345 172 176 177
-1103.19328882196 261.868385438011 2556.00448578786 180 184 187
-1111.04049238439 261.854101575746 2552.00193722819 185 189 192
-1118.88883788163 262.852567696791 2541.94997599413 188 192 195
-1126.78545748457 264.185109856397 2529.87573646333 189 193 196
-1134.72521750902 264.669967371419 2522.83702137002 182 185 190
-1142.7078541748 265.489304496652 2513.77670048881 179 182 187
-1150.84221804935 268.493463124147 2491.59055767909 186 189 194
-1159.0443188326 270.817217111489 2473.42898245528 188 192 195
-1167.25408009656 272.126824240439 2461.31572509505 177 181 184
-1175.34032924533 271.586660161148 2460.30803150957 180 184 187
-1183.44471839976 271.213824060286 2458.28970613942 174 178 181
-1191.48772894865 270.338130934049 2459.30390654452 176 180 181
-1199.76492754204 271.134999997974 2450.20688524502 172 176 177
-1208.27514186551 273.098151787968 2434.02318310237 189 193 194
-1217.01503357558 275.889935940981 2412.76996064617 191 195 196
-1225.86148756945 278.67421479861 2391.50345961188 196 200 201
-1234.67292709396 280.784930975668 2374.27409064121 182 184 183
-1243.26490921445 281.559059023608 2365.13784610617 174 176 173
-858.613748571338 269.915670776784 2586.50537423226 178 180 177
-868.185625937838 266.141275988182 2604.46829673771 187 189 186
-875.584716847186 266.496092511027 2598.50508351007 167 171 172
-884.012997661829 264.78920103075 2604.51206915467 168 172 173
-892.726468352095 262.398324125349 2614.51649497035 164 168 169
-901.4581875299 259.839528021456 2625.52653252134 177 181 182
-909.14416847444 259.508638310065 2623.5605518266 184 188 189
-916.90787355515 259.005983241706 2622.59301105531 164 168 167
-924.671172579819 258.502756819525 2621.62552246206 161 165 164
-932.434054549439 257.999138910798 2620.65808694577 159 163 162
-940.196445585472 257.494895333244 2619.69071434277 162 166 165
-947.648778950027 257.841303341966 2613.72087891501 159 163 162
-954.890818983698 258.865556833407 2603.74475337699 156 161 157
-961.672397069861 261.415024609277 2584.75192921156 156 161 157
-968.550679563994 263.957617596918 2565.74729528098 117 122 116
-976.036676974751 264.798199327753 2556.74865582706 91 96 90
-984.049305308892 263.942059769683 2557.7665962593 79 84 78
-992.187588438639 262.578727795771 2561.79325268368 97 102 96
-1000.25521944727 261.385578433115 2564.82083107577 105 110 106
-1008.30055196201 260.193369331073 2567.8509494432 131 136 132
-1016.39878817632 258.664941085308 2572.89096562795 151 156 152
-1024.32430316057 257.811959756024 2573.91952870543 143 148 144
-1032.1738668757 257.295772503925 2572.94130892068 134 139 135
-1039.84574095281 257.787782007377 2565.93600557536 141 146 142
-1047.68317985816 257.437568559466 2563.95117471089 144 148 147
-1055.57341172776 256.751021074035 2563.9760155167 146 150 151
-1063.54306881653 255.394253497172 2568.02393845571 152 156 157
-1071.44745520924 254.373537357609 2570.06350734709 155 159 160
-1079.27086288615 254.022366391521 2568.08043001857 155 159 160
-1087.05880094283 254.171502798567 2563.07691971525 156 160 161
-1094.87809204627 254.152009623647 2559.07786818398 170 174 175
-1102.72054950792 253.96422923923 2556.08429617347 182 186 189
-1110.55729923001 254.275039391912 2550.06658160262 186 190 193
-1118.40751188248 255.415117127117 2539.00632733129 186 190 193
-1126.31047197375 256.385142612599 2528.94786568492 189 193 196
-1134.25818844564 257.185739361237 2519.89171172084 183 186 191
-1142.2535768334 258.148739408212 2509.821493802 180 183 188
-1150.36268535598 260.432968947977 2491.67162754878 187 190 195
-1158.5624810055 262.710764253153 2473.51046102258 187 191 194
-1166.7298444191 263.494981847167 2464.42717982138 174 178 181
-1174.8574544267 263.450770602156 2460.38971700779 173 177 180
-1182.96210086842 263.075409778541 2458.37136617847 176 180 183
-1191.0275802332 262.369936640754 2458.3746272417 175 179 180
-1199.30657093206 263.14518904418 2449.277198956 174 178 179
-1207.871693631 265.396306754604 2431.07051202832 188 192 193
-1216.61674056862 268.133475017285 2409.81679005921 187 191 192
-1225.33828425957 270.207276429623 2392.59873677083 184 188 189
-1234.03929328119 271.783619093306 2378.40785769101 186 188 187
-860.144662225038 258.280333832111 2608.51576454607 189 191 188
-868.591456505055 256.592508761005 2614.52038960894 174 176 173
-875.963230097438 256.935508616086 2608.56061653973 170 174 175
-883.863967359658 256.262744647374 2608.58411003624 166 170 171
-892.164000883278 254.746126020215 2613.5989120096 155 159 160
-900.66612594132 252.725420934805 2621.61312321127 169 173 174
-908.514463052363 252.054382657277 2621.64315139232 195 199 200
-916.211246964846 251.71960959754 2619.6758327777 161 165 164
-923.842823174194 251.552039524152 2616.70828400889 160 164 163
-931.552264735347 251.215325377896 2614.73939090633 160 164 163
-939.396175680818 250.542448934693 2614.76997628742 158 162 161
-946.923832983092 250.706885196398 2609.79914746059 150 154 153
-954.116346853071 251.873513515416 2598.82090018903 146 151 147
-960.738970237325 254.874722908955 2576.82366169062 143 148 144
-967.474556949528 257.868195886548 2554.81210614156 93 98 92
-975.040728470967 258.51834480727 2546.81189029756 48 53 47
-983.324089780302 256.832868858445 2552.83690464263 88 93 87
-991.614802331917 254.982800712428 2559.86936241075 105 110 106
-999.861685561418 253.135283353125 2566.90704283301 130 135 131
-1007.82183845277 252.286547891009 2567.93151239186 146 151 147
-1015.77051738554 251.438182548867 2568.95717258947 132 137 133
-1023.60248458011 251.087182958684 2566.97302663244 125 129 128
-1031.5361770568 250.238699844234 2568.00079763006 128 132 131
-1039.28037883584 250.382861122081 2563.00299872619 143 147 146
-1047.07234108395 250.359913121371 2559.00736677266 146 150 149
-1054.9767152757 249.675391076271 2559.03043736634 152 156 157
-1062.98269772154 248.16651630706 2564.08191478261 156 160 161
-1070.93656220119 246.824010632828 2568.13153071893 156 160 161
-1078.79796626646 246.140854924873 2568.1602004009 156 160 161
-1086.62611354818 245.786333683063 2566.17630015181 161 165 166
-1094.44806392951 245.595201386365 2563.18529613083 170 174 175
-1102.24761417663 246.058831361835 2556.16413429078 180 184 187
-1110.07321957622 246.683673693272 2548.13160927655 185 189 192
-1117.91959258252 248.287228256538 2534.04731205732 187 191 194
-1125.83503404945 249.068739452175 2524.99523608418 190 194 197
-1133.78990553753 249.683794014871 2516.94660520205 183 186 191
-1141.79780009178 250.785100133468 2505.86677526526 180 183 188
-1149.91534680475 253.022686579661 2487.71597880869 186 189 194
-1158.08032539033 254.603017751512 2473.59198265471 187 191 194
-1166.20624538788 254.87808916613 2467.53851572848 173 177 180
-1174.29337778326 254.501753811059 2465.522353115 171 175 178
-1182.44141737193 254.611229973822 2460.47424898196 167 171 174
-1190.58834129983 254.556949436785 2456.43440242243 170 174 175
-1198.92034563534 255.633964848404 2445.31418946976 172 176 177
-1207.46696946179 257.6768652367 2428.1180465231 187 191 192
-1216.24692000401 260.52093218514 2405.85200017841 191 195 196
-1224.91230021394 262.228255733369 2390.65753533196 193 195 194
-1233.40657861892 262.802733367722 2382.5414562447 187 189 188
-1240.42768632899 256.938287574547 2414.93678424786 182 184 181
-860.762969890588 248.430209748925 2620.55750934052 190 192 189
-868.464821336962 248.095740941214 2618.58955752639 175 177 174
-875.998648321274 248.093149441933 2614.62608571958 174 178 179
-883.464549352474 248.255159519073 2609.66297009956 168 172 173
-891.763419681929 246.755038596925 2614.67787378655 156 160 161
-900.107959665937 245.090629091755 2620.69519791698 161 165 166
-908.262750589463 243.759510737715 2624.71970943286 193 197 198
-915.951782188448 243.422544046191 2622.75336403799 156 160 159
-923.6458126204 243.084721400587 2620.78639707244 157 161 160
-931.006548741271 243.571827189997 2613.81993481839 159 163 162
-938.659053860265 243.396443967087 2610.84979482103 158 162 161
-946.072882668389 243.879032725949 2603.87671880893 151 155 154
-953.340042977549 244.85283315841 2593.89759127537 148 153 149
-959.859581819283 248.125225898734 2569.89688850162 148 153 149
-966.665269266934 250.896239758872 2548.8850980003 68 73 67
-974.401337181677 251.034227821139 2543.88809014281 40 45 39
-982.791917071562 249.039351710409 2551.91615350233 87 92 86
-991.133214775556 247.047256824615 2559.95035966305 106 111 107
-999.295252490546 245.548566817887 2564.98233548311 142 147 143
-1007.26165911206 244.705074200547 2566.00577053783 146 151 147
-1015.10276211202 244.351372469302 2564.02049160229 124 129 125
-1022.87814941405 244.323030391024 2560.02694230915 125 129 128
-1030.79905159605 243.641725554831 2560.04794183495 132 136 135
-1038.62432711364 243.448321012236 2557.05652884051 142 146 145
-1046.48669465689 243.091350993499 2555.06836455385 145 149 148
-1054.45140461537 242.084290498906 2557.1003694592 152 156 157
-1062.46425370167 240.591431749251 2562.15094778172 155 159 160
-1070.4057626975 239.424261097553 2565.19395677264 153 157 158
-1078.27587653744 238.743447053287 2565.22153335954 156 160 161
-1086.13970542462 238.062582976253 2565.2496541344 170 174 175
-1093.97536670504 237.704539721684 2563.26506572653 170 174 175
-1101.76615808925 238.313295053787 2555.23692766014 170 174 177
-1109.5882073679 239.080211433698 2546.1965449149 182 186 189
-1117.43546914896 240.80922536438 2531.10411929085 190 194 197
-1125.35812599752 241.568657465203 2522.05120102525 190 194 197
-1133.315288082 241.843192233112 2516.01879550213 183 186 191
-1141.30891587039 242.436368084562 2507.96538567966 179 182 187
-1149.42667013778 244.788495769652 2488.80633431431 185 188 193
-1157.62979866677 246.973927408645 2470.64499510089 185 189 192
-1165.80351326054 247.714620973229 2461.56103592893 174 178 181
-1173.87492020631 247.015337151771 2461.56330069701 174 178 181
-1181.97727363027 246.635048524096 2459.5454892687 172 176 179
-1190.08397293557 246.254122201796 2457.52689691069 164 168 169
-1198.33967818453 246.827078605506 2449.44083461772 167 171 172
-1206.87324723213 248.827452346571 2432.24643282269 179 183 184
-1215.63942206953 251.615541359456 2409.98225302042 194 198 199
-1224.45315525555 254.078618693253 2389.72836832047 191 193 192
-1232.77492697745 253.842207415247 2386.67510879169 188 190 189
-1240.95593133951 252.972173557749 2387.67183321249 184 186 183
-851.444057518867 242.918190337699 2610.64969133226 221 223 220
-860.187234433946 240.775813562848 2619.64182820352 179 181 178
-868.071042110407 240.110846852542 2619.66741387844 172 174 173
-875.602217030003 240.100302086859 2615.70429397827 178 182 183
-883.653556247053 239.107251968162 2617.72545116847 172 176 177
-891.688335718423 238.114749161673 2619.7486734757 164 168 169
-899.549290867433 237.449088289604 2619.777112839 150 154 155
-907.404464595513 236.783141287003 2619.80651471171 181 185 186
-915.253840362176 236.117113227491 2619.83640008044 169 173 172
-923.026859025816 235.613536358388 2618.86769945659 163 167 166
-930.528185083999 235.759165359526 2613.90020614161 154 158 157
-938.050669233266 235.902908969097 2608.93007738707 155 159 158
-945.28221465117 236.855146615945 2598.95521089747 145 149 148
-952.203658242679 238.775193542545 2582.96989146457 137 141 140
-958.749645752342 241.983282632355 2558.96605739481 131 136 132
-965.962379380535 243.567302301874 2544.96088606837 41 46 40
-973.863919055177 243.209601102103 2542.96807552558 44 49 43
-982.259206812068 241.239120199717 2550.99548712723 81 86 82
-990.512807962755 239.59337415259 2557.02411073688 113 118 114
-998.684488549272 238.110553164662 2562.05484139308 146 151 147
-1006.65982917299 237.272045563985 2563.07714840928 143 148 144
-1014.47129408609 237.075758338049 2560.08746648807 123 127 126
-1022.32825080397 236.718028159386 2558.09997944229 131 135 134
-1030.15714921277 236.51952545916 2555.10812775825 138 142 141
-1038.11600518172 235.680156915451 2556.13249422917 141 145 144
-1046.00870796019 235.160564513311 2555.14889991169 144 148 147
-1054.02351448439 233.842576887372 2559.19108634246 151 155 156
-1061.98867096691 232.685396277057 2562.23111795843 154 158 159
-1069.93130946147 231.529202275372 2565.27395708796 152 156 157
-1077.78553371177 231.010299371648 2564.29516284755 157 161 162
-1085.63884468086 230.491006732738 2563.31648360558 164 168 169
-1093.49133462494 229.971378203582 2562.33790770724 165 169 170
-1101.30090078371 230.244028184733 2556.32392624658 167 171 174
-1109.12510446463 230.831215388195 2548.29167532199 183 187 190
-1116.95914599063 232.839095426945 2531.18455065853 192 196 199
-1124.88211303951 232.944963483497 2526.16454374966 188 192 195
-1132.83289512173 233.522504278222 2518.11652199239 185 188 193
-1140.8101808379 233.781899002808 2512.08140476102 181 184 189
-1148.93024831587 236.40112587324 2490.90598712809 184 187 192
-1157.11517885429 238.383636297309 2473.75514040029 184 188 191
-1165.27990529964 239.103283024942 2464.67235832222 175 179 182
-1173.34376502924 238.407466114083 2464.67555580827 174 178 181
-1181.49392881841 238.495426408258 2459.62724324884 174 178 181
-1189.60085960871 238.112036729154 2457.60862849004 164 168 169
-1197.8797516067 238.822559067885 2448.51162325468 168 172 173
-1206.33386037573 240.310952968972 2434.35178747666 176 180 181
-1215.1796376645 243.510739203833 2409.05328800576 193 197 198
-1223.99338421202 245.922275434519 2388.79953737004 193 195 194
-1232.28306866064 245.524856914686 2386.7583932483 189 191 190
-850.957941044666 235.068487008336 2610.73102770868 221 223 222
-859.703343897454 232.953231609238 2619.72281537289 176 178 177
-867.319025433212 232.77437134618 2616.75727989768 172 174 173
-875.119075214006 232.27232729925 2615.78520191359 172 176 177
-883.087254695646 231.4482235402 2616.80860493471 169 173 174
-891.370293838891 229.981928500114 2621.82539518089 161 165 166
-899.22652399296 229.319256135992 2621.8544163255 138 142 143
-907.305262662534 228.175772316853 2624.88023748599 191 195 196
-915.215212670285 227.353287832762 2625.91090293691 190 194 193
-922.972542499658 226.850800015734 2624.94415731885 147 151 150
-930.253567460602 227.465842213438 2616.97961853213 153 157 156
