ply
format ascii 1.0
comment KinectMotionCapture
element vertex 752
property float x
property float y
property float z
property uchar red
property uchar green
property uchar blue
end_header
-944.690198990033 344.237255168935 2365.14362235781 180 182 181
-951.877286323516 342.938460451281 2356.62858873621 171 176 172
-951.093405342543 343.069942562449 2348.29838649678 161 166 162
-949.313303836198 343.379687654003 2339.9778519041 168 173 169
-948.529767628836 343.510087662313 2331.63301283885 164 169 165
-949.738325130391 343.282289890738 2323.26196915486 161 166 162
-951.942889907233 342.875325607231 2314.8886222336 160 165 161
-953.151089168443 342.646542866544 2306.53052223933 164 169 165
-957.346933477783 341.881054253362 2298.17176569843 157 162 158
-959.550334146232 341.472632461965 2289.83302641792 166 171 167
-963.744950026785 340.706303655304 2281.51205420628 148 153 149
-964.952313880446 340.475639521878 2273.19390952664 136 141 137
-967.15478352673 340.065815071222 2264.89005175003 174 180 178
-970.35262531304 339.476843152093 2256.60873446982 179 185 183
-975.540983630157 338.530180236068 2248.37272308779 149 154 150
-978.737826261501 337.940303948964 2240.12948520419 126 131 125
-979.943574679088 337.707282140084 2231.86262108397 154 159 153
-978.163498178437 338.009458174209 2223.53298211124 151 156 150
-972.403384850364 339.025184210391 2215.09047758354 164 169 163
-966.643854007454 340.040158117234 2206.61507515108 173 175 172
-959.89020661781 341.232861739719 2198.0758618012 172 174 173
-955.127252467344 342.067860465317 2189.56570826129 167 168 172
-950.365210738133 342.90195293359 2181.02824585685 174 175 177
-951.572451552265 342.664692587129 2172.69850269446 181 184 177
-732.193209604756 373.503421536215 2566.60072590758 156 158 155
-746.391419303396 370.994572279409 2556.54326157208 182 183 185
-762.583527509469 368.132803447439 2546.40404695766 187 188 190
-786.755717535473 363.859818331761 2535.74427934151 188 189 191
-798.951974300681 361.703509032185 2526.09227733887 190 191 193
-811.146573385573 359.547100882839 2516.5049570882 189 191 190
-815.358652263517 358.801330929989 2507.52354495717 189 191 190
-825.555354962623 356.997166152369 2498.17349986576 188 190 189
-834.75329577761 355.369026877988 2488.93936988236 192 194 191
-847.939470108199 353.035445541558 2479.51578095463 193 195 194
-857.134408279166 351.406998439333 2470.38934939119 178 180 179
-859.347670800793 351.012213169033 2461.68914135943 188 190 189
-861.560663243222 350.617019649108 2452.99905061138 193 194 196
-870.752838967469 348.98759744591 2443.97953804703 196 197 199
-880.940967708046 347.181694023749 2434.96272613417 197 198 200
-898.106663715291 344.141865838878 2425.69862777831 195 196 198
-904.303764717554 343.040500991795 2416.97018783007 193 194 196
-918.475004689808 340.529105622398 2407.9733847987 194 195 197
-925.6668045458 339.250963250111 2399.29634437022 194 195 197
-935.84770856559 337.443982301762 2390.56074260892 192 193 195
-935.064530510953 337.574557045345 2382.20209331178 189 190 192
-938.267387765287 337.000038011124 2373.73094777307 182 183 185
-942.466706241174 336.248869314443 2365.25178439182 180 182 181
-950.650805297725 334.792910874815 2356.70949034706 170 175 171
-951.859459749947 334.569408663757 2348.33926973721 158 163 159
-954.064404143779 334.169245506065 2339.958388594 166 171 167
-953.280455082947 334.296904522879 2331.62674220701 162 167 163
-952.496401143581 334.423934387082 2323.28919451261 156 161 157
-950.716734871724 334.726448214217 2314.95320986183 160 165 161
-949.933021165576 334.852397184342 2306.60120409382 159 164 160
-953.133303115823 334.273729100614 2298.23558021859 157 162 158
-957.329174462839 333.518586575224 2289.88687578392 159 164 160
-960.528537055809 332.93908290768 2281.55628639036 133 138 134
-961.735959750719 332.71107709201 2273.22937149951 139 144 140
-966.925743642338 331.778772459349 2264.94373575812 168 174 172
-969.128326040892 331.373866427111 2256.65007703936 180 186 182
-973.321476574271 330.616690518756 2248.39620334877 128 133 129
-974.527743628322 330.386801672272 2240.11243305261 138 143 137
-978.720202186416 329.628726509263 2231.89396339112 150 155 149
-978.930736440851 329.573726632752 2223.60650076533 156 161 155
-970.184186882123 331.100568700094 2215.08993160898 168 173 167
-965.419437500312 331.923321328929 2206.63679301352 158 160 157
-960.655608009585 332.74537577843 2198.15627702487 160 162 161
-961.862346303843 332.51209043621 2189.8504421334 163 164 166
-957.099455157367 333.332694690783 2181.33169529317 175 177 176
-952.337005994714 334.152644240522 2172.78564643416 165 168 161
-725.958081730585 365.64023491402 2567.18061801082 164 169 165
-738.161886362879 363.516607167881 2557.2687101502 172 176 177
-759.345364615597 359.829734373802 2546.71366402327 182 186 187
-786.513229977575 355.101035012934 2535.81702617649 180 184 185
-800.706102274666 352.629945123337 2526.01803387196 188 192 193
-811.903570570128 350.679651055217 2516.50586190789 186 190 191
-815.118293816588 350.118204973748 2507.5943138089 189 193 194
-823.32046981533 348.688313738504 2498.37349919779 179 183 184
-831.521780936595 347.258109451534 2489.19547565195 196 200 199
-845.706538536277 344.786212117658 2479.70344207331 189 193 194
-855.899855220863 343.008456889382 2470.51409069925 178 182 183
-858.11334439064 342.618922964751 2461.8106629632 184 188 189
-857.334560510934 342.749681417807 2453.27114655233 196 200 203
-863.536382700835 341.665122254757 2444.38555567352 199 203 206
-876.717110390915 339.365671341332 2435.21148694473 191 195 196
-895.878312089066 336.02507552572 2425.84949596525 190 194 195
-905.06718153413 334.419367661079 2416.99399166355 189 193 194
-915.251629891358 332.639952157622 2408.14946256861 193 197 198
-922.44417574537 331.38072724661 2399.46357806618 191 195 196
-929.635749896814 330.121220859031 2390.81536883844 184 188 187
-931.843017133326 329.728511856635 2382.35170665437 181 185 184
-935.046556515012 329.161940666591 2373.87175978695 176 180 179
-940.242638419933 328.248215752674 2365.35992533918 176 180 179
-945.438259854437 327.334040112839 2356.87492850393 169 171 168
-948.640028626336 326.766352939984 2348.45366015607 162 164 161
-953.834393834853 325.851461409894 2340.01699231636 162 164 161
-953.050378560473 325.976227130752 2331.68482718585 160 162 159
-951.270129113217 326.273767722345 2323.35697038437 158 160 157
-948.494093046591 326.744050926488 2315.0252201224 158 160 157
-947.710691439402 326.867092776395 2306.66721979233 153 155 152
-951.907272453827 326.123228091027 2298.29356358465 159 161 158
-953.115495139803 325.89879049507 2289.93921355115 162 164 161
-958.307176434403 324.980772280093 2281.60408517151 134 136 133
-959.514826062678 324.755406905518 2273.2711360409 145 150 146
-967.69254768749 323.31710825152 2265.00638062712 172 176 175
-969.894984712483 322.917615762047 2256.71489146778 171 175 174
-972.097371775732 322.517683295663 2248.4342073614 110 114 113
-970.317253775559 322.809907215971 2240.09550452041 164 169 165
-973.514704216037 322.235864189396 2231.845511886 144 149 145
-973.725598518743 322.18070843874 2223.54380996086 163 168 164
-967.96464740614 323.163590156162 2215.08945846671 168 173 169
-964.195068168934 323.799566655152 2206.65856397934 155 159 158
-963.41152867085 323.91568300583 2198.29851683542 157 161 160
-966.608419097553 323.339088213644 2190.06767158999 168 172 171
-960.849634721553 324.3192924174 2181.52576161544 160 164 163
-953.101673165143 325.644707196917 2172.87279877439 178 180 175
-940.380763503166 327.834102254709 2163.96674135376 173 175 170
-724.712927584724 356.887972513344 2567.33988833794 165 170 166
-736.917710989685 354.79676456237 2557.42453653002 170 174 175
-761.096935153391 350.654248762599 2546.62993834791 184 188 189
-788.266703554954 345.998956217557 2535.73774170694 177 181 182
-800.464644326273 343.907739389384 2526.08981419431 183 187 188
-812.660689033922 341.816370273057 2516.50650311472 184 188 189
-818.868818922561 340.750148174015 2507.39407444522 188 192 193
-822.083087925531 340.196265387193 2498.50840063865 178 182 183
-830.285079056511 338.787666977154 2489.3269986841 193 197 198
-843.473271589874 336.524674046323 2479.89099900575 189 193 194
-852.670096930122 334.944756953867 2470.75224290436 179 183 184
-852.889072264972 334.902094450495 2462.14812053548 182 186 187
-855.102798883961 334.517388862639 2453.44059675784 191 195 198
-861.305221732982 333.449024977951 2444.54891928238 186 190 191
-873.489726353386 331.355626542069 2435.41445586237 188 192 193
-894.646903473278 327.725118390727 2425.95719391898 188 192 193
-907.824660413813 325.460789271529 2416.9369434513 186 190 191
-916.015618786948 324.050059621217 2408.17512674303 191 195 196
-922.211797971655 322.980507072812 2399.52619700269 189 193 194
-929.403907995319 321.739914068927 2390.87735176698 182 186 185
-932.608030683365 321.181860338744 2382.38375265871 178 182 181
-933.81824890587 320.964783979147 2373.95931407339 174 178 177
-937.021675595517 320.405805191133 2365.49192373776 173 177 176
-944.210865666915 319.163888894914 2356.95577950252 168 170 167
-950.402663087962 318.092291877558 2348.47590907198 160 162 159
-950.615069321539 318.044055931882 2340.12254560439 155 157 154
-948.834682861801 318.336561390437 2331.79463738728 153 155 152
-947.054809477367 318.628446966072 2323.45533561559 152 154 151
-948.263623505895 318.408113290394 2315.08228034015 154 156 153
-948.476225263441 318.357814652525 2306.71906035852 151 153 150
-949.684818521397 318.136429399845 2298.35350445944 148 150 147
-950.893504745404 317.914566118808 2289.99312664321 147 149 146
-954.093759840639 317.351150023151 2281.64492876506 118 120 117
-955.301775451823 317.128388070726 2273.30047110874 146 148 145
-966.467547843683 315.200366744987 2265.05099961348 165 169 168
-966.678919882704 315.147214483575 2256.7327772906 143 147 146
-969.877259559392 314.582237669646 2248.45776482552 116 120 119
-967.101631785284 315.039328021971 2240.09589160935 141 145 144
-972.290648582454 314.132552515174 2231.87697257374 154 158 157
-974.492367729571 313.736612211978 2223.61735463271 170 174 173
-970.721749422041 314.362422026492 2215.21615441035 154 158 157
-966.951673573971 314.987547251418 2206.79301793355 156 160 159
-962.186976537593 315.782283922665 2198.3170769079 165 169 168
-964.388846551743 315.384202787649 2190.04926390027 161 165 164
-958.629760623841 316.347922015516 2181.5014393212 162 166 165
-949.886632840226 317.821693419891 2172.80347693748 180 182 179
-938.159614257615 319.805423036687 2163.93072246141 165 167 162
-729.456805875585 347.119478477798 2566.9941685341 160 165 161
-739.665729125401 345.397377320281 2557.2546155816 168 172 173
-767.839129881923 340.647135623841 2546.15252729055 184 188 189
-790.020448071953 336.906408338219 2535.65810154201 174 178 179
-804.214927228409 334.511298041874 2525.86856385431 182 186 187
-811.422293027119 333.293382002955 2516.64781885931 184 188 189
-821.622170347477 331.570628157777 2507.26111136112 187 191 192
-825.834138584717 330.856667747194 2498.31817808864 178 182 183
-835.034066530232 329.301612805991 2489.0848564886 192 196 197
-846.227825142461 327.41010470552 2479.78079164082 188 192 193
-852.432491738304 326.358969129196 2470.81991919749 179 183 184
-856.641299070376 325.643779584323 2461.99920529926 182 186 187
-860.84979494197 324.928069633321 2453.19943037169 187 191 194
-871.041528346083 323.203732739829 2444.12931557709 179 183 184
-879.237259889238 321.815229793595 2435.20481217223 188 192 193
-894.412427598831 319.250252922374 2426.02166553201 190 194 195
-905.596838692768 317.357302149558 2417.08138505026 186 190 191
-914.7857656759 315.800224406043 2408.27584724023 190 194 195
-922.976294697226 314.410885814351 2399.5537791593 188 192 193
-931.165950649633 313.021296370777 2390.87488907897 181 185 184
-935.366938142078 312.303327146762 2382.35681699743 177 181 180
-934.583630005258 312.424723597868 2373.99339681901 173 177 176
-940.777116635684 311.370115533984 2365.45642287579 172 176 175
-948.963363654206 309.979272959848 2356.90942022582 169 171 168
-954.15854522257 309.091896027558 2348.46106448307 160 162 159
-947.395256992186 310.218924657237 2340.22813183787 152 154 151
-943.622234471969 310.841533322437 2331.9174594284 151 153 150
-941.842330779212 311.127818321187 2323.56400395461 149 151 148
-946.040690764626 310.40640416464 2315.154249835 148 150 147
-948.245728437758 310.020323785191 2306.77551922805 146 148 145
-953.439177451755 309.130344001387 2298.40140775861 141 143 140
-950.663181161679 309.582400834441 2290.04853281771 137 139 136
-954.859609739604 308.859403342088 2281.70323994123 106 108 105
-956.067642508434 308.639307669499 2273.36097455062 136 138 135
-964.246802692849 307.244469945455 2265.08666024347 138 142 141
-965.454051247407 307.023532719661 2256.77414106825 121 125 124
-967.657043871947 306.634392512112 2248.48137742516 123 127 126
-967.868335731689 306.580121234771 2240.16508727315 126 130 129
-969.075134810993 306.357773186325 2231.86862031523 167 171 170
-971.277464197343 305.967189037327 2223.60022792509 158 162 161
-967.506527714427 306.582013179882 2215.19034274233 148 152 151
-964.731678543307 307.028512950418 2206.78666767306 156 160 159
-958.971518491326 307.977120119277 2198.27392220711 162 166 165
-961.173762915785 307.584491067634 2189.99732997478 157 161 160
-957.404882671809 308.196693988389 2181.51359017322 161 165 164
-951.64624659742 309.143308061519 2172.92981756272 175 177 174
-937.928276658684 311.429263663222 2163.97852239833 168 170 165
-720.225356022546 339.693959338812 2567.82615147748 152 157 153
-739.419659743177 336.509306248205 2557.32853328736 159 163 164
-770.589716764875 331.338800489596 2545.98930033058 181 185 186
-792.772492379173 327.657944321579 2535.50219838781 168 172 173
-807.965786351119 325.13540986003 2525.64686122446 183 187 188
-815.173405051039 323.936332492118 2516.43645948813 186 190 191
-824.375944217393 322.406150484587 2507.12778897245 182 186 187
-825.594518910556 322.19912329026 2498.38754058507 177 181 182
-835.792813653437 320.50304910628 2489.09133226246 191 195 196
-846.987576799929 318.641339978582 2479.78932736597 185 189 190
-852.194850824303 317.771750357605 2470.88745519672 180 184 185
-853.411548865871 317.563299036484 2462.22834852535 183 187 188
-862.607577767073 316.031612353426 2453.16318133168 177 181 182
-874.794837619152 314.003678272479 2444.00064928383 171 175 176
-888.974960237469 311.645010448395 2434.81134396039 189 193 194
-900.161556937305 309.782144403964 2425.82726988128 187 191 192
-910.349264954488 308.084417288472 2416.94305268281 188 192 193
-919.53829296766 306.551863574298 2408.15057349454 189 193 192
-927.729323734669 305.184265211789 2399.44156322612 187 191 190
-934.922091078747 303.981729344859 2390.80789045412 180 184 183
-936.132334564965 303.770258040446 2382.38848275198 176 180 179
-937.342442424562 303.558402710354 2373.9739634708 172 176 175
-942.539712338178 302.685201342432 2365.46853337868 171 175 174
-952.719706575069 300.985746654669 2356.88394250195 172 174 171
-953.928492891849 300.772742680652 2348.51984036677 164 166 163
-946.168186036216 302.045593269559 2340.30225999453 151 153 150
-941.398274305052 302.822275204289 2332.00141673207 150 152 149
-941.611323322383 302.772727769351 2323.6215228725 145 147 144
-945.809996136601 302.062153795832 2315.21118167319 145 147 144
-946.022758112721 302.011632446071 2306.84146066379 139 141 138
-952.212646537832 300.970166193831 2298.45922771429 138 140 137
-951.428900853223 301.083816637162 2290.10459135268 135 137 134
-953.633553203718 300.701736944484 2281.75454090676 107 109 106
-951.853684899487 300.979369778714 2273.3904122989 105 107 104
-958.041761609625 299.936312064078 2265.08660344519 104 108 107
-961.241354345032 299.387957031665 2256.78046429337 119 123 122
-967.427949956841 298.344273303717 2248.53386972828 107 111 110
-966.643356549336 298.455001570203 2240.19990291747 134 138 137
-966.854718045608 298.400141572668 2231.88025900622 149 153 152
-969.057352010073 298.015028098362 2223.60583663737 144 148 147
-967.277408719174 298.289079753223 2215.24079357365 148 152 151
-964.502345490373 298.727353883212 2206.83665256082 153 157 156
-955.75557052436 300.154231079576 2198.23088331084 157 161 160
-956.962943736666 299.93182020916 2189.91190979287 155 159 158
-956.17981228968 300.038524972394 2181.52580916075 148 152 151
-952.411015645167 300.639155104897 2173.01705124559 161 163 160
-942.67231181172 302.227817853095 2164.2355245893 175 177 174
-935.920114911305 303.321283939998 2155.5330674729 168 170 167
-682.806874318352 336.816328639912 2580.06637698064 191 196 192
-710.992276718583 332.217980987571 2568.65831500354 146 151 147
-735.180343687999 328.270903757991 2557.72795622568 155 159 160
-768.349376638875 322.859265713124 2546.21923355203 178 182 183
-790.53395853099 319.238187787972 2535.72572128816 165 169 170
-804.730493301719 316.919054516369 2525.93742135122 186 190 191
-813.935023488455 315.413370386079 2516.57723879559 187 191 192
-823.13831598125 313.907475593694 2507.26520341399 179 183 184
-829.346650175064 312.889484427903 2498.19657645202 177 181 182
-837.549674045603 311.545824905466 2489.03521304577 191 195 196
-850.740509635444 309.388658994878 2479.61886725629 184 188 189
-855.947888546721 308.532605755147 2470.72743006716 180 184 185
-856.166603686725 308.489382323031 2462.13287473214 184 188 189
-865.363345621353 306.982020456512 2453.07528262491 175 179 180
-879.54612781878 304.66153692068 2443.82303108445 173 177 178
-898.714139301072 301.528024447563 2434.41724029457 191 195 196
-908.903369343595 299.857740964451 2425.50300393204 186 190 191
-913.107538059884 299.162692351611 2416.88520898925 189 193 192
-918.308522944551 298.304677086441 2408.25089062663 188 192 191
-929.491417567799 296.471218795239 2399.43375751756 186 190 189
-931.69938802697 296.100169508877 2390.96586749077 179 183 182
-930.916083354899 296.216283361236 2382.59663985031 175 180 176
-931.129771488631 296.169416680163 2374.19464549482 171 176 172
-939.318191521067 294.822262771967 2365.60029866982 170 175 171
-948.502447375305 293.3124032076 2357.02802400284 172 174 171
-950.708238113575 292.939446569708 2348.63395226443 165 167 164
-944.94092969768 293.865469064384 2340.37633993984 151 153 150
-940.170718815981 294.628336231604 2332.07235528318 150 152 149
-938.390741704651 294.903417214263 2323.70973925199 143 145 142
-941.593335657387 294.366086925086 2315.29813965037 142 144 141
-940.8100912926 294.477713302763 2306.92173668762 131 133 130
-946.004806195713 293.614825208747 2298.52723885622 131 133 130
-946.217566598111 293.56316391602 2290.15635537034 129 131 128
-949.418577618541 293.024157517027 2281.79549778098 108 110 107
-946.643069085565 293.458405749984 2273.41376288794 86 88 85
-948.847699586532 293.080716400146 2265.05995562107 97 101 100
-953.044034865289 292.378150223423 2256.74024677245 119 123 122
-957.240040058773 291.675158627594 2248.44230680576 105 109 108
-960.439501977207 291.134010698764 2240.14901886717 143 147 146
-963.638296491038 290.592473406345 2231.87207255565 137 141 140
-966.836900967447 290.050593448195 2223.61151042505 151 155 154
-967.048250283109 289.994716369648 2215.29125051098 150 154 153
-964.272974459431 290.4248244887 2206.88665040874 150 154 153
-956.520921020363 291.664958096712 2198.3113689514 156 160 159
-953.746800046214 292.093768447643 2189.86023988552 151 155 154
-952.963815614451 292.197703204501 2181.46541916971 141 145 144
-953.176134659417 292.139077165874 2173.1043072535 164 166 163
-944.43173030088 293.538407830769 2164.36698431893 174 176 173
-938.673920700666 294.450801081568 2155.7141665512 169 171 168
-670.574281162033 329.693940584785 2581.18510521192 197 202 198
-697.764009036149 325.331598925266 2569.8273713387 136 141 137
-724.949996995504 320.969502699372 2558.6160698179 148 152 153
-760.118962450429 315.327578089621 2546.92144125626 179 183 184
-790.291691099034 310.486158027442 2535.79711628952 165 169 170
-806.485746545007 307.884923639397 2525.86153861445 192 196 197
-816.68886445493 306.243623183068 2516.43563602565 191 195 196
-822.898478135598 305.242006686673 2507.33458414391 170 174 175
-827.111225887073 304.560068976652 2498.39556826432 171 175 176
-835.314998696264 303.238026989825 2489.22814498591 194 198 199
-848.506961689824 301.116122218949 2479.80559704963 182 186 187
-854.712794011219 300.113471780328 2470.8512236201 174 178 179
-858.922315154436 299.430382447098 2462.03707824453 184 188 189
-867.121982025782 298.107359785294 2453.03840105583 172 176 177
-876.318027594753 296.624250949869 2444.03406636773 175 179 180
-894.490038333513 293.702313536325 2434.66512133391 190 194 193
-904.680309127585 292.059091652455 2425.73926545657 185 189 188
-913.871917734073 290.575513538856 2416.907838758 187 191 190
-919.072980203738 289.73107506828 2408.27574103301 189 193 192
-929.259507845621 288.08731923229 2399.49560719354 183 187 186
-929.473267256371 288.041183813361 2391.09161225821 177 182 178
-931.681260186501 287.674990087577 2382.62805751553 177 182 178
-933.888977806612 287.308419514286 2374.17485821227 169 174 170
-939.08699308775 286.46230150147 2365.66005180783 163 168 164
-944.284548787817 285.615792545016 2357.17211244685 167 169 166
-947.487495897628 285.0884245614 2348.74808221151 161 163 160
-946.703431393262 285.199399007359 2340.40303315061 151 153 150
-941.932950753683 285.948500465677 2332.10413579661 146 148 145
-938.159436922292 286.537392323411 2323.76713823047 139 141 138
-939.369387512971 286.327376298977 2315.37006525642 138 140 137
-936.593241316191 286.755465421772 2306.99731450748 135 137 134
-938.799245526623 286.38488272301 2298.5974484905 134 136 133
-937.020044830758 286.652251485344 2290.2055314533 125 127 124
-939.225759361152 286.280785602864 2281.81603884106 117 119 116
-937.446821891268 286.547003944065 2273.41259878706 77 79 76
-935.667920257941 286.81279574649 2264.99797534356 82 87 83
-940.861662226716 285.961270199389 2256.65370338426 96 101 97
-951.034345991836 284.311897044729 2248.40860476237 111 116 112
-958.217952898158 283.14090918589 2240.16682745275 129 134 130
-962.413107448212 282.448080343477 2231.90372077177 152 157 153
-963.620433978992 282.233184282166 2223.5946405528 157 162 158
-967.814894847752 281.539516658337 2215.36706950922 143 148 144
-965.039336591092 281.961477359342 2206.96475979632 144 149 145
-958.282087085239 283.020397202162 2198.42268290738 145 150 146
-952.521190034588 283.919117819742 2189.87585277771 146 151 147
-951.737977361214 284.020415619077 2181.47779638458 160 165 161
-952.945871411261 283.80239438977 2173.15250477021 152 154 153
-946.191411216424 284.858530990946 2164.49842351353 169 171 168
-939.437907349807 285.913902828417 2155.80614449274 175 177 174
-672.32004675913 320.302044372013 2581.08656690354 189 194 190
-695.517579594005 316.642418244772 2570.07019450425 140 145 141
-717.713534486313 313.14027121134 2559.25988482636 146 150 151
-751.887070807943 307.750822511921 2547.62367769603 169 173 174
-780.066113404756 303.305446033806 2536.62842753359 159 163 164
-796.262078097764 300.747547265325 2526.66476032105 192 196 197
-811.457475603444 298.346981672226 2516.85817054959 189 193 194
-819.664228553655 297.046920380952 2507.60719900255 173 177 178
-828.867856796747 295.589461603582 2498.33404819878 177 181 182
-835.076045500102 294.603502460007 2489.29617623814 194 198 199
-847.271156161736 292.674040187115 2479.93253879963 180 184 185
-855.473054826306 291.373173713378 2470.86110022047 178 182 183
-862.676387753044 290.229281358797 2461.88677955216 186 190 191
-864.889893408312 289.870896067087 2453.20682772085 173 177 178
-870.096287495381 289.040760023849 2444.39103355117 178 182 183
-886.275100760267 286.481905701098 2435.09667756489 191 195 194
-900.456611926661 284.237234504298 2425.9755037711 185 189 188
-909.64918607614 282.778037155383 2417.13251849501 186 190 189
-916.845712297619 281.632809074642 2408.41346845983 189 193 192
-927.033140184613 280.016092225656 2399.62718230457 185 189 188
-930.238710646181 279.498646067581 2391.12060047516 176 181 177
-931.449482544624 279.294836561194 2382.68876724136 175 180 176
-932.660120017851 279.090672718806 2374.26180735195 167 172 168
-936.861655684991 278.414991022889 2365.76771579511 163 168 164
-943.056600126035 277.424992343361 2357.2524629319 169 171 168
-945.26329727646 277.062624695865 2348.84365989713 164 166 163
-943.482341981375 277.32764282241 2340.5084699558 152 154 151
-938.711702508516 278.062952175821 2332.2009714566 147 149 146
-936.931512238643 278.326896354669 2323.83472855747 138 140 137
-937.144864551663 278.276427907099 2315.4419919393 138 140 137
-937.358213911952 278.225480093235 2307.04885601744 134 136 133
-936.575182784868 278.330897748422 2298.65745253853 131 133 130
-931.80658654493 279.063265508395 2290.25761417394 124 126 123
-930.027864766079 279.32438482637 2281.84026922874 116 118 115
-931.237915962067 279.114555219892 2273.43013962368 79 81 78
-929.459290906587 279.374661608321 2264.99860200011 96 101 97
-934.653840313001 278.536665460615 2256.63729940787 84 89 85
-941.839599766892 277.384850799551 2248.3319797855 114 119 115
-954.004288557404 275.448993094103 2240.15046753472 128 133 129
-960.191909642896 274.453501738126 2231.91553916305 137 142 138
-961.399463688964 274.241305982035 2223.60046623827 129 134 130
-965.594142615129 273.558626945457 2215.36684666634 141 146 142
-962.818507349536 273.97226550059 2206.95861105006 143 148 144
-960.043277916952 274.385375878082 2198.53394695736 142 147 143
-953.28633219008 275.424408560048 2189.95864403185 159 164 160
-951.507586231423 275.679595564782 2181.52654966791 160 165 161
-951.720002668101 275.621033626284 2173.161700172 145 147 146
-945.960596739328 276.501468452838 2164.54628274795 159 161 158
-940.201769649306 277.381182130356 2155.89814319779 177 179 176
-927.477427153987 279.355905816541 2146.88643042245 174 176 173
-675.06493313364 310.765053821564 2580.90062298559 165 170 166
-686.280793838599 309.023017688669 2570.9025480632 119 124 120
-709.4775102185 305.42596871712 2559.9852760829 143 147 148
-742.655776306986 300.283578784104 2548.40478829189 158 162 163
-770.837327136471 295.914332051835 2537.38392517715 159 163 164
-792.026920736796 292.627085396502 2527.02828263894 196 200 201
-810.218549801956 289.803547914662 2516.99823971599 187 191 192
-820.422225967769 288.21611597903 2507.60835842183 173 177 178
-827.630123943088 287.091988071589 2498.46751659369 182 186 187
-835.835283761553 285.81314751788 2489.30159534785 187 191 192
-844.039102399974 284.534096978777 2480.17854180984 177 181 182
-853.239902067586 283.100378544548 2471.04143208664 181 185 186
-859.44589532147 282.129765442929 2462.11516808296 177 181 182
-861.659766551553 281.77662452018 2453.42655932091 169 173 172
-864.871242358165 281.268649696258 2444.69934573906 178 182 181
-882.049183937261 278.598822994084 2435.34460232165 193 197 196
-902.217493890918 275.465962139211 2425.9525435571 188 192 191
-912.408042524761 273.876833478413 2417.0739098758 190 194 193
-921.599845637848 272.441849021017 2408.28705731105 182 187 183
-927.798301203763 271.469701542537 2399.65374476949 181 186 182
-932.998709287549 270.651662477337 2391.08489314812 176 181 177
-935.206503595941 270.296208156354 2382.63130758852 172 177 173
-936.416943834659 270.094617623472 2374.21481932852 167 172 168
-941.615757573667 269.275502541992 2365.70712488079 166 171 167
-945.816699446013 268.610362226663 2357.24755940415 165 167 164
-946.029369693353 268.561845926338 2348.88357634088 161 163 160
-944.248441229176 268.821302012398 2340.55069045227 153 155 152
-941.470821334276 269.234388589444 2332.21942835287 148 150 147
-941.683837952627 269.184399637167 2323.84032669036 141 143 140
-937.910014179092 269.750656800188 2315.49113934499 136 138 135
-937.126781820174 269.853757276572 2307.10511269513 133 135 132
-934.350545415404 270.264674957698 2298.71745021539 132 134 131
-931.574721059213 270.674972777848 2290.31301789078 127 129 126
-926.806685715497 271.392903542289 2281.88508121308 116 118 115
-925.028067237472 271.647936569953 2273.44783913575 83 85 82
-922.253547398143 272.056476642934 2264.99053443951 108 113 109
-926.452871485369 271.386062083085 2256.59785932034 78 83 79
-934.635759976262 270.09910946833 2248.28434381353 124 129 125
-946.801855765937 268.195947675788 2240.08294751451 125 130 126
-950.998403073314 267.524685004232 2231.78856314584 110 115 111
-954.198558250267 267.007090044223 2223.49346962671 122 127 123
-956.402291265648 266.64311390714 2215.18946339727 140 145 141
-956.614361697151 266.586564694641 2206.84029809236 142 147 143
-953.839336202203 266.991368158862 2198.39874408675 139 144 140
-949.073621470178 267.703339415051 2189.87371100413 146 151 147
-949.286204862282 267.645183171137 2181.50277191542 138 143 139
-949.498774669844 267.586640419994 2173.13194875594 135 137 136
-947.720413801761 267.835242845342 2164.67773370415 147 149 148
-942.956513561056 268.54481042273 2156.07920312985 173 175 172
-932.221391733902 270.176565805102 2147.16992635963 167 169 166
-679.807856595751 300.93946265179 2580.54023948001 193 198 194
-687.029258215301 299.834576938201 2570.8922892419 100 105 101
-701.24001007642 297.666627857646 2560.71066610241 132 136 137
-734.421329914256 292.61399367493 2549.10720001996 153 157 158
-755.616464164799 289.383430399532 2538.59587192509 161 165 166
-780.802045248605 285.545990418536 2527.90508786476 193 197 198
-804.986129705471 281.860452985483 2517.42052555222 184 188 189
-822.178781927257 279.237636054859 2507.54131473014 172 176 177
-834.377958201684 277.373625651488 2498.07973144796 181 185 186
-843.581297824695 275.96473910477 2488.87001403719 186 190 191
-847.792969598816 275.314297756137 2480.00686944708 179 183 184
-855.996254648541 274.056692900725 2470.9370219155 180 184 185
-862.202497238883 273.102278580985 2462.01840598369 168 172 173
-859.427172497504 273.512863522798 2453.59475527058 168 172 171
-859.64564780444 273.467843350544 2445.00764424153 179 183 182
-874.829708355663 271.147540493697 2435.73032186816 191 195 194
-902.981312604416 266.855885355254 2425.97251153498 187 191 190
-916.165297648393 264.838977191961 2416.97450677622 188 193 189
-925.357271477189 263.428528221123 2408.19800157774 186 191 187
-929.561183065732 262.775858357429 2399.6450839032 186 191 187
-933.764304195831 262.122921919153 2391.11344906745 180 185 181
-935.972186736685 261.772785803559 2382.66212535695 173 178 174
-938.180031262612 261.422176520946 2374.2211041394 163 168 162
-940.387601367866 261.071250173106 2365.79046779222 161 166 160
-943.591908177717 260.568394959269 2357.34894048157 170 172 169
-945.798616009165 260.216741003747 2348.94189874444 165 167 164
-944.017542897035 260.470533789533 2340.60858538327 154 156 153
-940.242662627698 261.026838973909 2332.29000388557 148 150 147
-935.471839872709 261.733958159579 2323.95940025595 139 141 138
-932.695043623963 262.137552515475 2315.58575519559 137 139 136
-929.918663851048 262.540645869833 2307.19529488011 136 138 135
-927.142697072628 262.943119111385 2298.7880274797 129 131 128
-926.360297032038 263.042276819892 2290.36523750579 128 130 127
-925.578029171987 263.140859166734 2281.93666367946 123 125 122
-922.803021906849 263.541696520413 2273.49013868565 108 110 107
-924.013655811119 263.336603332919 2265.06232042426 95 100 96
-925.224141309177 263.131039493465 2256.63979704192 97 102 98
-933.407954805733 261.865954500238 2248.32293366545 116 121 117
-940.594366698379 260.751958199569 2240.0327209191 110 115 111
-944.791646121236 260.091514113571 2231.72133910529 105 110 106
-949.984257257108 259.279515210318 2223.45437989099 141 146 142
-952.188669084666 258.920876971363 2215.13889954226 133 138 134
-955.388549468343 258.410617474101 2206.86242215121 143 148 144
-950.621758704451 259.109554106947 2198.35612375869 146 151 147
-943.864409294144 260.110222050379 2189.75540507874 136 141 137
-943.081802854501 260.203162717543 2181.33400651463 141 146 142
-944.290283186646 259.993331186379 2172.98526964378 140 142 141
-947.489671033336 259.48086207356 2164.72566978944 153 155 154
-939.739140587508 260.6300814912 2155.99324782466 175 177 174
-929.998922032018 262.080683554952 2147.1226828232 165 167 164
-918.269430207276 263.832497803443 2138.09757835638 171 173 168
-672.565414651364 292.929395159452 2581.22358375587 172 177 173
-678.789141777279 291.992352949836 2571.64026443802 125 130 126
-697.994860872375 289.116699798607 2561.02827420533 128 132 133
-726.185883325706 284.899327319378 2549.80962288344 151 155 156
-750.378615978276 281.278621932358 2539.04734599338 164 168 169
-779.560569189911 276.912786904835 2528.04844206706 195 199 200
-804.744885739698 273.143591997698 2517.48968146928 186 190 191
-822.937100580008 270.417879663702 2507.54178153378 172 176 177
-832.142502223615 269.033412072898 2498.27769240905 181 185 186
-841.346426740606 267.648890727645 2489.0619520039 187 191 192
-845.558782825978 267.009097498988 2480.19282007891 181 185 186
-854.760573373928 265.624123953186 2471.05999703825 176 180 181
-862.963433990601 264.38790884688 2462.02970448581 161 165 166
-863.181623650601 264.343144779118 2453.45403251388 172 176 175
-861.404013710709 264.59589866708 2444.9749261078 183 187 186
-872.598204689115 262.912058271563 2435.88626526791 188 192 191
-901.749480398467 258.547791508028 2426.07870349643 183 187 186
-915.932339839392 256.417334591867 2417.03679374958 183 188 184
-926.122746704998 254.882410865733 2408.22190194625 181 186 182
-927.334104936731 254.687118013352 2399.77629730347 181 186 182
-930.540305982038 254.193751671827 2391.27092512949 178 183 179
-935.740690203479 253.402310533548 2382.7222401484 175 180 176
-937.948693470576 253.057060703948 2374.28076934392 169 174 168
-942.150741252364 252.413863021791 2365.80154140472 168 173 167
-942.363634688871 252.365437349782 2357.42893264536 164 166 163
-945.567828248871 251.870264715054 2349.000080493 160 162 159
-940.795522277676 252.564754641405 2340.71388576487 152 154 151
-937.020557059334 253.109948907993 2332.38669432074 148 150 147
-930.255713466366 254.100698234847 2324.06822441389 143 145 142
-929.472769425302 254.19850029553 2315.6652402728 141 143 140
-925.69970762377 254.741864264034 2307.27101626109 139 141 138
-923.920404982581 254.987326339902 2298.85023709935 123 125 122
-923.138146706922 255.083565392188 2290.41877263254 122 124 121
-924.348949695329 254.882088351688 2281.98822871748 125 127 124
-917.587983523593 255.869074531927 2273.51417517973 122 124 121
-911.824311001105 256.706804466967 2265.01033300661 74 79 75
-913.035956741805 256.503689478887 2256.55441749878 104 109 105
-923.213589551992 254.963073683869 2248.23266832779 118 123 119
-930.401238420435 253.868014179843 2239.91444315597 112 117 113
-933.603482892492 253.366818371427 2231.5553008924 104 109 105
-939.793225061523 252.419771011622 2223.28016387203 129 134 130
-944.986451314317 251.620929440388 2215.01261587555 135 140 136
-949.182894973677 250.970310906292 2206.74444851534 139 144 140
-945.412161528762 251.507023085557 2198.25208208216 132 137 133
-941.641969088962 252.043051062421 2189.7378366511 133 138 134
-941.855066690336 251.984847949939 2181.34675015891 139 144 140
-944.059263169252 251.629391168762 2173.03377759724 140 142 141
-947.258890821529 251.125170851188 2164.77366223084 156 158 157
-940.503187106189 252.104183929886 2156.08537276461 170 172 169
-928.771459920825 253.824179873127 2147.12279467725 167 169 166
-924.008574689281 254.505001322615 2138.44440386234 164 166 161
-656.331633719946 286.197379999948 2582.6904464752 185 190 186
-674.542858233354 283.519603570465 2572.05105254422 118 123 119
-693.750531733237 280.695493490985 2561.427345171 144 148 149
-720.94508581571 276.700623995892 2550.27554966483 150 154 155
-747.137339290015 272.852472512275 2539.34650673377 164 168 169
-783.311599243597 267.541264616419 2527.82474662266 191 195 196
-807.498872167103 263.98644321399 2517.34659600645 180 184 185
-817.704964338021 262.480114014088 2507.9493707346 172 176 177
-826.911397984441 261.119949475424 2498.67104211052 181 185 186
-835.11838120772 259.905894195495 2489.50341732535 187 191 192
-844.322167316444 258.545417318152 2480.31890349254 173 177 178
-853.524949507885 257.184754434009 2471.1827512934 162 166 167
-862.726491111069 255.823941677372 2462.0949246594 155 159 158
-861.946752354787 255.925151752526 2453.57032614881 176 180 179
-863.162890898093 255.733567826253 2444.94187272901 186 190 189
-874.357540044158 254.079618113358 2435.85807463446 187 191 190
-896.526574856491 250.817661929916 2426.35779337418 182 186 185
-908.715301842857 249.01752968122 2417.38251669878 184 189 185
-917.909136693599 247.655830883268 2408.58562049675 177 182 178
-921.11640010359 247.170704415021 2400.04757477203 173 178 174
-926.31837713172 246.392940567561 2391.46064779747 164 169 165
-932.517039007782 245.468903450452 2382.87092914142 163 168 164
-939.712172313821 244.398469824478 2374.28662759204 165 170 164
-941.919681077927 244.058216323915 2365.86052356259 165 170 164
-941.135416026338 244.155709865651 2357.50883782514 171 173 170
-942.345483452371 243.960670633907 2349.11395465899 164 166 163
-940.564333705556 244.203260259822 2340.77160735656 153 155 152
-934.795159992877 245.029340605987 2332.47026232197 149 151 148
-929.026821418124 245.85480849085 2324.1356195904 145 147 144
-928.243880158755 245.949758906129 2315.72946485382 137 139 136
-925.467341420467 246.33608924781 2307.32721862382 144 146 143
-920.697625899534 247.013837562196 2298.91247948389 136 138 135
-919.915510022662 247.107187799033 2290.47234779163 132 134 131
-921.126606215073 246.90827353745 2282.033096163 121 123 120
-917.354975704598 247.438382369484 2273.56869999384 124 126 123
-908.601423234945 248.697213156165 2265.03805898419 66 71 67
-907.820467517611 248.788453954041 2256.55031928513 77 82 78
-916.006456921476 247.566696742154 2248.18561115966 98 103 99
-919.210135721303 247.073911865579 2239.77944140887 106 111 107
-921.41726332826 246.726464390135 2231.36983477324 104 109 105
-926.612492528175 245.941314092043 2223.03870529935 92 97 93
-937.783138961969 244.281360650555 2214.88657000895 103 108 104
-943.972446062152 243.350090955027 2206.6547026153 133 138 134
-946.177059812672 243.001455284459 2198.33274561706 138 143 139
-944.398290904585 243.235188453607 2189.88783750829 138 143 139
-940.627906382344 243.759837074686 2181.35955626035 139 144 140
-941.836941078876 243.555496611293 2173.00437358273 140 142 141
-944.041145358249 243.205109363071 2164.69653942621 155 157 156
-942.26307912242 243.436824879866 2156.22200205169 152 154 151
-932.521166916453 244.832870382958 2147.35905214494 167 169 166
-928.753231355147 245.35455315227 2138.74119730503 174 176 173
-653.082229833481 277.509040369002 2583.02572662032 200 205 201
-667.299411245328 275.454616133583 2572.71470860048 114 119 115
-689.505570660558 272.251138021431 2561.82625850144 110 114 115
-717.70115137112 268.186083867605 2550.58367759467 136 140 141
-754.881516624847 262.828904205676 2538.80796271314 179 183 184
-792.056509812342 257.472347618771 2527.23355101158 182 186 185
-810.253524029562 254.844418994806 2517.20306741727 176 180 179
-813.470707767312 254.370155739074 2508.28896499875 178 182 181
-821.67974697732 253.177790154706 2499.06427385446 187 191 190
-830.88573447798 251.84175514771 2489.81996579672 190 194 193
-844.08382590727 249.931436485209 2480.38508222941 177 181 180
-852.289145689013 248.738650670835 2471.30530801593 159 163 162
-859.495048550031 247.689207454914 2462.32263283589 158 162 161
-863.705723963656 247.069971185674 2453.53193507648 171 175 176
-871.908083764211 245.876592964395 2444.56721110089 184 188 189
-893.082342769314 242.818083251224 2435.04717298952 189 193 192
-906.270818648713 240.907353578806 2425.98765711129 186 190 189
-912.472910355661 240.000529095974 2417.28237038362 183 187 186
-913.685399370554 239.810516968514 2408.79824085335 179 183 182
-918.888591914823 239.04656400216 2400.17863635778 176 180 179
-925.088375373222 238.138946728403 2391.55338795355 165 170 166
-931.287566397211 237.231123927971 2382.96039804789 161 166 162
-936.488543073805 236.466320431469 2374.42648410348 161 166 162
-938.696419370863 236.13134078808 2365.9916782747 163 168 164
-938.909534623576 236.082555967038 2357.61001454299 160 165 161
-937.128309395606 236.319944030901 2349.26503226887 161 166 162
-938.33867035533 236.127017347432 2340.86094508082 157 162 158
-936.55755664503 236.363448562135 2332.50125213066 154 159 155
-933.779997092949 236.742635185639 2324.14055725383 142 147 143
-931.002615888835 237.121297310725 2315.76300396643 142 147 143
-929.222474443122 237.356209280892 2307.36368030029 144 149 145
-925.449101318594 237.876998941355 2298.9573853164 130 135 131
-921.676281694996 238.397191101248 2290.52881604857 131 136 132
-918.900628738838 238.773622555594 2282.08132172161 133 138 134
-912.138971835486 239.722080341496 2273.59289554577 121 126 122
-900.395435478199 241.385564422717 2265.02185793308 79 81 78
-895.628875140461 242.046327613306 2256.46556598592 75 77 74
-899.830974222283 241.418568043515 2248.010234108 80 82 79
-905.028536394196 240.647504444226 2239.59372443054 117 119 116
-911.22182365193 239.73300077511 2231.22430075965 113 115 112
-915.421774936078 239.104405697805 2222.84269036333 93 95 92
-930.578735319775 236.9022897635 2214.7607612203 103 105 102
-939.756955048792 235.558252441399 2206.59312160161 142 144 141
-947.938228711117 234.357073692679 2198.44414134885 140 142 139
-945.163097033652 234.728414796241 2189.97080801812 141 143 140
-942.388367917328 235.099168574178 2181.4811105784 145 147 144
-943.59711403017 234.89766895152 2173.13093223885 143 145 144
-945.801580111615 234.552790640434 2164.82810581108 166 168 167
-948.005752381123 234.207600426627 2156.53642767449 156 158 157
-939.258178907961 235.433569509647 2147.73682240311 162 164 163
-935.489467776106 235.944535290951 2139.13777247067 167 169 168
-929.73033394268 236.74051403005 2130.41171338749 175 175 173
-656.825743078081 267.816466736628 2582.75109390799 158 163 159
-668.046947178952 266.222725557968 2572.70340826337 120 125 121
-683.262039715479 264.065365441443 2562.38820376878 128 132 133
-714.456734785984 259.653816431707 2550.89161502971 129 133 134
-755.63518960135 253.833958630546 2538.80189398487 172 176 177
-792.812913466191 248.57822729091 2527.22901633829 188 192 191
-808.015508376723 246.421820510356 2517.41261076871 179 183 182
-814.228802735746 245.532900191869 2508.28870970257 180 184 183
-821.439709032285 244.502981538631 2499.13144690116 187 191 190
-834.640304665349 242.628037624881 2489.6366730561 179 183 182
-843.845457564111 241.316232432351 2480.45100024042 164 169 165
-850.05470258699 240.426649609954 2471.4846499128 158 163 159
-851.272118751687 240.240604276052 2462.82153432527 161 166 162
-858.4781470319 239.209703565707 2453.85386684297 176 180 181
-871.671770817454 237.334184984674 2444.63095991694 188 192 193
-895.841694739196 233.910802631239 2434.97199751767 187 191 190
-910.028822908264 231.894689044156 2425.87669935947 183 187 186
-911.241593625938 231.70760287186 2417.38470157397 178 182 181
-911.456498311942 231.660802433771 2408.93523126791 173 177 176
-914.664643354985 231.191556364433 2400.37977941864 172 176 175
-922.860833935726 230.018846603634 2391.67836212578 168 172 171
-929.06062283766 229.127159802943 2383.07933067261 165 170 166
-934.261886402015 228.375907388209 2374.53942948038 162 167 163
-936.470296015923 228.046124320798 2366.09868425285 162 167 163
-935.686003975529 228.137806335228 2357.73248857273 161 166 162
-935.899338243803 228.088423034568 2349.3416223529 155 160 156
-940.101858892859 227.476336241528 2340.8866423877 145 150 146
-939.317570367215 227.566696901149 2332.51889056996 146 151 147
-935.54230636569 228.078146842805 2324.1764693387 146 151 147
-930.770628813662 228.729465817322 2315.81936016939 141 146 142
-926.996309246214 229.239797182817 2307.42950135352 134 139 135
-923.222781553319 229.749494460146 2299.01733729017 143 148 144
-919.449806793805 230.258594388004 2290.58292128689 142 147 143
-917.670765265446 230.486281328686 2282.13285136006 126 131 127
-908.915419409762 231.696370810121 2273.62929221771 132 137 133
-899.164530961351 233.046010557376 2265.06733803453 101 103 100
-889.415030888416 234.394920565275 2256.45033779023 70 72 69
-891.624563272596 234.058719776726 2247.94949516808 73 75 72
-899.812570857427 232.880085990663 2239.56153694071 89 91 88
-907.999216887478 231.701337672116 2231.2173452265 95 97 94
-913.196129536886 230.943257925931 2222.84948698829 92 94 91
-923.37323463238 229.483508244789 2214.63519054066 125 127 124
-933.548936014442 228.023742148288 2206.47573845109 132 134 131
-939.738781750761 227.124862512452 2198.24827245458 124 126 123
-938.9560768944 227.207386066382 2189.81953526285 131 133 130
-938.173496074434 227.289396445901 2181.385399292 136 138 135
-942.370198860532 226.670008859064 2173.14063774701 142 144 143
-943.578947799482 226.47087923646 2164.7928936769 178 180 179
-945.783421908589 226.131130416891 2156.49526115323 152 154 153
-937.035322137461 227.332541776651 2147.68985723766 151 153 152
-931.275211654256 228.112815460622 2138.98510613253 157 159 158
-922.529608021096 229.312628846877 2130.08975350543 171 171 169
-655.574276520011 258.835501759272 2582.91151195885 173 178 174
-664.798154632156 257.547877504703 2573.02928135346 122 127 123
-677.01757656044 255.845630184218 2562.95011652355 109 113 114
-700.223713779351 252.623622946373 2552.0673364482 132 136 137
-753.392392804537 245.257666972866 2539.023952325 181 185 186
-792.570727109831 239.82656606957 2527.29763833355 185 189 188
-810.770637032082 237.296474689116 2517.26835544048 175 179 178
-812.989394265297 236.976183812297 2508.42405659928 181 185 184
-815.208124588815 236.655476830981 2499.58968748954 189 193 192
-833.402551259927 234.125377916595 2489.76537616845 176 180 179
-846.602407067881 232.28568209009 2480.33736393299 161 166 162
-853.81019588983 231.274178978727 2471.32171602863 159 164 160
-855.027411726784 231.090677768314 2462.66916162716 163 168 164
-860.237137711159 230.354757997971 2453.81498275773 177 181 182
-870.437103297784 228.928624804592 2444.74331391906 188 192 193
-893.610897128 225.7085961923 2435.12675001331 184 188 187
-910.793317337833 223.316665730064 2425.89534977152 181 185 184
-915.000215387523 222.718178234514 2417.28388770361 175 179 178
-916.212656337304 222.533310532063 2408.80716041184 171 175 174
-917.424964999452 222.348027905476 2400.3351578654 169 173 172
-925.621556043663 221.197028454299 2391.64139993125 164 168 167
-928.8285516326 220.735290688261 2383.13893456817 163 168 164
-934.030199829021 219.997560197699 2374.5985194231 160 165 161
-934.243603217258 219.948788695354 2366.20560865756 159 164 160
-936.452035188984 219.623981256742 2357.76933205609 161 166 162
-936.665305872281 219.574434827065 2349.38077580204 154 159 155
-940.867829720816 218.973273784472 2340.92807723121 142 147 143
-941.08082461048 218.922960512219 2332.54947657126 144 149 145
-933.316430925758 219.974408515857 2324.25389859312 147 152 148
-929.541329375009 220.474204657749 2315.88329048192 145 150 146
-923.773072648599 221.24887150133 2307.50022737622 139 144 140
-922.990175266704 221.334360370204 2299.0728738879 141 146 142
-917.222997984763 222.107842684491 2290.63702570835 147 152 148
-912.4536571173 222.74299463333 2282.1712319045 134 139 135
-901.704357917181 224.203625791123 2273.64164075823 123 128 124
-893.946463935551 225.250465609748 2265.07775916468 118 120 117
-887.186472516158 226.158927442986 2256.48129553251 79 81 78
-888.399819221224 225.965746040582 2247.96024157581 73 75 72
