ply
format ascii 1.0
comment KinectMotionCapture
element vertex 780
property float x
property float y
property float z
property uchar red
property uchar green
property uchar blue
end_header
-682.051956653595 -145.088732242584 2210.00003814697 13 16 9
-675.470292568207 -144.967868924141 2207.99994468689 11 14 7
-671.324789524078 -145.37239074707 2213.99998664856 11 14 7
-676.16194486618 -147.747024893761 2250 11 14 7
-674.847900867462 -148.8087028265 2266.00003242493 17 19 14
-666.364014148712 -148.294389247894 2257.99989700317 16 18 13
-659.67732667923 -148.174196481705 2256.00004196167 14 17 10
-655.897915363312 -148.710891604424 2263.99993896484 14 17 8
-649.204790592194 -148.590862751007 2262.00008392334 14 17 8
-644.511759281158 -148.930713534355 2266.99995994568 15 18 7
-641.48074388504 -149.66493844986 2278.00011634827 17 21 7
-636.158287525177 -149.873644113541 2280.99989891052 16 19 8
-631.371378898621 -150.21388232708 2286.00001335144 17 20 9
-626.556575298309 -150.554195046425 2290.99988937378 18 21 10
-622.797071933746 -151.157543063164 2299.99995231628 21 24 15
-614.698946475983 -150.709390640259 2292.99998283386 22 25 16
-610.087633132935 -151.115700602531 2299.00002479553 23 26 17
-602.81640291214 -150.864750146866 2295.00007629395 23 26 17
-599.725127220154 -151.665642857552 2306.99992179871 24 25 17
-595.281958580017 -152.137964963913 2313.99989128113 25 26 18
-592.072546482086 -152.939155697823 2325.99997520447 25 26 18
-588.797330856323 -153.740480542183 2338.00005912781 28 29 21
-588.196516036987 -155.265331268311 2361.00006103516 19 20 12
-581.063270568848 -155.08046746254 2358.00004005432 26 27 19
-881.488382816315 -142.4850076437 2088.00005912781 107 106 101
-876.243352890015 -142.554968595505 2088.99998664856 77 68 59
-869.327664375305 -142.352283000946 2085.99996566772 66 53 44
-861.602008342743 -142.013430595398 2081.00008964539 72 55 45
-856.784105300903 -142.152547836304 2082.99994468689 85 67 55
-851.957023143768 -142.291963100433 2085.00003814697 83 61 47
-846.714615821838 -142.363429069519 2085.99996566772 56 33 17
-839.855551719666 -142.162188887596 2082.99994468689 88 65 49
-834.615886211395 -142.234206199646 2084.00011062622 89 66 52
-832.554340362549 -142.852514982224 2092.99993515015 99 76 62
-829.260051250458 -143.266379833221 2098.99997711182 61 42 28
-823.580324649811 -143.27098429203 2098.99997711182 31 12 0
-816.73264503479 -143.071070313454 2095.99995613098 63 43 32
-816.093564033508 -143.963575363159 2108.99996757507 60 42 32
-815.385162830353 -144.856378436089 2121.99997901917 64 50 41
-820.330560207367 -146.773517131805 2150.00009536743 35 31 20
-821.336984634399 -148.008316755295 2167.99998283386 24 22 10
-816.604793071747 -148.219406604767 2171.0000038147 16 16 6
-807.002484798431 -147.543162107468 2161.00001335144 25 22 15
-798.937857151031 -147.140175104141 2154.99997138977 24 21 14
-790.538311004639 -146.669119596481 2148.00000190735 25 20 14
-788.753151893616 -147.427350282669 2158.99991989136 25 20 14
-783.282876014709 -147.502988576889 2160.00008583069 24 21 14
-778.52737903595 -147.715389728546 2163.00010681152 22 22 14
-771.970093250275 -147.586569190025 2161.00001335144 21 24 15
-769.323825836182 -148.20921421051 2170.00007629395 21 24 15
-767.332851886749 -148.968711495399 2180.99999427795 20 23 14
-763.886332511902 -149.45524930954 2187.99996376038 19 22 13
-757.284283638 -149.327233433723 2186.00010871887 18 21 12
-747.599840164185 -148.5845297575 2174.99995231628 20 23 14
-743.090391159058 -148.866727948189 2178.99990081787 21 24 15
-738.559484481812 -149.149119853973 2183.00008773804 22 25 16
-730.98623752594 -148.816749453545 2177.99997329712 21 24 15
-725.770652294159 -148.962810635567 2180.0000667572 21 24 15
-721.534729003906 -149.314045906067 2184.99994277954 19 22 13
-719.892144203186 -150.212213397026 2197.99995422363 16 19 12
-713.306725025177 -150.085434317589 2196.00009918213 14 17 10
-711.885988712311 -151.052385568619 2210.00003814697 12 15 8
-707.514643669128 -151.404410600662 2214.99991416931 11 14 7
-705.016493797302 -152.166783809662 2226.0000705719 11 14 7
-697.120189666748 -151.767179369926 2220.00002861023 11 14 7
-691.124022006989 -151.777848601341 2220.00002861023 12 15 8
-681.115508079529 -150.899797677994 2207.00001716614 13 16 9
-673.012316226959 -150.431990623474 2200.00004768372 16 19 12
-669.494688510895 -150.989964604378 2207.99994468689 16 19 12
-671.643137931824 -152.847453951836 2234.99989509583 16 19 12
-674.836575984955 -154.978945851326 2266.00003242493 11 13 8
-673.435270786285 -156.084835529327 2282.00006484985 12 14 9
-663.759589195251 -155.275702476501 2269.99998092651 14 17 10
-655.0173163414 -154.671743512154 2260.99991798401 16 19 10
-650.915086269379 -155.162379145622 2267.99988746643 16 19 10
-645.637333393097 -155.379518866539 2270.99990844727 17 20 9
-639.216065406799 -155.323028564453 2269.99998092651 17 21 7
-635.309815406799 -155.882477760315 2278.00011634827 17 20 9
-630.806982517242 -156.305178999901 2283.99991989136 18 21 10
-627.911925315857 -157.138660550117 2296.0000038147 18 21 10
-620.347917079926 -156.808733940125 2290.99988937378 21 24 15
-614.418745040894 -156.889513134956 2292.00005531311 21 24 15
-607.687175273895 -156.764999032021 2289.99996185303 24 27 18
-604.642748832703 -157.598927617073 2302.00004577637 23 26 17
-599.452912807465 -157.885298132896 2305.99999427795 24 25 17
-595.526814460754 -158.514097332954 2315.00005722046 25 26 18
-589.769303798676 -158.663660287857 2316.99991226196 25 26 18
-586.518228054047 -159.498125314713 2328.9999961853 27 28 20
-579.96279001236 -159.442394971848 2328.00006866455 23 24 16
-575.875759124756 -160.071551799774 2336.99989318848 29 30 22
-576.857030391693 -162.139356136322 2367.00010299683 20 20 12
-879.597067832947 -148.800209164619 2096.99988365173 121 116 110
-870.992422103882 -148.30556511879 2089.99991416931 96 89 79
-864.497661590576 -148.166045546532 2088.00005912781 74 61 52
-858.837962150574 -148.168742656708 2088.00005912781 86 72 61
-855.222761631012 -148.526549339294 2092.99993515015 89 70 56
-849.958479404449 -148.600831627846 2094.00010108948 69 47 33
-843.077480792999 -148.391544818878 2091.00008010864 83 62 45
-836.213886737823 -148.18249642849 2088.00005912781 89 66 52
-832.152307033539 -148.470550775528 2092.00000762939 91 69 55
-828.070282936096 -148.758873343468 2095.99995613098 82 63 49
-827.499151229858 -149.68629181385 2108.99996757507 48 28 17
-824.131190776825 -150.117173790932 2115.00000953674 49 31 21
-821.892559528351 -150.761276483536 2124.00007247925 50 33 23
-818.837821483612 -151.263758540154 2131.00004196167 38 25 16
-819.561541080475 -152.476355433464 2148.00000190735 22 20 8
-820.573091506958 -153.760269284248 2165.99988937378 20 20 10
-815.469920635223 -153.908714652061 2167.99998283386 18 18 10
-804.75515127182 -152.992501854897 2154.99997138977 22 22 14
-794.852912425995 -152.218416333199 2144.00005340576 25 20 14
-790.53121805191 -152.50951051712 2148.00000190735 25 20 14
-786.553800106049 -152.871862053871 2153.00011634827 25 20 14
-778.923690319061 -152.524381875992 2148.00000190735 25 22 15
-774.560391902924 -152.816161513329 2151.99995040894 23 23 15
-773.748159408569 -153.818339109421 2165.99988937378 21 24 15
-770.024597644806 -154.25269305706 2171.99993133545 21 24 15
-767.324388027191 -154.90035712719 2180.99999427795 21 24 15
-761.433839797974 -154.909029603004 2180.99999427795 19 22 13
-754.504084587097 -154.704809188843 2177.99997329712 18 21 12
-744.841158390045 -153.932467103004 2167.00005531311 19 22 13
-740.353107452393 -154.225811362267 2171.0000038147 19 22 13
-732.122004032135 -153.737872838974 2164.00003433228 20 23 14
-727.284908294678 -153.960511088371 2167.00005531311 19 22 13
-722.764611244202 -154.254391789436 2171.0000038147 17 20 11
-721.524894237518 -155.259028077126 2184.99994277954 17 20 11
-720.537066459656 -156.335040926933 2200.00004768372 15 18 11
-720.117688179016 -157.553434371948 2217.00000762939 12 15 8
-714.774668216705 -157.706096768379 2219.00010108948 11 14 7
-708.142936229706 -157.574579119682 2217.00000762939 11 14 7
-705.005764961243 -158.2250893116 2226.0000705719 11 14 7
-697.737336158752 -157.951697707176 2221.99988365173 11 14 7
-691.735684871674 -157.962784171104 2221.99988365173 14 17 10
-682.956159114838 -157.334104180336 2213.00005912781 15 18 11
-677.284002304077 -157.416462898254 2213.99998664856 16 19 12
-674.334764480591 -158.138871192932 2223.99997711182 14 17 10
-677.341401576996 -160.283729434013 2253.99994850159 13 16 9
-678.10070514679 -161.931157112122 2276.99995040894 10 12 7
-673.128306865692 -162.227660417557 2280.99989891052 11 13 8
-666.964113712311 -162.239760160446 2280.99989891052 13 16 9
-660.22002696991 -162.109687924385 2279.00004386902 16 19 10
-650.329113006592 -161.197185516357 2266.00003242493 17 20 11
-644.488036632538 -161.280587315559 2266.99995994568 17 20 9
-636.951267719269 -160.937204957008 2262.00008392334 18 22 8
-633.345246315002 -161.589965224266 2270.99990844727 18 21 10
-631.070852279663 -162.598714232445 2285.00008583069 19 22 11
-626.258611679077 -162.967175245285 2289.99996185303 19 22 11
-618.16930770874 -162.481710314751 2282.99999237061 21 24 15
-609.312891960144 -161.782681941986 2273.00000190735 21 24 15
-609.532058238983 -163.503736257553 2296.99993133545 22 25 16
-606.993973255157 -164.513260126114 2311.00010871887 22 25 16
-601.259768009186 -164.668634533882 2312.99996376038 25 26 18
-595.256686210632 -164.752885699272 2313.99989128113 25 26 18
-588.992774486542 -164.765954017639 2313.99989128113 25 26 18
-581.216931343079 -164.351806044579 2308.00008773804 21 22 14
-577.707707881927 -165.148243308067 2319.00000572205 29 30 22
-573.152184486389 -165.659949183464 2325.99997520447 27 28 20
-577.818632125854 -168.878346681595 2371.00005149841 26 26 18
-869.323253631592 -153.69114279747 2085.99996566772 113 114 108
-871.533632278442 -155.093461275101 2105.00001907349 14 12 0
-865.00483751297 -154.948860406876 2102.9999256134 32 26 14
-859.714388847351 -155.025646090508 2104.00009155273 60 46 33
-852.796316146851 -154.807969927788 2101.0000705719 69 53 38
-847.10556268692 -154.811665415764 2101.0000705719 55 36 21
-839.814126491547 -154.520899057388 2096.99988365173 65 46 32
-834.932327270508 -154.672548174858 2098.99997711182 76 57 43
-830.436050891876 -154.898196458817 2101.99999809265 77 59 47
-828.671276569366 -155.639991164207 2111.99998855591 76 58 48
-829.581081867218 -156.897991895676 2128.99994850159 29 16 7
-828.465163707733 -157.787844538689 2141.00003242493 30 22 11
-824.211478233337 -158.088460564613 2144.99998092651 25 21 9
-820.318579673767 -158.463016152382 2150.00009536743 23 26 15
-819.051325321198 -159.353837370873 2161.99994087219 12 18 6
-811.325788497925 -158.991917967796 2157.00006484985 22 25 16
-799.146831035614 -157.745659351349 2140.00010490417 19 20 14
-791.138589382172 -157.310426235199 2134.0000629425 21 21 13
-788.315713405609 -157.90744125843 2141.99995994568 21 21 13
-785.81565618515 -158.578470349312 2151.00002288818 22 22 14
-781.091690063477 -158.807441592216 2154.00004386902 22 25 14
-775.992095470428 -158.962920308113 2155.99989891052 23 26 15
-771.953880786896 -159.339815378189 2161.00001335144 22 25 16
-765.407264232636 -159.200802445412 2158.99991989136 22 25 16
-761.334776878357 -159.578189253807 2164.00003433228 21 24 15
-754.791676998138 -159.439593553543 2161.99994087219 20 23 14
-749.298810958862 -159.52242910862 2163.00010681152 19 22 13
-741.394758224487 -159.089162945747 2157.00006484985 20 23 14
-737.274527549744 -159.46738421917 2161.99994087219 20 23 14
-732.112407684326 -159.62453186512 2164.00003433228 20 23 14
-729.288935661316 -160.298272967339 2173.00009727478 20 23 14
-724.419355392456 -160.529613494873 2176.00011825562 16 19 10
-721.845030784607 -161.277577280998 2186.00010871887 16 19 10
-721.509277820587 -162.542283535004 2203.00006866455 15 18 11
-722.705543041229 -164.176225662231 2224.99990463257 12 15 8
-717.018663883209 -164.260923862457 2226.0000705719 11 14 7
-711.006820201874 -164.271965622902 2226.0000705719 11 14 7
-702.777802944183 -163.76656293869 2219.00010108948 11 14 7
-698.354244232178 -164.14687037468 2223.99997711182 11 14 7
-694.526135921478 -164.674997329712 2230.99994659424 15 18 11
-690.968573093414 -165.277153253555 2239.00008201599 16 19 12
-684.002339839935 -165.067449212074 2236.00006103516 15 18 11
-686.148047447205 -167.072653770447 2263.00001144409 13 16 9
-679.733455181122 -167.010948061943 2262.00008392334 11 14 7
-673.025965690613 -166.875496506691 2259.99999046326 11 13 8
-668.394565582275 -167.257040739059 2265.00010490417 12 14 9
-666.074633598328 -168.229505419731 2278.00011634827 14 17 10
-661.076664924622 -168.537512421608 2282.00006484985 16 19 10
-653.186619281769 -168.107062578201 2276.00002288818 16 19 10
-644.191265106201 -167.381152510643 2266.00003242493 16 19 8
-639.7545337677 -167.837157845497 2272.0000743866 18 22 8
-633.053660392761 -167.702257633209 2269.99998092651 19 22 11
-629.953265190125 -168.527901172638 2280.99989891052 20 23 12
-624.878346920013 -168.836534023285 2285.00008583069 21 24 13
-615.990221500397 -168.110713362694 2275.00009536743 21 24 15
-611.712515354156 -168.641149997711 2282.00006484985 21 24 15
-611.376404762268 -170.280292630196 2303.99990081787 19 22 13
-607.768654823303 -171.032756567001 2313.99989128113 21 24 15
-603.066146373749 -171.489760279655 2319.9999332428 25 26 18
-596.529603004456 -171.429365873337 2319.00000572205 25 26 18
-587.197780609131 -170.555755496025 2306.99992179871 26 27 19
-577.92991399765 -169.682055711746 2295.00007629395 21 22 14
-579.189002513886 -171.913757920265 2325.00004768372 31 32 24
-580.038189888 -174.071863293648 2354.00009155273 28 29 21
-883.537769317627 -163.029998540878 2134.0000629425 2 2 0
-877.752840518951 -163.032844662666 2134.0000629425 14 10 0
-867.883145809174 -162.272021174431 2124.00007247925 35 27 14
-857.66339302063 -161.435097455978 2112.99991607666 65 49 34
-851.536750793457 -161.362484097481 2111.99998855591 61 44 28
-843.013882637024 -160.83174943924 2105.00001907349 57 38 24
-836.91680431366 -160.759747028351 2104.00009155273 57 38 24
-832.40669965744 -160.993665456772 2107.00011253357 64 46 36
-830.628037452698 -161.76275908947 2117.00010299683 66 47 40
-832.692980766296 -163.296356797218 2137.00008392334 45 35 25
-835.037589073181 -164.906725287437 2157.99999237061 18 12 0
-828.047871589661 -164.683446288109 2154.99997138977 14 12 0
-821.075260639191 -164.460435509682 2151.99995040894 15 21 9
-814.119815826416 -164.237678050995 2148.9999294281 16 24 11
-809.062123298645 -164.397314190865 2151.00002288818 17 25 14
-801.380276679993 -164.022162556648 2145.99990844727 17 22 15
-794.467747211456 -163.80013525486 2142.99988746643 20 21 13
-791.988432407379 -164.495587348938 2151.99995040894 20 21 13
-785.80778837204 -164.426937699318 2151.00002288818 21 22 14
-782.896757125854 -165.046513080597 2158.99991989136 19 25 13
-775.264084339142 -164.672538638115 2154.00004386902 20 26 14
-771.230936050415 -165.06327688694 2158.99991989136 21 24 15
-763.271570205688 -164.613246917725 2153.00011634827 21 24 15
-759.566724300385 -165.080919861794 2158.99991989136 21 24 15
-754.433453083038 -165.242999792099 2161.00001335144 21 24 15
-750.675141811371 -165.711164474487 2167.00005531311 20 23 14
-742.760181427002 -165.261879563332 2161.00001335144 21 24 15
-740.33397436142 -166.036412119865 2171.0000038147 21 24 15
-736.83887720108 -166.581749916077 2177.99997329712 22 25 16
-736.997842788696 -167.968735098839 2196.00009918213 21 24 15
-729.735493659973 -167.673200368881 2191.99991226196 20 23 14
-724.476158618927 -167.836800217628 2194.00000572205 17 20 11
-720.843493938446 -168.383076786995 2200.99997520447 18 21 14
-723.668992519379 -170.459762215614 2227.9999256134 15 18 11
-718.618094921112 -170.700564980507 2230.99994659424 13 16 9
-711.314916610718 -170.40590941906 2226.99999809265 12 15 8
-701.499462127686 -169.499173760414 2214.99991416931 12 15 8
-697.08663225174 -169.893443584442 2220.00002861023 12 15 8
-694.514453411102 -170.747101306915 2230.99994659424 13 16 9
-693.734049797058 -172.060251235962 2247.99990653992 13 16 9
-695.920467376709 -174.13917183876 2275.00009536743 13 16 9
-685.832738876343 -173.156499862671 2262.00008392334 13 16 9
-677.918136119843 -172.70964384079 2256.00004196167 13 16 9
-667.951107025146 -171.726942062378 2243.00003051758 14 16 11
-662.18501329422 -171.816110610962 2243.99995803833 14 16 11
-661.091208457947 -173.130571842194 2260.99991798401 15 18 11
-656.718492507935 -173.602923750877 2266.99995994568 16 19 10
-649.72984790802 -173.386216163635 2263.99993896484 17 20 11
-647.305250167847 -174.394965171814 2276.99995040894 19 22 11
-641.994118690491 -174.638032913208 2279.99997138977 19 23 9
-636.108100414276 -174.727946519852 2280.99989891052 21 24 13
-630.216181278229 -174.817979335785 2282.00006484985 21 24 13
-623.497724533081 -174.678236246109 2279.99997138977 21 24 13
-621.662855148315 -175.917685031891 2296.0000038147 21 24 15
-619.472682476044 -177.080750465393 2311.00010871887 21 24 15
-611.893534660339 -176.711395382881 2305.99999427795 21 24 15
-605.653882026672 -176.725223660469 2305.99999427795 23 26 17
-600.972890853882 -177.198961377144 2312.00003623962 26 27 19
-595.4869389534 -177.442863583565 2315.00005722046 26 27 19
-585.911452770233 -176.460310816765 2302.00004577637 26 27 19
-577.664434909821 -175.860941410065 2293.99991035461 25 26 18
-578.427791595459 -178.021520376205 2322.00002670288 30 31 23
-581.995368003845 -181.10254406929 2361.99998855591 24 25 17
-894.299924373627 -170.886799693108 2160.00008583069 17 22 16
-882.274270057678 -169.702976942062 2144.99998092651 10 11 3
-877.277851104736 -169.864445924759 2147.0000743866 13 13 5
-864.965915679932 -168.602108955383 2131.00004196167 14 10 1
-858.386874198914 -168.447747826576 2128.99994850159 26 19 11
-850.218176841736 -167.977228760719 2122.99990653992 40 33 25
-844.072043895721 -167.902618646622 2121.99997901917 21 14 6
-837.142527103424 -167.670071125031 2118.99995803833 41 37 28
-834.546446800232 -168.308258056641 2127.00009346008 53 49 40
-834.245979785919 -169.421553611755 2141.00003242493 46 43 34
-837.353408336639 -171.247437596321 2164.00003433228 11 9 0
-828.810214996338 -170.699626207352 2157.00006484985 26 26 14
-820.30576467514 -170.152053236961 2150.00009536743 6 12 0
-812.597811222076 -169.762998819351 2144.99998092651 17 25 12
-809.807360172272 -170.403108000755 2153.00011634827 13 21 10
-806.974530220032 -171.043530106544 2161.00001335144 19 24 17
-800.021231174469 -170.813590288162 2157.99999237061 20 23 16
-794.556796550751 -170.900493860245 2158.99991989136 21 22 14
-785.434484481812 -170.196086168289 2150.00009536743 20 23 14
-782.525897026062 -170.837625861168 2157.99999237061 18 24 12
-777.415037155151 -171.004459261894 2160.00008583069 19 25 13
-773.722648620605 -171.488225460052 2165.99988937378 21 24 15
-765.389561653137 -170.942962169647 2158.99991989136 21 24 15
-760.613024234772 -171.189710497856 2161.99994087219 21 24 15
-757.216811180115 -171.753406524658 2168.99991035461 21 24 15
-751.011908054352 -171.683892607689 2167.99998283386 20 23 14
-746.187448501587 -171.931326389313 2171.0000038147 21 24 15
-743.051946163177 -172.57496714592 2178.99990081787 21 24 15
-741.903305053711 -173.694133758545 2193.00007820129 22 25 16
-740.007698535919 -174.655169248581 2204.99992370605 21 24 15
-732.721090316772 -174.349129199982 2200.99997520447 19 22 13
-726.776778697968 -174.360081553459 2200.99997520447 17 20 11
-718.539953231812 -173.81663620472 2194.00000572205 19 22 15
-718.460738658905 -175.254002213478 2211.99989318848 16 19 12
-713.130831718445 -175.423979759216 2213.99998664856 14 17 10
-707.47047662735 -175.514906644821 2214.99991416931 13 16 9
-698.954164981842 -174.892783164978 2207.00001716614 12 15 8
-692.364811897278 -174.746230244637 2204.99992370605 12 15 8
-689.832925796509 -175.630107522011 2216.00008010864 15 18 11
-691.870212554932 -177.703157067299 2242.00010299683 14 17 10
-694.072484970093 -179.855868220329 2269.00005340576 13 16 9
-687.032759189606 -179.630875587463 2266.00003242493 12 15 8
-677.003979682922 -178.613170981407 2253.00002098084 12 15 8
-666.747152805328 -177.516162395477 2239.00008201599 14 17 10
-661.286890506744 -177.687719464302 2240.9999370575 14 17 10
-660.785734653473 -179.207429289818 2259.99999046326 15 18 11
-655.546605587006 -179.458633065224 2263.00001144409 16 19 10
-648.568689823151 -179.234102368355 2259.99999046326 18 21 12
-645.017743110657 -179.961413145065 2269.00005340576 21 24 13
-643.388390541077 -181.244149804115 2285.00008583069 19 22 11
-635.815739631653 -180.861294269562 2279.99997138977 21 24 13
-631.583273410797 -181.430444121361 2286.99994087219 22 25 14
-626.218616962433 -181.682407855988 2289.99996185303 22 25 14
-626.251816749573 -183.521315455437 2312.99996376038 21 24 15
-622.94328212738 -184.408351778984 2323.99988174438 21 24 15
-612.675547599792 -183.232381939888 2309.00001525879 23 26 17
-602.225542068481 -181.976854801178 2292.99998283386 25 28 19
-596.539974212646 -182.149842381477 2295.00007629395 27 28 20
-592.386066913605 -182.799085974693 2302.99997329712 26 27 19
-586.151838302612 -182.813450694084 2302.99997329712 25 26 18
-578.909456729889 -182.510271668434 2299.00002479553 26 27 19
-578.413546085358 -184.350684285164 2322.00002670288 27 28 20
-579.763233661652 -186.826571822166 2352.9999256134 32 33 25
-925.576031208038 -181.74634873867 2220.99995613098 105 112 105
-894.297122955322 -176.757261157036 2160.00008583069 17 22 16
-885.150372982025 -176.105484366417 2151.99995040894 10 11 5
-875.231325626373 -175.290435552597 2141.99995994568 12 13 7
-871.050536632538 -175.621375441551 2145.99990844727 11 10 5
-865.640223026276 -175.707221031189 2147.0000743866 14 11 6
-861.026704311371 -175.957068800926 2150.00009536743 22 19 12
-852.818310260773 -175.470650196075 2144.00005340576 15 12 5
-845.43389081955 -175.148263573647 2140.00010490417 21 21 13
-841.211199760437 -175.48094689846 2144.00005340576 25 25 17
-842.422902584076 -176.959842443466 2161.99994087219 21 21 13
-840.0559425354 -177.702501416206 2171.0000038147 18 19 11
-831.109285354614 -177.053973078728 2163.00010681152 16 17 9
-820.680677890778 -176.078230142593 2151.00002288818 17 18 10
-812.212228775024 -175.512045621872 2144.00005340576 19 20 12
-810.176312923431 -176.337763667107 2154.00004386902 20 21 13
-808.834135532379 -177.327618002892 2165.99988937378 20 21 13
-804.832816123962 -177.744701504707 2171.0000038147 21 22 14
-800.069153308868 -177.998334169388 2174.00002479553 22 23 15
-787.618041038513 -176.532745361328 2155.99989891052 23 24 16
-781.792104244232 -176.541224122047 2155.99989891052 23 24 16
-774.526953697205 -176.222383975983 2151.99995040894 23 24 16
-772.284865379334 -177.050247788429 2161.99994087219 23 26 19
-766.089498996735 -176.977559924126 2161.00001335144 22 25 18
-762.714385986328 -177.560314536095 2167.99998283386 21 24 17
-759.301781654358 -178.143322467804 2174.99995231628 21 24 17
-754.119634628296 -178.317099809647 2177.00004577637 22 25 18
-748.583197593689 -178.409174084663 2177.99997329712 22 25 18
-748.497664928436 -179.812178015709 2194.9999332428 22 25 18
-744.260728359222 -180.23245036602 2200.00004768372 23 26 19
-739.996790885925 -180.652976036072 2204.99992370605 24 27 20
-736.371874809265 -181.237608194351 2211.99989318848 23 26 19
-729.407131671906 -181.003123521805 2209.00011062622 19 22 15
-717.873632907867 -179.621562361717 2191.99991226196 16 19 10
-712.278127670288 -179.71508204937 2193.00007820129 13 16 7
-709.898114204407 -180.628329515457 2203.9999961853 12 15 6
-707.458436489105 -181.541815400124 2214.99991416931 12 15 6
-699.575543403625 -181.062236428261 2209.00011062622 13 16 9
-692.038595676422 -180.664658546448 2203.9999961853 14 17 10
-688.886702060699 -181.414887309074 2213.00005912781 14 17 10
-692.783236503601 -184.050887823105 2244.99988555908 14 17 10
-693.141937255859 -185.785591602325 2266.00003242493 13 16 9
-687.6260638237 -185.962736606598 2267.99988746643 12 14 9
-679.695248603821 -185.484051704407 2262.00008392334 10 12 7
-670.307397842407 -184.595346450806 2250.99992752075 7 10 3
-663.044154644012 -184.280753135681 2246.99997901917 8 11 2
-665.158033370972 -186.590775847435 2275.00009536743 9 12 3
-661.32652759552 -187.260746955872 2282.99999237061 9 12 3
-649.129033088684 -185.552045702934 2262.00008392334 9 12 3
-641.592741012573 -185.155764222145 2256.99996948242 12 15 6
-640.27726650238 -186.564415693283 2273.9999294281 14 17 8
-637.75372505188 -187.645182013512 2286.99994087219 17 20 11
-634.054660797119 -188.397973775864 2296.0000038147 17 20 11
-627.571642398834 -188.330322504044 2295.00007629395 16 19 10
-622.98846244812 -188.837215304375 2301.00011825562 15 18 9
-618.908166885376 -189.508348703384 2309.00001525879 16 19 10
-611.069023609161 -189.030528068542 2302.99997329712 19 22 13
-602.473735809326 -188.30643594265 2293.99991035461 19 22 13
-596.265494823456 -188.321098685265 2293.99991035461 21 22 14
-591.085433959961 -188.664197921753 2298.00009727478 21 22 14
-584.610164165497 -188.596844673157 2296.99993133545 22 23 15
-581.412792205811 -189.596951007843 2309.00001525879 22 23 15
-576.90417766571 -190.18666446209 2315.99998474121 24 25 17
-571.863889694214 -190.612196922302 2321.00009918213 24 25 17
-571.91276550293 -192.762598395348 2346.99988365173 27 27 19
-902.988910675049 -184.403195977211 2180.99999427795 17 22 16
-889.260351657867 -182.799696922302 2161.99994087219 10 11 5
-882.991313934326 -182.718455791473 2161.00001335144 11 12 6
-879.976391792297 -183.314025402069 2167.99998283386 11 10 5
-885.392010211945 -185.685694217682 2196.00009918213 15 12 7
-871.03396654129 -183.914422988892 2174.99995231628 14 11 4
-858.382165431976 -182.481721043587 2157.99999237061 17 14 7
-851.749539375305 -182.317659258842 2155.99989891052 14 14 6
-848.660290241241 -182.915061712265 2163.00010681152 12 12 4
-843.585968017578 -183.089971542358 2164.99996185303 13 13 5
-836.567223072052 -182.8423589468 2161.99994087219 16 17 9
-831.102848052979 -182.933360338211 2163.00010681152 15 16 8
-822.581648826599 -182.348042726517 2155.99989891052 18 19 11
-814.856827259064 -181.932121515274 2151.00002288818 20 21 13
-809.040606021881 -181.939408183098 2151.00002288818 20 21 13
-805.839061737061 -182.539090514183 2157.99999237061 19 20 12
-801.859140396118 -182.96991288662 2163.00010681152 20 21 13
-797.85281419754 -183.401063084602 2167.99998283386 22 23 15
-788.70564699173 -182.648122310638 2158.99991989136 23 24 16
-783.596515655518 -182.826012372971 2161.00001335144 24 25 17
-776.317715644836 -182.496547698975 2157.00006484985 24 25 17
-772.990107536316 -183.097988367081 2164.00003433228 22 25 18
-767.143607139587 -183.1074655056 2164.00003433228 22 25 18
-763.760089874268 -183.709472417831 2171.0000038147 21 24 17
-759.29182767868 -184.057906270027 2174.99995231628 21 24 17
-755.148708820343 -184.491291642189 2180.0000667572 22 25 18
-751.666188240051 -185.09416282177 2187.00003623962 23 26 19
-748.145937919617 -185.697317123413 2194.00000572205 22 25 18
-745.264708995819 -186.470061540604 2203.00006866455 23 26 19
-739.314496517181 -186.48125231266 2203.00006866455 24 27 20
-738.025009632111 -187.677770853043 2217.00000762939 23 26 19
-732.697606086731 -187.858760356903 2219.00010108948 19 22 15
-721.464455127716 -186.515986919403 2203.00006866455 15 18 9
-711.291968822479 -185.427203774452 2190.00005722046 12 15 6
-708.597660064697 -186.285987496376 2200.00004768372 11 14 5
-706.168711185455 -187.22976744175 2210.99996566772 12 15 6
-701.463222503662 -187.580972909927 2214.99991416931 13 16 9
-694.224059581757 -187.254890799522 2210.99996566772 14 17 10
-695.722162723541 -189.300432801247 2234.99989509583 13 16 9
-694.313168525696 -190.584063529968 2250 13 16 9
-691.599190235138 -191.529184579849 2260.99991798401 13 16 9
-686.399936676025 -191.796854138374 2263.99993896484 9 11 6
-680.883646011353 -191.979944705963 2266.00003242493 7 9 4
-670.591592788696 -190.807536244392 2252.00009346008 5 8 1
-663.915753364563 -190.651893615723 2250 6 9 0
-663.974523544312 -192.445337772369 2270.99990844727 6 9 0
-663.340032100677 -194.06969845295 2289.99996185303 6 9 0
-653.132438659668 -192.897528409958 2276.00002288818 7 10 1
-643.568396568298 -191.894769668579 2263.99993896484 10 13 4
-640.826046466827 -192.926362156868 2276.00002288818 12 15 6
-638.854742050171 -194.212481379509 2290.99988937378 15 18 9
-636.249244213104 -195.329338312149 2303.99990081787 15 18 9
-627.010107040405 -194.41157579422 2292.99998283386 14 17 8
-619.995534420013 -194.172084331512 2289.99996185303 15 18 9
-616.480946540833 -195.034965872765 2299.99995231628 15 18 9
-612.115502357483 -195.643618702888 2306.99992179871 19 22 13
-606.398165225983 -195.828378200531 2309.00001525879 19 22 13
-598.329961299896 -195.24984061718 2302.00004577637 21 22 14
-591.842114925385 -195.180207490921 2301.00011825562 21 22 14
-586.37672662735 -195.449873805046 2303.99990081787 21 22 14
-583.664000034332 -196.652874350548 2318.00007820129 22 23 15
-578.134477138519 -196.92274928093 2321.00009918213 25 26 18
-570.370495319366 -196.429058909416 2315.00005722046 24 25 17
-567.267656326294 -197.547554969788 2328.00006866455 26 26 18
-904.642224311829 -190.679714083672 2184.99994277954 17 22 16
-895.83820104599 -190.071821212769 2177.99997329712 9 12 5
-886.665225028992 -189.377039670944 2170.00007629395 11 12 6
-886.061012744904 -190.515324473381 2183.00008773804 12 11 6
-881.355941295624 -190.78129529953 2186.00010871887 11 10 5
-873.031735420227 -190.262153744698 2180.0000667572 15 15 7
-857.979476451874 -188.259616494179 2157.00006484985 14 14 6
-852.929472923279 -188.439354300499 2158.99991989136 12 12 4
-845.908164978027 -188.183024525642 2155.99989891052 15 16 8
-843.580007553101 -188.97445499897 2164.99996185303 19 20 12
-839.269399642944 -189.329817891121 2168.99991035461 17 18 10
-832.248747348785 -189.074501395226 2165.99988937378 16 17 9
-824.10079240799 -188.557595014572 2160.00008583069 18 19 11
-815.607309341431 -187.953680753708 2153.00011634827 19 20 12
-809.78536605835 -187.961116433144 2153.00011634827 19 20 12
-803.964257240295 -187.968850135803 2153.00011634827 20 21 13
-798.885345458984 -188.151508569717 2154.99997138977 21 22 14
-796.004414558411 -188.858345150948 2163.00010681152 21 22 14
-789.792895317078 -188.779637217522 2161.99994087219 21 22 14
-783.950090408325 -188.788503408432 2161.99994087219 21 22 14
-776.308476924896 -188.361078500748 2157.00006484985 21 22 14
-771.909058094025 -188.719794154167 2161.00001335144 22 25 18
-767.133891582489 -188.991457223892 2164.00003433228 22 25 18
-761.991143226624 -189.176052808762 2165.99988937378 21 24 17
-755.092561244965 -188.924208283424 2163.00010681152 21 24 17
-753.059864044189 -189.895421266556 2174.00002479553 21 24 17
-749.249577522278 -190.430223941803 2180.0000667572 19 22 15
-746.088981628418 -191.14001095295 2187.99996376038 20 23 16
-742.88547039032 -191.850110888481 2196.00009918213 21 24 17
-739.974200725555 -192.647844552994 2204.99992370605 20 23 16
-739.012002944946 -193.970158696175 2220.00002861023 18 21 14
-733.676135540009 -194.156855344772 2221.99988365173 16 19 12
-725.382208824158 -193.55733692646 2214.99991416931 13 16 7
-719.399452209473 -193.569660186768 2214.99991416931 12 15 6
-715.993285179138 -194.281324744225 2223.00004959106 12 15 6
-712.543725967407 -194.993242621422 2230.99994659424 12 15 6
-707.467377185822 -195.268407464027 2233.99996757507 13 16 9
-703.944623470306 -195.980846881866 2242.00010299683 14 17 10
-700.066983699799 -196.60609960556 2249.00007247925 13 16 9
-694.299697875977 -196.707010269165 2250 14 17 10
-690.973877906799 -197.507575154305 2259.0000629425 14 17 10
-686.68931722641 -198.046043515205 2265.00010490417 9 11 6
-681.170105934143 -198.234930634499 2266.99995994568 8 10 5
-670.279920101166 -196.849927306175 2250.99992752075 11 14 7
-664.786875247955 -197.039008140564 2253.00002098084 11 14 5
-663.667857646942 -198.540180921555 2269.99998092651 11 14 5
-663.615167140961 -200.391560792923 2290.99988937378 11 14 5
-656.561434268951 -200.143918395042 2288.00010681152 11 14 5
-648.386240005493 -199.54639673233 2280.99989891052 14 17 8
-642.500698566437 -199.648782610893 2282.00006484985 16 19 10
-638.282120227814 -200.276225805283 2289.00003433228 16 19 10
-636.786460876465 -201.77885890007 2305.99999427795 17 20 11
-626.448154449463 -200.481534004211 2290.99988937378 19 22 13
-620.79268693924 -200.671851634979 2292.99998283386 20 23 14
-615.66162109375 -201.037272810936 2296.99993133545 20 23 14
-611.038863658905 -201.577857136726 2302.99997329712 18 21 12
-606.645524501801 -202.206134796143 2309.99994277954 19 22 13
-601.953387260437 -202.746987342834 2315.99998474121 21 22 14
-596.456408500671 -203.025341033936 2319.00000572205 22 23 15
-588.906288146973 -202.603295445442 2313.99989128113 22 23 15
-585.159063339233 -203.494653105736 2323.99988174438 22 23 15
-582.602381706238 -204.824030399323 2338.99998664856 25 26 18
-574.296832084656 -204.139351844788 2331.00008964539 25 26 18
-571.881592273712 -205.556571483612 2346.99988365173 26 26 18
-899.671196937561 -195.538192987442 2173.00009727478 17 22 16
-897.068977355957 -196.261033415794 2180.99999427795 9 12 5
-892.382025718689 -196.534380316734 2184.00001525879 9 12 5
-885.245203971863 -196.268230676651 2180.99999427795 12 11 6
-881.754696369171 -196.812346577644 2187.00003623962 7 6 1
-874.228477478027 -196.456968784332 2183.00008773804 19 19 11
-867.918431758881 -196.371868252754 2181.99992179871 17 17 9
-858.059763908386 -195.477202534676 2171.99993133545 13 13 5
-843.940675258636 -193.592831492424 2151.00002288818 13 14 6
-835.001766681671 -192.878738045692 2142.99988746643 18 19 11
-832.685112953186 -193.695038557053 2151.99995040894 17 18 10
-830.705106258392 -194.601759314537 2161.99994087219 17 18 10
-824.856817722321 -194.608762860298 2161.99994087219 19 20 12
-817.115247249603 -194.165974855423 2157.00006484985 19 20 12
-812.410473823547 -194.443628191948 2160.00008583069 18 19 11
-803.956389427185 -193.821400403976 2153.00011634827 21 22 14
-796.282052993774 -193.379431962967 2148.00000190735 21 22 14
-790.843546390533 -193.477928638458 2148.9999294281 21 22 14
-785.765707492828 -193.666756153107 2151.00002288818 21 22 14
-781.765341758728 -194.125980138779 2155.99989891052 20 21 13
-773.77986907959 -193.595081567764 2150.00009536743 19 20 12
-772.613823413849 -194.775298237801 2163.00010681152 21 24 17
-764.997005462646 -194.334924221039 2157.99999237061 21 24 17
-761.629164218903 -194.975435733795 2164.99996185303 21 24 17
-753.685712814331 -194.445461034775 2158.99991989136 21 24 17
-752.356350421906 -195.626959204674 2171.99993133545 20 23 16
-749.582290649414 -196.448534727097 2180.99999427795 18 21 14
-745.05478143692 -196.820020675659 2184.99994277954 20 23 16
-741.859078407288 -197.552129626274 2193.00007820129 21 24 17
-738.955676555634 -198.37461411953 2201.99990272522 19 22 15
-737.335562705994 -199.557796120644 2214.99991416931 17 20 13
-732.343137264252 -199.840307235718 2217.99993515015 16 19 12
-728.317141532898 -200.39339363575 2223.99997711182 14 17 8
-725.882411003113 -201.397269964218 2234.99989509583 13 16 7
-720.811665058136 -201.680541038513 2237.99991607666 13 16 7
-714.447021484375 -201.603546738625 2236.99998855591 12 15 6
-707.770943641663 -201.436579227448 2234.99989509583 13 16 9
-703.931212425232 -202.080994844437 2242.00010299683 13 16 9
-697.874546051025 -202.09464430809 2242.00010299683 13 16 9
-690.891742706299 -201.83801651001 2239.00008201599 15 18 11
-692.795097827911 -204.195916652679 2265.00010490417 14 17 10
-688.797354698181 -204.841271042824 2272.0000743866 10 12 7
-682.958662509918 -204.945847392082 2273.00000190735 11 13 8
-670.265555381775 -202.976629137993 2250.99992752075 12 15 8
-662.116825580597 -202.359959483147 2243.99995803833 13 16 7
-662.483811378479 -204.358637332916 2266.00003242493 13 16 7
-659.545183181763 -205.365628004074 2276.99995040894 12 15 6
-654.824793338776 -205.831676721573 2282.00006484985 12 15 6
-648.37121963501 -205.756664276123 2280.99989891052 15 18 9
-640.79624414444 -205.32089471817 2276.00002288818 16 19 10
-639.103353023529 -206.779718399048 2292.00005531311 15 18 9
-635.390341281891 -207.607269287109 2301.00011825562 16 19 10
-625.612497329712 -206.449940800667 2288.00010681152 19 22 13
-621.589362621307 -207.187488675117 2296.0000038147 19 22 13
-616.182088851929 -207.473993301392 2299.00002479553 19 22 13
-607.308745384216 -206.587299704552 2289.00003433228 18 21 12
-601.902723312378 -206.873923540115 2292.00005531311 19 22 13
-599.598288536072 -208.243802189827 2306.99992179871 22 23 15
-596.440434455872 -209.343120455742 2319.00000572205 22 23 15
-589.653789997101 -209.17871594429 2316.99991226196 23 24 16
-585.39491891861 -209.917232394218 2325.00004768372 23 24 16
-581.09176158905 -210.655823349953 2332.99994468689 26 27 19
-577.237129211426 -211.575165390968 2342.99993515015 26 27 19
-576.982200145721 -213.849276304245 2368.00003051758 26 26 18
-903.80871295929 -202.370852231979 2183.00008773804 18 23 17
-901.178896427155 -203.115433454514 2190.99998474121 9 12 5
-891.152620315552 -202.191784977913 2180.99999427795 9 12 5
-883.21179151535 -201.732099056244 2176.00011825562 11 12 6
-873.686790466309 -200.901880860329 2167.00005531311 12 11 6
-870.218992233276 -201.462730765343 2173.00009727478 11 11 3
-865.924537181854 -201.838552951813 2177.00004577637 17 17 9
-858.449399471283 -201.47305727005 2173.00009727478 18 18 10
-847.466051578522 -200.273424386978 2160.00008583069 12 13 5
-832.657933235168 -198.146894574165 2137.00008392334 15 16 8
-829.196155071259 -198.709532618523 2142.99988746643 15 16 8
-828.392803668976 -199.921697378159 2155.99989891052 15 16 8
-823.323488235474 -200.114250183105 2157.99999237061 20 21 13
-816.728830337524 -199.936181306839 2155.99989891052 21 22 14
-815.035462379456 -200.964063405991 2167.00005531311 20 21 13
-808.802366256714 -200.879395008087 2165.99988937378 23 24 16
-803.317129611969 -200.980558991432 2167.00005531311 23 24 16
-793.778955936432 -200.06175339222 2157.00006484985 24 25 17
-786.487340927124 -199.699714779854 2153.00011634827 23 24 16
-781.756043434143 -199.987202882767 2155.99989891052 23 24 16
-775.209784507751 -199.811220169067 2154.00004386902 22 23 15
-768.674790859222 -199.635475873947 2151.99995040894 21 24 15
-763.568997383118 -199.831083416939 2154.00004386902 21 24 15
-759.859979152679 -200.398087501526 2160.00008583069 21 24 15
-757.515072822571 -201.336488127708 2170.00007629395 21 24 15
-754.77010011673 -202.182471752167 2178.99990081787 20 23 14
-749.914705753326 -202.472031116486 2181.99992179871 17 20 11
-745.384395122528 -202.854678034782 2186.00010871887 19 22 13
-740.494251251221 -203.144803643227 2188.99989128113 19 22 13
-738.608181476593 -204.270407557487 2200.99997520447 17 20 11
-735.991716384888 -205.210775136948 2210.99996566772 14 17 8
-731.009960174561 -205.501720309258 2213.99998664856 14 17 8
-729.614317417145 -206.813976168633 2227.9999256134 15 18 9
-727.818131446838 -208.033785223961 2240.9999370575 15 18 9
-722.730934619904 -208.325549960136 2243.99995803833 14 17 8
-716.669261455536 -208.339020609856 2243.99995803833 14 17 8
-707.757353782654 -207.517012953758 2234.99989509583 13 16 9
-701.091706752777 -207.345098257065 2233.00004005432 13 16 9
-696.304202079773 -207.730442285538 2236.99998855591 16 19 12
-692.111968994141 -208.301767706871 2243.00003051758 16 19 12
-690.639674663544 -209.70918238163 2257.99989700317 13 16 9
-686.660706996918 -210.373908281326 2265.00010490417 9 11 6
-682.04265832901 -210.853084921837 2269.99998092651 11 13 8
-673.22850227356 -210.031941533089 2260.99991798401 14 17 10
-666.823029518127 -209.954023361206 2259.99999046326 15 18 9
-656.037032604218 -208.482593297958 2243.99995803833 14 17 8
-656.343758106232 -210.541799664497 2266.00003242493 13 16 7
-647.922694683075 -209.813788533211 2257.99989700317 14 17 8
-639.828503131866 -209.178686141968 2250.99992752075 16 19 10
-640.780806541443 -211.517512798309 2276.00002288818 17 20 11
-641.597211360931 -213.856756687164 2301.00011825562 13 16 7
-638.411998748779 -214.89517390728 2312.00003623962 14 17 8
-629.424571990967 -213.981762528419 2302.00004577637 16 19 10
-622.926950454712 -213.904932141304 2301.00011825562 18 21 12
-617.774188518524 -214.293003082275 2305.0000667572 17 20 11
-608.354032039642 -213.193595409393 2292.99998283386 19 22 13
-602.149248123169 -213.209867477417 2292.99998283386 20 23 14
-600.361824035645 -214.806988835335 2309.99994277954 22 23 15
-597.195625305176 -215.939447283745 2322.00002670288 23 24 16
-589.382946491241 -215.397998690605 2315.99998474121 24 25 17
-584.119558334351 -215.786635875702 2319.9999332428 24 25 17
-579.829931259155 -216.547444462776 2328.00006866455 28 29 21
-576.481401920319 -217.680439352989 2339.99991416931 26 27 19
-576.478064060211 -220.11610865593 2365.9999370575 23 23 15
-903.391778469086 -208.208188414574 2181.99992179871 32 39 32
-900.764405727386 -208.974525332451 2190.00005722046 9 12 5
-892.374873161316 -208.405390381813 2184.00001525879 10 13 6
-884.019494056702 -207.836657762527 2177.99997329712 9 10 4
-879.32676076889 -208.127155900002 2180.99999427795 11 10 5
-871.816098690033 -207.750096917152 2177.00004577637 14 14 6
-853.98656129837 -204.892158508301 2147.0000743866 16 16 8
-855.678379535675 -206.71072602272 2165.99988937378 16 17 9
-849.814057350159 -206.716507673264 2165.99988937378 14 15 7
-841.22359752655 -206.054583191872 2158.99991989136 12 13 5
-831.898212432861 -205.202102661133 2150.00009536743 13 14 6
-814.169645309448 -202.250078320503 2118.99995803833 17 18 10
-821.790099143982 -205.597892403603 2154.00004386902 19 20 12
-817.857682704926 -206.082656979561 2158.99991989136 20 21 13
-817.660272121429 -207.522392272949 2174.00002479553 21 22 14
-811.781346797943 -207.530632615089 2174.00002479553 20 21 13
-804.791271686554 -207.252845168114 2171.0000038147 21 22 14
-793.402016162872 -205.829665064812 2155.99989891052 22 23 15
-784.651696681976 -205.075055360794 2148.00000190735 22 23 15
-781.746625900269 -205.84824681282 2155.99989891052 23 24 16
-775.559961795807 -205.76249063015 2154.99997138977 24 25 17
-770.093560218811 -205.867946147919 2155.99989891052 23 26 17
-761.077284812927 -205.01883327961 2147.0000743866 22 25 16
-762.311816215515 -206.939235329628 2167.00005531311 21 24 15
-764.136731624603 -209.051102399826 2188.99989128113 21 24 15
-759.608268737793 -209.444388747215 2193.00007820129 20 23 14
-755.058467388153 -209.837913513184 2197.00002670288 17 20 11
-746.736526489258 -209.181070327759 2190.00005722046 17 20 11
-744.879841804504 -210.339292883873 2201.99990272522 18 21 12
-739.60268497467 -210.542619228363 2203.9999961853 17 20 11
-735.646367073059 -211.128324270248 2210.00003814697 16 19 10
-731.657683849335 -211.714327335358 2216.00008010864 14 17 8
-725.344181060791 -211.631774902344 2214.99991416931 12 15 6
-727.155268192291 -213.93820643425 2239.00008201599 13 16 7
-722.395300865173 -214.333981275558 2243.00003051758 13 16 7
-716.016829013824 -214.252188801765 2242.00010299683 14 17 8
-707.743525505066 -213.597133755684 2234.99989509583 13 16 9
-700.135767459869 -213.133335113525 2230.00001907349 13 16 9
-694.422423839569 -213.243156671524 2230.99994659424 15 18 11
-692.406058311462 -214.500203728676 2243.99995803833 13 16 9
-688.789904117584 -215.279623866081 2252.00009346008 10 12 7
-684.220552444458 -215.772449970245 2256.99996948242 11 13 8
-680.525422096252 -216.552376747131 2265.00010490417 12 14 9
-675.595462322235 -216.95002913475 2269.00005340576 14 17 10
-666.217684745789 -215.913563966751 2257.99989700317 14 17 8
-658.360660076141 -215.355262160301 2252.00009346008 14 17 8
-652.27335691452 -215.370774269104 2252.00009346008 14 17 8
-647.046327590942 -215.673312544823 2255.00011444092 15 18 9
-640.381395816803 -215.497761964798 2253.00002098084 16 19 10
-638.794183731079 -217.04412996769 2269.00005340576 16 19 10
-639.350473880768 -219.356089830399 2292.99998283386 16 19 10
-636.462807655334 -220.520436763763 2305.0000667572 16 19 10
-630.228519439697 -220.536917448044 2305.0000667572 17 20 11
-624.264180660248 -220.649152994156 2305.99999427795 18 21 12
-614.005625247955 -219.230398535728 2290.99988937378 19 22 13
-609.398722648621 -219.821184873581 2296.99993133545 22 25 16
-603.708386421204 -220.029294490814 2299.00002479553 21 24 15
-599.825441837311 -220.907479524612 2308.00008773804 22 23 15
-593.835532665253 -221.020057797432 2309.00001525879 22 23 15
-587.330400943756 -220.941230654716 2308.00008773804 23 24 16
-581.836819648743 -221.245393157005 2311.00010871887 23 24 16
-579.314827919006 -222.698494791985 2325.99997520447 21 22 14
-573.754549026489 -223.00286591053 2328.9999961853 23 24 16
-572.562515735626 -225.030899047852 2349.99990463257 23 23 15
-576.797425746918 -229.261919856071 2394.00005340576 24 24 16
-905.04515171051 -214.530780911446 2186.00010871887 42 49 42
-896.236777305603 -213.84671330452 2178.99990081787 7 12 5
-887.059569358826 -213.064983487129 2171.0000038147 10 13 6
-888.074278831482 -214.737221598625 2187.99996376038 9 10 4
-882.144510746002 -214.741453528404 2187.99996376038 10 11 5
-869.808852672577 -213.175788521767 2171.99993133545 12 13 5
-859.947681427002 -212.199330329895 2161.99994087219 13 14 6
-852.512419223785 -211.812153458595 2157.99999237061 15 16 8
-849.415838718414 -212.50507235527 2164.99996185303 14 17 8
-847.06175327301 -213.394686579704 2174.00002479553 15 18 9
-838.082253932953 -212.615996599197 2165.99988937378 15 16 8
-828.763067722321 -211.739495396614 2157.00006484985 14 15 7
-816.441535949707 -210.077971220016 2140.00010490417 15 16 8
-820.88041305542 -212.736144661903 2167.00005531311 16 17 9
-819.156467914581 -213.824078440666 2177.99997329712 18 19 11
-811.026096343994 -213.243439793587 2171.99993133545 19 20 12
-805.523812770844 -213.35032582283 2173.00009727478 20 21 13
-795.233011245728 -212.181136012077 2161.00001335144 22 23 15
-789.025843143463 -212.092265486717 2160.00008583069 21 22 14
-783.187329769135 -212.101876735687 2160.00008583069 23 24 16
-776.629567146301 -211.915358901024 2157.99999237061 24 25 17
-771.154820919037 -212.023764848709 2158.99991989136 21 24 15
-767.092943191528 -212.52529323101 2164.00003433228 21 24 15
-764.059782028198 -213.321805000305 2171.99993133545 21 24 15
-764.82367515564 -215.199083089828 2190.99998474121 21 24 15
-758.903980255127 -215.210542082787 2190.99998474121 21 24 15
-753.328263759613 -215.320467948914 2191.99991226196 18 21 12
-745.360732078552 -214.743077754974 2186.00010871887 19 22 13
-742.838025093079 -215.73768556118 2196.00009918213 19 22 13
-740.932464599609 -216.929107904434 2207.99994468689 18 21 12
-737.630784511566 -217.727929353714 2216.00008010864 17 20 11
-729.993760585785 -217.249676585197 2210.99996566772 15 18 9
-726.968348026276 -218.147322535515 2220.00002861023 13 16 7
-725.842535495758 -219.634890556335 2234.99989509583 14 17 8
-721.415340900421 -220.140099525452 2240.00000953674 15 18 9
-717.918932437897 -220.94039618969 2247.99990653992 15 18 9
-709.312677383423 -220.168381929398 2240.00000953674 15 18 11
-700.121521949768 -219.199851155281 2230.00001907349 14 17 10
-694.719195365906 -219.410985708237 2232.00011253357 15 18 11
-691.465735435486 -220.310479402542 2240.9999370575 13 16 9
-688.469111919403 -221.308588981628 2250.99992752075 10 12 7
-682.083487510681 -221.225440502167 2250 10 12 7
-679.608702659607 -222.420692443848 2262.00008392334 12 14 9
-674.389004707336 -222.731277346611 2265.00010490417 12 15 8
-667.677342891693 -222.550272941589 2263.00001144409 12 15 6
-659.806609153748 -221.975982189178 2256.99996948242 12 15 6
-653.995394706726 -222.090229392052 2257.99989700317 13 16 7
