ply
format ascii 1.0
comment KinectMotionCapture
element vertex 780
property float x
property float y
property float z
property uchar red
property uchar green
property uchar blue
end_header
-407.545139468272 -387.250175316025 2196.39281346055 16 19 12
-401.78614929882 -387.626766970008 2186.40212371153 14 17 10
-426.315035836981 -386.514285434785 2167.58392005154 9 12 5
-426.563080088387 -386.5787313685 2157.82029435355 7 9 4
-340.74881311187 -391.716834889096 2064.46153734433 1 9 11
-410.035035373763 -388.190879448567 2058.96083849551 11 13 8
-390.276541785805 -389.292022559225 2047.78970663893 11 12 6
-382.52457552227 -389.768933984746 2037.3580625565 13 16 9
-367.772201598288 -390.61015534107 2026.36897488355 13 16 9
-390.028469506538 -389.524925214468 2018.11767110622 11 14 7
-368.276904348531 -390.730387089824 2006.51434742505 11 14 7
-362.528925369358 -391.102587912008 1996.09801675213 13 16 9
-372.781423660591 -390.640703136404 1987.0003961193 16 19 12
-451.025994527589 -386.632928144286 1983.88584733861 15 18 11
-405.280089637948 -389.089068686638 1970.051076121 14 17 10
-441.521499568774 -387.268594645215 1963.56231308108 14 17 10
-428.77268231214 -388.00357717276 1952.59768492483 13 16 9
-438.017545138474 -387.590266528833 1943.7216318867 13 16 9
-394.008038204555 -397.038317682485 2284.74211777896 16 26 15
-433.338601741839 -394.988536012536 2275.08922881258 12 13 8
-497.440790735768 -391.831664284257 2237.14391898147 8 11 4
-510.706103135608 -391.1897433562 2227.82220532482 9 12 5
-317.883986669148 -401.833602898585 2204.12453258059 9 12 5
-347.183450632781 -400.321187026723 2194.84451447593 9 12 5
-411.529344770504 -396.899363916072 2186.75768483884 8 11 4
-453.836208030475 -394.67447270831 2178.3118465121 9 12 5
-403.015521093963 -397.520832281043 2166.83869171416 11 14 7
-325.168840387522 -401.841962791101 2154.06585763104 13 15 12
-416.016061486218 -397.725643914239 2049.62221877194 16 17 12
-344.236390289112 -401.729589112112 2034.73782564268 12 15 8
-428.766106519368 -397.246874278781 2021.1555976435 9 12 5
-375.003967353004 -400.266193425287 2007.13438950982 10 13 6
-368.254993151914 -400.70932273468 1996.65610034739 16 19 12
-377.507610991989 -400.274546093525 1987.49067825376 17 20 13
-379.759356724813 -400.223221849017 1977.76541105411 16 19 12
-386.010410119171 -399.951913265951 1968.41152051948 14 17 10
-409.257901995931 -398.746611629022 1960.6661604458 13 16 9
-437.500916021444 -397.265599627711 1953.52465996775 14 17 10
-388.762946832895 -400.013654267577 1938.98288140871 14 17 10
-462.986886437778 -396.003461013251 1936.57847971489 14 17 8
-426.562181904722 -404.915659247403 2294.61791457896 21 29 14
-450.862936357626 -403.615562188887 2284.91735020338 18 29 15
-390.477374553198 -407.633893538674 2215.79651200788 9 12 5
-351.662900073201 -409.932314974891 2205.00255776435 12 15 8
-353.919255113081 -409.885188802029 2195.09263531141 11 14 7
-464.339508853297 -403.654129319382 2188.382555991 10 13 6
-424.526751141504 -406.009496584696 2177.4356627906 12 15 8
-396.7362536223 -407.678382749892 2166.68952579051 13 16 9
-272.823444988682 -414.849560261066 2152.16507490463 12 17 13
-279.089644352021 -414.572320803792 2142.22559554959 0 10 22
-448.256525595434 -405.788835345004 2032.44998750578 11 14 7
-433.746048507297 -406.769030191543 2011.85751448058 14 17 10
-425.992066273807 -407.287718338195 2001.45980486206 16 19 12
-429.240750181929 -407.172698143531 1991.94729384689 16 19 12
-433.48899148022 -406.999570860758 1982.53917013586 14 17 10
-393.737269547146 -409.361734587058 1969.19948974711 14 17 10
-398.237693579795 -409.245032124452 1949.87460654183 14 17 10
-321.50503399111 -413.742593815433 1932.48069163471 14 17 10
-420.731842879166 -408.088093068274 1932.41239424672 13 16 9
-401.483337543613 -416.218648831219 2284.87110577795 24 32 17
-417.768288772794 -415.331107293305 2275.12898490833 19 20 12
-488.410672509545 -411.278163971769 2256.29879847263 14 17 10
-365.91016574149 -418.847401759765 2225.26677837106 13 16 9
-327.091667834694 -421.252906371973 2214.51509591761 12 15 8
-361.405376106535 -419.282505073788 2205.30292348313 12 15 8
-447.80110058191 -414.191757601623 2197.66913617015 11 14 7
-457.061930087472 -413.716946873657 2188.23508404984 11 14 7
-402.223599209418 -417.082195563049 2176.78625700006 14 17 10
-327.618887752716 -421.715714466299 2154.30442558842 12 16 15
-398.214444795596 -418.258283992973 2058.43932423697 11 17 15
-356.197210817589 -421.089675588161 2015.80607163368 15 18 11
-448.481860941063 -415.600961220706 2013.10759653061 17 20 13
-415.719539033836 -417.649124502563 2000.71088256155 17 20 13
-406.966619564271 -418.249882393009 1990.1588186144 16 19 12
-426.467062051539 -417.217297108027 1972.23370745687 13 16 9
-369.715709030836 -420.715678378875 1957.19314159588 13 16 9
-360.221563163622 -421.433205209377 1936.37723367016 14 17 10
-369.472565875295 -420.945605080386 1927.34097897072 12 15 8
-345.828976646102 -429.393039346585 2294.78325775263 15 25 16
-307.992165265823 -431.840955685834 2284.73581328917 16 27 11
-498.653291105891 -420.355267319224 2237.34507976052 18 21 14
-410.724154022752 -425.935138010185 2226.15911248151 17 20 13
-319.801866143537 -431.705924712876 2214.42637068844 13 16 9
-349.109684496494 -429.956016934598 2205.07483462593 14 17 10
-368.899591361437 -428.964510749183 2175.78302046721 14 17 10
-358.134704640847 -429.720674647347 2165.48241981932 14 17 10
-320.33163647431 -432.172139531116 2154.10303872785 9 15 13
-270.586468596649 -436.021278216767 2060.41932925925 73 83 93
-439.974998412599 -425.44328234322 2061.24154459444 17 27 26
-369.172580640748 -429.974276973806 2046.6956341902 2 11 6
-385.434796972281 -429.026575586279 2037.90666689188 13 16 9
-345.66353819597 -431.606628854901 2025.09660100689 14 17 10
-430.206406874105 -426.429967351254 2011.75476105904 19 22 15
-377.43587866148 -429.829843739638 1997.67751052032 18 21 14
-360.682554286355 -430.960239346069 1986.34703183029 14 17 10
-371.937809216643 -430.324125221796 1977.36276870058 14 17 10
-365.188879793663 -430.823204206273 1966.82265500254 12 15 8
-440.940932737221 -426.256444498879 1944.39072561403 14 17 10
-433.189374894793 -426.816504147604 1933.8631656499 17 20 13
-337.77582020365 -439.587883489729 2324.80628818105 115 101 56
-336.024183645025 -439.791080107056 2314.83181230999 25 8 0
-380.391526166702 -436.992701376886 2304.68739698266 21 22 17
-369.614585849425 -437.781697703652 2294.8226397161 10 20 12
-428.255139031255 -434.135403892201 2275.29369767744 24 25 20
-439.528100728385 -433.485728012668 2265.63195432819 24 25 19
-357.843770789657 -438.981357091357 2245.13536349486 21 24 17
-476.587718864546 -431.401668350806 2227.43847334409 19 22 15
-403.689064766363 -436.243050472657 2216.27114644553 15 18 11
-336.8119720527 -440.694048306034 2204.84712608276 18 21 14
-373.634541526516 -438.53769976512 2176.00527102419 14 17 10
-357.860300461883 -439.651445523034 2165.54418879549 11 14 7
-247.284178243485 -447.708302325311 2059.05193730582 64 74 84
-382.909688481411 -438.9617161059 2047.71274175256 4 13 8
-391.16837507286 -438.795915651731 1998.88846640083 16 19 12
-338.400234150055 -442.341733722773 1984.56121136712 14 17 10
-323.650175491405 -443.387272986402 1973.2529294834 13 16 9
-402.421138840841 -445.77226408706 2255.59434828739 11 21 12
-441.757908947794 -443.184926779632 2246.28539570835 17 23 13
-458.284746989081 -442.229020257785 2227.16290533378 19 19 7
-410.432513631827 -445.566730480069 2216.47853723265 14 14 6
-396.653918387488 -446.587859442771 2206.34579632596 4 5 0
-344.805195986356 -450.200381563196 2195.12102060681 6 10 11
-337.044166018978 -450.81307696894 2184.90714787694 12 17 20
-332.289310399677 -451.220888069319 2174.74604221081 15 18 23
-362.619929414124 -450.19872310217 2046.42219522881 13 13 11
-376.883323589206 -449.300059315731 2037.47582081128 15 16 10
-356.372874273565 -450.856860244459 2016.08698679712 21 22 16
-405.903447724616 -447.615525881927 2000.1806908196 14 15 9
-335.122606416401 -452.539960964896 1984.37837620359 16 17 11
-402.401228099071 -448.003590545512 1980.20091999196 15 16 10
-339.632769919987 -452.380837139698 1964.71838952668 14 15 9
-429.906851425998 -446.263539055949 1963.04917727495 14 15 9
-409.151699724486 -447.759607781265 1951.29869454741 14 15 9
-429.475645286963 -453.381776313613 2285.1524612289 17 22 16
-440.997115194087 -452.741389207158 2265.7588577957 12 23 15
-449.262876910582 -452.243114558 2256.13253387464 12 23 15
-450.757032088755 -452.307230475972 2236.77509259144 17 17 5
-467.037874772833 -451.239948426416 2227.38653941548 17 15 3
-415.172983040338 -454.992601652647 2216.64325519077 10 10 2
-381.352193703321 -457.470251342062 2206.04580383093 20 22 17
-360.561539294843 -459.026577226848 2195.60886559458 5 11 11
-315.728523963947 -462.286071111211 2184.35011569285 11 16 19
-291.939907001299 -464.056336560447 2173.52041741163 0 3 7
-396.380307942007 -456.74057681693 2167.03007253711 130 131 135
-386.367762645645 -458.411368614137 2048.11765728233 11 6 0
-420.647615602114 -456.049512685895 2040.64898168693 14 15 9
-467.177513822103 -452.888573540093 2024.59933611013 18 19 13
-372.361420887514 -459.71513559713 2007.46507751131 18 19 13
-355.603563267869 -460.98465199723 1996.17172131583 15 16 10
-352.855094289024 -461.25622106076 1985.96600993598 15 16 10
-345.1049753459 -461.883975149132 1975.30952772676 15 16 10
-341.357378904422 -462.226219712429 1964.96913099289 14 15 9
-326.606903074594 -463.352913705868 1953.59001590536 14 15 9
-377.873749025917 -459.770152936712 1948.41642171335 14 15 9
-370.628087980121 -460.505706527604 1917.918905746 17 16 12
-496.386152337094 -458.178436584111 2285.34111052535 22 24 19
-470.561018712124 -460.158161519345 2275.66431311884 21 27 17
-428.698960599444 -463.315060737254 2265.72490697845 18 27 24
-476.306356545974 -459.993638494693 2246.85271862177 15 17 14
-482.564449169339 -459.618840513796 2237.33482957721 14 15 9
-435.702007394291 -463.145042804357 2226.87175120435 13 14 8
-414.903205546706 -464.757961393464 2216.70180301356 13 15 10
-351.269102123981 -469.605612708137 2195.42911642856 8 14 10
-321.462804235228 -471.883135434589 2184.58828542822 10 15 9
-335.744727333874 -470.918075070172 2174.99835281006 0 2 0
-444.153427057394 -463.977518357294 2052.11844229264 20 6 0
-394.353529607477 -467.733288713074 2038.88100474395 11 12 6
-422.628051300118 -465.7207967369 2031.0880625381 9 10 4
-415.870888313217 -466.296428704934 2020.78754834286 12 13 7
-384.096566373619 -468.721727100388 2008.4795962329 14 15 9
-356.329254363473 -470.85157711812 1996.32301694883 17 18 12
-380.596387682154 -469.132242071673 1988.39595321988 15 16 10
-355.834799143412 -471.040015463613 1976.33754739962 15 16 10
-346.083431361774 -471.837159504486 1965.48927612699 15 16 10
-372.346886133903 -469.96740599877 1957.9168858227 15 16 10
-492.386354206253 -467.735759122167 2314.0713503312 31 30 12
-557.052251434734 -462.996757981495 2294.90130046673 27 27 27
-523.196936415284 -465.656433507269 2285.4484622678 26 28 23
-467.287611480303 -469.994637207553 2275.70494708056 22 28 18
-438.456740968938 -472.275003267841 2265.85546879426 13 19 19
-426.672816895787 -473.259070536501 2256.02018629576 12 16 19
-446.969679378106 -471.800967761509 2246.53327254318 11 13 12
-461.249330334095 -470.799648037537 2237.06175085065 12 12 10
-437.438624259539 -472.698778637364 2226.96633089806 13 14 9
-467.753255693951 -470.474242631287 2217.88283290973 13 18 14
-363.020036917548 -478.627931431821 2195.80964763934 23 30 23
-365.276341212378 -478.541599310039 2185.94380480719 0 2 0
-319.49646960936 -483.118424183602 2053.82573255815 123 91 32
-361.797171233557 -479.958776414761 2046.62438190552 34 10 0
-371.05857927856 -479.328037037671 2037.32581784568 11 12 6
-355.295461174913 -480.614087791721 2026.24500393523 9 10 4
-390.578894515748 -477.987443007302 2018.9547268471 10 11 5
-383.82391011347 -478.582170853246 2008.54856233476 13 14 8
-357.055366576437 -480.711655278004 1996.47453038423 15 16 10
-391.330569949099 -478.158751255064 1989.39270936114 15 16 10
-424.600511749947 -475.681071619535 1982.41106097529 15 16 10
-375.823324074005 -479.499448201366 1968.25284749586 15 16 10
-358.067003490266 -480.937558031317 1956.69369830944 15 16 10
-359.320192979616 -480.916125234521 1946.84588651794 17 18 12
-380.57940077885 -479.357238057671 1938.96356041469 17 18 10
-380.830726794472 -479.41142415678 1929.0826882227 21 17 6
-522.213794190725 -474.911313514013 2313.93588883017 25 24 19
-535.732635007346 -474.022869399824 2294.97010398546 22 22 24
-509.898924648146 -476.144296663421 2285.4763660174 21 23 20
-435.93679416293 -482.058016121191 2275.61382531282 17 22 15
-407.105636061756 -484.418487931372 2265.68025085961 18 20 17
-436.430290970788 -482.195671005923 2256.17845728073 19 19 19
-478.025253431766 -479.089403637318 2237.38503553723 18 20 17
-471.496855769746 -479.775365132031 2218.02511661018 13 22 19
-377.779436258101 -487.345746889339 2196.2697249628 0 3 0
-358.266776037409 -490.054598621364 2056.43052945145 238 192 142
-387.552947720239 -487.811513184732 2048.45455643209 34 1 0
-344.009677176028 -491.424098978639 2025.50782651136 12 13 7
-369.287105345335 -489.496166790854 2017.42707756415 12 13 7
-365.535687915529 -489.871755004002 2007.20021644756 13 14 8
-394.811078011949 -487.623875457391 1999.64144793247 14 15 9
-417.077555783643 -485.931092929757 1991.6527750873 15 16 10
-400.315040447477 -487.338433450224 1980.39347366303 15 16 10
-389.558492113707 -488.268681811705 1969.58006148325 15 16 10
-397.062955596251 -487.821360081205 1950.53571386558 16 17 11
-401.314594800757 -487.557098205778 1941.09264151534 15 18 9
-388.560344687584 -488.64540695227 1929.96097373136 14 16 3
-428.649175034627 -492.328167298484 2275.6361466429 20 25 19
-439.926668097565 -491.498137038298 2265.98162767575 21 22 16
-369.485118628546 -497.510837995813 2235.75011653102 18 20 15
-457.954785871682 -490.378340225569 2227.46805924776 14 19 13
-451.429138589972 -491.083369769328 2207.98017212789 11 21 20
-468.713599403246 -489.756767510542 2198.75334566038 1 7 3
-372.765740367467 -499.005716594784 2027.70132026583 20 21 15
-356.000212766021 -500.460930613431 2016.50834572853 19 20 14
-401.295654775046 -496.819127456916 2010.10435336637 18 19 13
-371.770965847791 -499.398854623254 1987.93278475066 16 17 11
-387.034019393019 -498.221003856616 1979.33351525594 15 16 10
-355.516353254957 -500.964370594121 1956.6530480281 14 15 9
-405.795838264413 -496.904079785956 1951.46418818699 14 15 9
-367.27982377058 -500.221801191088 1927.92026274673 5 19 2
-434.414531129672 -501.170911179664 2314.5871833709 21 23 12
-467.005291923784 -498.611020336688 2295.13039174993 21 21 21
-441.172357388961 -500.87624972208 2285.45192823448 21 23 20
-431.38958356776 -501.790532413403 2275.70533932331 18 23 17
-445.676212616787 -500.676944234279 2266.08163480196 23 25 14
-491.046800156986 -496.942554355575 2256.84943204276 24 26 13
-399.540335707878 -504.922498822754 2226.4588241936 12 17 10
-423.094721249252 -503.110812623033 2207.37008560982 10 20 19
-442.386957679983 -501.5689297752 2198.11990811754 0 2 0
-422.302316506865 -504.586625062228 2041.19593540108 20 21 15
-401.775940751889 -506.484418625992 2020.07275496741 12 13 7
-391.264697925746 -507.532067693906 1999.53657313929 14 15 9
-376.502025767814 -508.862643551876 1988.424544949 13 14 8
-376.753529015063 -508.918347301794 1978.53511639453 13 14 8
-382.008627706319 -508.548551805165 1969.09484685507 13 14 8
-387.263259744374 -508.178065026486 1959.68288277294 13 14 8
-303.719647239713 -515.430301284733 1931.74173752987 9 14 7
-538.2465703053 -501.734840531948 2323.41312047783 35 38 27
-525.443528887622 -502.937159952846 2314.06597001494 26 28 23
-439.409266771111 -510.50125031966 2304.90754626992 24 26 23
-478.777270095703 -507.172500230211 2295.17396329153 24 26 23
-411.816555153569 -513.083345848207 2285.45071718302 24 26 23
-429.115468158658 -511.671042752717 2275.75106795224 24 26 21
-477.502423480585 -507.553648090735 2266.37381439678 20 24 9
-453.166195346071 -509.937959832058 2237.17918027137 15 17 3
-469.453938849681 -508.608011027113 2227.80295049446 13 17 3
-372.449678103857 -517.144224538857 2216.12852963483 12 19 12
-367.688595583743 -517.648272065599 2206.11678634912 13 22 19
-472.098238648312 -509.950828122479 2044.78709192823 15 16 10
-449.314495524535 -512.023228894612 2033.47651995087 14 15 9
-392.494273830795 -517.076494683111 2019.45806516425 14 15 9
-361.710610547595 -519.851310154818 2007.17394305577 14 15 9
-343.944427055155 -521.486594477383 1995.7792349358 13 14 8
-350.203965831347 -521.016781224781 1986.30684531 12 13 7
-399.750833948117 -516.828543054819 1970.78040972891 12 13 7
-375.982749915332 -518.988910166539 1958.73867708624 12 13 7
-236.183494983169 -531.638610819163 1894.34378956734 11 16 10
-461.972441740234 -518.042888029421 2314.51587174572 22 25 18
-461.21388836223 -518.203629454565 2304.88201191555 19 21 16
-457.445890058692 -518.633592025986 2295.24480578558 18 20 17
-456.687871551696 -518.793425515653 2285.59101621466 18 20 15
-472.981696648164 -517.423799562649 2276.01037419859 18 21 14
-459.183975409579 -518.751815659266 2266.2956316343 17 23 9
-445.388223397775 -520.079875867699 2256.50387750176 16 23 7
-490.002433473008 -516.254663543041 2237.8135578149 13 15 1
-482.22386423657 -517.041186148625 2228.09853821976 13 16 7
-420.303794900237 -522.69055525544 2217.20028747385 12 17 10
-385.461694835294 -525.909656263314 2206.60559741358 12 18 14
-446.864625279085 -520.480498463862 2198.37081975202 18 24 22
-425.768890654771 -523.715578004134 2041.61298461836 14 15 9
-425.015607120164 -523.862927715925 2031.78754004287 14 15 9
-346.165269834698 -531.061185923982 2016.03435715031 16 17 11
-314.381118365634 -534.011794975941 2003.54653897827 17 18 12
-331.655628089858 -532.531685573839 1994.87345969113 15 16 10
-340.91958006736 -531.774026100605 1985.62107174899 13 14 8
-379.210339952724 -528.392162126477 1978.93876189762 13 14 8
-428.505578966089 -524.013353906024 1973.45148281214 13 14 8
-359.200801032351 -530.508965068646 1937.37132735449 14 13 8
-370.460455669639 -529.566094539538 1928.54447983577 15 9 9
-181.873690398829 -546.787638791448 1888.69397125664 20 22 19
-512.639952182677 -522.865285416323 2323.74157396735 21 26 19
-431.604658448095 -530.43613539929 2314.75834936522 22 27 20
-469.97843249624 -526.988234183909 2304.90246415908 21 26 20
-442.130811160768 -529.65229991248 2295.31105182913 21 26 20
-456.42187603659 -528.425409475568 2285.64495985647 23 26 19
-459.676405264715 -528.216845287937 2276.00443382142 21 24 17
-468.948716077052 -527.451474886484 2266.42430826992 16 25 20
-504.297871206471 -524.274576916347 2257.15621550294 15 24 19
-460.411237878211 -528.42196165115 2247.06439153158 17 20 11
-460.656221287939 -528.489253863708 2237.4173380147 18 20 9
-450.873153794324 -529.483760723658 2227.58676351693 19 19 7
-441.338160652962 -530.544225142536 2207.99908859737 15 18 11
-386.443049092426 -537.078797129296 2038.93382463585 13 14 8
-336.62400309596 -541.792295184713 2025.41644437815 13 14 8
-349.895333630655 -540.639233717895 2016.4083445073 13 14 8
-348.146218600487 -540.882444124621 2006.2923548438 14 15 9
-378.435007796902 -538.143897222956 1998.77076635085 12 13 7
-370.677260395369 -538.94484287754 1988.21714616941 13 14 8
-359.917712015893 -540.025150421704 1977.35986417529 13 14 8
-435.243278866842 -533.088825083116 1974.15007058133 13 14 8
-463.515791458187 -530.531512343832 1967.01131280069 14 15 9
-358.673707022035 -540.374353320281 1947.37929313204 15 16 10
-373.937968203838 -539.028710703989 1938.91298698178 16 15 10
-393.202852485433 -537.309034952107 1930.93205134636 13 10 5
-529.678626167332 -530.789374520263 2314.18826829177 20 25 18
-456.669145574721 -537.819795610942 2305.00200326857 20 25 18
-460.927460857162 -537.508935743773 2295.34804000012 22 27 20
-451.139424067139 -538.532822514562 2285.68946172332 23 26 19
-422.291800664766 -541.369483320135 2275.88811321138 21 24 15
-463.668072536703 -537.52645206755 2266.4422823771 15 25 26
-481.96784272689 -535.876660883449 2256.98882546486 14 24 25
-475.190299657631 -536.612399631348 2247.31292515944 19 21 16
-453.369707036158 -538.780252579652 2237.36476767317 21 21 13
-346.857731911655 -550.595363921871 2046.2218929916 21 23 18
-355.123291645507 -549.887085729718 2036.81962409436 15 16 10
-410.456812994318 -544.672712106505 2030.90014005181 14 15 9
-370.152091516612 -548.772211424379 1998.19069376744 13 14 8
-373.407504804559 -548.539904988467 1988.5411082096 11 12 6
-347.630039087024 -551.089027168263 1976.38990894192 11 12 6
-439.225982830778 -542.465187519755 1964.86655918314 13 14 8
-449.482125846861 -541.557701337874 1956.10494254828 14 15 9
-433.715030810616 -543.145249346431 1944.85583640914 14 15 9
-461.17608855257 -546.88432731589 2314.67239682004 22 25 16
-483.497578662258 -544.797520931993 2304.956723703 20 23 16
-469.692811299455 -546.241178448207 2295.39320123228 20 23 16
-456.893296696641 -547.586711963773 2285.75443836206 24 27 20
-456.135094950713 -547.754509213093 2276.09925953165 25 28 21
-443.338409252596 -549.099745530232 2266.35025237477 21 23 18
-483.710156933912 -545.241082943962 2257.06400385384 25 27 22
-465.897955242207 -547.076283251313 2247.25319198955 21 22 14
-462.130523667219 -547.536436236138 2237.56142000386 18 19 11
-440.310710399468 -549.764575738855 2227.51807161527 13 15 4
-378.88757647194 -557.441800916237 2038.57853573876 14 17 10
-415.442855375077 -554.005838472302 2021.5572729849 13 16 9
-350.600509660156 -560.471844984419 2006.67037852577 13 16 9
-314.805671957356 -564.078808534578 1993.78735703848 13 16 9
-311.056089740256 -564.529425857431 1983.39888418413 15 18 11
-376.389640723603 -558.171568120114 1978.9809780871 15 18 11
-435.200977571059 -552.606801587147 1954.84645180963 13 16 9
-441.453835692349 -552.066127828436 1945.71124987444 12 15 8
-450.383904370935 -557.358535725569 2334.11234962775 21 24 17
-477.729390538638 -554.709989488717 2324.20411831719 24 27 20
-534.176427610458 -549.136512567359 2314.25832170634 26 29 20
-458.389626912805 -556.939483172909 2295.45603303641 25 28 21
-472.682393359325 -555.597625975601 2285.83755545099 25 28 21
-467.909364565705 -556.171443083423 2276.2084759271 25 27 22
-480.193169726794 -555.029486035252 2266.67620371006 19 20 14
-439.304478978425 -559.235379226557 2256.67606195762 20 21 13
-361.557031296608 -567.246371118271 2236.06296854107 15 17 6
-370.350035634017 -568.04779437943 2047.98336401382 18 19 14
-344.557834736088 -570.73962017213 2036.25484249249 12 15 8
-388.882403929985 -566.338899017559 2029.50262887726 13 16 9
-356.081770587742 -569.739445170168 2017.15117393689 14 17 10
-337.306602380497 -571.72148230181 2005.71993026133 15 18 11
-358.590132517075 -569.648735276072 1997.43874608711 15 18 11
-343.822530623385 -571.22470386465 1986.2465804449 13 16 9
-343.07495621333 -571.380955850921 1976.18844492768 14 17 10
-401.398286952398 -565.55308593409 1971.40938806288 15 18 11
-428.678372908948 -562.867378897407 1964.08779917967 15 18 11
-391.886966063272 -566.672849400638 1950.83284877033 13 16 9
-424.168799797609 -563.478144871001 1944.12228608492 12 15 8
-464.416197088749 -565.618295574521 2324.37393558442 23 26 19
-485.738321986496 -563.515880895269 2314.61618928551 21 24 15
-478.955670871685 -564.311569194861 2305.07555988403 20 23 16
-472.174017689581 -565.10701301062 2295.49619032327 21 24 17
-471.414186837779 -565.280675410484 2285.88906025876 22 25 18
-480.689091872483 -564.417567559403 2276.32181124446 20 22 17
-483.942536398999 -564.175374011492 2266.75978772291 22 23 17
-450.073729821858 -567.767697984798 2256.84216505108 13 14 6
-411.19343443674 -571.879207033816 2246.67396595616 25 26 18
-417.708542077212 -571.393046702605 2227.23061200872 20 21 15
-394.370923473792 -575.482094690174 2039.84263319436 11 14 7
-386.607486469469 -576.371197205404 2029.42605114063 12 15 8
-350.799596973792 -580.174039268871 2016.84281967136 13 16 9
-361.068189815697 -579.189352030385 2007.67751326353 14 17 10
-364.325028513535 -578.932547183246 1997.99852225644 15 18 11
-377.59558134729 -577.633792494986 1989.1772517928 12 15 8
-431.919331652165 -572.064633476913 1983.98657277744 13 16 9
-403.379286319066 -575.190426094494 1961.85356033727 13 16 9
-356.575469634146 -580.139025682435 1947.58127447299 13 16 9
-264.7301561042 -589.777083775771 1928.65370783259 13 16 9
-333.565922170087 -582.846596395698 1905.30575992508 25 26 20
-488.001216139688 -572.593006172048 2333.76193900349 20 23 16
-452.1048717984 -576.489876355814 2324.53486917144 26 29 22
-502.539295578361 -571.248606739172 2314.55850953025 19 22 13
-514.825618989534 -570.043729938184 2304.99537376089 18 21 14
-441.800104999907 -577.874107732382 2295.57681753802 19 22 15
-459.106825987594 -576.137139640082 2285.92060556777 19 22 15
-478.418315306721 -574.186284164192 2276.36640659961 17 19 14
-446.55162009751 -577.658900376154 2266.54419265494 21 24 17
-404.655705539483 -582.196076986748 2256.44597812476 12 15 8
-430.990197373509 -579.498576850586 2246.9859839366 18 21 14
-437.256485125591 -578.927957802778 2237.35805845236 21 24 17
-388.088676439372 -585.929190929967 2039.48970216795 13 16 9
-343.259670183895 -590.791300453795 2026.35349846585 13 16 9
-341.509725026247 -591.061625398604 2016.23151476903 12 15 8
-316.722824052818 -593.788345095551 2004.29240990233 12 15 8
-322.987408147531 -593.20328491192 1994.73725024109 12 15 8
-382.330323994833 -586.954272940861 1989.66962706531 14 17 10
-361.551482030905 -589.25231118005 1977.98394876202 14 17 10
-350.789054733399 -590.481659821171 1967.07915600648 13 16 9
-412.120158992271 -584.014163227596 1962.75715791024 13 16 9
-347.290230827986 -591.015151257342 1946.80119581636 16 19 12
-348.544909303884 -590.960387300755 1936.940302493 17 20 13
-260.703825997858 -600.42274522097 1918.14417280065 9 12 3
-241.204010479587 -602.666226500088 1895.63645112466 18 21 12
-538.942153644798 -576.565281568965 2333.20463514295 16 19 12
-513.079085268514 -579.46985706843 2324.02675071279 25 28 21
-471.157574077524 -584.118966815796 2314.80875608892 24 27 18
-491.477192720865 -582.009773808503 2305.13154327819 22 25 18
-470.885102001273 -584.440203648492 2285.99550271142 20 23 16
-498.225992433484 -581.564522194786 2276.51076896697 18 20 15
-443.274612540081 -587.633631739903 2266.57709151731 18 21 14
-420.441249485994 -590.212317155072 2256.66222885233 13 16 9
-433.732668126586 -588.862369527346 2247.08041741 17 19 14
-372.03819285757 -597.55912723943 2028.54298376852 13 16 9
-334.222174970861 -601.777706491283 2015.77233129136 14 17 10
-321.454164661985 -603.25799745458 2004.75757930836 15 18 11
-344.746840003979 -600.79352147935 1996.59829731558 15 18 11
-319.961071062234 -603.58797082187 1984.5329010638 14 17 10
-362.279143459493 -599.039365343215 1978.14399623939 13 16 9
-289.427358707046 -607.094611494794 1961.69405327271 13 16 9
-358.77830165666 -599.584056417072 1957.94220195071 13 16 9
-349.271202965233 -600.784739278746 1937.11375953126 16 19 12
-228.908794257225 -614.210918248737 1894.44505181416 16 19 10
-565.556213874797 -582.866811367766 2342.27316094 18 20 15
-532.658701375834 -586.623796846873 2333.3253619554 25 28 21
-490.729665545254 -591.387040181293 2324.27890845798 24 27 20
-451.818336573929 -595.816250662853 2314.98248608852 24 27 18
-485.191080648586 -592.200099896483 2305.20537133382 20 23 16
-496.475586995858 -591.04114178237 2295.62992631601 20 23 16
-487.684242667689 -592.116987049277 2286.07885150743 22 25 18
-434.732956695705 -598.112489667903 2276.27925684578 23 25 20
-512.255782020305 -589.570992325569 2267.13282415766 19 21 16
-527.549784522577 -587.960841230729 2257.78813300643 27 29 24
-467.826791861165 -594.80745939923 2237.95132458496 20 22 21
-339.450199503573 -610.957454591185 2036.25413586544 11 14 7
-369.761495142758 -607.646736043892 2028.46727146847 11 14 7
-364.001999266911 -608.376255121503 2018.11740019124 11 14 7
-383.287937599088 -606.298349080641 2009.69823941821 10 13 6
-305.405178501084 -615.112500433673 1993.50188933022 10 13 6
-330.702467395847 -612.359702256853 1985.53059200099 9 12 5
-286.887605360593 -617.356554963044 1971.71227919711 9 12 5
-317.190349134452 -614.040381791506 1964.27483286603 10 13 6
-314.441421901365 -614.430696581704 1953.95953163361 10 13 6
-410.827748374238 -603.695377303187 1953.02870828376 10 13 6
-343.989889039385 -611.276337136172 1936.70127464252 10 13 6
-524.125864175547 -596.870264912093 2342.92306167178 25 27 22
-543.444716580967 -594.768411152363 2333.2432181119 22 25 18
-479.422051570664 -602.163990959098 2324.43041982898 24 27 20
-466.612922737549 -603.723993774952 2314.9371337676 24 27 18
-469.868542429741 -603.452036553382 2305.31273038849 22 25 18
-494.205534466341 -600.774759945269 2295.6839098302 22 25 18
-474.371612911217 -603.135158028292 2286.10867322233 21 24 17
-470.600069540636 -603.662995031248 2276.49560577841 21 23 18
-488.910082249196 -601.66992401352 2267.01974800125 22 25 18
-550.372022250217 -594.748374452348 2258.07176296844 27 29 24
-566.666926915086 -592.981082740574 2248.88523533234 20 22 19
-348.942682619478 -619.699477561013 2046.97809384464 24 26 21
-328.152200026652 -622.171169698208 2035.55159067448 14 17 10
-397.794045566751 -614.349347796221 2020.76447271697 16 19 12
-278.822927090459 -628.091354015629 2001.6058605692 15 18 11
-319.152308223263 -623.545957868517 1994.71280513735 14 17 10
-342.446973424457 -620.95459120893 1986.61199799786 13 16 9
-349.712286169119 -620.203017522765 1977.25049678622 13 16 9
-348.963630007635 -620.371252276308 1967.21244890141 13 16 9
-350.218456013704 -620.308665101002 1957.35418955763 13 16 9
-364.491597877284 -618.749265894613 1948.7362885117 13 16 9
-431.224042444747 -616.995398182544 2354.02728182745 28 30 27
-527.88287905207 -605.825107776619 2342.91285689225 23 25 20
-477.911075007349 -611.755069423238 2334.0689702161 22 25 18
-508.278920182542 -608.312359301107 2324.21367644093 28 31 24
-501.491357746817 -609.204150984197 2314.7618100629 21 24 15
-478.640442557646 -611.971034736194 2305.33087276142 20 23 16
-465.832247633825 -613.565917176682 2295.76363523498 19 22 15
-491.173472938925 -610.704958081327 2286.19128564972 18 21 14
-497.438771940795 -610.070665674569 2276.6703714979 18 20 15
-518.759255824356 -607.676031502838 2267.29052450325 16 21 14
-514.985174271391 -608.212888981142 2257.77629731617 24 29 22
-496.157524056544 -610.509375010913 2248.04927650835 12 17 13
-375.727984341851 -626.442029088774 2048.87104895183 10 15 9
-333.141230081248 -631.616760044164 2025.9805245922 15 18 11
-329.641818528514 -632.199493844688 2005.68198382498 15 18 11
-264.775157681381 -639.909310665289 1990.40057646229 15 18 11
-340.168544280447 -631.131200585815 1986.517718777 13 16 9
-400.525537049842 -624.117231467851 1981.74597045292 13 16 9
-340.675956090453 -631.237959058231 1966.57167844472 13 16 9
-364.218159105462 -628.632128502153 1948.81176624096 13 16 9
-484.43504816928 -620.390148745243 2343.59359818509 32 34 29
-495.725114113903 -619.144505906129 2333.90326501299 24 27 20
-505.004874444262 -618.137711524241 2324.29120896704 14 17 10
-525.329625751462 -615.810608517071 2314.65669363549 21 24 15
-471.348185725488 -622.358398818385 2305.40859743414 20 23 16
-470.587875234436 -622.549402203236 2295.81091870722 19 22 15
-514.001725611877 -617.460305063127 2286.28371460568 18 21 14
-583.510701964659 -609.248577078543 2277.10823589491 18 21 14
-557.647420963012 -612.436352738619 2267.62525829106 12 18 8
-493.6452587643 -620.186368603698 2257.62124817549 29 35 25
-360.421598961383 -638.092954493902 2047.92802052549 24 29 23
-376.709010193325 -636.222952717157 2039.13531957595 14 17 10
-245.197294832619 -652.292373474749 1999.16427496184 14 17 10
-263.492539217634 -650.179623972591 1990.39411596838 14 17 10
-374.208191816601 -637.031687790219 1979.56563541159 13 16 9
-319.364397073619 -643.713785027261 1964.76897861493 13 16 9
-329.636125179001 -642.56085882347 1955.66177729292 13 16 9
-347.919302719603 -640.442496021964 1947.36925950953 13 16 9
-247.279196692341 -652.724076097647 1917.33280914871 5 10 4
-291.600274149009 -647.46856747475 1911.64419445886 15 20 14
-487.18544582689 -629.548956060224 2343.59831826312 26 28 23
-490.440941790339 -629.25425182369 2334.01249941288 17 20 13
-538.890078178413 -623.440107751899 2324.02683322266 21 24 17
-488.916943145319 -629.644002106491 2314.94083833863 21 24 15
-483.13422498098 -630.451365418963 2305.41499139803 20 23 16
-493.418021074052 -629.295230018657 2295.83957709938 20 23 16
-565.950464843158 -620.529442485226 2286.4252347109 19 22 15
-543.096465510816 -623.420464811027 2276.98154596886 20 22 17
-540.323525396361 -623.856603261676 2267.55554940816 31 37 27
-507.436359189565 -627.975587237322 2257.81469537863 12 18 6
-343.361272428518 -650.127504159335 2036.88820885283 11 14 7
-400.741411305951 -643.16258334884 2031.08507316086 11 14 7
-290.008946426129 -656.947999045501 2002.76867284616 11 14 7
-262.209574259909 -660.453683117205 1990.38785087966 11 14 7
-321.583287950952 -653.237470830121 1985.15504648917 12 15 8
-348.889001283464 -649.96311066862 1977.47322615248 12 15 8
-355.152684829188 -649.27610845431 1968.06272056664 12 15 8
-406.493877768313 -643.040552726154 1962.83175545531 12 15 8
-427.777819390388 -640.501867332338 1955.0347777368 12 15 8
-274.55474501728 -659.693595834456 1899.82152773697 14 19 15
-509.786126342496 -636.109754339667 2352.79394689477 21 23 20
-508.01791143015 -636.433827092705 2343.33762303272 20 22 17
-485.398785842535 -639.462403304875 2324.56655992987 21 24 17
-488.65426673793 -639.158332085117 2314.99138753653 20 23 14
-501.951812746902 -637.599378883973 2305.39451139923 20 23 16
-524.284990511565 -634.910478868302 2295.85920121953 19 22 15
-529.545589821334 -634.352670789736 2286.41514667193 20 23 16
-500.668075825259 -638.060052749287 2276.84711279393 20 22 17
-481.834292188554 -640.513056082321 2267.19175113392 17 23 11
-460.995522945513 -643.217193928556 2257.4122000166 20 26 14
-423.276207324883 -649.984449726838 2042.57538134158 11 14 7
-333.317059489468 -661.371384881335 2026.26843953353 12 15 8
-289.730255507148 -667.023504968145 2002.84257712592 12 15 8
-369.152315960824 -657.12817141363 1999.14674983209 10 13 6
-312.288921705118 -664.361809105681 1984.47451290113 12 15 8
-342.60291947492 -660.635757893233 1977.02799210704 12 15 8
-358.886485536096 -658.672246203031 1968.49530228289 12 15 8
-446.296165938309 -647.760714731606 1966.59067622392 12 15 8
-390.695189904986 -654.918178424313 1941.76871353177 12 14 9
-232.953627008963 -674.935276555305 1905.82545737208 12 16 15
-511.775196536397 -645.379288899821 2343.32692939639 20 23 16
-498.956848410446 -647.11725453953 2334.0028824624 22 25 18
-490.158129797797 -648.342681526062 2324.57008611882 23 26 19
-502.453057172144 -646.877271928368 2314.95041771449 20 23 16
-502.694397686563 -646.948425831988 2305.44159477951 20 23 16
-535.07189560443 -642.917979628362 2295.89882423395 18 21 14
-515.227189029088 -645.550840685121 2286.44322903249 19 22 15
-519.484408330018 -645.107140101553 2276.98405943662 19 22 15
-527.75698104649 -644.149699291567 2267.57523051352 23 25 20
-466.754488302254 -652.039925409991 2257.52633485532 11 13 8
-343.814767494586 -669.854308475783 2037.10041414741 11 14 7
-272.899452531022 -679.043724719852 2021.96506274273 12 15 8
-295.208387289821 -676.269808725964 2013.47786161258 13 16 9
-354.596837026791 -668.733776842146 2008.01251915012 12 15 8
-343.825429454938 -670.20338855941 1997.19140585044 11 14 7
-372.137500695762 -666.653302157293 1989.58184769618 12 15 8
-357.358397832974 -668.636409052528 1978.40202601083 12 15 8
-352.601156053586 -669.332189622661 1968.03430509719 12 15 8
-419.226468045544 -660.936774775204 1954.42583762831 12 15 8
-390.423945735685 -664.720419523897 1941.84498375801 12 14 9
-535.387768141607 -651.612597132308 2352.4341443061 25 28 21
-550.696845636148 -649.723889745664 2342.79936252683 21 24 17
-497.690605209015 -656.728716913736 2334.06384337927 21 24 17
-495.402106002095 -657.337341130783 2305.51901602434 19 22 15
-491.62644210214 -657.931692590509 2295.99557504174 19 22 15
-541.077248520159 -651.587353862798 2286.53861814613 19 22 15
-564.412337973343 -648.644654365506 2277.23512534398 21 24 17
-518.460042433383 -654.735818989623 2267.56380681792 23 25 22
-449.421031901044 -663.840428927479 2257.41268533991 14 16 13
-276.371508699571 -688.57730122738 2032.47063180898 11 14 7
-281.64176471177 -687.977349846137 2022.6944101104 11 14 7
-263.856377599585 -690.398512668359 2011.2064301683 11 14 7
-322.249191566535 -682.833163840978 2005.57729909306 13 16 9
-369.609135745879 -676.711091782877 1999.37418030394 10 13 6
-376.875790217446 -675.844035402314 1990.07491139172 12 15 8
-351.072177281936 -679.31376084483 1977.9571631002 12 15 8
-371.365818859734 -676.736618812103 1969.8069964121 12 15 8
-402.927174770466 -672.762210802127 1952.98422663857 14 17 10
-346.325905547191 -680.356666007002 1927.67981733276 12 15 8
-475.844537454705 -668.866519326385 2353.51454031202 22 25 18
-451.97352227187 -672.145306905507 2344.29483982622 19 22 15
-490.395893471649 -667.145193743435 2334.1969304375 20 23 16
-486.619509210834 -667.752320672513 2324.69725112595 19 22 15
-505.948177842027 -665.286663975919 2315.02437903207 18 21 14
-563.444052824928 -657.742878772995 2305.31009062022 18 21 14
-498.395131326038 -666.497542776359 2296.03950926852 18 21 14
-476.541355899568 -669.507691654712 2286.48385825473 20 23 16
-491.848366015948 -667.572816260477 2276.97012363839 22 25 18
-517.195487951287 -664.299835747693 2267.60971018163 20 22 19
-267.068923954227 -699.887311128561 2031.91194576059 11 14 7
-263.31715435026 -700.480701605854 2021.45566474523 12 15 8
-283.625010648481 -697.854764113824 2012.79300555834 11 14 7
-286.88958548514 -697.507859596909 2002.90840153283 13 16 9
-323.230124805928 -692.733380683248 1995.71710145269 13 16 9
-381.865762775685 -685.057843025261 1980.71587943874 12 15 8
-316.979475899002 -693.831254066868 1965.05951973965 11 14 7
-353.813273663149 -689.152323234543 1938.48737878034 15 18 11
-288.947097486398 -697.927247097627 1922.04339890937 11 14 7
-448.204430872121 -682.005896899636 2363.68263613109 29 32 25
-409.258234665947 -687.394232090267 2354.71911184274 20 23 16
-480.086122381951 -678.007056520205 2334.3662750375 17 20 13
-471.286806548317 -679.306691246785 2324.88646639118 24 27 20
-553.908781325425 -668.202410569758 2314.75878688296 16 19 12
-542.091792781282 -669.908677145324 2305.44033645852 17 20 13
-534.294598377739 -671.069441554392 2296.05142088945 21 24 17
-473.264670163353 -679.457240676702 2286.5312180883 23 26 19
-457.43859077561 -681.709401295281 2276.87381490481 22 25 18
-479.777111981865 -678.778189632206 2267.39916489005 12 14 11
-298.12783986624 -705.828668875639 2024.07948609981 14 17 10
-308.409469346679 -704.51590713341 2014.75692383144 11 14 7
-310.670129651043 -704.297132301755 2004.86303983813 12 15 8
-351.021209115181 -698.876553263418 1998.06164243508 12 15 8
-384.350504743939 -694.412349795265 1990.89321713647 12 15 8
-339.499565470593 -700.624597359889 1977.15523272025 12 15 8
-293.652783572683 -706.974385886276 1963.08238511561 13 16 9
-443.919128566273 -692.170551793098 2363.8110995747 25 28 21
-524.801189152171 -681.204193719325 2343.31155488919 28 31 24
-541.118037333506 -679.053340404732 2333.67923752133 17 20 13
-518.246939748157 -682.322492146858 2324.49780149357 19 22 15
-510.449558303305 -683.506554170355 2315.09118096279 16 19 12
-545.851852301512 -678.711011919405 2305.47488789743 17 20 13
-504.903501908957 -684.482917221804 2296.1343133054 20 23 16
-476.014529589983 -688.586795460406 2286.5883832127 23 26 19
-463.200281559593 -690.465276913581 2276.95321528227 21 24 17
-460.431306285149 -690.952286728327 2267.3176372862 13 15 12
-372.047952366723 -705.541502375846 2029.54287598103 12 15 8
-361.270558379325 -707.13112206794 2018.83620200645 9 12 5
-358.514876277034 -707.603845245789 2008.6964206829 10 13 6
-382.826375339364 -704.306807132724 2000.72940604341 10 13 6
-406.131969258911 -701.14810902229 1992.81062354921 11 14 7
-324.444667285719 -712.700669499027 1965.92672367087 14 17 10
-420.289471798944 -704.969602249561 2374.04431289959 20 22 17
-529.327602422987 -689.822418807834 2352.70951640235 19 22 15
-551.676034740987 -686.778666074012 2342.95901895252 18 21 14
-506.693010422489 -693.228298478573 2334.13781489862 23 26 19
-441.619298056021 -702.514069974214 2325.25655942318 10 13 6
-478.036272489935 -697.484212750705 2315.3521158968 17 20 13
-486.316601472074 -696.422002971747 2305.75263809207 19 22 15
-499.619105909064 -694.649741725222 2296.19100316161 23 26 19
-487.805987220219 -696.421862274838 2286.65992124897 24 27 20
-432.801279654825 -704.292950905606 2276.87564759919 18 21 14
-428.025210641604 -705.072544187883 2267.14444378139 19 21 18
-344.701698603744 -719.219037906288 2027.64835308037 12 15 8
-344.954740622789 -719.27380089244 2017.69979411318 8 11 4
-395.3382748573 -712.212379639422 2011.66671284356 9 12 5
-378.54468304185 -714.684527297815 2000.47867998833 10 13 6
-372.029403939179 -715.784811718291 1980.16117426909 11 14 7
-273.824160194772 -730.083549421148 1931.02165105737 13 16 9
-522.558877490007 -699.924112266877 2371.74069380842 25 27 22
-535.099112229607 -698.34082919721 2352.6508024459 20 23 16
-544.383324897892 -697.114413207566 2343.10987116606 18 21 14
-552.661403829818 -696.031501155 2333.62988641349 15 18 11
-532.800728609457 -698.992679591053 2324.45520405027 15 18 11
-514.952402026874 -701.665071189922 2315.1573665343 21 24 17
-507.154570609114 -702.892467209464 2305.72180379604 24 27 20
-511.414175523129 -702.385118206989 2296.2284121586 24 27 20
-469.460051101652 -708.526231681576 2286.68305686827 17 20 13
-431.530240694446 -714.090035831588 2276.92473618924 16 19 12
-449.857244577895 -711.557862674519 2267.35432600559 20 22 19
-321.362668842072 -732.461997875876 2026.04622038999 21 24 17
-299.556835702703 -735.70746412519 2014.3734778338 15 18 11
-304.826310574211 -735.036779263947 2004.69440919431 8 11 4
-331.15017994252 -731.31939832649 1996.74464722072 7 10 3
-324.386392848084 -732.387673686576 1986.17406356274 10 13 6
-349.955437260719 -728.864073823396 1968.39992187947 13 16 9
-310.114711383369 -734.718938222822 1954.78863097489 13 16 9
-236.202512420094 -745.508244097951 1937.7395642294 12 15 8
-252.498410274224 -743.23699676889 1929.05532804497 9 12 5
-297.85362606998 -736.755310704771 1923.36441657599 15 18 11
-594.683655879301 -698.733251232614 2370.12595401866 26 28 23
-517.512487755659 -710.134014372682 2362.44902089612 24 27 20
-531.82522653031 -708.148821638281 2352.75004447939 17 20 13
-560.207525375946 -704.102345207366 2342.91940884131 15 18 11
-555.419318935802 -704.91058041161 2333.64114901239 16 19 12
-554.651497848759 -705.129590651404 2324.29761400285 18 21 14
-534.790577431516 -708.145081067668 2315.07419876175 24 27 20
-550.102262426623 -706.007568684253 2305.60465447077 23 26 19
-551.344800145905 -705.930303262674 2296.23309952578 16 19 12
-501.347141132619 -713.363280802219 2286.78589187988 14 17 10
-405.1429955333 -727.573169200609 2276.86573086238 15 18 11
-426.486880338276 -724.550423688846 2267.24571237514 22 24 21
-337.133380413547 -740.067090004407 2027.28363081585 17 20 13
-309.307732862783 -744.258581841481 2015.20269912905 11 14 7
-268.449837261973 -750.371166132964 2001.95171827433 19 22 15
-286.756730830543 -747.765400514091 1993.25563156795 11 14 7
-283.003115909187 -748.409856078664 1982.8166421909 10 13 6
-343.666958160686 -739.645380644711 1967.94103677205 13 16 9
-290.792237142635 -747.530950444852 1953.11960990311 14 17 10
-297.062951460277 -746.694451979964 1943.59483495486 13 16 9
-274.267074585016 -750.145020839096 1931.27872126991 13 16 9
-594.664152744023 -708.008264353083 2360.92940935444 19 22 15
-537.597964423417 -716.622904806605 2352.69092780473 15 18 11
-592.117450927943 -708.60324517488 2342.49068365589 14 17 10
-581.295547581704 -710.323977448984 2333.37348623286 18 21 14
-531.277948284223 -717.891130587816 2324.56154654563 20 23 16
-558.651734735159 -713.914601682631 2314.96380285229 24 27 20
-567.933275579474 -712.635497880784 2305.58386782377 21 24 17
-623.436909621514 -704.456337740849 2296.19914984901 14 17 10
-547.306027787432 -715.924176408934 2286.90969088595 14 17 10
-456.1148957182 -729.64472186439 2277.13914789755 16 19 12
-432.247882675115 -733.315539013652 2267.34209876674 22 24 21
-282.698288059896 -758.115116630314 2023.42709585735 16 19 12
-282.955536187579 -758.170399211791 2013.3135896924 26 29 22
-301.519739925906 -755.569873669427 1994.54597900134 15 18 11
-368.2051824349 -745.740106952285 1980.12749919101 12 15 8
-356.678286965893 -747.647487012743 1959.26459106953 12 15 8
-349.913387675449 -748.750934397412 1948.69038608501 11 14 7
-402.28833592482 -740.969500953017 1943.82468860967 11 14 7
-596.655242569955 -716.975897472437 2351.69829136719 18 21 14
-501.106123529158 -731.917269396222 2315.39201263232 19 22 15
-525.46714046975 -728.324613207982 2305.79775490413 16 19 12
-617.155302567954 -714.499135989037 2296.2553101991 14 17 10
-551.06769384953 -724.647053535661 2286.96676860546 16 19 12
-486.998963068934 -734.491360408278 2277.32512567695 19 22 15
-459.108897201357 -738.838073830304 2267.58589519717 21 23 20
-300.986565769938 -765.535615577894 2004.68382590604 18 21 14
-416.062804385095 -748.223068272897 1984.35147360173 15 18 11
-404.776943330915 -750.210280390459 1953.97306325669 11 14 7
-350.894980789348 -758.536993763562 1938.93629655704 11 14 7
-355.156990607396 -757.971886480084 1929.41092933268 16 19 12
-324.338592996603 -762.772670634991 1916.30901593529 20 22 17
-291.51997996375 -767.880413442369 1902.82721330458 10 12 7
-502.656635903982 -740.53654324932 2362.8717156723 17 20 13
-583.331040365246 -728.187459894041 2351.97275561181 20 23 16
-481.504956146765 -744.251154236389 2325.11933655341 24 27 20
-508.886409991711 -740.12860275053 2315.38803712996 18 21 14
-594.558078341774 -726.990569689326 2305.57594030705 16 19 12
-526.452540067192 -737.628892736415 2296.4121928973 15 18 11
-477.450066785886 -745.315898764984 2286.90508495898 17 20 13
-474.678280361687 -745.852456134917 2277.32617608493 18 21 14
-476.931030361198 -745.611108859214 2267.76569076009 23 25 22
-330.545158837914 -770.821498230675 2017.0848172152 9 12 5
-359.88572519044 -766.353013295546 2009.37237465807 14 17 10
-405.268980191663 -759.387719340385 2003.11417960178 17 20 13
-364.400801479267 -765.833492593437 1989.90734572482 11 14 7
-311.268482189574 -774.459053840806 1945.25104400298 11 14 7
-328.566294722676 -771.855619812699 1936.8733496876 12 15 8
-363.905615267711 -766.442344631827 1930.39087615667 21 24 17
-328.072321365125 -772.107626578736 1916.80079240811 14 16 11
-288.234920030307 -778.397553868081 1902.59242984065 11 13 8
-227.61751426905 -788.012672884403 1875.63161893685 217 221 224
-204.830843971078 -791.649531144182 1862.75565710721 209 212 217
-492.09897856933 -751.484679981267 2372.63667912209 15 17 12
-523.512811697114 -746.662600634294 2362.48977494987 16 19 12
-527.774236076035 -746.105323159087 2352.98820645782 21 24 17
-498.855796318933 -750.762654475426 2343.99971063851 23 26 19
-565.450468892818 -740.404022033518 2333.69668962022 24 27 20
-516.427787112063 -748.222371378577 2324.83837350891 24 27 18
-547.829406366788 -743.393199131865 2315.17644561646 17 20 11
-580.232064358179 -738.403864791892 2305.67991246823 16 19 12
-511.117116769247 -749.386000441703 2296.4807317146 16 19 12
-465.127036769669 -756.732247306003 2286.93855011642 17 20 13
-463.360946721755 -757.119065493419 2277.33180797646 17 20 13
-514.853100512017 -749.120064256333 2268.084897029 25 27 22
-144.157403967375 -809.990218588181 2024.17547400137 131 133 128
-305.192183186966 -784.721756899226 2015.27258614377 6 9 2
