ply
format ascii 1.0
comment KinectMotionCapture
element vertex 755
property float x
property float y
property float z
property uchar red
property uchar green
property uchar blue
end_header
-1245.7109884542 147.350759517075 2747.88114666102 160 165 161
-1247.9037705893 147.064089292194 2740.09746869197 170 175 171
-1250.09630494143 146.777334986567 2732.32338466005 181 186 182
-1249.28459130968 146.873286446988 2725.03350396603 167 172 168
-1252.47794098467 146.458785450838 2717.1150873975 146 151 147
-1252.66755700117 146.426850157401 2709.66994694805 131 136 132
-1252.85720377846 146.394786636467 2702.22346657934 138 143 139
-1250.04394867857 146.745127393441 2695.21758010918 141 146 142
-1253.23657875596 146.330157765109 2687.32678472662 135 139 138
-1257.4295776842 145.787560309806 2679.3092341065 130 134 133
-1258.61998500818 145.62740143175 2671.72951246079 115 120 116
-1258.80942176123 145.594523549031 2664.29036616789 115 120 116
-1258.99888466838 145.561488655724 2656.85002909643 130 135 131
-1257.18717739655 145.783197489379 2649.67023075416 143 148 144
-1256.37642305293 145.877179881818 2642.35006831152 124 129 125
-1251.56399253593 146.480712979537 2635.52509260683 75 80 74
-1249.75357493583 146.701595178202 2628.30332663685 73 78 72
-1252.9447080022 146.285223525328 2620.4695342449 73 78 72
-1277.13966153027 143.193354911256 2610.18828204407 130 135 129
-1313.33300992169 138.573286101033 2598.66257157677 82 87 83
-1329.5200777331 136.501359424742 2589.56842472174 80 85 81
-1340.70484704236 135.066348658969 2581.10584465467 77 82 78
-1347.88845621601 134.14083810783 2573.12755335713 84 89 85
-1357.07091919978 132.960510293974 2564.97917609303 125 130 126
-1360.2533849796 132.544195405086 2557.48419223341 121 126 122
-1365.43474410582 131.873025853553 2549.80821224692 125 130 126
-1368.61627708847 131.456389120848 2542.34933976085 123 128 124
-1368.79865454882 131.421399355966 2535.18382750533 178 183 179
-1365.982502437 131.767949932215 2528.28709669264 193 198 194
-1362.16741922659 132.241385450574 2521.46013112629 178 182 181
-1356.35407814056 132.968969415007 2514.77924221776 183 187 186
-1352.54028429657 133.441671543509 2507.90109628704 188 193 189
-1341.73247812032 134.804412910771 2501.55305392964 187 192 186
-1144.60335682896 152.558967731346 2872.23953905939 184 188 189
-1143.79703633819 152.652072936505 2864.73581964325 181 185 186
-1157.0241238697 150.994847464831 2854.4394199289 173 177 176
-1167.24254380344 149.712918526876 2844.80132669864 168 172 171
-1175.45530822124 148.681132466695 2835.60345945497 164 168 167
-1181.66235475303 147.899482150008 2826.82959859877 161 165 164
-1187.86884002851 147.117858082342 2818.08702655572 166 170 169
-1192.07063784746 146.586209196061 2809.74666532439 169 173 172
-1193.26581637004 146.429464710277 2801.97481003203 168 173 169
-1195.4626885353 146.147710643177 2794.02723331889 161 166 162
-1208.679352549 144.491759732345 2784.13958931503 172 177 173
-1227.90471670279 142.086494327733 2773.27419305695 156 161 157
-1238.11239324728 140.805685033303 2764.05719088293 151 156 152
-1239.30449380957 140.64903662427 2756.41506088937 149 154 150
-1243.50085829434 140.117697019513 2748.27806047426 150 155 151
-1244.69229548236 139.960898250097 2740.6523712115 154 159 155
-1246.88517860912 139.679152709924 2732.87003388567 155 160 156
-1249.07757721563 139.397329231435 2725.09722481696 170 175 171
-1252.27114390755 138.990572935603 2717.17864213805 173 178 174
-1255.4643243345 138.583769426872 2709.2751053382 171 176 172
-1250.64830683217 139.175320241778 2702.58678058239 150 155 151
-1247.83495696286 139.517043485979 2695.57534520772 138 143 139
-1250.02680294436 139.234586884354 2687.82345483991 129 133 132
-1254.22030517954 138.702508815661 2679.79752814857 122 126 125
-1255.41098845292 138.544557195891 2672.20939142817 117 121 120
-1256.601322037 138.386551761021 2664.62553920611 120 124 123
-1256.79091720073 138.353061523904 2657.17954417618 126 131 127
-1256.98054078876 138.319413671808 2649.73226899159 131 136 132
-1255.16897972725 138.534991646616 2642.54017339901 144 149 145
-1253.35796154804 138.750331926855 2635.33592965593 92 97 93
-1251.54700886029 138.965387820961 2628.11949613953 67 72 68
-1249.73659678463 139.18020662489 2620.89100384874 76 81 75
-1263.93077448414 137.400161772839 2611.77365804632 74 79 73
-1293.1262995243 133.750552005209 2601.01334756836 78 83 79
-1314.31654893704 131.098555563363 2591.30483157479 74 79 75
-1330.50366406379 129.069950043925 2582.25535039448 96 101 97
-1341.68845209881 127.664643722185 2573.82393280377 108 113 109
-1349.87214905689 126.633123875347 2565.76240842021 100 105 101
-1353.05532475153 126.22454250143 2558.24798228313 102 107 103
-1359.23726916668 125.442132720438 2550.45438364929 101 106 102
-1362.41944244479 125.03324803736 2542.97880975273 122 127 123
-1363.60205585643 124.873303530039 2535.70393137542 147 152 148
-1362.78504683264 124.962202088577 2528.61344008378 148 153 149
-1362.96787812181 124.926311253907 2521.42922312621 141 145 144
-1357.15424917342 125.63716338643 2514.75094431181 151 155 154
-1352.34053872121 126.223091543608 2507.95709007989 168 173 169
-1340.53242691739 127.679956411814 2501.68803282156 181 186 180
-1337.71919872304 128.016095500627 2494.66584613241 184 189 182
-1142.38363786201 145.059035670419 2872.71534789913 183 187 188
-1147.59244885105 144.415098614612 2863.9956941717 177 181 182
-1161.82283136232 142.670606220145 2853.51083718414 169 173 172
-1172.0416476512 141.415550323801 2843.88610722471 167 171 170
-1181.25664625104 140.282921625556 2834.50801622335 161 165 164
-1184.45724926743 139.883985136359 2826.32282591476 158 162 161
-1188.65979412739 139.362820757264 2817.9645251893 164 168 167
-1189.8552820282 139.208334649111 2810.1830031958 169 173 172
-1189.04676370405 139.298240644678 2802.77107244511 169 174 170
-1190.24217415296 139.143655118329 2794.99247079297 162 167 163
-1207.46763713304 137.033878634557 2784.38176519305 172 177 173
-1229.69995894779 134.313490884042 2772.98950311306 151 156 152
-1240.90991663076 132.937435096232 2763.60577545875 146 151 147
-1241.10003333875 132.905246466372 2756.14079423798 153 158 154
-1244.29501779426 132.506515388416 2748.17541730722 155 160 156
-1245.48645025035 132.352028612173 2740.55239542524 156 161 157
-1247.67940725901 132.075274993142 2732.77253047876 155 160 156
-1247.86922860359 132.042714854561 2725.31869418627 158 163 159
-1250.06182632443 131.765786802451 2717.55268415973 162 167 163
-1251.25275133316 131.610894951693 2709.94906014063 166 171 167
-1247.43774247295 132.066244942092 2703.09976986331 161 166 162
-1248.62879470636 131.911019125257 2695.49081487589 154 159 155
-1252.82291017356 131.38952120656 2687.45228110309 138 142 141
-1256.01559104676 130.989992960111 2679.57608021071 126 130 129
-1258.20704164367 130.712379990726 2671.85416835002 112 116 115
-1259.39723428402 130.556722812484 2664.27834607457 113 117 116
-1259.58661423163 130.522809719628 2656.84030840601 121 125 124
-1257.77452132104 130.732767459073 2649.66296474242 124 129 125
-1254.96217224742 131.064471167482 2642.60165659943 137 142 138
-1253.15099640372 131.27391153662 2635.39724006045 109 114 110
-1249.33904011178 131.727038398822 2628.4262578169 77 82 78
-1247.52837142593 131.935956759569 2621.19213451179 73 78 74
-1254.72127771474 131.047313538564 2612.89006504626 76 81 77
-1278.91807078859 128.086096807612 2602.67720095364 94 99 95
-1308.11275260822 124.515726607585 2592.03492779969 79 84 80
-1328.30203205226 122.042939347811 2582.5320448981 112 117 113
-1339.48802461145 120.66730373203 2574.09473323741 115 120 116
-1348.6721609154 119.535479102646 2565.92371101975 103 108 104
-1350.85576310578 119.256549521384 2558.50712839815 94 99 95
-1357.03853502719 118.49013644745 2550.70768877342 123 128 124
-1358.22137851903 118.332774659679 2543.41726640209 157 162 158
-1358.40444554976 118.297001121046 2536.22396179138 143 148 144
-1354.58894166459 118.748146524871 2529.38950424316 134 139 135
-1355.77184561712 118.590048412153 2522.09592824954 143 148 144
-1353.95628247478 118.796995643041 2515.06030560028 147 151 150
-1350.14178033248 119.247172265861 2508.1763314802 160 165 161
-1341.33130308768 120.305641511356 2501.66469987795 157 162 156
-1334.52057653954 121.12014637204 2494.95025707255 164 169 162
-1137.15563722013 137.906208484531 2873.80410998968 174 178 179
-1142.36539682626 137.275339973508 2865.07073780559 175 179 180
-1156.59693210591 135.568565882256 2854.57200085703 174 178 177
-1170.82656071299 133.862089334832 2844.14810275745 172 176 175
-1178.03793191193 132.992564723215 2835.15421351686 156 160 159
-1182.24118974723 132.481777017737 2826.76986412961 155 159 158
-1186.44392448166 131.971038548023 2818.40601220223 160 164 163
-1189.64404173704 131.579793782435 2810.24806589736 168 172 171
-1189.83746066441 131.546996093524 2802.65336854304 170 175 171
-1193.03701451318 131.155721265658 2794.51740984129 162 167 163
-1207.25764953373 129.450348657347 2784.44619758357 171 176 172
-1229.49162430225 126.78956990225 2773.05333589261 160 165 161
-1236.69517131844 125.920841036463 2764.35677244084 150 155 151
-1238.88915180059 125.649291677907 2756.54249453924 143 148 144
-1242.08425467252 125.258289671521 2748.57146357794 144 149 145
-1244.27766886744 124.986605984258 2740.77917391138 151 156 152
-1246.47083541201 124.714898199992 2732.99653740492 160 165 161
-1246.66071623425 124.681842074368 2725.53984396608 166 171 167
-1246.85062479037 124.6486585271 2718.08192977611 164 169 165
-1247.04056266012 124.615377147134 2710.62276486243 156 161 157
-1245.22790542515 124.820608578037 2703.46240220413 159 164 160
-1246.41916336448 124.667668739352 2695.847862024 161 166 162
-1249.61265767852 124.275951479638 2687.94825588195 152 156 155
-1251.80478098406 124.003456097165 2680.20554710819 139 143 142
-1254.99756881649 123.611551803904 2672.3333518927 113 117 116
-1259.19081452159 123.100263607559 2664.33977384879 110 114 113
-1262.38275429718 122.708179962581 2656.5005310584 115 119 118
-1261.57124151842 122.793031309883 2649.20020667535 118 123 119
-1255.75622708162 123.47387079046 2642.5345274853 125 130 126
-1253.9445850129 123.677466521847 2635.33273232496 120 125 121
-1250.13224965283 124.119245669134 2628.3643810749 90 95 91
-1248.32135491769 124.322327339049 2621.13282557005 62 67 63
-1248.51172196616 124.28675600896 2613.65442809316 71 76 72
-1266.70876540653 122.105748319728 2604.11199642412 80 85 81
-1302.9084915524 117.78007054436 2592.65311563937 96 101 97
-1336.10254515392 113.81258175763 2581.71711551112 103 108 104
-1348.28865309763 112.347651073992 2573.19478893181 103 108 104
-1354.47280515128 111.59758587479 2565.35896204701 96 101 97
-1357.65607970001 111.204778197807 2557.85760893017 111 116 112
-1361.83882996301 110.6927130534 2550.27339489515 163 168 164
-1358.0221440758 111.133219663325 2543.47371096424 169 174 170
-1355.20576836587 111.454321671833 2536.55839442826 130 135 131
-1352.38983109649 111.775096888322 2529.62559123315 133 138 134
-1354.57278037643 111.500347401933 2522.23901487707 147 152 148
-1352.75689423038 111.701501894057 2515.2004717468 157 161 160
-1347.94293943578 112.259388047055 2508.3953827059 168 173 169
-1340.13106468456 113.173912526414 2501.79918656678 168 173 167
-1332.32056095958 114.087933821433 2495.15819048059 170 175 168
-1139.94882338662 129.790634374263 2873.25665038164 172 176 177
-1146.16132298351 129.056129586292 2864.32961087673 173 177 178
-1157.38608202452 127.737574622121 2854.43845961958 168 172 171
-1165.6015306915 126.769747599237 2845.19503211892 166 170 169
-1173.81590288745 125.802027106431 2835.99379121929 153 157 156
-1178.01996702786 125.301584956969 2827.59836168455 157 161 160
-1185.23022310344 124.45087623489 2818.65893359255 162 166 165
-1189.43279352176 123.95057981108 2810.31271557278 170 174 173
-1192.63274077236 123.567032734375 2802.16967882862 171 176 172
-1195.83230374931 123.18348292892 2794.04165790065 163 168 164
-1210.05377572839 121.515909566111 2783.97832032256 171 176 172
-1230.28517280874 119.148271324661 2772.94223520821 159 164 160
-1240.49488112571 117.948066869127 2763.73237159513 153 158 154
-1240.68497575796 117.914968825958 2756.26727671292 143 148 144
-1242.87871051581 117.648376438716 2748.46792498235 142 147 143
-1245.07195896104 117.381751604625 2740.67822040623 151 156 152
-1247.26519787406 117.115036144429 2732.89811586318 157 162 158
-1246.45352226947 117.198160278649 2725.60230072928 161 166 162
-1245.64177510782 117.281171555813 2718.29983632761 163 168 164
-1243.82909725592 117.480613502002 2711.14338793613 160 165 161
-1245.02053241057 117.330087264572 2703.52451310646 148 153 149
-1249.21569239454 116.829648037784 2695.46776720108 144 149 145
-1252.40919823955 116.445715179834 2687.57606867968 144 148 147
-1254.60125556416 116.178308973022 2679.84140303422 149 153 152
-1255.79183443158 116.027305479792 2672.25548243513 135 139 138
-1259.98530407683 115.526551026399 2664.26446235694 127 131 130
-1261.17569180998 115.375340202311 2656.69511411951 128 132 131
-1261.36494587693 115.340485312921 2649.26098507496 114 119 115
-1256.55018395418 115.887996119493 2642.46697636209 117 122 118
-1255.73919767053 115.969196184434 2635.14215426047 110 115 111
-1250.92560134166 116.516156600548 2628.30199913395 104 109 105
-1249.11471826384 116.713320155324 2621.07295839259 67 72 68
-1244.30235632518 117.259681855915 2614.183916166 68 73 69
-1258.49909303857 115.593231991267 2605.08852478482 66 71 67
-1297.70322390051 111.016251576363 2593.27108079395 131 136 132
-1339.90287398765 106.090867523126 2581.33808978712 121 126 122
-1352.08984631755 104.658443971355 2572.8262084435 123 128 124
-1356.27375606588 104.157278696402 2565.20838114578 147 152 148
-1361.45714983253 103.539584609987 2557.51029819892 146 151 147
-1364.63997287211 103.154549566364 2550.0349372788 174 179 175
-1359.82289220828 103.700168757213 2543.3388467168 145 150 146
-1356.00633695891 104.129041906364 2536.52156589219 141 146 142
-1354.18983961213 104.324987412608 2529.50131759565 149 154 150
-1355.37288941612 104.17172701783 2522.20723559061 143 148 144
-1354.55661826944 104.250807944564 2515.0866888767 154 158 157
-1349.74190486595 104.794749705262 2508.28695169643 158 163 159
-1342.92898228401 105.570796821116 2501.61704453483 173 178 172
-1335.11766183443 106.462678455629 2494.9841970129 171 176 169
-1124.4946235563 123.779078750976 2884.1458436565 186 190 191
-1135.72287309038 122.489652192395 2874.1402228885 182 186 185
-1144.94431209726 121.42864901739 2864.59664922817 184 188 187
-1159.17773001947 119.797357829433 2854.10537981498 169 173 172
-1166.39111132543 118.964963158791 2845.06347111095 169 173 172
-1170.59595613558 118.474864656012 2836.63931172181 166 170 169
-1177.80790691253 117.642652635712 2827.66283395131 160 164 163
-1184.01612727084 116.924625105187 2818.91140913628 162 166 165
-1191.22627141017 116.092578963229 2810.00571913026 168 172 171
-1195.42846975622 115.602764891158 2801.68529812524 168 172 171
-1200.63225323969 114.998968615731 2793.20523681042 164 168 167
-1209.84400082032 113.939195145579 2784.04175802277 162 166 165
-1227.07075609093 111.967688611475 2773.52900885495 161 166 162
-1236.27951736841 110.908260037337 2764.48261546243 152 157 153
-1237.47171009726 110.760653102657 2756.83726653119 146 151 147
-1240.66755363859 110.385070731282 2748.86316884894 144 149 145
-1243.86301056974 110.009456243675 2740.9041467475 142 147 143
-1247.05808130225 109.633824535041 2732.96020013658 147 152 148
-1246.24632024796 109.713745394507 2725.66428524337 162 167 163
-1246.43620865331 109.679666926206 2718.20619771762 163 168 164
-1245.62447532018 109.759343464595 2710.89961226418 165 170 166
-1246.81607726858 109.611080420036 2703.28597338711 152 157 153
-1248.00733015181 109.462703375169 2695.67652999339 138 143 139
-1252.20232808987 108.972705589893 2687.63732861952 130 135 131
-1254.39452815902 108.710272971032 2679.90242427847 129 134 130
-1256.58624033579 108.447778316377 2672.17719706443 131 136 132
-1260.78017547775 107.957505166183 2664.18856256654 129 134 130
-1259.96822724845 108.036218592209 2656.88934188368 128 133 129
-1260.1575436074 108.000941990332 2649.45232544938 128 133 129
-1256.3434938531 108.420565381356 2642.52718952026 116 121 117
-1255.53242259757 108.49860705862 2635.20229718053 107 112 108
-1252.71998001958 108.803942283658 2628.11633106579 110 115 111
-1250.9085615752 108.995324622415 2620.89268209125 89 94 90
-1245.09516465184 109.641312550153 2614.12636395938 60 65 61
-1252.28955828486 108.80871813631 2605.83566961051 63 68 64
-1276.49028063798 106.043362815136 2595.67953656897 114 119 115
-1329.6986084807 99.9817635332512 2582.48705706323 213 218 214
-1351.8902234528 97.4450229501553 2572.88294559455 204 209 205
-1360.07532258211 96.4998154525584 2564.84997026721 187 192 188
-1364.25871950598 96.0091700015833 2557.26348130223 195 200 196
-1364.44124559421 95.9729102772199 2550.09079656937 155 160 156
-1360.62373634547 96.3908438554721 2543.29905527644 138 143 139
-1357.80669070437 96.694898751595 2536.39161809492 140 145 141
-1356.9899521161 96.7714632864181 2529.28663871002 149 154 150
-1357.17312073838 96.7342072392776 2522.0877717458 154 159 155
-1354.35704005189 97.037375037009 2515.14166829784 161 165 164
-1349.54194511746 97.5673138955329 2508.34180743048 161 165 164
-1344.72780342678 98.096830785778 2501.51356220639 158 163 159
-1334.91656159464 99.1935479474474 2495.03885854211 164 169 163
-1120.26697055565 116.426123237982 2885.04015879042 187 191 192
-1133.50216359569 114.943360906379 2874.61429280699 174 178 177
-1146.73535149526 113.460940473598 2864.25783697532 171 175 174
-1160.96991603848 111.867377959663 2853.77158857342 175 179 178
-1164.17304408719 111.49902415489 2845.52054858586 159 163 162
-1167.37578827375 111.130682516571 2837.28452432421 149 153 152
-1174.58822405708 110.317040442887 2828.29970501492 161 165 164
-1182.80211225077 109.392227382586 2819.16345129614 160 164 163
-1191.01516222418 108.467514307003 2810.06939027433 159 163 162
-1197.22215509763 107.765538558776 2801.38317498742 159 163 162
-1202.42640509345 107.174909168606 2792.90834312904 161 165 164
-1206.62764154133 106.695584429096 2784.63677907449 162 166 165
-1219.84746413355 105.214993538534 2774.81397496385 161 166 162
-1235.0697069191 103.512156551549 2764.71667068658 153 158 154
-1239.26798568703 103.033109068691 2756.56100070697 140 145 141
-1241.46183179286 102.77652835871 2748.75872209127 139 144 140
-1242.65390474024 102.631020835184 2741.12963360895 149 154 150
-1243.84562689638 102.485474794688 2733.50488911877 148 153 149
-1243.0339874581 102.562182266901 2726.20077076263 151 156 152
-1245.22719258649 102.305247036675 2718.42316310925 153 158 154
-1247.42038893939 102.04822097888 2710.65512569691 157 162 158
-1248.61167904249 101.902294806044 2703.04685917961 160 165 161
-1247.80015693875 101.978475883308 2695.73758978092 154 159 155
-1250.99416877347 101.610043278821 2687.84275840719 130 135 131
-1254.18779235194 101.241518977286 2679.96300297537 122 127 123
-1255.37850408745 101.095131587106 2672.37684584726 124 129 125
-1255.5680344027 101.0597079954 2664.93130943336 123 128 124
-1254.75658865103 101.13514851698 2657.6182607797 117 122 118
-1255.94717866 100.988328386236 2650.03639650271 115 120 116
-1255.13592817261 101.063386818139 2642.71530598634 112 117 113
-1252.32301575125 101.360324423862 2635.63868626105 109 114 110
-1249.5105456867 101.65699421399 2628.54449013945 106 111 107
-1250.70138389226 101.509417787185 2620.95211342764 106 111 107
-1247.88952460427 101.805624875965 2613.83354922909 96 101 97
-1250.08117142747 101.546730623204 2606.1240668818 67 72 68
-1256.27459484215 100.843802868036 2597.97649564701 78 83 79
-1286.47795269329 97.4782744563836 2587.23977412531 88 93 89
-1335.68445876824 92.0056967175163 2574.64282614372 124 129 125
-1354.87485559235 89.8617005798021 2565.42460507968 191 196 192
-1363.05981480623 88.9379721370075 2557.42016068652 173 178 174
-1362.24230559197 89.0122210343308 2550.34281368151 132 137 133
-1360.42468970339 89.1971207279288 2543.35442173023 133 138 134
-1358.60737342815 89.3817455940221 2536.35402476349 135 140 136
-1357.79048608989 89.4552437445265 2529.25156659593 137 142 138
-1355.97393650444 89.6393162511665 2522.22993644349 145 150 146
-1354.15744793636 89.8231355723286 2515.1963248814 159 163 162
-1350.34189180394 90.2282152608172 2508.31444751953 164 168 167
-1347.52652497691 90.522235165747 2501.33062166792 161 166 162
-1339.71340080068 91.3697659091346 2494.71132467271 163 168 164
-1127.0718750698 107.85539115619 2883.6541074252 189 193 194
-1135.29267189497 106.951020893611 2874.26979035743 178 182 181
-1146.52106717329 105.72083934964 2864.32208613383 176 180 179
-1159.75369406187 104.273661277706 2854.03472187651 173 177 176
-1159.94884768889 104.238811257578 2846.37002281528 156 160 159
-1164.1549254159 103.769478077766 2837.92929775675 151 155 154
-1172.37061971682 102.865836052331 2828.74518693751 158 162 161
-1181.58794254053 101.853733895129 2819.4149941213 160 164 163
-1188.79902031585 101.05892422422 2810.50347125286 169 173 172
-1198.01405150289 100.047147075431 2801.26319250533 173 177 176
-1205.22311309207 99.2525890801665 2792.4307394058 177 181 180
-1207.41981643244 99.000814459856 2784.52195057518 178 182 181
-1217.63394460877 97.8808491522551 2775.22549816451 164 169 165
-1227.84671962898 96.7610190218862 2765.98207692543 155 160 156
-1236.05417730089 95.8583212909386 2757.13022080013 144 149 145
-1239.2505217474 95.4981655028595 2749.15310988505 142 147 143
-1240.44255795478 95.3549366149556 2741.5185791645 149 154 150
-1242.6364969009 95.1031295769049 2733.72712241806 143 148 144
-1244.82995256134 94.8512892861513 2725.94519365793 146 151 147
-1248.02503138113 94.4909602820049 2718.01736183357 146 151 147
-1247.21322760776 94.5642304000406 2710.71597549584 151 156 152
-1245.39985696582 94.7457641785914 2703.5580505395 157 162 158
-1244.58846019545 94.8187008694122 2696.24039910624 155 160 156
-1247.78289755997 94.4579724579445 2688.33720872299 139 144 140
-1249.975659657 94.205563440112 2680.59110095639 120 125 121
-1251.16671661606 94.0613798702304 2672.99381758838 116 121 117
-1250.35536667152 94.1337489184775 2665.67372654858 119 124 120
-1251.54634212979 93.9893469702303 2658.07939403614 118 123 119
-1251.73619838612 93.9530563560926 2650.62018777365 111 116 112
-1252.92702280422 93.8083194999796 2643.03139883606 110 115 111
-1250.11401403367 94.0966100039842 2635.94926017884 108 113 109
-1248.3024881618 94.276329097883 2628.72661153743 102 107 103
-1247.49176216551 94.3475748638418 2621.37160355625 107 112 108
-1245.6807790306 94.5268793799928 2614.12729773229 102 107 103
-1244.8704530278 94.5977035562936 2606.75620394941 61 66 62
-1244.06053135899 94.6682969140008 2599.37838434646 70 75 71
-1261.26013571388 92.7909563191194 2590.02789515434 94 99 95
-1302.46853430576 88.3172764211121 2578.21328974581 98 103 99
-1346.67219757452 83.5200216458641 2566.31042037466 175 180 176
-1357.85928801137 82.29324421641 2557.98070751954 161 166 162
-1359.04263738143 82.148018509747 2550.69286925237 134 139 135
-1356.22496719942 82.4351792616933 2543.79170166255 140 145 141
-1355.40804845729 82.5057748489133 2536.68735431799 144 149 145
-1354.59105073708 82.5761545214304 2529.57653708975 139 144 140
-1352.7745559826 82.7543755779684 2522.54648111655 138 143 139
-1351.95794863096 82.824261199443 2515.41987645831 152 156 155
-1349.14198275828 83.1100079109572 2508.45058026813 163 167 166
-1346.32669357688 83.3954212850924 2501.46380351477 163 168 164
-1337.51341211265 84.3287652778973 2494.91809587448 162 167 163
-1327.7018517277 85.3695844792263 2488.39582343286 175 177 172
-1135.07756607539 99.1807988463115 2874.3338049606 176 180 179
-1140.28921615449 98.6155980393554 2865.59705546695 173 177 176
-1153.52322824092 97.203327384513 2855.2930337747 178 182 181
-1158.73276751595 96.6384515927505 2846.62980600409 182 186 185
-1164.9445605535 95.9677701079258 2837.79890983372 179 183 182
-1174.16362706719 94.979601474339 2828.42626554687 161 165 164
-1184.38402033372 93.8857570412253 2818.91299829073 159 163 162
-1190.5929346567 93.2154518283204 2810.19501626988 155 159 158
-1200.81089884021 92.1219239814631 2800.77702591904 157 161 160
-1207.01769878806 91.4518697106582 2792.13262565667 166 170 169
-1211.21940826105 90.9934525798748 2783.87434791019 169 173 172
-1219.42937569477 90.1119217433489 2774.93780419217 162 167 163
-1231.64724725655 88.8073951403695 2765.35559971949 152 157 153
-1237.85066915296 88.1376668867432 2756.85290025016 145 150 146
-1240.04486390186 87.8910015345126 2749.04764180284 141 146 142
-1239.23306042739 87.9614956919466 2741.74326317045 137 142 138
-1240.42512177428 87.8203907874368 2734.11003048048 145 150 146
-1242.61909429659 87.5734963724857 2726.32253625665 147 152 148
-1244.81258236497 87.3265540110914 2718.54459990142 149 154 150
-1244.00089897306 87.3965660562614 2711.23501037159 148 153 149
-1241.18600477631 87.6778111189366 2704.2189958496 144 149 145
-1242.37780337925 87.5361909786132 2696.59547888283 143 148 144
-1245.57259624269 87.1831703996165 2688.6866704473 149 154 150
-1245.76267496461 87.1469856111939 2681.21888308649 157 162 158
-1244.95148707442 87.2162805539745 2673.88915766349 133 138 134
-1246.14291967262 87.0741876735617 2666.27943783807 114 119 115
-1249.33678868707 86.7207828494405 2658.40632404872 109 114 110
-1249.52677492979 86.6840374958835 2650.94154920384 105 110 106
-1252.72007642244 86.3304536574431 2643.09042392035 101 106 102
-1249.90683158616 86.6100892419649 2636.00821854393 102 107 103
-1250.09690269024 86.5728561482676 2628.53960332537 99 104 100
-1248.28538454669 86.7464812511667 2621.31010937556 103 108 104
-1247.47467272413 86.8143771816828 2613.95095064086 100 105 101
-1244.66278757776 87.0930655923283 2606.81458687039 92 97 93
-1241.85158489761 87.3714641424253 2599.66056351372 71 76 72
-1250.04712895966 86.4894668511144 2591.28723428278 66 71 67
-1285.25615254877 82.7601880584667 2580.08064683993 118 123 119
-1336.46753766786 77.3446866022616 2567.4036883533 140 145 141
-1353.65855410266 75.5149467382619 2558.43995482666 140 145 141
-1359.84374722215 74.8449998941444 2550.64946440188 141 146 142
-1358.02595743354 75.0181971559948 2543.65530389645 146 151 147
-1356.20870661095 75.1910977468502 2536.64908497772 163 168 164
-1355.3917983915 75.2584044896897 2529.54079506277 161 166 162
-1354.57481311895 75.325509810103 2522.42597558981 155 160 156
-1354.75812775371 75.2869995045393 2515.2200552261 152 156 155
-1351.94172327629 75.5642652563166 2508.25879502732 150 154 153
-1348.12599210292 75.9465092831696 2501.35923969728 156 161 157
-1340.31181835594 76.7495721156834 2494.74254213334 162 167 163
-1328.49980017259 77.973327657501 2488.3758648783 176 178 173
-1127.64358200797 92.1685558290296 2883.5746660149 184 188 189
-1133.8594238544 91.5131966412598 2874.60198026993 177 181 180
-1138.06830734654 91.0643213513437 2866.06423750881 179 183 182
-1151.30342602077 89.6869722684718 2855.75446262654 172 176 175
-1159.52217916599 88.8257296070793 2846.49632674752 166 170 169
-1169.74560631725 87.7583711301488 2836.89292334626 157 161 160
-1179.967680445 86.6912078141944 2827.34261033956 166 170 169
-1190.18864049042 85.6242029205214 2817.84533441985 163 167 166
-1193.38945798097 85.2791845974957 2809.70033010421 155 159 158
-1196.59013137358 84.9341714926377 2801.57028802637 155 159 158
-1202.79788824257 84.2799144225792 2792.9147745764 162 166 165
-1211.00976313204 83.4196145323526 2783.9358018232 165 169 168
-1221.22510448283 82.353328382725 2774.64957089748 166 171 167
-1233.4434952692 81.0811369882947 2765.07246759755 156 161 157
-1238.64508933082 80.5303471034847 2756.74421544093 146 151 147
-1240.83935383276 80.2886897763825 2748.94160803487 143 148 144
-1239.02539955248 80.4589271671498 2741.8036892839 144 149 145
-1241.21944902355 80.217102015952 2734.00930583287 143 148 144
-1241.4095467827 80.1811372307101 2726.54101065341 145 150 146
-1241.59967013814 80.1451056119601 2719.07164332189 151 156 152
-1237.78272340445 80.5207110458542 2712.21246829051 151 156 152
-1236.97154014096 80.5873038996631 2704.87966074539 147 152 148
-1241.1686521784 80.1391167297197 2696.8027260624 147 152 148
-1244.36373243486 79.7938221149223 2688.89098085749 141 146 142
-1246.55698639627 79.5513803538264 2681.13635139963 151 156 152
-1244.74403814769 79.7203627312909 2673.94844111948 148 153 149
-1245.93553639004 79.5805631079308 2666.33861801583 131 136 132
-1248.12839282918 79.3377770357066 2658.59915541062 108 113 109
-1248.31843971783 79.3005503888461 2651.13149353709 103 108 104
-1249.50960778708 79.160388524093 2643.53418579522 98 103 99
-1248.69861965735 79.2256840324694 2636.19235875701 97 102 98
-1250.8908953261 78.9823773635482 2628.4750356941 92 97 93
-1249.07891130275 79.1501427320291 2621.24813342118 97 102 98
-1247.26723266769 79.3176767498359 2614.00904710978 96 101 97
-1245.45609684861 79.4849430812014 2606.75778303639 100 105 101
-1242.64435105566 79.7547415822384 2599.60642755101 91 96 92
-1251.84126692204 78.791496119929 2591.12626787699 68 73 69
-1279.04779656169 75.9794298081506 2580.7764290728 106 111 107
-1332.26462681093 70.4976917021126 2567.87425633718 148 153 149
-1352.4586322758 68.4059675846595 2558.59582042352 138 143 139
-1361.64556344906 67.4440148984314 2550.50728522896 148 153 149
-1361.82823207238 67.4061267223674 2543.32728122514 158 163 159
-1361.01049525212 67.470641240378 2536.23905303587 159 164 160
-1358.19268426842 67.7401788725086 2529.32446611534 153 158 154
-1356.37559872076 67.9068384956415 2522.30508660928 149 154 150
-1356.55877105092 67.8680059613159 2515.10438201779 152 156 155
-1355.74205363007 67.931540727087 2507.98458497417 155 159 158
-1351.92549881516 68.3026185514479 2501.09590621244 149 154 150
-1341.11088827699 69.3912038451572 2494.71943421344 152 157 153
-1325.29884617799 70.9919501468437 2488.65035986887 184 186 181
-1124.41818693224 84.6800572112121 2884.25989553709 186 190 191
-1129.63157103114 84.1409231785923 2875.48336303686 179 183 182
-1137.85340901473 83.3006161507832 2866.127140059 174 178 177
-1150.08652843385 82.0586812884231 2856.01620269046 157 161 160
-1164.32382063699 80.6161839045615 2845.57622520351 157 161 160
-1174.54764332034 79.5756686788338 2835.98618525362 170 174 173
-1185.77287567819 78.4349623252413 2826.25817048696 167 171 170
-1190.98022303379 77.8967902407033 2817.71860769339 162 166 165
-1195.18404716281 77.4590900165386 2809.39060129453 164 168 167
-1195.37689430163 77.4228134015329 2801.81451601456 167 171 170
-1200.58267648348 76.8847729203045 2793.33626693866 171 175 174
-1210.8001143404 75.8451472599091 2783.99672327111 174 178 177
-1224.02347843757 74.5047183046735 2774.18599997008 164 169 165
-1234.23800235871 73.4654632883215 2764.96074097581 157 162 158
-1237.43523767379 73.1284477453499 2756.9736580439 141 146 142
-1239.62971226944 72.8917460759334 2749.16816045138 142 147 143
-1237.8156645143 73.0560064474459 2742.02747735879 147 152 148
-1240.0099244906 72.8191518491379 2734.23020363101 153 158 154
-1240.20007828898 72.7826769875024 2726.75917056361 155 160 156
-1239.38840092671 72.8463404129562 2719.4425287158 149 154 150
-1237.57486259961 73.0100781716869 2712.27204948098 151 156 152
-1236.76359271816 73.0734530570021 2704.93917205885 150 155 151
-1240.96099893922 72.6357209101471 2696.86196545961 140 145 141
-1242.15288832583 72.4985180102704 2689.2396432452 137 142 138
-1243.34490968914 72.3611868105857 2681.62134995383 126 131 127
-1242.5334534673 72.4240742688522 2674.28590720972 131 136 132
-1243.72539436545 72.2864794007982 2666.67047566865 147 152 148
-1247.92114471225 71.8484378566791 2658.65765416489 129 134 130
-1249.11241886399 71.7107085307653 2651.05881222451 107 112 108
-1250.30382375788 71.5728062194309 2643.46399947799 102 107 103
-1247.49024829905 71.8350942912848 2636.37608955314 92 97 93
-1248.68146883016 71.6969140930784 2628.77885918098 87 92 88
-1248.87162126558 71.6586240180638 2621.30593034661 85 90 86
-1249.06180136857 71.6201765295341 2613.83175114962 90 95 91
-1247.25012929359 71.7816018626006 2606.58584941212 83 88 84
-1243.4372591489 72.1427977635658 2599.55187531406 92 97 93
-1249.6324990936 71.5037718314667 2591.40192064934 75 80 76
-1275.84059361746 68.8651832468806 2581.15249010919 95 100 96
-1335.06537056109 62.9283045388519 2567.61787365637 153 158 154
-1355.26067526687 60.8910019089114 2558.34709250892 128 133 129
-1361.44662773404 60.2532031723613 2550.56144230784 142 147 143
-1361.6292913002 60.2149112140752 2543.38120240515 147 152 148
-1360.81147459259 60.2763410145752 2536.29278435828 145 150 146
-1359.99405767858 60.3375412052634 2529.19781924352 148 153 149
-1358.17643827783 60.4984192094504 2522.18377192022 146 150 149
-1359.35976167799 60.3594273930705 2514.90364211792 148 152 151
-1357.54253072083 60.5197968539383 2507.87386703895 151 155 154
-1352.72585274359 60.9793915691927 2501.06967163349 162 167 163
-1344.90987341127 61.7381190101765 2494.46661388208 152 157 153
-1332.09590590217 62.9953781390683 2488.18739893899 168 170 165
-1134.23557490406 75.9039319526322 2882.24882980305 186 190 191
-1137.44202536299 75.5735559620838 2873.90871616669 181 185 184
-1143.65767332817 74.9500284775834 2864.97778640383 175 179 178
-1150.87556712327 74.228983175976 2855.8790723691 158 162 161
-1159.0955029884 73.4103842753673 2846.62049928473 161 165 164
-1171.32646566817 72.2011938087809 2836.62901317142 169 173 172
-1184.55863760103 70.8946564580024 2826.51043933427 166 170 169
-1190.76918661303 70.2719312837391 2817.77965578451 162 166 165
-1195.97600046711 69.7469735157368 2809.26580780562 162 166 165
-1193.1606362291 70.0031207113372 2802.24121596799 165 169 168
-1199.36948275361 69.3805787019717 2793.57716819551 171 175 174
-1206.58002201677 68.6605310812706 2784.76696597906 176 180 179
-1220.80729281755 67.2574602122744 2774.77031755583 172 177 173
-1229.01782480101 66.4401795163606 2765.88069613105 158 163 159
-1234.22042752147 65.9156345128582 2757.54120182507 140 145 141
-1235.41303588893 65.7813611903769 2749.89392490272 146 151 147
-1236.60553515435 65.6470568949171 2742.25087881006 147 152 148
-1238.800243754 65.415106320396 2734.45066167852 151 156 152
-1241.99671471168 65.0856315998838 2726.50154923606 148 153 149
-1240.18263471165 65.2435866862516 2719.34603146747 147 152 148
-1238.36910343517 65.4013775467528 2712.17821613686 148 153 149
-1236.55564128752 65.5589880860877 2704.99818060898 149 154 150
-1241.75506868272 65.0342862607373 2696.77329584253 149 154 150
-1243.94885219883 64.8019067554793 2689.00877362799 146 151 147
-1243.13738132762 64.861703997512 2681.67991018438 137 142 138
-1239.32127637689 65.2135878670552 2674.76236496994 121 126 122
-1237.5086605758 65.3704329134074 2667.54842935915 127 132 128
-1241.7051206848 64.9427957725774 2659.51903933637 129 134 130
-1245.90105563534 64.5151333914918 2651.51014722483 114 119 115
-1246.09125388622 64.4768461238625 2644.03543077825 109 114 110
-1246.28147794597 64.4384169423131 2636.55955325487 98 103 99
-1245.47062938964 64.4971482206753 2629.20522304005 91 96 92
-1245.66098101929 64.4583699763815 2621.72398484661 81 86 82
-1241.84726137058 64.8086284963369 2614.71146859125 82 87 83
-1242.03794763584 64.7694910767986 2607.21676602413 83 88 84
-1240.22676766412 64.9247234740023 2599.94498168904 88 93 89
-1247.42341936096 64.2044268661807 2591.67728633066 72 77 73
-1268.6299412582 62.1227774869258 2581.95450480968 85 90 86
-1328.86028433307 56.2497284931417 2568.29557775961 157 162 158
-1353.05994816606 53.877899790667 2558.60335392653 130 135 131
-1359.24648761855 53.256104910925 2550.81194601471 143 148 144
-1358.42887583284 53.3146111105048 2543.72170456112 148 153 149
-1359.6121045151 53.1785585698921 2536.43910784207 144 149 145
-1358.79467575333 53.2366259194692 2529.34124197532 146 151 147
-1357.97717000477 53.2945218384922 2522.23687616205 151 155 154
-1357.1600640498 53.3521881477034 2515.1259632809 152 156 155
-1357.34317921563 53.3125005559361 2507.92657477469 154 158 157
-1350.52589541938 53.9522951379526 2501.28082149949 161 166 162
-1346.70961020325 54.3003857801271 2494.36624880627 164 169 165
-1335.89422001071 55.3276622498396 2487.94509491892 166 168 163
-1132.01382367636 68.3220866332 2882.72543907327 184 188 189
-1137.22714138383 67.8093217737584 2873.97048977923 177 181 180
-1141.43660950061 67.3916507933453 2865.44340264615 168 172 171
-1148.65515831431 66.6891270409796 2856.33897522852 157 161 160
-1157.87911049027 65.7968435505176 2846.87833641716 167 171 170
-1173.12022311596 64.3350459721457 2836.30234297069 166 170 169
-1184.34715979381 63.2533797626141 2826.57111023432 168 172 171
-1188.55222377018 62.8363861325527 2818.21687945166 167 171 170
-1194.76255173747 62.2296098499624 2809.51185978626 173 177 176
-1196.96102328645 62.0025243333078 2801.56979728403 180 184 183
-1202.16715733718 61.4908166962717 2793.09674534519 183 187 186
-1206.37006562346 61.0739918436778 2784.82694761945 182 186 185
-1220.59838457737 59.7086940036986 2774.82989151032 175 180 176
-1230.81460349879 58.7230648933875 2765.59596540116 150 155 151
-1236.0171955397 58.2117300591954 2757.26174776322 136 141 137
-1234.20285805187 58.3641237749987 2750.11964692676 144 149 145
-1236.39771321965 58.1372239295752 2742.30979970105 157 162 158
-1238.5925611917 57.9102628455269 2734.50949274381 156 161 157
-1241.78924559525 57.5884587522397 2726.56027422641 154 159 155
-1241.97926795062 57.5509235368281 2719.0932398813 157 162 158
-1242.16932230134 57.5133047795313 2711.62486534611 155 160 156
-1240.35542044069 57.6650154732947 2704.45568052564 143 148 144
-1241.54747901852 57.532419006213 2696.83169176465 142 147 143
-1242.73967108652 57.3996938363959 2689.21167234264 148 153 149
-1242.92984744479 57.3616074591122 2681.73802723567 148 153 149
-1239.11343029727 57.7020807963994 2674.82043200263 133 138 134
-1239.30394624306 57.6636489302935 2667.33314367952 125 130 126
-1243.50056170848 57.2465187770675 2659.30896338416 119 124 120
-1246.69526295897 56.9239822555245 2651.43646693289 118 123 119
-1245.88382307053 56.97987314614 2644.09287344738 112 117 113
-1244.07154168094 57.1302039890871 2636.86819821501 105 110 106
-1244.26192559854 57.0911320583404 2629.38538275905 101 106 102
-1240.44765949757 57.430192459131 2622.38220007254 87 92 88
-1236.63373618359 57.7690446974541 2615.3560717863 84 89 85
-1237.82597150847 57.6348225399583 2607.73275438579 84 89 85
-1242.02080091642 57.2168924812601 2599.77752052642 88 93 89
-1247.21593300597 56.7044227078549 2591.73364502013 80 85 81
-1265.42151026274 54.963363428529 2582.33006496262 79 84 80
-1310.64500553197 50.6715267466947 2570.2194689971 163 168 164
-1344.8549268818 47.4200048061532 2559.46607480484 126 131 127
-1351.04247151361 46.8141474623612 2551.65249350166 139 144 140
-1351.22581839737 46.774983366417 2544.44461074558 144 149 145
-1352.40960451973 46.6412281956412 2537.14269407501 140 145 141
-1356.59454909796 46.2240391598672 2529.57458925779 143 148 144
-1357.77789318346 46.0900115480625 2522.28965639274 150 154 153
-1355.96049967628 46.2389575106902 2515.26329344741 152 156 155
-1354.14316684126 46.3876653845077 2508.22497879419 154 158 157
-1347.32555769853 47.0078753396325 2501.57091272246 156 161 157
-1346.50940628388 47.0616563705697 2494.41852138652 160 165 161
-1337.69327323139 47.8697945577606 2487.84982734289 173 175 170
-1135.81242908363 60.175131112479 2881.95717948323 184 188 189
-1143.03274116972 59.4910139178052 2872.80360081631 174 178 177
-1145.23531325154 59.2682865866116 2864.696629981 167 171 170
-1150.44770578822 58.7688640561769 2856.00149032012 162 166 165
-1158.66882203677 57.9928795288708 2846.74253979501 171 175 174
-1173.91098383124 56.5715405615743 2836.16898253877 168 172 171
-1184.13568202763 55.6116078991422 2826.63124785681 166 170 169
-1190.34711252747 55.0206231962033 2817.90009318194 166 170 169
-1196.55774213942 54.4297316743166 2809.2003400313 172 176 175
-1200.76177390782 54.023276104808 2800.89776646961 178 182 181
-1207.97366034069 53.3404567587711 2792.07488504844 174 178 177
-1211.17379913943 53.0262557121691 2783.99882036619 168 172 171
-1224.40000473154 51.7908838538985 2774.18984381871 174 179 175
-1232.61144480742 51.0163500419449 2765.3106293078 148 153 149
-1236.81206838771 50.6102885319049 2757.15100744341 133 138 134
-1233.99489375889 50.8488069569549 2750.17824353403 130 135 131
-1236.18988816645 50.6268366182602 2742.36824725965 148 153 149
-1237.38264664799 50.4968715769278 2734.7290540478 162 167 163
-1239.57722101656 50.2748180026582 2726.93538498068 164 169 165
-1242.77387389733 49.9606747304064 2718.99562408206 162 167 163
-1243.96586677945 49.8305565344123 2711.3768639139 162 167 163
-1244.15580168751 49.7923393761326 2703.91251509456 154 159 155
-1243.34388789113 49.8459825468045 2696.59435493285 146 151 147
-1245.53781545371 49.6236178830216 2688.83495604867 143 148 144
-1246.72951668976 49.4930971791164 2681.22716223714 137 142 138
-1239.90725308716 50.098026040617 2674.73860091991 140 145 141
-1240.09768886038 50.0591203615743 2667.25393727466 134 139 135
-1242.29122273795 49.8363234717825 2659.50013608535 124 129 125
-1245.48621069103 49.5215431077745 2651.62476226823 110 115 111
-1243.67359957983 49.6660648604091 2644.40673634454 102 107 103
-1245.86659635119 49.4429758254682 2636.67361344358 97 102 98
-1247.05832918589 49.3116183118969 2629.07301093392 98 103 99
-1242.24211534318 49.7311949336393 2622.19838240817 91 96 92
-1237.42686484696 50.1504669355636 2615.2951006752 88 93 89
-1237.61781246585 50.1103596505153 2607.78914213629 82 87 83
-1241.81293666786 49.7029894857257 2599.83372510484 80 85 81
-1246.00753144991 49.2955502009224 2591.89892542358 90 95 91
-1260.21070235808 47.9704262463631 2582.91855289557 77 82 78
-1297.43155429851 44.5353063327247 2571.62423776999 164 169 165
-1338.65008518877 40.7342213914101 2560.12648291549 122 127 123
-1348.8412553964 39.7774680097563 2551.90255184859 127 132 128
-1353.02721610603 39.3710669607055 2544.30631640534 134 139 135
-1352.20995068052 39.4230439063111 2537.19552738478 133 138 134
-1357.39561432201 38.9248136225929 2529.53700089669 139 144 140
-1358.57919811279 38.7931498306361 2522.25456239509 145 149 148
-1357.76162183129 38.8446574940273 2515.14609403613 152 156 155
-1354.94401870267 39.0792055672922 2508.1951391138 159 163 162
-1348.12556679484 39.6799417728424 2501.543777021 158 163 159
-1344.30880616769 40.0054717823498 2494.62356116712 157 162 158
-1335.49212643138 40.7886075307065 2488.04938772784 165 167 162
-1333.67697471335 40.9302645412762 2480.927581581 175 178 171
-1131.58333018651 52.7659775796139 2882.84766415416 183 187 188
-1136.79737285824 52.2793980861924 2874.09249657517 175 179 178
-1144.01767913679 51.6138883429095 2864.95912413509 170 174 173
-1154.24710258069 50.680021357278 2855.26469772731 169 173 172
-1167.4850244619 49.4779168380227 2845.03352792101 173 177 176
-1178.71466984229 48.4551134059064 2835.25963202253 168 172 171
-1182.92114065133 48.0587787784283 2826.88192418009 165 169 168
-1188.12984455206 47.5730954510926 2818.33637649992 166 170 169
-1195.3439798005 46.9085984116251 2809.44527665797 165 169 168
-1204.56313170737 46.0653980621053 2800.22495068795 166 170 169
-1213.78106955056 45.22240089279 2791.05229269179 161 165 164
-1216.98100738482 44.9159357869527 2782.99238865506 156 160 159
-1226.19669353914 44.0732411213256 2773.89873447698 166 171 167
-1233.40624642997 43.4094057243697 2765.19676425323 147 152 148
-1238.60936282111 42.9244447082203 2756.8703713666 139 144 140
-1235.79180890524 43.1542563148011 2749.90308259766 134 139 135
-1233.9773155737 43.2945526679295 2742.75408345694 148 153 149
-1236.17234163247 43.0774804600576 2734.9481093795 155 160 156
-1237.36513020544 42.9496530885415 2727.31003535576 160 165 161
-1245.5731969039 42.1967989614496 2718.58594209629 156 161 157
-1247.76737939263 41.979633100641 2710.82216188938 157 162 158
-1249.96107604656 41.7624796800602 2703.06805835811 160 165 161
-1246.1425524649 42.0807065713552 2696.20890334806 153 158 154
-1245.33051360352 42.1310369758956 2688.89207416678 151 156 152
-1246.52227814723 42.0027801415621 2681.28423684164 149 154 150
-1243.70670583621 42.2312539313755 2674.23806364595 139 144 140
-1244.89853196781 42.1027706339187 2666.62757609377 130 135 131
-1245.08864177679 42.0633515453411 2659.15510100067 123 128 124
-1245.27878048789 42.023819728861 2651.68137527414 109 114 110
-1244.46747949514 42.0732934822325 2644.33478782462 102 107 103
-1245.65914902422 41.9443567196674 2636.72993394557 96 101 97
-1246.85094557809 41.8152779708719 2629.12928783203 98 103 99
-1243.03560804102 42.1316094483483 2622.13425122479 98 103 99
-1238.21990152257 42.536748332176 2615.23361736647 97 102 98
-1239.41189339432 42.4072005861409 2607.61550919262 84 89 85
-1241.60506572974 42.1884580711247 2599.8895163863 78 83 79
-1241.7957821222 42.1477071213016 2592.39190385928 73 78 74
-1247.99248967707 41.5726458951419 2584.25327028002 76 81 77
-1283.21480306684 38.4163300872017 2573.13315012581 164 169 165
-1333.44510244278 33.9259724959798 2560.68560752659 131 136 132
-1347.64067289279 32.6402157177733 2552.05388146298 126 131 127
-1351.82700035234 32.2443854154564 2544.45466221608 132 137 133
-1351.00972273386 32.2932446166189 2537.34100214528 133 138 134
-1355.19533167039 31.8972604960446 2529.76970010894 139 144 140
-1356.37888573067 31.7679635021537 2522.48164007527 144 148 147
-1356.56196457547 31.7274303086301 2515.2827631792 150 154 153
-1353.74396038709 31.9534155380809 2508.32896415081 158 162 161
-1349.92617566338 32.2679796242696 2501.43699917436 161 166 162
-1345.10881967395 32.6710818584334 2494.59864555868 159 164 160
-1337.29146337614 33.3404023939396 2487.95340613957 160 162 157
-1333.4757583262 33.6539776736822 2480.97909860378 169 172 165
-1130.3642920155 45.0740242318148 2883.11538512415 182 186 187
-1134.57528048945 44.6873234470392 2874.56213057693 172 176 175
-1143.80331037022 43.8667574622218 2865.01912566952 169 173 172
-1155.03706199758 42.8728672196392 2855.12511295896 169 173 172
-1169.27915829294 41.6189911214604 2844.69990191529 160 164 163
-1177.49961910625 40.8859446622408 2835.51267166062 152 156 155
-1182.7095872477 40.4132758612202 2826.94101185781 153 157 156
-1185.91251350377 40.1141027193361 2818.77213949356 158 162 161
-1195.13330665016 39.2947912801288 2809.5039934814 143 147 146
-1204.35312467404 38.4756462824315 2800.28346213553 133 137 136
-1218.5862855439 37.2233237868769 2790.20914661332 151 155 154
-1219.78050108122 37.0979224073931 2782.51790672281 161 165 164
-1225.9882352126 36.5392698666671 2773.95660992982 141 146 142
-1228.18454956121 36.3272532585278 2766.11503812439 133 138 134
-1237.39919998187 35.5088538238477 2757.09727514184 140 145 141
-1235.58399325279 35.643326329299 2749.96058006107 151 156 152
-1236.77691728819 35.517863655796 2742.3197507266 136 141 137
-1235.9645002006 35.5655070044084 2735.00549399393 140 145 141
-1240.16427802262 35.1802303189251 2726.89191964781 145 150 146
-1244.3637731321 34.7949357357134 2718.79870025844 158 163 159
-1247.56033371999 34.4962419301027 2710.87913493262 150 155 151
-1248.75207060351 34.3705432692903 2703.27512543315 139 144 140
-1244.93330210791 34.6773117061925 2696.41323930215 147 152 148
-1245.12320746658 34.6378870290561 2688.9487488348 154 159 155
-1245.31314557734 34.5983786085709 2681.48288838534 153 158 154
-1242.49740290368 34.8181199678201 2674.43399734067 148 153 149
-1240.68386202319 34.9512486912294 2667.23075227616 151 156 152
-1240.87423906599 34.9112933097722 2659.74725692959 151 156 152
-1243.0681163159 34.6983650313826 2651.9999565028 144 149 145
-1241.2550835753 34.8310133639601 2644.77633576449 134 139 135
-1242.44702609316 34.704314657408 2637.16321559037 113 118 114
