ply
format ascii 1.0
comment KinectMotionCapture
element vertex 752
property float x
property float y
property float z
property uchar red
property uchar green
property uchar blue
end_header
-1124.53466699046 359.005408693936 2704.92164460546 195 199 200
-1125.73291399262 358.784223964109 2696.96999631862 195 199 200
-1138.91733570352 356.21409399953 2687.36091814115 200 204 205
-1154.09743165433 353.252642805437 2677.55013038093 191 195 196
-1164.28192994543 351.269599383669 2668.4850097215 191 195 196
-1170.47046142312 350.069290726101 2659.99458302499 193 197 196
-1188.64137602343 346.520653002806 2650.00490114147 191 195 194
-1202.81552902988 343.754754705493 2640.61165621124 182 186 185
-1211.99561130223 341.967127755172 2631.90425435603 185 189 188
-1219.17759783363 340.570689594494 2623.48373574109 169 173 172
-1223.36366805277 339.761051418208 2615.45025531585 168 172 171
-1226.55102445243 339.146782092359 2607.55158086237 173 177 176
-1224.74699075493 339.510433701241 2600.2242798722 173 177 176
-1229.93020094008 338.504312058062 2592.12563311964 172 176 175
-1237.10866119727 337.10680205378 2583.8417826535 174 178 177
-1245.28405881403 335.513525867029 2575.49212979828 172 176 175
-1247.47116947984 335.093532754588 2567.78696064753 175 179 178
-1250.65577452643 334.477655174304 2559.99409178342 161 165 164
-1255.83534725133 333.470404395115 2552.0270724108 160 164 163
-1258.02138971963 333.049465276739 2544.36263637063 193 197 196
-1265.19513864839 331.650508704944 2536.26136772766 164 168 167
-1267.38030372095 331.228962907594 2528.63057194728 148 152 151
-1267.57014858632 331.198137059535 2521.17767852809 161 165 164
-1261.77550420703 332.340006496922 2514.21088538498 175 179 178
-1263.96032546102 331.917294969106 2506.58295076563 194 198 197
-1265.14792077638 331.689733097374 2499.0407600146 197 201 200
-1264.34065313701 331.85274256707 2491.64911626262 202 206 205
-1263.53377196264 332.015315908733 2484.25122462692 183 187 186
-1260.73281994595 332.568276583203 2476.9820487071 182 186 185
-1252.94745604298 334.097927458822 2470.01951691715 185 189 188
-1244.16612395066 335.822369402906 2463.07453719606 181 185 184
-1237.37985292 337.155320122924 2455.96095528316 176 180 179
-1234.58164672981 337.706019294486 2448.58203472426 182 187 183
-1230.78722282079 338.451602840605 2441.23984368349 179 184 180
-996.355961633544 375.771451561214 2804.6088355067 207 211 212
-1015.55814335955 372.077777096357 2793.26609441549 199 203 204
-1045.75367920851 366.260377272937 2780.20245314984 203 207 208
-1070.9473433531 361.408680988787 2768.116049558 203 207 208
-1083.14379355393 359.067134550042 2758.24826925927 205 209 210
-1090.34156721163 357.690891150587 2749.23241863829 197 201 202
-1089.54358978211 357.858986566961 2741.49246698792 195 199 200
-1095.74080034678 356.675603394728 2732.68100478882 202 206 207
-1109.93089005574 353.947895761484 2722.70590451048 187 191 192
-1121.1218105207 351.799178247739 2713.24591741978 190 194 195
-1128.3147018127 350.422554139594 2704.42047778785 194 198 199
-1130.51145045877 350.010951734297 2696.33830748774 194 198 199
-1145.69449192093 347.090066350894 2686.46528017146 199 203 204
-1159.87642961167 344.36224829302 2676.80867043996 187 191 192
-1167.06482322317 342.98526110014 2668.15862589063 187 191 190
-1174.25226545073 341.608107059395 2659.54558557306 190 194 193
-1188.42963894754 338.880090536893 2650.07647204358 188 192 191
-1202.60485020986 336.152082617057 2640.68255057697 177 181 180
-1211.78561329498 334.388822206137 2631.97470311392 181 186 182
-1218.96813064723 333.011238754923 2623.55368291625 168 173 169
-1222.15618509185 332.405156247008 2615.63651682213 167 172 168
-1222.34885678038 332.377539075426 2608.07658659072 170 174 173
-1222.54154830393 332.349646537478 2600.51558547107 171 175 174
-1227.72503925668 331.357047595904 2592.41116019546 170 174 173
-1238.89656692209 329.206864027613 2583.69821196648 169 173 172
-1244.07852009088 328.213711047824 2575.66261852003 165 169 168
-1246.26585671441 327.798999474388 2567.95428906851 164 168 167
-1249.45076027872 327.191084972788 2560.15830323844 144 148 147
-1255.62854517704 326.004383905564 2552.09317608619 158 162 161
-1256.81705036448 325.781501362026 2544.52044868437 185 189 188
-1258.0051941138 325.55838807411 2536.95227499246 155 159 158
-1261.18855325819 324.949204207666 2529.21528749698 149 153 152
-1265.36899056065 324.146977550448 2521.40991888731 165 169 168
-1265.558993903 324.115569339863 2513.95020634258 189 193 192
-1266.7463498983 323.890955231582 2506.41120934147 194 198 197
-1268.93109185548 323.47324326064 2498.80106684366 198 202 201
-1267.12626952407 323.826091330781 2491.49298839105 191 195 194
-1264.32460222913 324.371289908653 2484.24343368142 181 185 184
-1258.53216411474 325.49402295405 2477.17918966767 183 187 186
-1250.74610459055 327.001745139472 2470.21097503758 184 188 187
-1241.96423927561 328.701451146689 2463.26027595967 180 184 183
-1239.16548826408 329.244369715418 2455.90361948231 178 182 181
-1232.37929965344 330.557465332395 2448.75617264116 182 187 183
-1229.58167558403 331.099303629421 2441.35431144902 179 184 180
-996.129954068951 367.618884596468 2804.68839554545 195 199 200
-1018.33294345597 363.405529647102 2792.8395131605 198 202 203
-1045.53136440688 358.240699678898 2780.28037359113 196 200 201
-1069.72710212296 353.647245775316 2768.35618597016 202 206 207
-1084.92351604951 350.767094319671 2758.00425337547 201 205 206
-1091.12223910825 349.599993774159 2749.15116069916 197 201 202
-1096.32054957728 348.62316571329 2740.48447094668 195 199 200
-1104.51655617916 347.07526583715 2731.38739393521 202 206 207
-1114.70992945835 345.14672769013 2722.03393156282 187 191 192
-1119.905672616 344.169682834869 2713.46734845528 186 190 191
-1122.10347970424 343.76328724987 2705.35872603944 187 191 192
-1128.29734572834 342.595619194672 2696.69485375418 198 202 203
-1145.47955745755 339.33484846029 2686.53870788857 196 200 201
-1164.65742700391 335.69359117171 2676.20245252723 187 191 190
-1170.84695284034 334.525791323704 2667.69874351408 186 190 189
-1177.03590382665 333.35769123901 2659.2265040523 182 186 185
-1184.22271518587 331.999311058629 2650.65827818024 180 184 183
-1197.40066012278 329.499447149814 2641.37778104589 172 177 173
-1204.58514639124 328.140815698547 2632.90015797992 171 176 172
-1212.76738272239 326.591780336409 2624.3400516541 177 182 178
-1214.95745139646 326.183876939329 2616.52292951033 164 169 165
-1218.145821791 325.585422764379 2608.60160571516 165 170 166
-1219.33728467313 325.367064484202 2600.91813916448 161 166 162
-1229.51276307006 323.43692844487 2592.2623550884 160 165 161
-1238.68851523339 321.696882162653 2583.76595256286 159 164 160
-1242.87280470705 320.907281146255 2575.83290898697 156 161 157
-1244.06215001768 320.687899254349 2568.22178060266 135 140 136
-1248.24532789374 319.897817064505 2560.32234067639 128 133 129
-1255.42171389856 318.537140800489 2552.15910841183 147 152 148
-1257.60806664078 318.126742450081 2544.49386365718 152 157 153
-1256.80082277381 318.286231341226 2537.10683545923 144 149 145
-1256.9913610048 318.25531092808 2529.62674137292 145 150 146
-1262.16994244109 317.273682106427 2521.72597587801 172 176 175
-1265.35286276922 316.67184736079 2514.01402976188 200 204 203
-1266.54029938334 316.449792608601 2506.4746299373 195 199 198
-1267.72784694565 316.227345069274 2498.93979691727 176 180 179
-1266.92022963072 316.384595775253 2491.55563638005 188 192 191
-1266.11300022797 316.541379958398 2484.16513876356 185 189 188
-1259.32259840187 317.837678431756 2477.17364828702 184 188 187
-1254.52732219854 318.753425104809 2470.01345346991 183 187 186
-1248.73598659925 319.858549133607 2462.88721214051 180 184 183
-1243.94218821603 320.773182140299 2455.66806322461 177 181 180
-1234.16454347224 322.636896074084 2448.70381102289 182 186 185
-1225.38509122101 324.310031425804 2441.63027153232 183 188 184
-1221.59098918468 325.032872089174 2434.25108103634 167 172 166
-981.696386835471 362.11783060615 2815.3440304594 217 221 222
-998.903737651841 358.902283608944 2804.25391974712 191 195 196
-1019.10836418311 355.124032478238 2792.74951294988 194 198 199
-1047.30870638059 349.84478258004 2780.0264515514 194 198 199
-1070.50646428546 345.504030371688 2768.26994190942 199 203 204
-1083.70453868967 343.03974041741 2758.2409120336 196 200 201
-1091.90280295417 341.513539699299 2749.06957184225 193 197 198
-1096.10197737348 340.737684641579 2740.56020758985 193 197 198
-1105.29795667208 339.02373017637 2731.31059871909 199 203 204
-1115.49201426248 337.122168466007 2721.95935631417 186 190 191
-1120.68830145071 336.158419906071 2713.39511193319 189 193 194
-1124.88451735546 335.382122098611 2705.00090128806 187 191 192
-1130.07929378933 334.418178689268 2696.48616841866 195 199 200
-1144.26557599569 331.766085264473 2686.75039203323 198 202 203
-1162.4457546635 328.363921588705 2676.54658606232 179 183 182
-1171.63300658954 326.649559731695 2667.63763571863 179 183 182
-1178.82115762267 325.310119016321 2659.03738648821 184 188 187
-1188.00608906465 323.595534671514 2650.21888980991 180 184 183
-1196.19087417404 322.06836104034 2641.57331705568 170 175 171
-1200.37990074496 321.291066314248 2633.45902006706 167 172 168
-1208.56301748725 319.763523457431 2624.887581221 174 179 175
-1212.75069232395 318.985808353816 2616.82566331939 164 169 165
-1217.93622642531 318.020394268681 2608.67057372353 161 166 162
-1221.12442688139 317.429667774485 2600.76418910055 159 164 160
-1228.30550521112 316.088898994895 2592.43893964678 157 162 158
-1233.48924611192 315.122818813563 2584.36254412605 152 157 153
-1235.67770867301 314.718730950465 2576.62161605612 147 152 148
-1239.8620108132 313.939543002198 2568.6899333909 135 140 136
-1245.04375519228 312.972737087009 2560.68146482974 121 126 122
-1251.2229687338 311.818272892281 2552.60443961116 144 149 145
-1254.40759565516 311.225646869885 2544.83568153734 160 165 161
-1252.6024788707 311.569630493472 2537.52959336986 145 150 146
-1253.79124125659 311.351090876506 2529.95147686179 143 148 144
-1257.97277891404 310.570178131198 2522.12598780455 188 192 191
-1264.14913851844 309.414283040451 2514.15896794915 201 205 204
-1266.33422131028 309.007466950912 2506.53787882227 177 181 180
-1266.52418567724 308.974868735702 2499.07841183568 172 176 175
-1265.71680527956 309.129112298875 2491.69108770166 181 185 184
-1265.90686188996 309.095769297244 2484.22721582742 178 182 181
-1261.11060727824 309.998209010048 2477.10029739862 178 182 181
-1257.31196680354 310.712928107991 2469.88043969643 181 185 184
-1248.5285061471 312.363269903904 2462.94841339109 180 184 183
-1243.73433684666 313.264077239895 2455.72891626457 179 183 182
-1235.95005729448 314.725948009621 2448.65122723173 188 192 191
-1230.16063619862 315.812799839836 2441.42121640856 183 188 184
-1223.37525756087 317.08618414931 2434.20879886572 168 173 167
-995.677879763087 351.310615421408 2804.84646206723 176 180 181
-1019.8839109951 346.846823113542 2792.65918882015 188 192 193
-1051.08591777135 341.08889768176 2779.44052277192 197 201 202
-1075.28485550511 336.625673445914 2767.53109796212 197 201 202
-1088.48356276906 334.196596235878 2757.5151424677 196 200 201
-1092.68349686754 333.431462396903 2748.98759894052 192 196 197
-1096.88313966419 332.666192908811 2740.48061963651 196 200 201
-1107.07917347922 330.791683824328 2731.08118655275 189 193 194
-1115.2748492439 329.28684880099 2722.03395473914 177 181 182
-1120.47151347741 328.336444127899 2713.46930176071 183 187 188
-1122.66931128693 327.940467453476 2705.36290422447 184 188 187
-1127.86484218924 326.989794324436 2696.84225750814 195 199 198
-1143.05117988764 324.190833499137 2686.96199027309 198 202 201
-1160.23375511269 321.022215270477 2676.8905839942 174 178 177
-1171.41998626412 318.962494035406 2667.70942887068 178 182 181
-1180.60644993514 317.27232277976 2658.84793548045 179 184 180
-1190.7907441077 315.397307969709 2649.9067852837 171 176 172
-1198.97616337144 313.891659259615 2641.2688641714 157 162 158
-1200.16899435692 313.67930190589 2633.52904594665 152 157 153
-1208.35271688286 312.173354677569 2624.95711869956 167 172 168
-1213.53923888394 311.221541985785 2616.77802268901 167 172 168
-1221.72098296877 309.715281208098 2608.28308310871 152 157 153
-1222.91208321823 309.501974177898 2600.60988835389 154 159 155
-1227.09830742878 308.734248320123 2592.61539163036 155 160 156
-1228.2889573447 308.520340952939 2584.95915287505 144 149 145
-1233.47274840982 307.567361578691 2576.89486339646 136 141 137
-1237.65749447293 306.798888883894 2568.95733589947 133 138 134
-1245.83440655002 305.29139372411 2560.64992253641 112 117 113
-1250.01779304636 304.522382698938 2552.76495360081 129 134 130
-1255.19855668264 303.56850190478 2544.80869386547 141 146 142
-1253.39345869762 303.906715559415 2537.50500039062 127 132 128
-1254.58199300919 303.690730588146 2529.92921601066 137 142 138
-1256.76834840999 303.289754520676 2522.27398427115 175 179 178
-1262.94499777648 302.15008059416 2514.30373175824 152 156 155
-1265.13054313071 301.748479917451 2506.67948878764 155 159 158
-1265.32058112697 301.715622023827 2499.21686529 189 193 192
-1264.51319966102 301.866984957042 2491.82648990918 183 187 186
-1265.70069263539 301.648846447876 2484.28909229113 183 187 186
-1263.89594146729 301.983879924223 2476.95910459107 182 186 185
-1262.09171644759 302.318470094366 2469.61740198881 183 187 186
-1255.30153976029 303.575156075931 2462.57457946542 181 185 184
-1247.5150239659 305.015718379285 2455.55208634662 183 187 186
-1237.73560489387 306.824687164453 2448.59839991463 188 192 191
-1230.94865366078 308.079434095432 2441.42743346401 184 189 185
-1230.14440415787 308.226812210872 2433.91037152726 172 177 171
-975.241215744782 346.825099121304 2816.54670066505 195 199 200
-995.451808614037 343.154974403619 2804.92520652543 175 179 180
-1022.65970635969 338.20966191557 2792.23138195159 189 193 194
-1049.86412313833 333.264702843755 2779.68330988719 188 192 193
-1077.06457928891 328.320051101004 2767.2810380855 196 200 201
-1086.26472107672 326.654747389799 2757.9116573611 198 202 203
-1092.46465624796 325.535879556268 2749.06297970071 193 197 198
-1098.66378118528 324.416987353865 2740.24594262299 198 202 203
-1109.85995176166 322.387273459076 2730.69921512309 186 190 191
-1114.05820793444 321.632516349037 2722.25771726522 176 180 181
-1117.25630955687 321.059740416478 2713.98363469244 180 184 185
-1121.4533325634 320.304654536128 2705.58065544732 184 188 187
-1132.64501858894 318.274694099211 2696.2089350114 198 202 201
-1152.82849685488 314.605906193726 2685.64860886541 194 198 197
-1163.01743961662 312.758072816755 2676.55496102943 174 178 177
-1173.20501630517 310.910182993999 2667.51464345892 177 182 178
-1181.39328981445 309.4263115555 2658.78855130032 170 175 171
-1196.57299751368 306.668038178077 2649.21109444823 161 166 162
-1204.75860464598 305.184006328798 2640.58904130228 149 154 150
-1204.95233444505 305.156197486651 2632.98755064417 143 148 144
-1209.14107976529 304.399984304724 2624.90688164518 162 167 161
-1212.33067094786 303.82560286477 2616.96369267368 168 173 167
-1220.51285300801 302.34095551669 2608.46551754888 150 155 151
-1221.70433618405 302.130064205325 2600.78927529785 145 150 146
-1223.89387345006 301.736946932203 2593.00879862293 148 153 149
-1223.08812536691 301.889405498191 2585.55576139028 139 144 140
-1227.27413259636 301.131760588179 2577.58056918502 132 137 133
-1232.45804130758 300.191924074496 2569.52579348065 135 140 136
-1240.63566908071 298.70596840716 2561.20421089724 119 124 120
-1248.81243842805 297.219878027621 2552.92535871175 126 131 127
-1253.99365257893 296.279351570206 2544.96583016331 121 126 122
-1253.18640214869 296.43004941797 2537.56961933564 125 130 126
-1255.37286939949 296.034688498753 2529.90672043597 150 155 151
-1258.55709408772 295.457054286471 2522.16978007738 153 157 156
-1264.73429990404 294.333554263283 2514.20447065737 148 152 151
-1267.91750637803 293.755320852392 2506.50668226509 170 174 173
-1269.10491577192 293.540475632913 2498.9760873428 183 187 186
-1269.29469308183 293.507176979497 2491.52317911699 182 186 185
-1266.49193187411 294.018906072895 2484.28044135401 177 181 180
-1265.6845708094 294.166482374619 2476.88520282883 176 180 179
-1261.88522731208 294.859058415595 2469.67837096468 178 182 181
-1258.08644936684 295.551093766695 2462.44885481505 179 183 182
-1251.2965241093 296.787936533784 2455.37489943032 185 189 188
-1243.51025333243 298.205926463042 2448.31859370102 189 193 192
-1239.71365882115 298.896300179 2441.00195725264 184 189 185
-1237.9115252692 299.222624228365 2433.56031253354 174 179 173
-968.012066065015 339.870588992466 2817.84391339351 198 202 203
-999.226293566794 334.280317433718 2804.31830808494 175 179 180
-1030.43648370446 328.690457391371 2790.96026359509 185 189 190
-1056.64219646645 323.998275916064 2778.5989306755 194 198 199
-1070.84485892679 321.45988220662 2768.33571442976 193 197 198
-1084.04579750054 319.100973417453 2758.3078930649 191 195 196
-1095.24524425383 317.100997026242 2748.66505106297 186 190 191
-1105.4435228272 315.280477648478 2739.23585503615 196 200 201
-1114.64083753835 313.639360888977 2730.01226113572 184 188 189
-1114.84045124188 313.612866498384 2722.18221846532 179 183 184
-1118.03870733768 313.047971955115 2713.91056096679 178 182 183
-1118.23816113286 313.021069993808 2706.0863304509 188 192 191
-1133.42840521255 310.303325285603 2696.14059191385 186 190 189
-1153.6135612582 306.68870490693 2685.58217803162 182 186 185
-1167.80015519736 304.1504477807 2675.94712191035 166 170 169
-1175.98967553501 302.688274527353 2667.18627243161 164 169 165
-1187.17571175488 300.687994037817 2658.07655880325 167 172 168
-1196.36181787688 299.046383354144 2649.28118026946 156 161 157
-1204.54802681025 297.583858165063 2640.65869884818 148 153 149
-1202.74385029131 297.914417281905 2633.30144764532 138 143 137
-1205.93427112394 297.348157613337 2625.33455360808 154 159 153
-1209.12429759384 296.78161281153 2617.38276647833 167 172 166
-1214.31117814079 295.856353122485 2609.21816782186 157 162 158
-1216.501710615 295.468609551967 2601.41388961935 132 137 133
-1218.69198582763 295.080604367033 2593.61938518945 134 139 135
-1224.87590880112 293.975362407893 2585.41115010074 131 136 132
-1231.05877614783 292.869954479052 2577.23466956964 125 130 126
-1238.23934113014 291.585020044836 2568.98943413158 124 129 125
-1244.42074215725 290.479189099558 2560.87913303602 113 118 114
-1247.60666814158 289.910765020761 2553.08558926397 105 110 106
-1250.79219364303 289.342027428564 2545.30736112418 99 104 100
-1247.98884142849 289.84809201702 2538.08163984574 126 131 127
-1255.16593751561 288.562010444219 2529.97074913907 156 161 157
-1261.34421313766 287.454910903987 2521.98123758074 167 171 170
-1270.51527741893 285.810099365187 2513.77963424697 185 189 188
-1272.70057582694 285.419067766203 2506.17639105172 182 186 185
-1275.88302140821 284.848632471614 2498.50738921125 176 180 179
-1273.07956779689 285.352440195628 2491.29253241119 177 181 180
-1268.28104165699 286.214014626143 2484.20119039173 171 175 174
-1265.47834804575 286.716932932724 2476.94635037987 166 170 169
-1263.67345321375 287.040240922842 2469.60938763863 170 174 173
-1263.86369307069 287.005018554765 2462.13633593579 177 181 180
-1257.07282736231 288.22266552468 2455.07852565895 185 189 188
-1251.28034533357 289.260633354295 2447.92498360936 187 191 190
-1242.49694697573 290.835097621609 2440.89972622445 175 180 176
-1240.69446156381 291.155873555483 2433.46587627262 175 180 174
-1238.89249831772 291.476117214854 2426.0203715443 170 175 169
-1003.00160033191 325.426445205929 2803.71093221414 171 175 176
-1035.21370393611 319.744110537906 2790.19418356699 181 185 186
-1057.42070419605 315.829452921378 2778.50926056489 197 201 202
-1070.62439609845 313.505582471109 2768.41145104826 195 199 200
-1079.82654669052 311.888686358409 2759.02486043426 191 195 196
-1093.02696337803 309.564967634957 2749.0552205737 185 189 190
-1107.22534394451 307.064565583736 2739.00014809003 195 199 200
-1116.42319529146 305.447673690497 2729.78159139898 184 188 189
-1116.62266675671 305.420887063014 2721.95679411229 179 183 182
-1115.82238958526 305.57063185186 2714.2776960645 174 178 177
-1120.02032008644 304.836728035901 2705.87131724225 188 192 191
-1133.21252522641 302.5129178715 2696.21319013594 177 181 180
-1153.39918903952 298.952513417012 2685.65406036159 181 185 184
-1168.58609620392 296.275509739307 2675.88248461507 164 168 167
-1177.77557617397 294.658265725711 2666.99073225335 161 166 162
-1186.96382703937 293.040928801409 2658.14691779926 162 167 163
-1190.15584188676 292.483190734364 2650.11754919429 151 156 152
-1196.34487496028 291.395374283581 2641.72830386299 143 148 144
-1198.53721774739 291.013750851666 2633.85984369458 131 136 130
-1201.72814513278 290.455368867407 2625.88161027103 145 150 144
-1204.91867506221 289.896672563892 2617.91857331162 159 164 158
-1208.10880869025 289.337841690889 2609.97088069321 158 163 159
-1213.29580668439 288.425634886792 2601.81570697651 126 131 127
-1214.48764256598 288.219364305816 2594.12131636691 126 131 127
-1224.66674438024 286.424083582792 2585.47803863019 124 129 125
-1229.85164206045 285.511235561049 2577.40426396762 118 123 119
-1237.03280837231 284.245197083921 2569.1558155108 124 129 125
-1240.21964201643 283.684904017628 2561.33552770517 110 115 111
-1245.40274511523 282.771450286359 2553.34056592476 97 102 98
-1246.59210976728 282.563556893141 2545.74101707555 101 106 102
-1246.78327525139 282.531749258776 2538.23545513475 126 131 127
-1252.96296732882 281.440987923021 2530.20812629881 149 154 150
-1262.13564678708 279.820777456948 2521.96048620198 175 179 178
-1270.30945760838 278.376707808051 2513.84238208733 170 174 173
-1273.49270794657 277.814547824456 2506.16013773877 165 169 168
-1276.67555161539 277.252015955425 2498.49338813576 185 189 188
-1274.86922745358 277.571143026071 2491.20779940534 173 177 176
-1270.07042669361 278.418893023088 2484.12167166578 156 160 159
-1266.26961470575 279.089806152729 2476.93964874546 151 155 154
-1264.46474310044 279.407463033333 2469.60503528661 160 164 163
-1264.65491734797 279.372018056154 2462.13430880668 173 177 176
-1260.85562444272 280.041413275081 2454.90060984761 186 190 189
-1257.05666023914 280.710394014781 2447.644294265 188 192 191
-1248.27240817583 282.260144512553 2440.6351916931 171 176 172
-1242.48071832298 283.280439034358 2433.42238764052 174 179 173
-1236.6898710525 284.300149122463 2426.17602503012 172 177 171
-1002.7760723377 317.289415537746 2803.78843173318 161 165 166
-1031.98984923869 312.216009388403 2790.77668762005 169 173 174
-1055.19881357364 308.187013603585 2778.91693190634 195 199 198
-1070.40391588106 305.550267041223 2768.4867767169 190 194 193
-1080.6066967165 303.783556491787 2758.93939246749 195 199 198
-1092.80813311485 301.668931894286 2749.12971028112 189 193 192
-1107.00756828615 299.206481211605 2739.0741694442 194 198 197
-1116.20609702109 297.61377671239 2729.85510864453 184 189 185
-1119.40484338678 297.064806740992 2721.58138827917 176 181 177
-1118.60427939488 297.211536908572 2713.91026330035 173 178 174
-1121.80252078233 296.662251233884 2705.65594025623 170 174 173
-1127.99902291644 295.590992192827 2696.99255623376 166 170 169
-1146.18826189111 292.432644554978 2686.69643296751 178 182 181
-1163.37593058222 289.448366103725 2676.63321103435 165 169 168
-1173.56569730554 287.681429109761 2667.59422023138 163 167 166
-1180.75627949949 286.436111228915 2659.00001466443 157 162 158
-1181.95068657295 286.233867618857 2651.20945682071 151 156 152
-1188.14072963141 285.162107462731 2642.7979777918 140 145 141
-1193.33073542667 284.264074649163 2634.54046772725 130 135 131
-1199.5192200967 283.191919123217 2626.18947139868 135 140 136
-1205.70689509064 282.11964905132 2617.8699970263 151 156 152
-1208.89718546225 281.568698963216 2609.92464010605 160 165 161
-1211.0883699881 281.191285131609 2602.10596874452 124 129 125
-1211.2817821512 281.161250119804 2594.51450211138 120 125 121
-1218.46566733983 279.914324096075 2586.18031201212 113 118 114
-1222.65286347564 279.18859289479 2578.19291971027 116 121 117
-1231.832143125 277.593780754515 2569.72391683556 111 116 112
-1234.02095604361 277.215170866526 2561.98732707934 106 111 107
-1241.20143456066 275.967501271864 2553.78548311763 107 112 108
-1242.39139422323 275.762057163276 2546.17463383762 87 92 88
-1243.58099066899 275.556262745748 2538.56827940565 119 124 120
-1248.76326571334 274.655273352181 2530.61906410771 153 158 154
-1259.93316848572 272.711957896464 2522.19174137431 165 170 166
-1267.10954679402 271.463219208285 2514.14899986446 175 180 176
-1270.29323475604 270.908925250319 2506.45809759304 189 194 190
-1270.48287292089 270.87536354603 2499.01034519429 167 172 168
-1268.67681773159 271.188747208389 2491.70807725715 145 150 146
-1266.87129044991 271.50162707714 2484.39396071477 142 146 145
-1267.06124165246 271.466841671373 2476.93265980211 156 160 159
-1267.25120258728 271.431663550779 2469.4705568517 185 189 188
-1266.44348033966 271.569706087552 2462.06987319512 182 186 185
-1262.64375186292 272.228053724853 2454.84133583709 190 194 193
-1259.84190316208 272.712261225076 2447.53338357653 189 193 192
-1251.05676819956 274.237338870314 2440.53229595525 166 168 165
-1242.2726561742 275.761787201556 2433.48122790931 177 179 174
-1235.48425532145 276.938445155679 2426.28307168733 172 174 169
-1027.76528415375 304.841885326682 2791.52758715329 170 174 175
-1050.97625659511 300.87525489038 2779.6563107928 195 199 198
-1067.1828656334 298.10772666017 2769.05154172187 192 196 195
-1079.38691222538 296.025387622392 2759.17450987344 190 194 193
-1092.58928408175 293.771940845912 2749.20390784572 188 192 191
-1105.78987820261 291.518547219871 2739.30284294904 193 197 196
-1114.98891444593 289.950138495798 2730.08070910784 182 187 183
-1119.18794569993 289.237728542981 2721.65438750692 175 180 176
-1117.38761576655 289.552588931748 2714.12994233023 173 178 174
-1120.58614935263 289.011147979965 2705.87262221048 164 168 167
-1127.7827202748 287.784762244076 2697.06468427774 171 175 174
-1146.97303377267 284.50402749787 2686.62917752228 184 188 187
-1163.16226665653 281.73698398006 2676.70404920763 167 171 170
-1173.35278882388 279.997004485171 2667.66447792109 163 167 166
-1174.5478029755 279.797420148945 2659.85304868334 154 159 155
-1173.74429972842 279.939858084958 2652.30151609963 148 153 149
-1180.93447954821 278.712893118527 2643.74274265458 138 143 139
-1190.12183299765 277.143663438929 2634.97633139107 127 132 128
-1197.31021070766 275.916454881536 2626.49705387837 128 133 129
-1202.49931610634 275.031385817596 2618.28865390718 143 148 144
-1210.68477898399 273.632799480054 2609.76398354235 160 165 161
-1211.87695489095 273.431690041456 2602.06184520064 128 133 129
-1211.07158372882 273.572434574317 2594.58149896203 113 118 114
-1211.26501651102 273.541793882627 2586.98857613026 112 117 113
-1213.45561426728 273.168740734509 2579.18819513496 111 116 112
-1215.64619143293 272.795389837672 2571.3976239808 101 106 102
-1219.83337875531 272.079714173519 2563.42137299982 108 113 109
-1230.01069654343 270.337698298095 2554.89568808757 99 104 100
-1236.19321685862 269.279554596331 2546.79284422561 84 89 85
-1242.37491828432 268.221238782435 2538.72182060126 165 170 166
-1246.55924825639 267.504643292869 2530.85625713091 186 191 187
-1257.73012383388 265.591048363836 2522.42282541654 166 171 167
-1261.91288173005 264.874031138924 2514.61825129162 158 163 159
-1266.09533519472 264.15676172229 2506.83462940846 145 150 146
-1266.28525357677 264.122885340011 2499.37558727385 151 156 152
-1268.4708035282 263.746884699169 2491.76932718721 170 175 171
-1268.66060832254 263.712318328582 2484.31398359773 188 192 191
-1268.85042278284 263.677329251296 2476.85780835901 194 198 197
-1269.04024924561 263.641946854792 2469.40074170643 187 191 190
-1266.23725566103 264.11877671735 2462.1296139298 191 195 194
-1263.43469168195 264.595222120975 2454.84128287944 188 192 191
-1258.63776956961 265.412702520115 2447.64922991956 168 172 171
-1250.84935006468 266.74216308808 2440.59117270512 165 167 164
-1244.05906736563 267.900269130393 2433.43732115342 174 176 171
-1242.25639309854 268.203716692856 2426.00157123322 172 174 169
-1027.54159928992 296.770686014135 2791.60373431823 178 182 183
-1047.75332316395 293.372056455205 2780.22954718552 181 185 184
-1064.96152308931 290.479275914421 2769.45281211479 195 199 198
-1081.16728402981 287.755217196944 2758.92786385832 188 192 191
-1091.37013867991 286.042444121196 2749.43550858126 189 193 192
-1104.5717764998 283.824123852765 2739.53131138095 195 199 198
-1111.77175690266 282.61687677853 2730.6106687527 179 184 180
-1117.97095829854 281.578119660924 2721.87668629227 176 181 177
-1119.17030482423 281.381640140645 2713.90859136805 175 180 176
-1121.36899175733 281.016576642771 2705.80063599045 167 171 170
-1130.56550308642 279.472034349966 2696.71213526841 180 184 183
-1146.75814042648 276.748228479734 2686.70037426736 190 194 193
-1160.94937375433 274.361424677436 2677.04661367923 169 173 172
-1169.14172079114 272.98528642151 2668.26766475926 164 168 167
-1168.33839532981 273.124916149632 2660.70616845506 148 153 149
-1171.53257342949 272.590576638151 2652.62670081184 143 148 144
-1178.72342028193 271.382430117727 2644.06206321825 135 140 136
-1189.91010245976 269.500578432349 2635.04493825591 125 130 126
-1196.09970240685 268.460596293544 2626.68489834179 124 129 125
-1200.29049427744 267.757192061152 2618.59027003633 137 142 138
-1208.47646316999 266.380171029619 2610.05965323262 152 157 153
-1209.66885343845 266.18149531243 2602.35175004327 136 141 137
-1206.86572873291 266.655869292577 2595.08310999073 110 115 111
-1206.06071969502 266.793276389 2587.58502719996 110 115 111
-1208.25205684505 266.425304934272 2579.77052925413 107 112 108
-1209.44431492744 266.225404008743 2572.06647681993 94 99 95
-1211.63519954003 265.856862813294 2564.2690538612 111 116 112
-1220.81515285473 264.310129774988 2555.81602065936 84 89 85
-1228.99573574638 262.931418524326 2547.50341738991 73 78 74
-1237.17498308665 261.552645837387 2539.23362134149 179 184 180
-1243.3566695114 260.51014903664 2531.18016924398 175 180 176
-1254.52858682293 258.626286292971 2522.73794708519 146 151 147
-1260.70828427864 257.583508755221 2514.76192935439 152 157 153
-1265.8891352888 256.708646652197 2506.89642371796 145 150 146
-1265.08086491814 256.842783829098 2499.51296933389 170 175 171
-1268.26476081105 256.303769381089 2491.83034636398 188 193 189
-1267.45675351911 256.437143164604 2484.44511506761 190 194 193
-1270.64011715247 255.897460162068 2476.78257680224 180 184 183
-1267.83654354578 256.366401890419 2469.52564862757 182 186 185
-1267.02884777807 256.498552375383 2462.12692840135 197 201 200
-1263.22821636285 257.134696411472 2454.90051570166 181 185 184
-1257.43345577855 258.106469655632 2447.76495284895 171 175 174
-1250.64190399332 259.24582437187 2440.64989264015 164 166 163
-1242.85376928795 260.552615081333 2433.54703853593 177 179 174
-1241.05078036068 260.850447740896 2426.10823298729 175 177 172
-1038.32317152328 286.874245038671 2789.82358543362 175 179 180
-1054.53386478855 284.193260418159 2779.1427896983 189 193 192
-1067.74160682518 282.009806615445 2769.03745548691 195 199 198
-1084.94854525806 279.163246482992 2758.35965182723 190 194 193
-1092.15152601584 277.974793713186 2749.35124959976 191 195 194
-1104.35378940265 275.957393009519 2739.60431258061 196 200 199
-1108.55412571446 275.266305625225 2731.14055454322 175 180 176
-1113.75407804961 274.409255473187 2722.5476280569 170 175 171
-1115.95361071682 274.049425415024 2714.42156251317 168 173 169
-1121.15219614303 273.192172127357 2705.87251666377 162 166 165
-1133.34871884361 271.174646098597 2696.35913577294 180 184 183
-1148.54248676253 268.659967992421 2686.49371066918 185 189 188
-1159.73595655056 266.80814622238 2677.25287098509 168 172 171
-1164.93026490317 265.950651175289 2668.87072840579 166 170 169
-1165.12656001286 265.92146915539 2661.16750210996 150 155 151
-1169.32052225666 265.229287843602 2652.95169015624 142 147 143
-1177.5115557012 263.874202740021 2644.25601101422 136 141 137
-1188.69913652438 262.022091324764 2635.23569669007 130 135 131
-1195.88840099193 260.832491833095 2626.7528185508 119 124 120
-1200.07949418826 260.139690769979 2618.65779825822 124 129 125
-1209.26507093898 258.618589223223 2610.01250281756 137 142 138
-1211.45663893024 258.256738274061 2602.19555452442 159 164 160
-1208.65314887668 258.722716824781 2594.93217917236 127 132 128
-1206.84889021486 259.02262807624 2587.54523108022 105 110 106
-1207.04261853626 258.99106843692 2579.93977085816 100 105 101
-1207.23636656005 258.959173447489 2572.3331805249 97 102 98
-1208.42895771837 258.761401417211 2564.62772096174 91 96 92
-1214.61401129303 257.735566892515 2556.45123486187 91 96 92
-1220.79848485305 256.709493525121 2548.30648608056 80 85 81
-1224.98538542983 256.014237523213 2540.37269195985 100 105 101
-1234.16328628371 254.491248270912 2532.02537028587 92 97 93
-1246.33513982794 252.471527092417 2523.47378850145 148 153 149
-1256.50876297483 250.782771427501 2515.14968967906 133 138 134
-1262.68837354004 249.755832041946 2507.19407371817 153 158 154
-1266.87086403298 249.059652598414 2499.42232464238 179 184 180
-1271.0528101313 248.36313793583 2491.67149246203 150 155 151
-1270.24452151494 248.493585663448 2484.29411452485 142 146 145
-1269.43638496281 248.623632792946 2476.91036325933 147 151 150
-1267.63040971344 248.918719372532 2469.58532499456 152 156 155
-1266.82264236874 249.047947979914 2462.18626495757 178 182 181
-1264.01956260558 249.507545309009 2454.900002371 165 169 168
-1254.23363805841 251.124294479223 2447.99418182547 153 157 156
-1247.44177246292 252.244316578258 2440.8706285333 159 164 160
-1241.64829069962 253.198316965355 2433.65667701232 184 186 181
-1244.83236755995 252.663755767362 2425.97176276589 182 184 179
-1047.10497469755 277.363079453819 2788.38004471809 171 175 176
-1056.31321604535 275.867090697603 2778.8852272778 191 195 194
-1067.52089584128 274.044979583819 2769.11158748472 194 198 197
-1086.72987430571 270.918266153748 2758.11196540425 186 190 189
-1092.93280915104 269.911615591297 2749.26654035179 191 195 194
-1106.13626510495 267.763573742887 2739.36674373068 196 200 199
-1108.33641492036 267.409134279644 2731.21302111475 175 180 176
-1116.53692734415 266.076253450315 2722.1707118663 170 175 171
-1115.73642142492 266.210661116926 2714.49341104205 169 174 170
-1121.93522391872 265.203703391676 2705.79983800688 162 166 165
-1130.13324394762 263.870585823055 2696.85468599217 182 186 185
-1148.32770369191 260.907470673022 2686.56414257273 186 190 189
-1158.52212772752 259.248378391952 2677.458923218 173 177 176
-1161.71774899449 258.73012989728 2669.34032889212 172 176 175
-1160.91475362943 258.863579810889 2661.75929587376 148 153 149
-1167.10838604044 257.856014744898 2653.27646025619 139 144 140
-1178.29823207367 256.033579876598 2644.1994780668 134 139 135
-1191.48538688544 253.885256389327 2634.93648414828 131 136 132
-1194.67785807935 253.366226019417 2626.94016607249 118 123 119
-1197.86993662292 252.847000088958 2618.95898415458 119 124 120
-1206.05725075915 251.513014687863 2610.42199891316 130 135 131
-1209.24818724962 250.993342566323 2602.48497330079 163 168 164
-1205.44566772128 251.613630945662 2595.32465480785 138 143 139
-1201.64372593851 252.233585455541 2588.14139753332 108 113 109
-1200.83900168662 252.364524705086 2580.62523964344 102 107 103
-1202.03189810685 252.169435416945 2572.90140512101 94 99 95
-1203.22467430033 251.974078041341 2565.18198162483 92 97 93
-1211.408192209 250.638609378233 2556.80109828306 100 105 101
-1215.59604539159 249.95423643446 2548.83243362861 75 80 76
-1219.78335905148 249.269677022213 2540.88465517483 99 104 100
-1224.96875408916 248.421964170508 2532.87070397665 132 137 133
-1240.1370870704 245.946407836099 2524.04137029459 149 154 150
-1254.30510071367 243.633547281192 2515.37450998151 144 149 145
-1261.48348056514 242.459959746332 2507.33423275107 174 179 175
-1266.66468943076 241.611680839381 2499.48328387224 146 151 147
-1268.85087120108 241.251353884087 2491.87848409945 137 142 138
-1270.03858071036 241.053414156277 2484.35431144259 152 156 155
-1269.23037169191 241.180479625911 2476.97019093536 162 166 165
-1269.42014007364 241.144512501741 2469.5147664555 168 172 171
-1269.60991894437 241.108152461279 2462.05851014584 190 194 193
-1264.81079523527 241.884718950871 2454.89924822083 167 171 170
-1254.0264318696 243.636624671113 2448.05283432528 159 163 162
-1246.23625477916 244.899965158523 2440.98315020276 158 163 159
-1241.4401104664 245.674714988905 2433.71481734713 181 186 180
-1245.62182831894 244.985583415849 2425.98083319559 180 185 179
-1289.69941947019 237.792546584858 2416.43289265977 157 162 156
-1050.88516135117 268.701862753686 2787.77947977908 185 189 190
-1054.09047411281 268.192347698113 2779.29148556255 193 197 196
-1071.30226437715 265.437612289643 2768.53197462632 192 196 195
-1086.51057488746 263.003869448346 2758.18507672706 188 192 191
-1097.71552968551 261.211593045418 2748.54997350569 191 195 194
-1106.91858661786 259.739911804937 2739.28388051953 191 195 194
-1109.11905337155 259.390576476184 2731.13257607265 177 182 178
-1113.31938615339 258.720496698896 2722.69151234904 174 179 175
-1115.51921247377 258.370881728845 2714.56493799718 164 169 165
-1122.71862076932 257.219604681637 2705.7267516091 158 162 161
-1126.91729603082 256.549155926268 2697.35007334206 179 183 182
-1144.11353998438 253.795021399517 2687.18948647864 183 187 186
-1158.30807665802 251.52182448896 2677.52860202439 171 175 174
-1163.50344298871 250.690903167245 2669.14296760488 171 175 174
-1163.69980165232 250.661014008416 2661.43649813011 143 148 144
-1168.89393412632 249.829794109727 2653.08944172687 135 140 136
-1180.08471033513 248.037087982022 2644.01735027347 129 134 130
-1188.27541274356 246.724977755626 2635.37142749485 122 127 123
-1192.46761217604 246.053642221589 2627.24689490474 122 127 123
-1199.65742631025 244.901465182548 2618.79204002417 120 125 121
-1211.84206459366 242.948325689332 2609.80295184105 127 132 128
-1214.03372432319 242.596803602821 2601.99350843537 153 158 154
-1207.23326754108 243.686402538392 2595.17306242793 158 163 159
-1201.43275169926 244.615447082365 2588.20723140085 111 116 112
-1200.62795017543 244.743285913339 2580.69076457551 106 111 107
-1202.81973091888 244.390564373299 2572.86597885749 99 104 100
-1200.01732443107 244.838068676064 2565.54041777743 95 100 96
-1206.20408038708 243.844308118408 2557.34116006108 93 98 94
-1210.39258628437 243.170564832266 2549.35839836248 83 88 84
-1216.57784748377 242.176421973716 2541.21715042724 63 68 64
-1220.76513407498 241.502223053912 2533.28155420998 144 149 145
-1236.93350684128 238.907165916528 2524.35637728234 142 147 143
-1253.09966957906 236.31218698971 2515.51765990173 150 155 151
-1261.27690142585 234.997511057618 2507.39545847901 121 126 122
-1267.45667147639 234.002639403864 2499.46804113951 150 155 151
-1267.64647418787 233.967473397301 2492.01213511236 156 161 157
-1269.8326129718 233.612019429191 2484.41424763447 155 159 158
-1267.02815001422 234.056109965484 2477.16539507776 163 167 166
-1270.21200537886 233.540033584058 2469.50898522245 182 186 185
-1270.40171870647 233.503480926367 2462.05508374717 190 194 193
-1267.59791474582 233.946315676039 2454.77912694077 158 162 161
-1255.8145835668 235.82791013397 2447.99759894237 161 165 164
-1250.01938991055 236.749352663336 2440.82492079675 166 171 167
-1244.22480254406 237.670246792574 2433.61863312876 180 185 179
-1247.40913452947 237.151762797263 2425.94101017201 179 184 178
-1038.65506986959 262.583977708435 2789.87899186351 186 190 191
-1055.87008975229 259.875140458274 2779.03321337266 193 197 196
-1072.08230035652 257.324050099535 2768.44191001679 191 195 194
-1085.29084498631 255.246076169368 2758.41846384803 187 191 190
-1093.49543037967 253.956288155142 2749.25391379699 190 194 193
-1099.69838444965 252.981622627779 2740.44208044596 190 194 193
-1104.90033161729 252.16449423374 2731.81405390437 176 181 177
-1110.10137105247 251.347310543949 2723.21212053151 172 177 173
-1115.30198297402 250.530027468499 2714.63611394761 161 166 162
-1120.50168785354 249.71265890396 2706.08614112892 157 161 160
-1126.70088857491 248.737642196201 2697.42062457313 177 181 180
-1146.89822243397 245.556901607823 2686.84280147079 182 186 185
-1163.09341706094 243.006530176843 2676.91731338221 170 174 173
-1165.28941842312 242.661504652942 2668.94515944067 170 174 173
-1162.4864546615 243.103875641524 2661.6358667945 173 178 174
-1167.6810307069 242.285951909006 2653.28575048348 164 169 165
-1177.87295788735 240.680431153728 2644.33563785674 144 149 145
-1185.06496324435 239.547300113199 2635.80626773668 124 129 125
-1187.25893117763 239.201405498283 2627.912654078 112 117 113
-1193.45008245326 238.225410791492 2619.56068764701 107 112 108
-1201.63888189493 236.934453741933 2611.01185205338 117 122 118
-1203.83138639021 236.587958421546 2603.17478963005 139 144 140
-1202.02679198028 236.870943658255 2595.78278988652 154 159 155
-1199.22347241454 237.310948591002 2588.48486280952 120 125 121
-1200.41687907128 237.121062023481 2580.75599754532 108 113 109
-1198.61303953699 237.403006024125 2573.33337664791 100 105 101
-1194.81187080716 237.99931728659 2566.09451948822 94 99 95
-1198.00296029544 237.493708909245 2558.16661475671 93 98 94
-1204.18967199046 236.515778289873 2549.97675909331 85 90 86
-1213.37185808963 235.065678545266 2541.54954311656 67 72 68
-1219.55696353589 234.087392172104 2533.43140802617 139 144 140
-1235.72661890865 231.535807474313 2524.50277975233 131 136 132
-1251.89406267311 228.984271398144 2515.6606409981 117 122 118
-1258.07531797536 228.005689623803 2507.69266569456 137 142 138
-1263.25725716753 227.184197981048 2499.83261043716 151 156 152
-1264.44552882256 226.991540317999 2492.29213865164 147 152 148
-1268.62850192661 226.326769264741 2484.54457616033 157 161 160
-1266.82193252454 226.605178681377 2477.22485278813 159 163 162
-1269.00803970045 226.254264566441 2469.63307520629 184 188 187
-1266.20386337438 226.689125888262 2462.36311047749 185 189 188
-1263.4001153198 227.123513077731 2455.07589832856 152 156 155
-1256.60547940439 228.186084246541 2447.99893235133 158 162 161
-1252.80492832793 228.776712454854 2440.72050834434 166 171 167
-1247.00992049149 229.681000084668 2433.5221481066 181 186 180
-1247.20135623949 229.641978231506 2425.99827724411 180 185 179
-1253.3779806447 228.659860954608 2418.19817250049 163 168 162
-1062.65335948828 250.793269113427 2777.94390211109 193 197 196
-1077.86572997029 248.440458287609 2767.5345498065 188 192 191
-1088.07313522088 246.86226681138 2758.0088446546 181 185 184
-1095.27769271713 245.748841349077 2749.01005178162 188 192 191
-1100.48036939457 244.9451161887 2740.35858004184 190 194 193
-1104.6823386031 244.296114441925 2731.88551584845 177 182 178
-1105.88267582065 244.111648202125 2723.88227540141 174 179 175
-1112.08407614894 243.152731192094 2715.14807720308 164 169 165
-1117.28436466163 242.348651514824 2706.58956256212 164 168 167
-1127.48446500886 240.770274135502 2697.34915873036 179 183 182
-1148.6834063022 237.489001544213 2686.6345904568 184 188 187
-1161.87984138543 235.446301692239 2677.12230190611 168 172 171
-1161.07620566167 235.570832336875 2669.54739471107 167 171 170
-1162.27265779405 235.385446662931 2661.70433442227 155 160 156
-1166.46795612286 234.735583191291 2653.48174127552 130 135 131
-1173.66171590932 233.621311205562 2644.90405137488 115 120 116
-1175.85671309103 233.280664327951 2636.97584573806 127 132 128
-1181.04978874489 232.475563985551 2628.69813869513 142 147 143
-1189.24056211468 231.206168430267 2620.09530622445 142 147 143
-1197.43048090866 229.936667147334 2611.53508480302 119 124 120
-1199.62341143156 229.595190034981 2603.68675990996 119 124 120
-1200.81668263948 229.408313606008 2595.95709572172 135 140 136
-1204.00826840204 228.911756020862 2588.01951291636 147 152 148
-1200.20578178989 229.497614712243 2580.82093999723 121 126 122
-1198.40179173323 229.773806947974 2573.39802623305 102 107 103
-1193.60119266041 230.513554410854 2566.25689319784 92 97 93
-1194.794939312 230.325047793737 2558.51622144204 90 95 91
-1199.98356496368 229.51786113037 2550.41019576885 85 90 86
-1205.17175135292 228.710398152065 2542.33036609619 71 76 72
-1215.35254848874 227.129747484371 2533.84195775477 95 100 96
-1228.52783337614 225.085356092406 2525.15447587971 100 105 101
-1246.69391692908 222.268049371923 2516.12953018081 129 134 130
-1255.87141979579 220.841883637676 2507.91104964891 149 154 150
-1261.05387767477 220.033758191807 2500.04507390699 155 160 156
-1263.24086694574 219.689001266804 2492.42543211045 157 162 158
-1266.4257836126 219.189417660781 2484.74525155965 162 166 165
-1267.6138125513 218.998625187203 2477.21626866578 162 166 165
-1269.80000397709 218.652940309358 2469.62681305875 185 189 188
-1266.99553419257 219.079387062706 2462.35928278736 164 168 167
-1265.18940649318 219.350896732956 2455.01488772801 151 155 154
-1258.39410709092 220.394198368897 2447.94316297485 158 162 161
-1253.59558038195 221.128049278885 2440.72402830545 165 171 167
-1246.80211094552 222.170263535357 2433.57961460442 181 186 180
-1246.99355032509 222.131000639168 2426.05534299387 178 183 177
-1249.1801297355 221.782604775414 2418.43848796768 167 172 166
-1062.43228180392 242.813955078938 2778.01681100536 192 196 195
-1072.64214429561 241.262568130221 2768.42384899613 187 191 190
-1086.8531348926 239.102598043979 2758.24146246124 185 189 188
-1093.05778850321 238.159980365693 2749.39761568722 189 193 192
-1100.2620624049 237.065206300067 2740.42993310544 191 195 194
-1105.46468153817 236.27460748656 2731.80412923953 176 181 177
-1108.66582866061 235.788198424227 2723.50375206952 171 176 172
-1111.86658408836 235.301683575497 2715.21857009981 162 167 163
-1115.06695078203 234.815032142643 2706.94843455079 163 167 166
-1124.26762760222 233.415710454855 2697.84373391951 177 181 180
-1146.46836703997 230.039229928379 2686.98135864782 183 187 186
-1161.66603401739 227.727575413954 2677.19086071546 169 173 172
-1162.86229308404 227.544825093996 2669.34885095573 169 173 172
-1160.05900604091 227.970086691714 2662.03382252471 162 167 163
-1163.25501376235 227.482795169837 2653.93336343245 145 150 146
-1167.45028818203 226.84335136853 2645.72289257706 122 127 123
-1169.64584987335 226.507685831105 2637.77797252861 113 118 114
-1171.84091858776 226.171884587721 2629.84284922667 111 116 112
-1180.03315720279 224.923882722048 2621.2150455809 111 116 112
-1185.225683026 224.131742827222 2612.97274375483 118 123 119
-1191.41708544522 223.187491354948 2604.64504520245 120 125 121
-1197.6076749625 222.24303616696 2596.34889893992 127 132 128
-1201.79886782649 221.602398268055 2588.29666728965 157 162 158
-1194.99866855843 222.632779873049 2581.40257373229 131 136 132
-1190.19753286352 223.35892583773 2574.26780950646 106 111 107
-1188.39448277567 223.628862786808 2566.81076684769 95 100 96
-1190.58730917994 223.290867624409 2558.96092513306 94 99 95
-1196.77565445997 222.345059297141 2550.7510385396 90 95 91
-1197.96916602886 222.15844584673 2543.02158736661 79 84 80
-1209.14989440541 220.4529246945 2534.42648772925 78 83 79
-1221.32796192441 218.595461202514 2525.80626209128 99 104 100
-1242.49177597602 215.37149883823 2516.51679863175 135 140 136
-1249.67304601214 214.273276017908 2508.44448379912 160 165 161
-1256.85335545093 213.17482878354 2500.40947147968 128 133 129
-1261.03745252751 212.531668585056 2492.63185953153 125 130 126
-1268.21628821198 211.432860332631 2484.66338379093 157 161 160
