ply
format ascii 1.0
comment KinectMotionCapture
element vertex 757
property float x
property float y
property float z
property uchar red
property uchar green
property uchar blue
end_header
-1090.17163664551 589.12615084249 2520.48831082798 18 15 8
-1098.24664424222 584.707858226069 2533.60081348486 17 16 11
-1106.10544743566 586.129131100009 2525.56204821074 15 16 10
-1113.98149910922 588.936038723062 2512.47856538003 14 15 9
-1121.95780383697 583.968182505617 2527.62044729274 13 16 7
-1129.86002046347 581.501574176004 2533.69508332524 13 16 7
-1137.71174940867 578.205687666243 2542.80150535978 13 16 5
-1145.4683691613 573.251229420644 2557.97076737555 18 21 10
-1153.8578456371 589.33776178983 2496.41589627015 21 23 12
-1162.61827629007 606.50908311274 2430.78088686189 19 19 11
-991.205829300614 606.881353197608 2462.24875829434 188 180 169
-999.428226365096 605.793801939701 2463.24088997492 118 102 86
-1007.52195031305 605.538285219044 2461.22382687181 100 82 62
-1015.83940641227 603.619230838518 2465.22958704403 109 82 61
-1024.19695439136 601.147506669216 2471.24765415675 121 93 71
-1032.57844600871 598.124074212955 2479.27932007674 110 82 60
-1040.8259151214 595.933375413824 2484.30245694396 84 57 36
-1049.04054160331 593.744171656848 2489.3296884402 73 46 27
-1057.31432663319 590.451736625819 2498.3834312812 66 43 27
-1065.57431724973 586.610181612663 2509.45595613648 48 29 14
-1073.46981177607 587.462512999352 2503.42948448447 33 20 11
-1081.45139686477 587.209661003218 2501.42640863058 22 12 2
-1089.69454234427 581.170254051943 2520.56880094725 20 13 5
-1097.43862107148 586.426438580399 2498.42567305526 22 17 11
-1105.5071899822 583.144688106281 2507.5049975173 12 11 6
-1113.52974572667 579.31628572097 2518.6068779352 18 17 12
-1121.46813533146 579.064035526155 2516.60919103752 14 15 7
-1129.48662116594 595.563428752351 2453.08391565139 18 19 11
-1145.01437832047 565.961096739762 2556.03124685707 10 12 1
-1162.33577454294 602.992215398849 2413.69328067404 12 12 4
-990.35381773136 600.937444016338 2454.30851978265 213 205 194
-998.010494452093 603.700518504754 2441.25276935086 121 105 90
-1006.71428167779 599.593880303876 2453.27805592961 112 93 76
-1015.1644845997 596.863439642697 2460.2929286721 120 93 72
-1023.63898012751 593.586884853276 2469.32158220949 126 98 76
-1031.99662851502 590.861442110371 2476.34775178012 105 75 51
-1040.3107168514 588.138358841273 2483.37959144275 87 59 37
-1048.52951848228 585.96501409525 2488.40626014094 91 63 42
-1056.71547385254 583.793341285313 2493.43678318654 97 70 51
-1064.95044260912 580.529898230918 2502.49553398837 76 53 37
-1073.09543728352 577.815852751116 2509.5482114709 45 29 16
-1081.10645820964 576.742367092198 2510.56692487139 36 22 11
-1089.0688981455 576.487566972104 2508.56600308097 34 24 15
-1096.93927040542 578.958354278716 2496.49204153533 25 16 9
-1104.88930217064 580.607515603872 2487.43336397172 16 13 6
-1112.93779823354 578.713541076776 2491.47286298824 11 10 5
-1128.9008707786 561.877341876336 2547.97527997116 26 26 18
-1136.95601817885 575.757710449018 2493.52223123652 22 22 14
-1152.90500592914 573.336000377085 2496.57694510171 17 17 7
-988.556943921029 600.666789562958 2425.3083835038 249 240 235
-997.091675853103 598.222833568768 2431.30402571145 114 97 87
-1005.78560549384 594.421299393047 2442.32229214848 117 98 83
-1014.19370236848 592.253752389043 2447.3253226512 120 93 72
-1022.97809585488 586.829301048823 2464.3829364876 125 94 73
-1031.41384888647 583.581731032126 2473.4163485291 132 100 75
-1039.88138441067 579.523590352114 2485.47123047574 126 96 70
-1048.04422448357 577.908589723215 2488.48803826978 125 95 71
-1056.23165812678 575.753007452904 2493.5183344618 123 95 73
-1064.40685626364 573.328374997319 2499.55903374243 114 87 66
-1072.54380696318 570.905758563774 2505.60426049926 76 55 38
-1080.53584763079 570.377329435886 2504.6082926717 54 35 20
-1088.51475562472 570.118613540749 2502.60532607705 56 42 31
-1096.49849641834 569.8589950505 2500.60199902326 47 34 25
-1104.45122106721 570.947594396634 2493.56007608884 21 16 10
-1112.44458041301 571.494356308531 2488.53012355919 32 29 24
-1120.46424738015 571.231135226606 2486.52232261863 22 18 15
-1128.47315269247 566.390142377873 2501.65980208096 23 20 15
-1136.51063541345 570.164156290759 2484.5226381084 20 17 12
-1144.57698455942 571.512365659711 2476.45816473653 18 15 8
-996.169600546628 592.69035446857 2421.35607305709 111 94 86
-1004.97229193324 588.380745533241 2434.37771913315 117 98 84
-1013.55126431439 585.151822441382 2443.39320914053 120 93 72
-1022.41843455144 579.237375337754 2462.45739777934 125 94 73
-1030.95641301111 575.210222020649 2474.50340725997 128 96 71
-1039.39500500122 571.455708743869 2485.55317422965 127 95 70
-1047.55899657088 569.851325030429 2488.56981036443 133 103 77
-1055.72442269383 567.979939146215 2492.59441744561 130 100 74
-1063.88311879047 565.84177761862 2497.62849430538 121 93 69
-1071.99089144409 563.9731712623 2501.66052914764 109 83 66
-1080.02496361851 562.908665986321 2502.67610197036 91 70 53
-1088.060389154 561.577049275369 2504.70013669701 57 41 28
-1096.05908448509 560.780511541115 2504.71173155945 55 42 33
-1104.0225189524 561.052297955809 2500.6939247141 33 26 20
-1112.00609646103 561.05559675848 2497.68223855579 20 15 12
-1120.00565458911 560.257690170876 2497.6937293511 23 19 16
-1127.99999258165 559.726188302784 2496.69748292292 22 18 15
-1136.01775347843 561.058859698096 2488.639113996 23 18 15
-1144.02965973061 560.525402520342 2487.64068030212 32 24 21
-1152.0850136193 561.321623582322 2481.59440691131 18 13 7
-995.711808239651 584.16926407226 2422.44357018577 105 91 82
-1004.67387701872 578.831736802395 2439.4787822846 112 94 82
-1013.13022484097 576.429443751915 2445.48409664786 113 88 68
-1021.75488299311 572.432303145298 2457.51920997791 117 89 67
-1030.21379989754 569.237067152167 2466.54959348524 125 93 68
-1038.73446349079 564.981736098822 2479.60629202371 126 95 67
-1047.02112795469 562.324658462764 2486.64113993128 135 105 77
-1055.28781504889 559.404336613782 2494.68710150767 134 104 76
-1063.40075016759 557.813236313709 2497.70983393555 128 101 74
-1071.49148267842 556.222953225264 2500.73533496554 121 94 75
-1079.57577036787 554.368802711668 2504.77026252354 100 77 59
-1087.6582586545 551.986564161213 2510.82217953381 69 51 37
-1095.64141554629 551.193644091182 2510.83570397462 84 70 59
-1103.58112387277 551.722562780494 2505.8124937645 103 96 90
-1111.56096683915 551.192880161644 2504.81805143896 94 89 86
-1119.5338571575 551.454747522365 2500.79909068079 107 101 101
-1127.51873005704 550.132144357111 2502.82941034068 103 98 95
-1135.51637367714 551.183183513277 2495.78198069763 104 96 94
-1143.50986280227 550.65089961222 2494.78584226255 100 90 88
-1151.67592664074 555.384138937907 2473.5991173792 73 65 62
-995.382381678609 574.861069808538 2426.54018213283 100 87 78
-1004.13729434117 570.89158400176 2438.55896764211 108 92 79
-1012.67261901893 567.980665050252 2446.57138007404 107 84 66
-1021.05514890097 565.862820671285 2451.57723002746 111 86 66
-1029.59615586867 562.166822943877 2462.61430238354 122 96 73
-1038.13041813657 557.948486942905 2475.66896619391 125 99 76
-1046.53567230285 554.260420781776 2486.72295880955 132 105 84
-1054.78052263405 551.627029157628 2493.7629624974 129 104 82
-1062.96059029918 549.258583679008 2499.80290612329 123 102 85
-1071.06555097671 547.417088666519 2503.83498021804 147 138 129
-1079.19019882799 544.790102968078 2510.89020786372 167 160 150
-1087.23206057807 542.951731886532 2514.93014810482 176 171 165
-1095.22571784982 541.63836354588 2516.95934720742 182 177 173
-1103.14910778176 542.157452371593 2511.93819932305 201 197 196
-1111.11817579542 541.367161787535 2511.95347504791 203 199 198
-1119.07214411108 541.622112370283 2507.93689385889 207 203 204
-1127.03953845561 540.569860132405 2508.96099568138 206 202 203
-1135.01424987531 541.083708652451 2503.93345697892 206 202 203
-1142.99818400824 541.074201683079 2500.9215197708 214 209 213
-1151.10280417155 544.451494229853 2484.78470929214 219 215 216
-994.71159052888 567.663539220247 2422.61185868176 155 145 135
-1003.68067323651 562.422733129659 2439.64594077199 100 86 73
-1011.8034892826 562.406531088133 2436.61692982214 96 77 60
-1020.17973238879 560.563639931086 2440.6151531503 103 80 62
-1028.72084512143 557.15860928304 2450.64351868916 124 102 81
-1037.52507274381 550.892509233354 2471.73210272481 127 105 84
-1046.05020143385 546.194989626365 2486.8047827298 120 97 79
-1054.44066793845 542.022842000003 2499.87726976588 130 109 92
-1062.60623280031 539.674369308626 2505.91873038952 140 124 109
-1070.6591479843 538.366602283044 2507.94051970413 170 169 164
-1078.7907169498 535.502367377188 2516.00319552121 179 178 173
-1086.78077404602 534.45619638818 2517.02445315152 207 206 202
-1094.80154051584 532.373703690355 2522.0755962114 216 215 211
-1102.70341847981 533.141718735326 2516.04854998819 207 206 204
-1110.65205435915 532.872272746764 2514.04962970053 212 210 211
-1118.59581692285 533.636723669457 2508.01736591289 211 209 212
-1126.56368080207 532.331209623941 2510.04976319437 207 205 208
-1134.52654589199 532.059483542576 2508.0490731899 202 200 203
-1142.48849483419 531.52891032123 2507.05686627816 201 199 204
-1150.54991644225 534.093063098138 2493.95088966177 203 201 204
-1158.68628004229 536.909973533463 2479.82720800134 214 214 212
-1002.6602029579 557.576187799171 2426.68515928296 78 68 58
-1010.89347528979 557.035615828131 2425.6591191476 94 78 65
-1019.47529294684 553.914011421907 2434.67397146142 98 80 66
-1028.22816970794 548.99007881711 2450.72651320234 109 91 77
-1037.12507770244 542.01010073141 2474.82871281119 113 97 82
-1045.85981376542 535.295952763516 2497.94252309725 143 129 116
-1054.17520968023 531.678170778552 2509.00754440056 177 163 152
-1062.38241953479 528.578400484824 2518.06908805412 201 198 193
-1070.32902985791 528.308784924856 2516.07042099045 212 213 208
-1078.4088985662 525.983807672361 2522.12251411302 224 224 222
-1086.39697287442 524.687338045781 2524.1523654343 217 217 215
-1094.37896336656 523.135157432388 2527.19133648383 214 214 212
-1102.2829463962 523.377824316948 2523.18102551168 224 224 224
-1110.21308292561 523.106809622308 2521.18441796465 220 220 220
-1118.13757824079 523.85881159729 2515.15459139957 223 223 225
-1126.08783604638 523.32987900133 2514.16383915204 223 223 225
-1134.03744434624 522.800510005075 2513.17316910823 220 219 224
-1141.96984182789 521.504541480092 2515.20996724867 220 219 224
-1149.95907673967 522.506308010906 2508.16371672042 220 220 222
-1158.04522616327 525.035563004656 2495.05498638964 221 221 219
-1166.11384391603 526.03113767124 2487.99884565819 221 221 219
-1001.67593902745 552.402559338496 2414.72864818446 82 75 67
-1010.28200879206 549.559992089574 2422.73181177728 102 89 80
-1019.18973925439 544.166435882299 2440.78187989394 90 76 65
-1028.22115415748 536.992740338112 2465.87549108201 103 90 81
-1037.14158394021 529.572763843108 2491.99128822728 93 80 71
-1045.78097752178 523.43595210824 2513.10010210056 186 176 167
-1054.15556321209 518.83438124434 2528.19131630432 222 211 205
-1062.33532491636 515.510480423783 2538.26456266272 223 222 218
-1070.20951165357 515.495903614453 2535.26657490075 223 225 222
-1078.22355794246 513.4472212323 2540.31822729248 223 225 224
-1086.1235827731 512.92387765284 2539.33372910478 224 226 225
-1094.01216939699 512.653718259884 2537.34230448791 225 227 226
-1101.86483498071 513.650807269654 2530.31310932249 221 222 224
-1109.76550906125 513.885084957579 2526.30323338028 223 224 226
-1117.68442773195 513.864612635549 2523.29967886308 225 226 230
-1125.61336903234 514.096014539873 2519.28628291222 225 226 230
-1133.5473209277 513.31470966182 2519.3059172575 220 221 226
-1141.48045245728 512.785793108475 2518.31730222571 217 218 223
-1149.45306540276 513.519204448147 2512.28176009136 216 217 221
-1157.51615982317 515.764384072445 2500.18410182051 220 222 221
-1165.55733116628 516.492412571437 2494.14001817897 225 227 226
-1173.4798153215 514.950592294382 2497.18638798397 221 223 222
-1001.41898274169 542.6089650538 2420.83286874967 244 241 236
-1010.84532261359 534.229000454089 2450.91928833148 80 75 71
-1020.13927293974 525.606865709148 2482.03055419056 62 57 53
-1029.29270615283 516.743138313855 2514.16767907847 221 216 213
-1037.76047177672 512.179825775654 2529.24716422545 240 235 232
-1046.08707203103 508.125995349752 2542.32730980786 224 223 221
-1054.26434771717 504.832532054286 2552.40078625049 227 225 226
-1062.29469844828 502.549528806099 2558.45894838681 222 223 225
-1070.1914148267 501.526623592283 2559.49179311729 221 225 226
-1078.0276898433 501.258184249756 2557.50689215006 219 223 224
-1085.90974078721 500.235314971519 2558.54132667669 220 224 225
-1093.65957983142 501.974340872637 2548.49970822778 223 227 230
-1101.507014007 502.20448525185 2544.49648719588 224 228 231
-1109.36992833786 502.432929293904 2540.49157907863 222 226 229
-1117.24545051942 502.910512310745 2535.47627384185 224 227 232
-1125.14228632975 502.885653741013 2532.47548668611 225 228 233
-1133.05172257563 503.109817677958 2528.46454391166 224 227 232
-1140.97656156039 503.332462872304 2524.45168296602 222 225 230
-1148.94044185297 504.303057154338 2517.40867863535 221 225 228
-1156.95706036628 505.770424947819 2508.34241045477 214 215 217
-1165.02928212624 507.4840757221 2498.26062737334 220 222 221
-1173.14919562669 509.194150759061 2488.17290206123 225 227 226
-1181.130570112 508.409707849355 2488.18686688027 223 225 224
-1005.85440685674 504.059569353667 2542.31990132823 124 123 121
-1014.04603758971 501.788090243885 2548.35790632539 175 174 172
-1022.02241716454 500.768471134156 2549.38080090608 230 229 227
-1030.28178869592 497.50089312433 2559.44396410459 227 225 226
-1038.30130549952 495.734420234857 2563.48674379032 223 221 222
-1046.37525276337 493.220909117822 2570.54775946956 224 225 227
-1054.35630743612 491.208372644435 2575.60367409971 222 223 227
-1062.19482013215 490.442822786283 2575.63517720256 217 221 222
-1070.02730053292 489.677002779733 2575.66767408035 217 221 222
-1077.77122129169 490.154966788753 2570.66879091979 217 221 222
-1085.56368114141 490.133711734961 2567.68101977713 221 225 228
-1093.28827579888 491.849979193966 2557.642611612 225 229 232
-1101.11144211202 492.07348763496 2553.64243654136 222 226 229
-1108.95009970791 492.295471692603 2549.64033226463 223 227 230
-1116.80122392136 492.763861509324 2544.62833622874 224 227 232
-1124.67130267879 494.46859135287 2534.57180289192 225 228 233
-1132.57523865249 494.684864026191 2530.56156730028 226 229 234
-1140.52472977503 496.383402628538 2520.49538034293 225 228 233
-1148.45264074406 495.854400599517 2519.50741703134 223 227 230
-1156.46297902047 497.300427098269 2510.44174852 213 214 216
-1164.47639612993 498.002990381573 2504.40119550447 211 213 212
-1172.70533509427 501.6622742293 2486.23275396397 224 226 225
-1180.8033923511 502.358367946087 2480.18141512707 222 224 223
-1188.77952461352 501.328850707666 2481.20436663726 226 228 227
-1196.98258505794 502.760091366137 2472.1146864767 211 213 212
-991.190117560655 488.236710215874 2580.47096536542 229 230 232
-999.194189273988 486.732572877138 2583.50705428883 228 229 231
-1007.01240158274 486.219696777792 2582.53273825445 225 226 228
-1014.94486621189 484.963976732701 2584.56942202234 220 221 223
-1022.68284531319 484.945057693615 2581.58844360319 225 226 230
-1030.59536130716 483.689473769425 2583.62761648435 218 219 223
-1038.46107019444 482.68156084478 2584.66405101601 214 217 222
-1046.39779981615 480.933441134041 2588.71711372016 215 218 223
-1054.28227688254 479.433339329179 2591.76811672104 216 219 224
-1061.96787659804 479.905047621165 2586.77676842484 217 222 225
-1069.73263211293 479.636324479914 2584.80055314724 216 221 224
-1077.43539740869 480.350914181704 2578.79873597036 219 224 227
-1085.2205139453 480.07988115313 2576.82022610937 220 225 228
-1092.89729932719 482.264805645171 2564.77093560244 220 225 228
-1100.7273629877 481.744784272129 2563.79515940625 221 226 229
-1108.53910754172 481.960480071242 2559.79643027794 222 227 231
-1116.36307778031 482.419670590827 2554.7878471236 223 228 232
-1124.20304757432 485.081551988892 2540.70156192135 223 228 232
-1132.10160253112 486.51457585177 2531.65011781816 225 230 234
-1140.05221634446 488.433484840424 2520.57528305114 222 227 231
-1147.97299633843 487.660006584579 2520.59654056071 219 223 226
-1155.96951392939 488.840306377556 2512.54122393796 225 226 228
-1164.00300945135 490.017712964368 2504.48130030719 223 224 226
-1172.21394935283 493.387047690234 2487.32355561221 225 226 228
-1180.38219981909 495.044533687679 2477.22993662389 227 228 230
-1188.57708386877 496.454917188486 2468.14157202437 229 231 230
-1196.83788441184 498.105432215398 2458.03642169142 229 231 230
-1205.06724221685 499.022922407717 2450.96042718442 222 224 223
-967.331156579166 481.442361153154 2585.48192978474 235 237 234
-975.624262548306 478.720545058616 2593.52407168388 226 230 231
-982.933517627863 480.665020894503 2582.52896709704 226 230 231
-990.807828105629 479.907345788767 2582.55622237921 225 229 230
-998.851521450577 478.169071862703 2586.59567044581 226 230 231
-1007.07332449747 475.207464884604 2595.65502910706 228 232 235
-1014.9333507834 474.206784530276 2596.6923940158 225 229 232
-1022.78208754067 473.20634560618 2597.73116715517 217 220 225
-1030.55344473575 472.694782225111 2596.76269490497 209 212 217
-1038.26360752103 472.671242466546 2593.78495969737 212 215 222
-1045.9839674259 472.6465753154 2590.80595491848 211 216 222
-1053.76444037649 472.13293815358 2589.83635053711 209 214 220
-1061.65551203277 470.400328499851 2593.89507024024 216 219 224
-1069.42132317868 469.886550379678 2592.92729593663 214 218 221
-1077.15276499814 469.859027248048 2589.94691572143 216 220 223
-1084.83771496203 470.802957681874 2582.93879046506 217 221 224
-1092.53144961354 472.23021728318 2573.91292190507 219 223 226
-1100.32899033648 471.954570542326 2571.93287372912 222 226 229
-1108.11909011751 472.163403575175 2567.93686381337 221 225 228
-1115.92474392288 472.370767949867 2563.93891671499 223 227 230
-1123.73817606166 475.241406589859 2548.84770640227 223 227 230
-1131.62028572201 477.380343819003 2536.77291374507 224 228 231
-1139.57035689653 479.998840312141 2522.67300279405 222 226 229
-1147.50842507531 479.953318901833 2519.66712449735 214 218 221
-1155.5573344734 482.322200821188 2506.56322356964 212 216 219
-1163.56793502774 482.755407481151 2501.53141848281 209 213 216
-1171.67658626571 484.392801414601 2491.44529003757 212 216 217
-1179.76037377047 485.062513658527 2485.39604172478 217 221 222
-1188.05784393827 487.89753601873 2470.2442798531 225 229 230
-1196.31218978433 489.523918929762 2460.14023884798 228 232 233
-1204.37825743338 488.982771084527 2459.13506638507 230 234 235
-1212.4434838236 488.441437943539 2458.12999939426 223 227 226
-959.487072912049 472.1723460885 2594.54721463039 246 251 247
-967.621063834829 470.204533337556 2599.58392594236 223 225 222
-975.4619541722 469.452866725182 2599.61509576859 197 201 202
-982.902063224814 470.642992115011 2591.62918976661 204 208 209
-990.799490922215 469.646916572604 2592.6618750737 205 209 210
-998.729671169262 468.408721213707 2594.69879776834 210 214 217
-1006.93208987864 465.475522726634 2603.76050066757 219 223 226
-1014.88714824936 463.755437017509 2607.81096195692 222 226 229
-1022.81476155511 462.03668416508 2611.86508498683 215 218 223
-1030.38293465897 462.736016503375 2605.87986403079 205 208 213
-1037.97758220853 463.433186993882 2599.89158518232 212 215 222
-1045.59856023202 464.128020634077 2593.89978633164 209 214 220
-1053.39656742331 463.373653708624 2593.9365551009 207 210 217
-1061.21096129424 462.378207062642 2594.97936061372 218 222 225
-1068.99425506674 461.623819407448 2595.0177253165 213 217 220
-1076.75456526315 461.109973673984 2594.05063767692 214 218 221
-1084.45686866897 461.557326190052 2589.05726899899 214 218 221
-1092.14520002982 462.723635620447 2581.0404490389 215 219 222
-1099.90637995829 462.926786017664 2577.0480631148 219 223 226
-1107.67048009337 463.608085019581 2571.03867938245 220 224 227
-1115.475117695 463.328400331401 2569.05751592305 223 227 230
-1123.2775465971 464.964282677387 2559.00984646441 222 226 229
-1131.12405316344 466.117768218522 2550.97332094506 224 228 231
-1139.04378668481 469.181950379709 2534.86040779133 223 227 230
-1147.01466810803 471.284239024178 2522.77487372442 218 222 225
-1155.06387959959 473.859869728463 2508.66270353348 216 220 223
-1163.0436753475 473.805416698439 2505.65140113519 212 216 219
-1171.12521428469 475.180618176947 2496.57727398624 213 217 218
-1179.23106830061 476.314297076482 2488.50843559851 216 220 221
-1187.53927929175 479.350028217309 2472.34711767795 220 224 225
-1195.6937081482 480.000725205092 2466.28886354936 224 228 229
-1203.6917977543 478.984978594686 2467.30903864841 225 229 230
-1211.70708060641 478.207331352352 2467.31851373885 231 235 234
-1219.81052669677 478.141898035729 2464.29204969378 224 228 227
-949.998205954396 469.682218357679 2575.58274321557 252 255 253
-958.83813671426 465.080136971411 2591.62357354837 216 221 217
-966.817005292748 463.849112103427 2593.65440134385 206 208 205
-974.988161042831 461.657651216947 2599.69475077269 215 216 218
-982.724928540706 461.388683022366 2597.72226914823 215 216 218
-990.700719463843 459.919254260206 2600.76179594326 185 186 188
-998.566225311509 458.930169264795 2601.79844649912 182 186 189
-1006.75193437744 456.025029708807 2610.86216077087 185 188 193
-1014.68951428643 454.319733860033 2614.91476432034 204 207 212
-1022.59958267656 452.615655657066 2618.97103820683 219 222 227
-1030.11526626494 453.541642956024 2611.98408364604 210 213 218
-1037.66281442123 454.465182243778 2604.9931590223 213 214 219
-1045.27004082054 455.147397229798 2599.00334979254 213 214 219
-1052.97939468777 455.111845121122 2596.02574716723 205 206 211
-1060.81183509966 453.88387773757 2598.07484028045 221 222 226
-1068.56778464793 453.370668135574 2597.10829514875 214 215 219
-1076.40911951757 451.667504765199 2601.17314416307 213 214 218
-1084.07792345202 452.343106906277 2595.17542756692 212 213 217
-1091.73767374204 453.729113472697 2586.15390869273 207 208 212
-1099.43983264488 455.111878363464 2577.12686574246 213 214 218
-1107.20362134642 455.779640267845 2571.11755652465 219 220 222
-1115.00482316847 455.734175808226 2568.1285179214 222 223 225
-1122.80993949993 457.108652280191 2559.08888858872 221 222 224
-1130.65073856816 457.53314460862 2554.07805640364 224 225 227
-1138.5429227763 459.611302287547 2542.00240683196 226 227 229
-1146.500662463 461.921432550957 2528.91003806564 221 225 228
-1154.52231951972 464.226836470824 2515.80994550482 220 224 227
-1162.50823385654 464.640056073126 2510.7812737472 218 222 225
-1170.57543877605 465.994489051156 2501.70874982327 218 222 225
-1178.75624538883 468.287962565117 2488.58882775703 218 222 225
-1187.02138249509 470.812272309547 2474.44984647783 216 220 223
-1195.00746927055 469.803140619294 2475.47126177028 217 221 222
-1203.05976469967 469.499618714038 2473.45949512135 223 227 228
-1211.25952247832 470.369664067127 2466.38731946694 223 227 228
-1219.74108586788 473.114784786765 2451.21306087105 228 232 233
-1227.99134283117 473.744088092934 2445.14290430075 224 228 229
-949.881111027953 460.384787185382 2581.66844355083 233 238 234
-958.361510373295 457.256853358085 2591.70365603688 198 203 199
-966.506729362102 455.320814187474 2596.738882478 200 202 199
-974.828707634822 452.436197652922 2605.78553711171 208 209 211
-982.748438993164 451.215987383957 2607.82371640279 209 210 212
-990.69848263511 449.759187754756 2610.86642304793 190 191 193
-998.493604600145 449.014142130188 2610.90352732904 170 174 177
-1006.44920490263 447.3217329941 2614.95384810324 153 156 161
-1014.37738594245 445.630595348762 2619.00782755964 183 186 191
-1022.31423027771 443.704245004099 2624.0687921417 220 223 228
-1029.81600623247 444.614876366737 2617.08385387941 215 216 220
-1037.47284830299 444.57854872963 2614.11280645821 211 210 215
-1044.99926755578 445.720593741272 2606.11625607148 214 213 218
-1052.66456416108 445.916713574191 2602.13585433399 198 197 202
-1060.34541107839 446.111305263255 2598.1535160338 218 219 223
-1068.08188002712 445.833517203514 2596.18109489331 210 211 215
-1075.90979364882 444.378824349289 2599.23903709484 211 212 214
-1083.58368361411 445.04048582118 2593.24072250436 209 210 212
-1091.29582530707 445.465054648569 2588.24618606639 204 205 207
-1099.01027800866 446.357058391574 2581.23451578986 210 211 213
-1106.76298986257 447.012088461469 2575.22662242598 215 216 218
-1114.54577417075 447.430484727441 2570.22328646248 218 219 221
-1122.34348033893 449.017752959346 2560.17609412791 218 219 221
-1130.18445408479 449.899666031145 2553.14866134647 222 224 223
-1138.07378329348 451.714023699733 2542.08174986797 225 227 226
-1146.00243883929 453.057218915348 2533.02678594977 222 226 229
-1153.97335171246 454.397122370869 2523.96631696694 220 223 228
-1161.98664741513 455.73385052325 2514.90080748833 217 221 224
-1170.07213733782 457.533442185213 2503.80945519817 215 219 222
-1178.24605823754 459.794922704339 2490.69023641188 215 219 222
-1186.42268990552 461.353572042695 2480.59583178196 214 218 221
-1194.5085109456 461.513406227006 2476.56304663809 215 219 222
-1202.66128746092 462.136679051665 2470.50531120119 219 223 226
-1210.8969387788 463.222075249306 2462.42040202831 220 224 225
-1219.29401608491 465.232710298427 2450.2816823326 223 227 228
-1227.61407886729 466.311773446235 2442.18625578585 228 232 233
-1235.7519502091 465.998260977577 2440.16383607873 225 229 228
-941.302866330564 453.983526069482 2578.72482660681 57 61 60
-949.887192981593 450.64787705458 2589.75530368826 196 200 201
-958.290476433667 447.78621006601 2598.79175147945 198 202 203
-966.528894414541 445.397554211857 2605.83215365239 186 190 193
-974.671125696327 443.245919294284 2611.8760078036 189 193 196
-982.575737647774 442.034854158651 2613.91604982389 216 220 223
-990.463673651195 440.824373599079 2615.95817136445 206 210 213
-998.246027922006 440.082945789059 2615.9966191822 188 192 195
-1006.0642442474 439.107205346887 2617.03913604846 164 168 171
-1013.94927808621 437.663744432867 2620.08992040566 154 158 161
-1021.77583759568 436.455023909301 2622.13969673482 226 230 233
-1029.4509345905 436.181205317453 2620.1749239979 204 208 211
-1037.13086807836 435.906538609623 2618.20930965998 205 209 212
-1044.67416810192 436.797142988924 2611.219001911 206 210 213
-1052.27486481257 437.45212257858 2605.23007927123 186 190 193
-1059.99339537321 437.173207853811 2603.25989970255 202 206 209
-1067.69651343537 437.126287729835 2600.28310520611 212 216 219
-1075.47980107299 436.148054392355 2601.32998753106 200 204 207
-1083.10354180367 437.493591380842 2592.31282874344 206 210 213
-1090.84244571641 437.442721775301 2589.33181905397 196 200 203
-1098.55374152365 438.318801638689 2582.32058467416 196 200 203
-1106.3302745453 438.033203210756 2580.34294407381 200 204 207
-1114.09538816121 438.673289057671 2574.33354239843 207 211 214
-1121.88266462249 440.005481494107 2565.29601046084 216 220 223
-1129.71232020095 441.334439141707 2556.25343864742 216 220 221
-1137.58834101497 442.8912766273 2546.19655324633 222 226 229
-1145.5053446713 444.213475257172 2537.14309870881 220 221 225
-1153.45525900202 445.301785659629 2529.09384014821 220 221 225
-1161.55119304723 448.46213313829 2511.95099786466 219 220 224
-1169.62874252499 450.003802925858 2501.86900282135 209 210 214
-1177.80653200776 452.232311736578 2488.74962835733 206 207 211
-1185.88644883274 452.616248682006 2483.70906249102 207 208 212
-1194.03279508704 453.458043893854 2476.64362667483 214 218 221
-1202.31302596175 455.215846120898 2465.52808191614 211 215 218
-1210.56142766543 456.28143838865 2457.44163372343 219 223 224
-1218.87758529389 457.573430844226 2448.33844667685 223 227 228
-1227.06757072583 457.716774997217 2444.2927058586 223 227 228
-1235.23664329002 457.629838957919 2441.25786837549 224 228 229
-941.711579096254 442.8576934899 2592.81170160369 141 145 146
-949.835048379012 441.185528735777 2596.84126027746 202 206 209
-958.105420774661 438.81699163144 2603.87738147761 190 194 197
-966.276820049143 436.683087424383 2609.91754894257 186 189 194
-974.304591223354 435.01540668983 2613.95903836602 182 186 189
-982.30490617666 433.348875348321 2618.0037108679 210 214 217
-990.277731701096 431.683440800975 2622.05205126835 208 212 215
-998.044632456145 430.945804411639 2622.09241760894 187 191 194
-1005.84751433595 429.976475581155 2623.1368312386 170 174 177
-1013.71760324694 428.544955628184 2626.18944918835 155 159 162
-1021.52899536526 427.345323572631 2628.24109438409 209 213 216
-1029.22213517923 426.838922254234 2627.28236960653 210 214 217
-1036.75899067272 427.485603898148 2621.30119555684 201 205 208
-1044.23689237676 428.821561960795 2612.30250211205 202 206 209
-1051.80879296839 429.693502661548 2605.3086743314 195 199 202
-1059.5276914502 429.41193672163 2603.33845583021 198 202 205
-1067.27172080161 428.899546226781 2602.37339611152 209 213 216
-1074.94441932209 429.306021150423 2597.3835893292 199 203 206
-1082.60806893294 430.169790250461 2590.37857360172 206 210 213
-1090.34024574941 430.342657772944 2586.3898868434 195 199 202
-1098.10702335921 430.055530821815 2584.41346768608 195 199 202
-1105.87848619557 429.767510676829 2582.43670646113 199 203 206
-1113.65043276861 429.707665508187 2579.45135661109 205 209 212
-1121.42340474582 431.019092570459 2570.41590474216 214 218 221
-1129.24113667122 432.784440590473 2559.3580572465 215 219 222
-1137.10420529891 434.088993257359 2550.31137995172 220 224 227
-1145.00956819324 435.390371255293 2541.25919267413 220 221 225
-1152.94800140124 436.460421414028 2533.21141497747 220 221 225
-1161.09079090524 440.717315988717 2511.02116193222 219 220 224
-1169.18465314979 442.462086812975 2499.92890919452 210 211 215
-1177.33157508456 444.202880208514 2488.83004539557 207 208 212
-1185.31106129296 443.439457856282 2488.84395023479 206 207 211
-1193.53432977449 445.174312539151 2477.73557447755 210 211 215
-1201.81060262931 446.905253039499 2466.62059439575 213 214 218
-1210.22424917771 449.312661656266 2452.46338787111 213 214 218
-1218.3372747796 448.996071168958 2450.44383660255 214 215 219
-1226.55529282675 449.357954451129 2445.38633486644 220 221 225
-1234.90250530356 450.396767193581 2437.28762619634 223 224 228
-1243.13104076777 450.528697159427 2433.23710462082 220 224 225
-933.081145663851 436.688142055674 2588.86605993913 164 165 167
-941.806471248792 432.956914255879 2601.89583766372 194 198 199
-950.029001294496 430.839879104023 2607.92957988666 185 189 192
-958.096774100869 429.18427946913 2611.96580525902 202 206 209
-965.970427849803 428.218683726926 2613.00137714686 186 189 194
-973.99147855175 426.564868618284 2617.04366873089 166 170 173
-982.035281577673 424.683184920865 2622.09116787266 191 195 198
-989.95125205547 423.26110704644 2625.13827547749 212 216 219
-997.755541882116 422.29771795919 2626.18225749286 189 193 196
-1005.54853847728 421.33451331976 2627.22788861977 167 171 174
-1013.40901347093 419.914415545298 2630.28167624966 160 164 167
-1021.10053016437 419.408595406533 2629.32315249743 162 166 169
-1028.8255314704 418.674285196689 2629.36873888217 197 201 204
-1036.29408406232 419.763698619459 2621.37954851603 208 212 215
-1043.88562881527 420.16674601207 2616.40011853914 198 202 205
-1051.39446062758 421.4783975494 2607.39762921006 184 188 191
-1059.15476421978 420.739509215818 2607.43882213452 189 193 196
-1066.84744101044 420.682444543966 2604.46335736234 203 207 210
-1074.53246183131 420.851328677521 2600.4805658836 197 201 204
-1082.2178177216 421.245533097039 2595.48945211903 204 208 211
-1089.91160311364 421.864661585105 2589.48900697475 194 198 201
-1097.63165633002 422.481636380574 2583.48504916423 192 196 199
-1105.39904467419 422.417124655316 2580.50028044341 199 203 206
-1113.17655264855 422.351433255691 2577.51449222794 202 206 209
-1120.96073725468 422.736713942336 2572.51106872424 211 215 218
-1128.76879401291 423.797807611754 2564.47934455559 213 217 220
-1136.59890709269 423.953151041725 2560.47872234842 216 220 223
-1144.48928575196 425.685562728721 2549.41189570652 219 220 224
-1152.4237189725 427.188870700435 2539.34786175049 220 221 225
-1160.55924399715 431.615308886976 2516.15014141532 219 220 224
-1168.68192284765 434.008764943488 2502.02928268276 212 213 217
-1176.85664359578 436.172431782862 2488.91046193771 208 209 213
-1184.89627654564 436.085380682984 2485.89177805624 205 206 210
-1193.08123288688 437.343803930724 2476.80481228922 210 211 215
-1201.33376233897 438.823326241363 2466.7013847115 213 214 218
-1209.74562439826 441.195493002519 2452.54449368872 212 213 217
-1217.88948018388 441.100010644063 2449.51282561692 211 212 216
-1226.0765299892 441.227177932643 2445.46749374871 216 217 221
-1234.31492356351 441.57653540465 2440.40748225354 219 220 224
-1242.84492913997 443.487449154163 2428.25267677679 223 227 228
-1250.19104744507 438.699639123743 2446.49578937878 213 217 216
-932.667957921728 428.616127921298 2589.94680805545 189 190 192
-941.776568925683 423.558482550645 2608.97860995707 190 194 195
-950.165399666296 420.779794574889 2618.01664283892 181 185 188
-957.973804825778 420.047696057119 2618.05181509142 199 203 206
-965.609187046621 419.996075547855 2615.08372627456 192 195 200
-973.46708923944 419.036377986056 2616.12100806209 179 183 186
-981.565476158125 416.944033399915 2622.17017759163 174 178 181
-989.482683056208 415.53274619741 2625.21710248166 203 207 210
-997.332823722625 414.348619512929 2627.2636309861 199 203 206
-1005.12400357123 413.390965330176 2628.30947421531 176 180 183
-1012.86429854576 412.6593238796 2628.35314501255 167 171 174
-1020.59862396661 411.927468005821 2628.39780160822 161 165 168
-1028.39530911351 410.744539527509 2630.45123815877 168 172 175
-1035.98646768582 410.914087949898 2626.48015838437 202 206 209
-1043.56435406347 411.30719323872 2621.5022188054 196 200 203
-1051.03291447116 412.823101939335 2611.49653010738 187 191 194
-1058.75966690489 412.312349583031 2610.53362213189 187 191 194
-1066.44447964456 412.250351176868 2607.5591517396 203 207 210
-1074.1213771038 412.411570874845 2603.57739419238 195 199 202
-1081.76793265306 413.244057032631 2596.5743538165 202 206 209
-1089.47129547572 413.62576709068 2591.58102579669 190 194 197
-1097.22525058673 413.334024790711 2589.60645923451 185 189 192
-1104.95499021945 413.936228346303 2583.60133151603 199 203 206
-1112.71099398316 414.53622373017 2577.59317227315 197 201 204
-1120.49491615168 414.910651696608 2572.58981010036 204 208 211
-1128.30055942781 415.506466977477 2566.57522687921 211 215 218
-1136.12881219776 415.877115275099 2561.56634246307 210 214 217
-1144.04041761275 418.473824848302 2546.46360208832 217 218 222
-1152.00873079475 420.620060767971 2533.37034542221 216 217 221
-1160.07579886002 423.428861163247 2517.23971832723 216 217 221
-1168.13674764968 424.898252161735 2507.16022556401 215 216 220
-1176.2964661624 427.030443075331 2494.04311963124 212 213 217
-1184.3424559348 427.160743922765 2490.01538296908 204 205 209
-1192.53816052403 428.619994922521 2479.91885991333 209 210 214
-1200.83174716839 430.518796317433 2467.79359001907 215 216 220
-1209.18361016726 432.413168507786 2455.66105924444 215 216 220
-1217.34990824698 432.534013359782 2451.61833371882 212 213 217
-1225.46504927008 432.211435333162 2449.59853422617 212 213 217
-1233.79992105473 433.212991212072 2441.50146371612 215 216 220
-1242.32583478383 435.094423984009 2429.34724651484 212 216 217
-1250.95119258567 437.191994060457 2416.17212272435 219 223 222
-932.455165108353 419.873717019612 2594.02737483 186 187 189
-941.364853635675 415.544959579323 2610.05878001694 191 195 196
-949.99842520915 411.895182828162 2623.09955333254 192 196 199
-957.735503188649 411.391058782784 2622.13533933457 184 188 191
-965.528056118489 410.66206292364 2622.1727219496 193 196 201
-973.367989731271 409.709064227397 2623.21222846847 192 196 199
-981.398697067988 407.860646454818 2628.26151453895 157 161 164
-989.061830179356 407.579587257251 2626.29825389183 180 184 187
-996.91032849581 406.403570477537 2628.34520626343 211 215 218
-1004.53000208647 406.344766253948 2625.37885644006 190 194 197
-1012.27908609875 405.615312112067 2625.42142465716 171 175 178
-1019.91114062495 405.554527211868 2622.45377525102 160 164 167
-1027.89668700628 403.264753184492 2629.52523363411 151 155 158
-1035.52219625015 403.203310256883 2626.5584027734 208 212 215
-1043.18680361185 402.918332416917 2624.59472819942 199 203 206
-1050.64624566397 404.410395632487 2614.5902402145 186 190 193
-1058.36550880716 403.900239831358 2613.62826528719 186 190 193
-1065.95899859619 404.720937145805 2606.63187824996 196 200 203
-1073.6386045618 404.873802356043 2602.64980469841 194 198 201
-1081.30279503477 405.468356775258 2596.65287727127 201 205 208
-1089.08261899279 404.511067694757 2597.700136687 189 193 196
-1096.82064623871 404.217652592558 2595.72756223349 183 187 190
-1104.54128164698 404.586494512011 2590.73187231615 199 203 206
-1112.26402441236 405.836621495737 2581.70285018748 195 199 202
-1120.03900941086 405.98036468236 2577.70889791902 210 214 217
-1127.8294303752 406.122646731829 2573.71302318114 210 214 217
-1135.64538844395 406.924214598073 2566.68892379455 207 211 214
-1143.56611134043 410.364493498544 2547.5518354407 216 217 221
-1151.54777329244 412.918099809877 2532.44046593521 214 215 219
-1159.5695973217 414.807276830526 2520.34889548537 214 215 219
-1167.59310989484 415.813797252347 2512.29066769023 215 216 220
-1175.73781134184 417.914279303947 2499.17575957137 214 215 219
-1183.84850603257 418.914227943351 2491.10642900119 205 206 210
-1191.99594254677 419.911300921882 2483.03276111034 204 205 209
-1200.23017625847 421.343136022933 2472.93174231542 215 216 220
-1208.48427197603 422.552781106748 2463.83627681855 215 216 220
-1216.71992601315 423.3223563781 2456.75988610768 212 213 217
-1224.92080564429 423.652723158769 2451.70460614215 211 212 216
-1233.32096984206 425.072073921482 2441.58267281186 214 215 219
-1241.84547013017 426.923735641599 2429.42871040066 213 217 218
-1250.67458622351 430.077518329447 2411.18670152198 217 221 220
-1258.89397126215 429.744001866788 2409.1541620672 219 223 222
-923.318694538145 415.216561741293 2583.0866105423 187 189 186
-932.24357912112 411.151475059346 2598.10773788558 183 184 186
-941.01750738238 407.31328429734 2612.13941906486 188 192 193
-949.40272508068 404.589233410251 2621.1777589482 179 183 186
-957.263321415335 403.641368376796 2622.21467336222 187 191 194
-965.168783295669 402.472174074771 2624.25449905106 203 206 211
-973.00420320339 401.524720984252 2625.29479451822 197 201 204
-980.777679273686 400.798669870237 2625.33430978892 175 179 182
-988.59324280243 399.851406745561 2626.37708271452 152 156 159
-996.352211973852 399.12508536042 2626.41840907219 205 209 212
-1004.10528546064 398.398781231074 2626.460471131 210 214 217
-1011.77261161389 398.112975748255 2624.49669971621 188 192 195
-1019.55632432038 397.165531982647 2625.54344791184 147 151 154
-1027.46662446313 395.338043166064 2630.60770497263 150 154 157
-1035.21681188863 394.391836816497 2631.65839339769 209 213 216
-1042.75190125526 394.983868226429 2625.67782393837 197 201 204
-1050.26056034587 396.012736386377 2617.6837879621 192 196 199
-1057.87735664205 396.380489290441 2612.70105941994 181 185 188
-1065.49409386735 396.965587319593 2606.71031904937 192 196 199
-1073.13710996197 397.548471230327 2600.71606479333 189 193 196
-1080.83760897237 397.691405438016 2596.73141006625 197 201 204
-1088.60527515231 396.958201955027 2596.77190948117 190 194 197
-1096.40770884732 395.351039261912 2600.841120049 183 187 190
-1104.11468218695 395.709884598447 2595.84740167144 198 202 205
-1111.82795339207 396.721238627939 2587.82787743577 190 194 197
-1119.57391945112 398.165543352944 2577.78751845024 208 212 215
-1127.36532991445 398.735094252093 2571.77502083504 207 211 214
-1135.18618115729 399.520105958773 2564.7503544093 201 205 208
-1143.09199847667 402.259210936624 2548.6400339945 214 215 219
-1151.04329342729 404.123619694063 2536.5575706518 211 212 216
-1159.06433500053 406.200742378921 2523.45791580144 210 211 215
-1167.07902276735 407.188833334418 2515.4008378233 214 215 219
-1175.18069025209 408.824113919232 2504.30789937641 215 216 220
-1183.27719219625 409.806037286995 2496.24062771474 207 208 212
-1191.45460104509 411.217601077164 2486.1465134418 191 192 196
-1199.75401977091 413.274065656161 2473.01241343967 209 210 214
-1207.9522985083 414.030195567671 2465.94072235312 213 214 218
-1216.2120302677 414.999570260446 2457.85311362201 210 211 215
-1224.3442877918 414.888224008372 2454.82293472168 207 208 212
-1232.87742471742 417.145344085037 2440.6512122839 209 210 214
-1241.44142629315 419.182322937609 2427.48390495253 214 218 219
-1250.31458639449 422.504951150341 2408.22826789517 210 214 215
-1259.32719181745 426.03561419457 2387.9467536668 209 213 212
-922.697490495809 407.788731575509 2581.16831986424 195 197 194
-932.033218475648 402.449580027525 2602.18789444285 186 187 189
-940.606427175132 399.310650028782 2613.21948119514 188 192 193
-948.929529810265 396.83279923993 2621.25723721376 185 189 192
-956.849981099201 395.671369466615 2623.29517186542 183 187 190
-964.922527342004 393.854029354208 2628.33915484585 201 204 209
-972.74805462292 392.912817862976 2629.38042814858 198 202 205
-980.511456172184 392.190096052424 2629.42119189235 182 186 189
-988.268961954332 391.46715511804 2629.46293223879 179 183 186
-995.975159197992 390.962251131927 2628.50257402803 176 180 183
-1003.68076958553 390.456727587803 2627.54229068502 218 222 225
-1011.30574406177 390.386238450852 2624.57531011428 184 188 191
-1019.16502179795 389.009157204787 2627.62913387234 159 163 166
-1026.96747539029 387.85028762002 2629.68178719676 138 142 145
-1034.65729833714 387.34367954975 2628.72347688909 213 217 220
-1042.20019279258 387.921656793088 2622.74197041198 209 213 216
-1049.79600395629 388.280536579546 2617.76212432607 187 191 194
-1057.36492896429 389.070847438679 2610.76888284994 182 186 189
-1065.00788928431 389.425529109429 2605.78316388365 193 197 200
-1072.63482854356 390.21100940614 2598.78269529306 189 193 196
-1080.40387947672 389.480999923109 2598.82277321894 193 197 200
-1088.15370790045 388.966806661455 2597.85699455783 192 196 199
-1095.95471167551 387.373294503976 2601.92658789175 180 184 187
-1103.65112108448 387.937129739774 2595.92572062975 198 202 205
-1111.38369120674 388.067868060888 2591.93709573495 189 193 196
-1119.11787526114 389.488616434966 2581.89826910875 202 206 209
-1126.8993608296 390.690508131767 2572.86204325146 207 211 214
-1134.71390170421 391.244667716283 2566.84645936141 200 204 207
-1142.57191090718 392.440609418907 2557.80069947603 208 209 213
-1150.49762736218 394.276906021583 2545.72150221072 210 211 215
-1158.51521240204 396.751836638275 2530.60561663713 208 209 213
-1166.56579002545 398.578984424054 2518.51086152926 211 212 216
-1174.72443234863 401.043617497877 2503.3776402276 215 216 220
-1182.91907313713 403.075400378024 2490.25644062224 206 207 211
-1191.06771617284 404.034353457751 2482.18272255204 195 196 200
-1199.27785549083 405.203920786356 2473.09308836605 198 199 203
-1207.39352307646 405.304042492322 2469.05673580043 210 211 215
-1215.6745266358 406.468137303074 2459.958032319 218 219 223
-1223.89949199922 406.990359943315 2453.8915542527 203 204 208
-1232.50440407128 409.637628596799 2437.69423279346 208 209 213
-1240.96058275012 411.003960940402 2427.56544880921 208 212 215
-1249.79031266494 414.065493459472 2409.32360626678 208 212 213
-1258.40644452448 415.635630282714 2398.16663726117 208 212 211
-912.683587773931 405.418914601278 2559.2457514114 136 138 135
-922.285203099345 399.697904811694 2582.2487648964 175 177 174
-931.622477750712 394.418319705797 2603.26822986219 185 186 188
-940.453557491472 390.445507498474 2618.30082049367 190 194 195
-948.703438198303 388.209425766493 2625.33915011892 191 195 198
-956.732370082517 386.624207157734 2629.38027753155 185 189 192
-964.621066566661 385.472442284457 2631.4219092742 185 188 193
-972.385705314993 384.752928881684 2631.46275044235 202 206 209
-980.093463581396 384.249060171116 2630.50219469882 200 204 207
-987.993897098202 382.882376503526 2633.55085507711 194 198 201
-995.598626597396 382.808936812157 2630.58640872999 144 148 151
-1003.34229066341 382.088549895916 2630.62986971486 165 169 172
-1010.83876903629 382.658253834082 2624.65393720916 190 194 197
-1018.69924263314 381.29202556601 2627.70758314994 172 176 179
-1026.39827432746 380.785308623211 2626.74812393173 145 149 152
-1034.19307924184 379.634690188121 2628.80171003684 201 205 208
-1041.82393524025 379.556124705539 2625.83425702442 203 207 210
-1049.41149291767 379.904777787952 2620.85522758772 175 179 182
-1056.92382083468 381.107213602501 2611.85258958117 181 185 188
-1064.58531047181 381.237582938711 2607.87283608239 190 194 197
-1072.24366939207 381.579996135912 2602.88522777042 188 192 195
-1080.01846021145 380.639869353443 2603.93307009579 192 196 199
-1087.675844519 381.406090690091 2596.92885286095 190 194 197
-1095.44919616894 380.465216976395 2597.97663648444 179 183 186
-1103.15603005334 381.014714235142 2591.97474633682 193 197 200
-1110.90973348634 380.711339637131 2590.00000154708 188 192 195
-1118.65811617261 381.257114999274 2583.99293615611 201 205 208
-1126.43360000259 382.650208742063 2573.94902838958 204 208 211
-1134.242160915 382.978812934651 2568.94271212249 200 204 207
-1142.11077743702 384.789483256576 2556.87070807714 208 209 213
-1150.01288768692 385.960396309995 2547.81927028514 207 208 212
-1158.04529266317 388.821163329593 2530.68514498829 204 205 209
-1166.09454538949 390.618534422799 2518.59063363561 210 211 215
-1174.26771076347 393.256638392866 2502.44721574669 216 217 221
-1182.40629302213 394.622482354416 2492.35830747295 206 207 211
-1190.54876756791 395.562836745219 2484.2854081728 198 199 203
-1198.82599405401 397.343352932117 2472.16225116072 188 189 193
-1206.9714330762 397.645718280264 2467.1139635962 201 202 206
-1215.22704034664 398.577491856776 2459.02696859812 214 215 219
-1223.25896842791 397.824882815821 2459.03430052516 203 204 208
-1231.77792967129 400.012493500148 2444.86453017923 208 209 213
-1240.32793839768 401.985269091874 2431.69937841848 207 211 214
-1249.22574416435 405.420881695578 2411.43244082048 208 212 213
-1257.92183877858 407.383213552268 2398.24884563904 210 214 213
-913.36114136159 394.050427223399 2575.31533015097 145 147 144
-922.293544253187 390.325524263186 2589.32669602513 176 177 179
-931.414062867153 385.74890903474 2607.34805805346 182 183 185
-940.172926728028 382.033989011216 2621.38129455174 195 199 200
-948.602502326821 379.178759479679 2631.42213138383 195 199 202
-956.498101221342 378.0352768272 2633.46312020428 190 194 197
-964.433643548683 376.67895790944 2636.50737191537 182 185 190
-972.185499845478 375.963063261341 2636.5495584593 192 196 199
-980.033834133869 374.820979136351 2638.5964419402 201 205 208
-987.671547300689 374.53072961835 2636.63637775426 191 195 198
-995.222636281031 374.66502655603 2632.67039126156 160 164 167
-1002.87548637115 374.37279745187 2630.70844329025 150 154 157
-1010.45243341695 374.504312360719 2626.73923719024 191 195 198
-1018.19566644286 373.78556289951 2626.78250738545 175 179 182
-1025.75800771908 374.126627697687 2621.80688505876 149 153 156
-1033.5350191492 373.195016663556 2622.85418757038 186 190 193
-1041.21183401256 372.89839420057 2620.8892605068 190 194 197
-1048.92030241096 372.389523308562 2619.92862931606 166 170 173
