ply
format ascii 1.0
comment KinectMotionCapture
element vertex 784
property float x
property float y
property float z
property uchar red
property uchar green
property uchar blue
end_header
-1253.16797316844 -234.167112337874 2739.13897231548 15 18 11
-1260.1824802339 -234.62932310566 2744.31142364529 10 15 8
-1267.52941107376 -235.097690903767 2742.38811644282 16 21 14
-1274.49545349804 -235.556840324213 2747.56660781138 16 21 14
-1281.77395870071 -236.023031211721 2746.65952108928 15 20 13
-1289.29256834705 -236.495962325942 2741.69125957198 15 18 9
-1296.13767862274 -236.949587365769 2747.89275537642 15 18 9
-1302.35216433659 -237.382313188827 2763.24231851308 13 16 7
-1308.95824903672 -237.824989467403 2771.48898865945 14 17 8
-1315.51469036676 -238.264499445746 2779.74184566658 17 20 11
-1333.2209296513 -239.303600215099 2733.19359230288 14 15 7
-1344.70408834431 -239.92454248143 2678.35069644231 14 15 10
-1352.70459322435 -240.421984835339 2670.29930050369 11 12 7
-1357.69754002679 -240.804702672156 2698.90230640078 8 10 5
-1367.15702500389 -241.358830545531 2673.53710563778 8 10 5
-1376.564250411 -241.913948783135 2650.19380336462 7 9 4
-1380.80948896365 -242.261789271854 2684.93663010926 9 11 6
-1385.91372006073 -242.640851092063 2708.48682272786 8 11 4
-1394.51305886126 -243.163727703855 2694.31415970981 10 15 8
-1403.28143332493 -243.69527651299 2679.11273778005 11 16 9
-1410.88356466287 -244.178095619895 2676.14969375422 11 16 9
-1418.60119329123 -244.666157559337 2672.16456305799 13 18 11
-1426.87715661771 -245.179163831793 2663.07114542257 15 20 13
-1435.41749555832 -245.704784836621 2651.92915402881 25 32 25
-1135.91934766143 -234.163420268226 2645.94068978282 71 72 66
-1143.62292204746 -234.663345981694 2631.87975242762 23 26 19
-1150.9185978328 -235.106635383028 2671.28082976064 20 23 16
-1158.39474643203 -235.581109497916 2676.39570325132 19 22 15
-1165.82282781747 -236.051962028732 2682.52425280699 18 21 14
-1172.98970107049 -236.498635854337 2701.78622927104 19 22 15
-1179.3745694713 -236.875714339845 2755.40937606657 17 20 13
-1186.68104423504 -237.342903195148 2754.49880153671 16 19 12
-1195.04392738885 -237.901891513421 2711.13089388685 15 18 11
-1202.8513956876 -238.409238551069 2696.04908336242 13 16 9
-1209.47951334181 -238.817536412205 2722.43272277194 14 17 10
-1216.29343747401 -239.24350878455 2738.71538911979 15 18 11
-1223.51783645885 -239.70382735044 2740.83834063257 13 16 9
-1229.95163526428 -240.102070818145 2763.21497447748 12 15 8
-1237.5834650829 -240.595402273246 2753.19396171591 17 20 13
-1244.77791994681 -241.054439840916 2754.31295960629 16 19 12
-1252.70812913711 -241.569774146477 2739.21585277842 17 20 13
-1259.77314246671 -242.018839969932 2743.37427951011 14 19 13
-1266.91415694663 -242.47393791389 2745.50762316782 16 21 14
-1274.42137919069 -242.956502881697 2740.54104837016 16 21 14
-1281.48870799286 -243.406343465758 2743.69126081794 14 19 12
-1288.41285954226 -243.845885490271 2748.87492828465 12 15 8
-1296.74960998784 -244.389055276641 2730.70385925199 12 15 8
-1303.2092398555 -244.794878314406 2742.99969770543 13 16 9
-1308.50548352947 -245.117074930596 2771.56469456555 13 16 7
-1314.56673980477 -245.495709724215 2786.9334776522 16 19 10
-1322.74981640495 -246.027374589416 2771.8050977412 16 19 10
-1335.12841626619 -246.858557601938 2701.7347422303 15 16 8
-1343.44645634171 -247.397727690226 2688.60491363659 13 14 9
-1354.93201523062 -248.161441455695 2636.78563606149 9 10 5
-1360.69358780617 -248.518081755277 2657.23067600888 7 9 4
-1363.11954457474 -248.640016634436 2715.37818832117 8 10 5
-1371.69491903612 -249.196842959923 2700.20091821814 7 9 4
-1382.65506117741 -249.92065097538 2659.53238334286 9 11 6
-1388.11594244844 -250.258075790894 2680.0148971841 9 12 5
-1393.36495437834 -250.581381069444 2701.5312607127 10 15 8
-1401.91128174816 -251.135226239649 2688.37322212933 11 16 9
-1419.29900451687 -252.262392386899 2661.01220587015 14 19 12
-1425.21540236675 -252.63301540691 2674.38343086806 24 31 24
-1432.16758521334 -253.075671704535 2677.5479939308 0 7 0
-1135.29273248178 -241.713752143332 2689.37243989888 74 75 69
-1142.99444329468 -242.311731738402 2656.1644968499 23 26 19
-1150.86766070308 -242.920683945908 2622.93517968772 21 24 17
-1158.03647012933 -243.232600965458 2666.38297215808 19 22 15
-1164.98075645271 -243.53351626087 2708.85082744474 19 22 15
-1171.84402677725 -243.859121695867 2742.25895337973 18 21 14
-1178.7775457347 -244.232347473205 2762.55778502441 16 19 12
-1186.44463647019 -244.77847638222 2744.47029335732 16 19 12
-1195.07750703815 -245.502386381137 2690.99153540156 15 18 11
-1202.52090311494 -245.974562009144 2691.07157413199 13 16 9
-1209.28876712882 -246.330636251328 2713.4064075627 13 16 9
-1216.89113967794 -246.836216176815 2706.41240471344 14 17 10
-1223.41493117884 -247.170095939072 2730.79325296759 13 16 9
-1229.9566116225 -247.518399184436 2751.14067784091 13 16 9
-1237.12506033456 -247.966454486265 2753.27057932209 17 20 13
-1244.93419805265 -248.505197005465 2740.204257608 16 19 12
-1252.57377764951 -249.016535998974 2732.19793960725 16 19 12
-1259.11666247298 -249.381552492939 2747.50658243514 13 18 12
-1266.5592283841 -249.867066698313 2743.55577123049 14 19 12
-1273.9071832718 -250.339917310053 2741.63234803823 14 19 12
-1280.97256991527 -250.778145110725 2744.78277227409 12 17 10
-1287.59490226844 -251.164863761211 2755.04264164338 12 15 8
-1294.84655648929 -251.628276552884 2754.13889844905 11 14 7
-1303.47043205713 -252.249013990403 2731.90145377748 12 15 8
-1309.89063194984 -252.616213715656 2744.20211114557 13 16 7
-1314.68240202694 -252.806422233674 2778.87631886883 15 18 9
-1322.14995510878 -253.296932598887 2773.91447520328 15 18 9
-1332.76013468667 -254.124211286411 2727.2435232154 16 17 9
-1344.08384231622 -255.016991032582 2674.43685624433 13 14 9
-1351.03300893716 -255.441247676139 2679.61736172449 9 10 5
-1364.18056033437 -256.506959235555 2609.45166323049 6 8 3
-1367.7852448407 -256.584881141097 2655.35899539855 7 9 4
-1377.4790214131 -257.015541261215 2711.59289295371 10 12 7
-1386.69973514113 -257.671193763571 2690.28874545399 12 15 8
-1396.02646401614 -258.333622435072 2668.97138573549 10 15 8
-1402.34927880527 -258.701310488287 2679.26858300964 10 15 8
-1412.93790829586 -259.48086721032 2646.70853485206 13 18 11
-1420.30959641642 -259.948744608571 2646.797751261 16 21 14
-1142.39748005547 -249.854950635975 2676.41404270771 21 24 17
-1150.14205162044 -250.494432512749 2651.26307777681 20 23 16
-1157.54943179706 -250.864109795711 2667.47153606768 18 21 14
-1164.59669732725 -251.095753996529 2702.87206751034 17 20 13
-1171.64951611805 -251.400437335786 2726.17889203161 16 19 12
-1178.99937699262 -251.857319673867 2727.2784904949 16 17 11
-1187.53308477679 -252.716783139572 2673.8122241748 17 18 12
-1194.40822377046 -252.998048213276 2699.15677487827 16 17 11
-1201.96796248165 -253.504690780592 2694.18370974349 14 15 9
-1208.97355900512 -253.860915973216 2708.42665836823 14 15 9
-1216.09449964952 -254.260850422474 2716.60896497747 14 15 9
-1222.77366311022 -254.565984143217 2735.93143199946 16 17 11
-1229.34382928654 -254.864170378731 2755.2674829422 15 16 10
-1237.24032952938 -255.458965566971 2739.16734521964 16 17 11
-1245.12888904781 -256.041150881397 2725.08353944127 14 15 9
-1253.03967197119 -256.618707417495 2712.00463522181 13 16 9
-1259.98287367743 -257.007348737379 2720.20909285969 11 13 8
-1267.03156078661 -257.420897520814 2725.37715057251 7 12 6
-1274.8636554999 -257.975287322078 2715.33130673102 8 13 7
-1281.19944515974 -258.270683463193 2732.68098466466 10 15 9
-1287.7362592569 -258.609195186801 2744.96701372062 12 15 8
-1294.45193224186 -258.983349086542 2753.19982744567 11 14 7
-1303.46629211284 -259.722226611983 2724.86736063267 12 15 8
-1311.53774738814 -260.304039045863 2712.77634402827 13 16 7
-1318.1841779499 -260.667737269066 2722.02545836192 14 17 8
-1324.92201525678 -261.049386597194 2729.24759848265 15 18 9
-1332.45134513684 -261.548170587689 2725.28599459313 16 17 9
-1340.78226106351 -262.158678384374 2711.14705993644 14 15 10
-1352.02915713385 -263.167253210631 2661.37382536814 10 11 6
-1362.94433729005 -264.11227332155 2618.69586957185 6 8 3
-1367.57353388253 -264.20191290652 2652.38217329323 7 9 4
-1372.82354047979 -264.385678258722 2676.92158705185 7 9 4
-1377.84575422539 -264.548852835222 2702.49706088479 11 13 8
-1387.27688124042 -265.284109755206 2679.15125022108 12 15 8
-1401.4056601623 -266.603826147491 2607.85608214744 10 15 8
-1407.39049030766 -266.88900641687 2623.23415665412 10 15 8
-1415.65351822034 -267.458880735808 2615.15019014004 11 16 9
-1422.36998444327 -267.83920872908 2622.37499376601 14 19 12
-1425.47171790712 -267.788978255607 2663.30607800633 9 16 9
-1141.93998177107 -257.499838953798 2673.46796676687 21 24 17
-1149.54431052972 -258.046134993146 2665.46613992047 20 23 16
-1157.08458641862 -258.509190105247 2666.54199197147 19 22 15
-1164.30733285174 -258.758507025245 2689.82746472208 18 21 14
-1171.58175008825 -259.107872176682 2702.02147384903 16 19 12
-1179.24731992088 -259.693270885693 2689.98111879263 15 16 10
-1186.77322057467 -260.190611178987 2687.02762614654 17 18 12
-1194.03724729219 -260.574509124378 2695.1920342282 16 17 11
-1200.73135792079 -260.754965377854 2722.57428492136 13 14 8
-1208.05484760045 -261.204230493714 2723.67715429418 13 14 8
-1215.3334972192 -261.641845882985 2725.79327586056 14 15 9
-1222.3109813128 -261.989902170791 2736.00872257632 14 15 9
-1229.41863102771 -262.39023630985 2741.16938730423 14 15 9
-1236.94192496543 -262.913821273267 2735.19322778072 16 17 11
-1244.66494311816 -263.485325182692 2725.16104111853 14 15 9
-1252.15767461532 -263.989378694846 2721.20401836792 13 16 9
-1260.35009056331 -264.661176796915 2703.0515404341 12 14 9
-1268.37462090702 -265.278298734124 2689.95854540313 8 13 9
-1274.94181522568 -265.556242681276 2705.26392524728 7 12 6
-1281.47858712366 -265.841047006346 2719.56519232931 9 14 8
-1287.87356374052 -266.108017364576 2734.89203502595 12 15 8
-1295.30386368567 -266.599310564957 2731.95069712705 12 15 8
-1303.4592384074 -267.233582193447 2717.83373155616 12 15 8
-1311.75097740939 -267.885344431341 2702.69210749197 13 16 7
-1319.20089685182 -268.369102918371 2700.75574818285 13 16 7
-1326.50842350314 -268.826191846184 2700.85294315277 14 17 8
-1332.44463303138 -269.037544038121 2719.25995209599 18 19 11
-1340.23993796997 -269.587303715308 2712.24198877093 14 15 10
-1356.7619808446 -270.834161200186 2688.01286127962 5 7 2
-1367.01397631261 -271.778022880174 2653.47988155278 7 9 4
-1375.03217460996 -272.341999873607 2646.43413989508 7 9 4
-1381.61027197179 -272.673440618618 2655.69169685918 12 14 9
-1390.68803330453 -273.401718688397 2637.42888179343 11 14 7
-1400.05029966938 -274.165728376801 2617.11504181447 8 13 6
-1409.61309499692 -274.951318199464 2595.76854673881 9 14 7
-1415.79144768311 -275.222097251546 2609.10681838627 11 16 9
-1422.52539606077 -275.581067379429 2616.32962436624 9 14 7
-1141.30688916734 -264.792407271251 2701.78357886816 22 23 15
-1148.8178817149 -265.328405941251 2695.80874690773 21 22 14
-1156.45378874416 -265.976171536608 2680.74895627149 19 22 13
-1163.75260112271 -266.256412919323 2695.96304055726 18 21 10
-1170.96375507445 -266.531069723856 2711.18804938969 17 20 9
-1178.41212100997 -267.016930099681 2709.25188948429 16 17 9
-1186.19179322333 -267.696908990323 2692.15886843918 17 18 12
-1193.3458493193 -268.002528176658 2704.36778272146 16 17 11
-1200.29246530757 -268.237260503255 2721.64107338448 12 13 7
-1206.93146985172 -268.371653180861 2746.00701838983 11 12 6
-1222.62401669101 -269.717006803325 2713.81944889412 13 14 8
-1229.75398517275 -270.090292089386 2719.98494423788 12 13 7
-1236.80427960703 -270.446967835262 2727.16802578929 16 17 11
-1243.81009558086 -270.800806377593 2734.35689078668 14 15 9
-1250.54120742924 -271.079478259566 2746.61827477713 14 15 9
-1258.56592730176 -271.763505551785 2730.50237099238 13 15 10
-1265.43548983375 -272.097127788881 2738.71587347306 7 12 6
-1274.9619566831 -273.176700220844 2696.21157522622 7 12 6
-1281.63917520964 -273.45193021948 2708.47991598928 9 14 8
-1288.24508634007 -273.722618460883 2720.75714353326 12 15 8
-1294.71740015654 -273.97326264041 2734.05867754507 12 15 8
-1302.02157499429 -274.438370071513 2733.14838455102 12 15 8
-1307.90523858364 -274.57077898373 2753.57759775631 13 16 7
-1316.76654690818 -275.400349714484 2729.29545837031 12 15 6
-1325.67713079233 -276.221522469055 2706.01483466821 14 17 8
-1333.34300543362 -276.755797077563 2701.02859716481 18 19 11
-1340.87237618503 -277.258309778993 2698.07468509241 13 14 9
-1354.97373597221 -279.113664785194 2612.67576890026 9 10 5
-1360.73047287228 -279.226449460235 2634.12845722444 4 6 1
-1368.87308143601 -279.825682934184 2626.0595956495 6 8 3
-1376.51736861035 -280.323973993495 2624.09901866754 7 9 4
-1383.70688254917 -280.735628247706 2627.23388257028 12 14 9
-1392.3846920492 -281.426614363347 2614.05979695017 10 13 6
-1400.44569418975 -281.997579014705 2608.01641912583 8 13 6
-1406.1366852019 -282.140779108193 2626.45409068275 9 14 7
-1416.54165263508 -283.126308328021 2596.94104671744 11 16 9
-1140.91161863269 -272.5462377249 2687.74474528094 22 23 15
-1148.34552513035 -272.890732727761 2695.88760933537 21 23 12
-1155.66461291889 -273.142260265649 2710.09140065477 20 23 12
-1162.92855034612 -273.418819450389 2722.28652586803 18 21 10
-1170.08855457727 -273.660210290725 2736.50990291153 17 20 9
-1177.90492493364 -274.500056971431 2711.3505055695 16 17 9
-1185.41684732239 -275.03503364396 2706.38348224593 16 17 11
-1193.02201090036 -275.618758227105 2698.38164978575 16 17 11
-1200.39332759135 -276.044851224823 2700.48617670555 15 16 10
-1206.91489143795 -276.017188000976 2730.91271370509 12 13 7
-1214.53238512344 -276.61594508935 2721.90169500977 11 12 6
-1222.68323759519 -277.448471812363 2698.71591119672 13 14 8
-1230.23295064299 -277.971529641618 2694.75182753266 14 15 9
-1236.54192477838 -277.973134239821 2722.18191025253 13 14 8
-1242.69866205372 -277.965049512298 2749.63072544728 13 14 8
-1249.02448809171 -278.067639665313 2770.00444059764 16 17 11
-1256.15894359304 -278.492879054518 2771.13083704746 12 15 8
-1265.38348813944 -279.636330365219 2730.67999960696 11 14 7
-1273.7372840954 -280.438891057416 2710.49211229572 10 13 6
-1281.39887348617 -280.997563532931 2704.49878671897 10 13 6
-1287.24622141528 -280.998311465861 2729.97086093916 11 14 7
-1293.13852408227 -281.044739583757 2752.41414380766 12 15 8
-1298.64678570367 -281.009635033495 2778.93612667634 14 17 10
-1306.36797018927 -281.614902638712 2769.91218512739 13 16 9
-1315.95352688707 -282.709902198174 2734.45484366842 14 17 10
-1324.84697758501 -283.589569950324 2711.1767523999 15 18 11
-1333.48000375313 -284.381299219914 2692.96936448119 17 20 13
-1343.45363099919 -285.486687605746 2658.47154883758 14 15 10
-1351.58188533461 -286.117821642413 2649.39687549627 9 10 5
-1362.75903169135 -287.456770856635 2603.66420397057 5 7 2
-1367.18728770653 -287.210192075783 2640.39800003227 10 12 7
-1375.32738679191 -287.827795424861 2632.3295000018 9 11 6
-1383.32046068817 -288.407495487009 2626.29462222515 11 13 8
-1394.16723846602 -289.596940997765 2589.67268972225 10 12 7
-1400.54656969879 -289.817048346685 2601.97781962621 11 16 10
-1408.15012158497 -290.3005890665 2601.03021468982 5 10 4
-1140.61661867475 -280.723380797647 2653.53908945222 24 25 17
-1148.000320788 -280.733325654792 2679.82714707103 24 25 17
-1155.26905800964 -280.786983394124 2703.10660545038 21 24 15
-1162.44717977171 -280.885912088307 2723.37394949077 19 22 13
-1169.96059833571 -281.482527959001 2715.38360021469 16 19 10
-1177.19144461051 -281.771929355923 2724.55958726434 16 17 11
-1185.01114634885 -282.609163896487 2703.43075596807 14 15 9
-1192.28490378098 -282.952300963537 2709.57822790663 15 16 10
-1199.60024270412 -283.349113255482 2712.69735050942 15 16 10
-1207.04050977708 -283.838919417261 2710.76245195402 13 14 8
-1214.4525340099 -284.309900393156 2709.83871546084 11 12 6
-1222.21269800776 -284.973136566076 2698.79444769223 13 14 8
-1229.46083675568 -285.348610138886 2702.92958738304 13 14 8
-1236.64029728633 -285.702685655283 2708.08116872525 11 12 6
-1242.40933017656 -285.422669126366 2745.65548306935 11 12 6
-1248.70381712499 -285.448261822107 2767.04083374967 14 15 9
-1256.13714815756 -285.988582081036 2762.08339196613 12 15 8
-1265.12382326333 -287.138021535276 2726.70117102356 11 14 7
-1273.10862715713 -287.84947180069 2713.61338202897 11 14 7
-1280.13995632859 -288.194069440318 2718.78342432942 11 14 7
-1286.78255631169 -288.411870838562 2730.04824694767 12 15 8
-1292.18385363662 -288.227523323403 2760.61417396366 12 15 8
-1298.77264521872 -288.475917637574 2769.87017765248 13 16 9
-1310.28232245646 -290.296025750041 2703.94209177729 13 16 9
-1316.61021246756 -290.442756441772 2718.2690624719 14 17 10
-1323.80009169444 -290.865430310987 2719.38853561223 15 18 11
-1332.48403881586 -291.723309495891 2700.16752043358 15 18 11
-1341.18540209913 -292.565276605599 2681.95173674646 17 18 13
-1351.5902419991 -293.855747871896 2643.36960706062 12 13 8
-1358.10758503875 -294.065519293346 2654.65003985825 9 11 6
-1366.10807913612 -294.675776650361 2647.60662945772 10 12 7
-1374.40572442933 -295.355949430268 2637.50301890116 10 12 7
-1383.66438743962 -296.267313003806 2617.20249605957 11 13 8
-1391.04759292387 -296.702215148215 2618.29787542864 11 13 8
-1400.54807044145 -297.64594806009 2596.95957371144 5 10 4
-1410.7512881333 -298.736403129999 2569.48735743599 9 14 8
-1140.23302548773 -288.784784090772 2634.46069255473 24 25 17
-1147.75847500931 -288.946605711358 2649.64618201069 24 25 19
-1155.01782318806 -288.755701237858 2681.99583246242 22 25 18
-1162.46732894018 -289.129937830713 2686.10607975277 19 22 15
-1169.77737269016 -289.357021961309 2697.28763378055 14 17 10
-1176.83533957844 -289.370549472901 2718.57743463606 15 16 10
-1184.3057558356 -289.904079678825 2714.6232743213 12 13 7
-1191.11929695259 -289.842778518483 2738.96692284145 14 15 9
-1198.97092222569 -290.716525608416 2718.84189092946 17 18 12
-1206.48296403443 -291.272379995395 2713.8749076837 14 15 9
-1214.01525403719 -291.829505645361 2708.90540093086 11 12 6
-1221.42860951239 -292.300046993535 2707.98149714875 13 14 8
-1228.65339935605 -292.65983415593 2712.11950933517 14 15 9
-1235.12697344578 -292.616349347332 2734.49001618405 15 16 10
-1242.88951504356 -293.306537320782 2723.44552268164 13 14 8
-1250.11237016516 -293.705652399463 2725.56850568222 9 10 4
-1256.73887485475 -293.829850474614 2739.85839196025 14 17 10
-1264.50563535292 -294.500502313104 2729.82100761449 14 17 10
-1271.94415470025 -295.012033229965 2726.87845700935 14 17 10
-1279.50470052566 -295.570792835656 2721.90542839985 14 17 10
-1286.14137665218 -295.754841476364 2733.1709013937 11 14 7
-1292.15677612657 -295.721666779853 2753.58299841207 11 14 7
-1300.11817349288 -296.444102085655 2741.50608670938 12 15 8
-1308.47276614458 -297.290253645461 2724.34151633353 12 15 8
-1315.09835742523 -297.513059122533 2733.59286025023 12 15 8
-1323.47983493452 -298.341139028443 2717.43257431023 12 15 8
-1329.68667288719 -298.438573929052 2731.77476203611 11 14 7
-1337.75706805085 -299.148116389581 2720.69190119805 17 18 13
-1347.40947646963 -300.333371147623 2690.26537075181 16 17 12
-1358.04835802335 -301.778755659507 2649.63882754462 11 13 8
-1365.54602502195 -302.254382588885 2648.70441557553 11 13 8
-1375.78786166795 -303.516511567474 2616.18915622035 13 15 10
-1384.5521743196 -304.329298905253 2601.99666891057 13 15 10
-1392.06999660887 -304.786429201338 2602.06738006833 12 14 9
-1398.71141364594 -305.010147687679 2611.31675142857 11 16 10
-1403.7090868258 -304.813494789609 2636.89434018618 13 18 12
-1132.11949761271 -296.257312076557 2625.41529971519 100 101 93
-1139.45273605682 -295.148076994396 2695.04061656566 25 26 18
-1147.33798453553 -296.817948593704 2641.65740831421 24 25 19
-1154.91383712432 -297.186076950576 2645.75163191173 21 24 17
-1162.5004706471 -297.62233012747 2646.82162822215 18 21 14
-1176.99259523335 -297.664294808878 2684.31588731722 15 16 10
-1183.70924823489 -297.258032234589 2720.7636844423 13 14 8
-1191.15405670826 -297.775144067482 2717.8206039573 14 15 9
-1198.42263808694 -298.123607901439 2721.95312139945 16 17 11
-1206.1012150525 -298.83543941049 2710.91916318423 14 15 9
-1213.70474869491 -299.452514385508 2703.92530905563 12 13 7
-1221.44305606476 -300.145585875924 2693.89153453343 12 13 7
-1228.81828791748 -300.568184921273 2694.9878765648 14 15 9
-1234.50178012964 -299.938777298113 2738.6183086287 16 17 11
-1243.53230476177 -301.41100391943 2697.18486244635 15 16 10
-1250.09971782516 -301.399930489446 2715.5127554388 8 9 3
-1257.2845294601 -301.765380276737 2718.64808448344 13 16 9
-1264.59874270586 -302.206489306151 2718.74440292342 15 18 11
-1270.89056446706 -302.155390988858 2738.11426977517 15 18 11
-1278.36462188546 -302.696575506356 2734.15967522238 14 17 10
-1285.44179646106 -303.055123403554 2737.3084185598 13 16 9
-1292.24980560531 -303.306618994393 2744.52145889484 12 15 8
-1299.59152644067 -303.794370674027 2742.59885291689 14 17 10
-1307.47231901116 -304.496228143812 2732.54732022157 14 17 10
-1315.81784066452 -305.362487934605 2716.39186217393 13 16 9
-1323.59205015244 -305.990077607401 2709.37673639893 13 16 9
-1332.07189727081 -306.864826285042 2693.20429741382 12 15 8
-1335.19533328209 -305.825467448154 2748.23864891983 15 16 11
-1349.10854732828 -308.574154238435 2662.8655647613 15 16 11
-1358.65097334713 -309.741146091061 2636.48370003517 10 12 7
-1366.35501245106 -310.274238635847 2633.50831118467 10 12 7
-1376.63178992274 -311.622711024598 2600.98867853457 13 15 10
-1384.97885990428 -312.331503787116 2591.88690280573 15 17 12
-1390.46087983883 -312.161390859722 2614.38081628053 9 11 6
-1394.0820205378 -311.468443249914 2655.24514872716 10 15 9
-1408.58434319245 -313.984430993878 2581.89114074569 17 22 16
-1406.66736539576 -311.74831469557 2676.85379426378 0 2 0
-1131.55263056619 -303.027391810802 2664.80655018971 77 78 70
-1139.15930327454 -303.686171350755 2656.80472705354 25 26 20
-1146.62332849135 -303.730303984283 2673.00525906803 23 24 18
-1154.75650116754 -305.709201699828 2613.54556229383 18 20 15
-1162.15973675354 -305.598007743551 2635.79987457445 16 18 13
-1169.25098168249 -305.164234375221 2670.18523792773 13 15 10
-1175.75036519881 -304.137800246505 2726.8139396454 14 15 9
-1183.59625624455 -305.18999510673 2703.66679170362 16 17 11
-1190.73180562642 -305.314021098503 2715.87753729519 16 17 11
-1198.32285344816 -305.971517830452 2707.87766067427 13 14 8
-1205.57279034279 -306.279350959731 2713.02032520523 13 14 8
-1213.42376530833 -307.129880518594 2697.93398906494 13 14 8
-1222.51953066485 -308.917126081188 2648.43125349404 12 13 7
-1228.75403428428 -308.403566707828 2683.93125035108 11 12 6
-1233.75797823333 -307.155990484532 2745.78466747566 14 15 9
-1241.82759533556 -308.121182105895 2726.64035938626 14 15 9
-1249.31468831533 -308.670953483186 2722.68416068566 11 12 6
-1258.15776284749 -310.013087872365 2690.34366926429 7 10 3
-1263.72627237978 -309.431990006621 2726.93428748406 13 16 9
-1270.42621424198 -309.553338819556 2738.19170017035 16 19 12
-1277.39612678988 -309.843167326008 2743.36902240102 19 22 15
-1284.68432711051 -310.304522465494 2742.46071305075 18 21 14
-1292.33927914899 -310.940476738924 2735.460732197 18 21 14
-1298.55224881007 -310.904741984617 2751.81717822077 15 18 11
-1308.80976082212 -312.689537680543 2705.19251837837 13 16 9
-1317.01691238368 -313.511790740854 2692.07727350457 11 14 7
-1336.23859851505 -316.217143528051 2630.22802180116 12 15 8
-1345.65911528737 -317.418960785527 2604.86914943793 12 13 8
-1352.88224033972 -317.749868221159 2609.00753359547 14 15 10
-1366.55949962476 -318.161095485596 2625.44134455935 10 12 7
-1374.99982246732 -318.947523315867 2614.31252140883 14 16 11
-1385.40150531018 -320.388001910062 2581.77778387064 16 18 13
-1390.63352356286 -320.062900085092 2607.32578948292 12 14 9
-1400.05705368656 -321.138633403031 2587.00512506213 21 26 20
-1131.14810503232 -311.803664631262 2624.56977743433 135 136 128
-1138.51261005204 -310.340029395891 2693.18233173389 19 20 14
-1146.46561122208 -312.605792160872 2628.70695871895 24 25 19
-1154.09817356607 -313.005131434971 2630.77881327075 18 20 15
-1161.63719988229 -313.230675441975 2638.90848600881 17 19 14
-1169.03401938172 -313.279344740357 2653.10180238154 18 20 15
-1176.13151689977 -312.973365855956 2679.42474466788 15 18 11
-1182.89511732706 -312.394467462737 2714.85854130329 11 14 7
-1190.56668394979 -313.187658242986 2702.81798509596 11 14 7
-1197.74661408327 -313.362288528098 2712.0000239334 14 17 10
-1204.98677085678 -313.652578563939 2717.14386276654 14 17 10
-1212.28798478384 -314.030611212388 2719.25701153162 10 13 6
-1220.25684476801 -315.010290358275 2701.1332428542 8 11 4
-1227.24438143432 -315.116656794644 2712.35448568489 7 10 3
-1234.48309212641 -315.462662928955 2715.48303724169 11 14 7
-1240.3862731797 -314.856999315326 2750.01645154478 13 16 9
-1247.45070388256 -315.163933996215 2754.17457668755 13 16 9
-1254.24816092921 -315.314086571432 2763.40428144389 13 16 9
-1264.57026251611 -317.673214572441 2700.64887877331 11 14 7
-1268.84606988377 -316.293154095419 2759.56951258266 13 16 9
-1276.87646900097 -317.192546115263 2744.46115431528 16 19 12
-1284.92239877195 -318.064927619193 2730.35847388109 15 18 11
-1292.97571315974 -318.909779657899 2717.26248649071 13 16 9
-1300.19808101411 -319.310419735623 2718.37784721719 11 14 7
-1310.33692366105 -321.126300271975 2674.79138003414 10 13 6
-1318.20727293418 -321.791656164849 2667.7643560383 10 13 6
-1326.03651290983 -322.42641314377 2661.75030902554 12 15 8
-1330.60793237683 -321.62433205957 2700.48039070441 12 15 8
-1343.62712523421 -324.489419110872 2625.2965331602 12 13 8
-1350.23742172887 -324.571496859983 2636.56502963943 10 11 6
-1360.50260904496 -326.143453189701 2602.03205771284 7 9 4
-1366.50462274879 -325.991227121305 2620.43013748231 8 10 5
-1374.95668396833 -326.805128434589 2609.29992180218 10 12 7
-1383.09805394535 -327.487469954012 2602.2391207558 12 14 9
-1392.67171847005 -328.679963130917 2579.88441346716 14 16 11
-1411.16505937628 -330.743808857219 2545.33383935701 6 11 5
-1138.12089243821 -318.501703781087 2674.10521277719 24 25 17
-1145.41669139024 -317.888373767346 2708.46481641041 24 25 19
-1153.53368364783 -320.490111509637 2638.93094702695 19 22 15
-1161.20278494027 -321.067281846181 2634.95210691913 19 22 15
-1168.6890350347 -321.233610859851 2644.09589697528 16 19 12
-1175.95879797148 -321.109797459534 2662.33584395908 12 15 8
-1182.36215549872 -319.794860904762 2717.96784202468 13 16 9
-1189.74404319775 -320.230826415698 2718.0557015477 15 18 11
-1197.82133128211 -321.539918050115 2690.84936449051 16 19 12
-1204.63124376392 -321.263997685096 2713.17728618571 14 17 10
-1211.6298479465 -321.307084153361 2725.40490857719 14 17 10
-1218.96599724546 -321.73998906411 2725.49822765342 12 15 8
-1226.58982819877 -322.436732671182 2717.49436324673 10 13 6
-1239.71147174078 -322.068020301827 2755.15856877053 11 14 7
-1246.53887633617 -322.192224037734 2764.38446791448 12 15 8
-1253.31120733419 -322.312908071489 2773.61723064879 9 12 5
-1260.32980444306 -322.633391452592 2776.77318386621 7 10 3
-1277.19116187052 -325.04970917331 2730.33399361521 14 17 10
-1285.33084375009 -325.993735408978 2715.21187477904 14 17 10
-1293.72746870721 -327.046095563855 2697.03491496478 13 16 9
-1302.02311516456 -327.999905828898 2681.89359870598 11 14 7
-1310.25996265935 -328.88855812349 2668.7748228153 11 14 7
-1316.69490321357 -328.834119778204 2683.08814473225 12 15 8
-1321.68420952697 -328.104819070944 2716.7273522393 13 16 9
-1340.44433028471 -330.917001589887 2660.98234535596 12 13 8
-1348.87852719089 -331.817991018514 2647.83897391485 10 11 6
-1367.5549543923 -334.317620532465 2602.18118018348 8 10 5
-1377.63551993893 -335.813911853067 2572.70996472958 10 12 7
-1384.60463304198 -336.008035307999 2579.90274915552 11 13 8
-1391.34301799486 -336.126149926415 2589.13974138911 20 22 17
-1401.95956879531 -337.74837882433 2556.57866823306 7 12 6
-1137.4716276239 -324.777467874875 2714.51313134155 26 27 19
-1145.31851729171 -327.246880077059 2654.08276564855 23 24 18
-1153.07755439978 -328.305838856096 2635.98515013696 19 22 15
-1160.68017901261 -328.685861905857 2638.06068987203 20 23 16
-1168.32546616985 -329.202313956108 2636.10027619318 15 18 11
-1175.74418944907 -329.269552973581 2647.2678467118 14 17 10
-1182.01369382257 -327.491320719695 2711.98499320813 13 16 9
-1189.92092544449 -328.693152772334 2689.83851175624 15 18 11
-1197.21677364762 -328.919719690142 2695.98291991384 16 19 12
-1204.81592358238 -329.566786915322 2689.9976191965 14 17 10
-1211.69133160496 -329.365309016245 2708.28633454676 13 16 9
-1218.70039697 -329.406368355393 2719.50495900794 11 14 7
-1226.30251710485 -330.086927555512 2712.51144846018 9 12 5
-1233.30679561293 -330.194501445748 2721.7152309914 8 11 4
-1240.04577282671 -330.118018372969 2735.99055287668 10 13 6
-1245.09375306864 -328.730540594884 2786.7525869514 12 15 8
-1253.04054386224 -329.767202050054 2769.63940953757 11 14 7
-1261.62294440043 -331.211886352761 2741.36270741261 7 10 3
-1269.24122434942 -331.893228671744 2734.3671822779 7 10 3
-1277.44501687274 -332.945972695187 2717.22221518919 10 13 6
-1286.72207461366 -334.63508670099 2682.81286452239 12 15 8
-1295.14104105321 -335.701343211986 2665.64084031694 13 16 9
-1301.67540355946 -335.611663275837 2679.94142188584 13 16 9
-1306.67093560953 -334.688916647309 2716.60264458813 13 16 9
-1314.22234768663 -335.265466251505 2712.63873003268 15 18 11
-1320.78618039522 -335.311363690029 2722.90500227123 15 18 11
-1331.37500468031 -337.451000786113 2677.24785844499 14 17 10
-1347.20180402649 -342.095446712642 2565.43893559658 13 16 9
-1354.85091324266 -342.54422535335 2565.49348119698 9 10 5
-1379.5119437383 -344.667595516083 2545.28964019241 8 10 5
-1386.64544933337 -344.883066285336 2551.45427852643 8 10 5
-1393.55367294058 -345.017405627893 2559.66219126033 8 10 5
-1403.09369826623 -346.254383558955 2539.32765382774 12 14 9
-1407.12294733518 -345.237010329912 2577.11690083587 6 11 5
-1129.52060617375 -330.770859618495 2744.74624346265 27 28 20
-1137.09654689721 -333.167241797559 2690.395861132 26 27 19
-1144.91678284277 -335.361859464897 2642.06106398887 24 25 17
-1152.56311786988 -335.916966440632 2639.09269397149 20 23 14
-1159.98766131863 -335.770414161718 2655.29765091529 21 24 15
-1167.43816469647 -335.91496054078 2663.43815748836 16 19 10
-1175.0496998522 -336.50386071171 2659.46653218418 17 20 13
-1182.08830720698 -336.007077944612 2684.78863404131 13 16 9
-1189.536576611 -336.404595714705 2685.87579536742 13 16 9
-1197.30619214856 -337.292804850953 2673.8230131939 14 17 10
-1204.31164720363 -337.083265370301 2691.08803138399 17 20 13
-1211.65337138604 -337.40152738837 2694.20365440306 15 18 11
-1218.87099499227 -337.603342904762 2700.35775934596 13 16 9
-1226.04951357427 -337.802637345577 2706.51673772553 12 15 8
-1233.54122630593 -338.347339059491 2703.56787652336 10 13 6
-1240.87502656105 -338.737275846019 2704.66906268954 11 14 7
-1246.23781501234 -337.410529729062 2750.35329473583 15 18 11
-1252.34306388711 -336.890543170674 2774.78412600875 14 17 10
-1261.65591599905 -338.997478457193 2731.30150404358 10 13 6
-1269.98380835997 -340.20989164315 2711.11792867981 8 11 4
-1277.6386327636 -340.873166756289 2705.12572280079 7 10 3
-1286.18865332685 -342.135688673423 2683.90687201195 11 14 7
-1295.57281271617 -343.885027109258 2650.49200138969 13 16 9
-1300.43952111141 -342.671504790131 2692.20745080351 13 16 9
-1303.16361658373 -340.273394015601 2763.41201406908 13 16 9
-1309.97225991377 -340.48506823928 2768.60949619695 15 18 11
-1319.24696401427 -342.118796113735 2738.23128205466 16 19 12
-1344.01972177552 -348.492616276599 2601.12457876045 10 11 6
-1353.00569080495 -349.673750412637 2582.87441141182 9 10 5
-1362.4925089658 -351.067377288792 2559.5233846162 6 8 3
-1370.90811873626 -351.886785941881 2550.41334682992 7 9 4
-1380.06562351804 -353.04244954887 2533.14939285596 8 10 5
-1387.32262790261 -353.282141980027 2538.29099595986 7 9 4
-1395.38228697161 -353.898112091923 2534.26351872831 9 11 6
-1408.69579835026 -353.903689880267 2555.78057104544 10 15 9
-1136.68160198961 -341.374285567063 2674.34506184622 25 26 18
-1144.3255030325 -342.440361951071 2658.27768811271 24 26 15
-1152.00273315225 -343.313846552824 2647.24432368355 20 23 12
-1159.48057400268 -343.35720795784 2657.39652643101 21 24 13
-1166.79491597163 -343.117702274115 2674.62291844544 17 20 9
-1173.64546457073 -342.03142593595 2713.06758959586 16 19 10
-1181.22883555048 -342.820846571928 2704.06133131815 14 17 10
-1189.195939322 -344.218310873845 2679.89227890139 15 18 11
-1195.98583516645 -343.556203779288 2707.26035730529 17 20 13
-1203.32814247308 -343.902047471697 2709.36829309107 16 19 12
-1210.2514410033 -343.715348878018 2724.6280096153 10 13 6
-1218.19519202251 -344.877529561596 2706.50785499957 11 14 7
-1226.047833812 -345.839265681332 2693.43721817315 12 15 8
-1233.53523091022 -346.349720337707 2691.4964924463 9 12 5
-1241.52650988008 -347.359001017453 2677.40099262811 8 11 4
-1248.96555010237 -347.788442272798 2677.48146240397 10 13 6
-1254.37514574328 -346.41607443814 2721.14435885016 14 17 10
-1259.64594646676 -345.112792399755 2762.80914355137 13 16 9
-1268.88315292978 -347.173557843032 2723.36682879084 11 14 7
-1277.00088742785 -348.229480131972 2708.24798380115 9 12 5
-1285.8283545634 -349.758263945162 2681.95629448311 11 14 7
-1294.00254188274 -350.739795051519 2668.84582307366 14 17 10
-1300.97623944699 -350.86710521468 2676.03785943552 13 16 9
-1302.76749137124 -347.631625788648 2762.47313869702 14 17 10
-1310.19690710406 -348.215799424471 2758.52422837297 16 19 12
-1321.34604044853 -351.058415430416 2701.71373367224 16 19 12
-1333.011244965 -354.05025989518 2641.815687496 14 17 10
-1341.0023975034 -354.786464135047 2634.77377454344 11 12 7
-1348.38997228069 -355.173195000042 2635.86848179322 10 11 6
-1361.42307527825 -358.601394463008 2566.73097440888 7 9 4
-1368.37890970803 -358.688373784624 2574.93306114141 8 10 5
-1376.59557209199 -359.438653150251 2567.86304295967 8 10 5
-1408.30059026484 -364.936239008226 2473.22259573323 0 1 0
-1417.52049371383 -366.022058175246 2458.97397240497 17 22 16
-1417.43591708986 -362.901881430602 2539.59704449838 0 2 0
-1128.71992290043 -351.15123992395 2611.87552729672 97 96 91
-1136.32041693213 -350.338689616035 2642.16559348427 23 22 17
-1143.90658527533 -350.525119330783 2648.27366570485 24 25 17
-1151.43549602159 -350.624541363268 2656.40402839977 20 23 14
-1158.96193479824 -350.890384166325 2660.50438945229 21 24 13
-1166.2857750296 -350.643391388075 2676.7216490558 16 22 10
-1173.60265736522 -350.60420492949 2687.9016484544 15 18 9
-1180.89345262288 -350.646644470178 2697.06950386015 15 18 11
-1188.08374949933 -350.599351503567 2708.26503875875 17 20 13
-1195.46118700563 -350.980434832618 2709.36099620743 18 21 14
-1202.18224109477 -350.361787524098 2733.71471881063 16 19 12
-1210.02622566393 -351.522108942371 2716.61469665994 13 16 9
-1217.78815758319 -352.468863975068 2704.56302753509 14 17 10
-1225.75234026444 -353.594932485839 2688.45584253373 16 19 12
-1233.71850259666 -354.637744671202 2674.36356542745 12 15 8
-1241.17255869879 -355.064932456442 2674.44215537585 9 12 5
-1248.22227449313 -355.091603261601 2683.64005454696 9 12 5
-1253.34209634511 -353.330110925406 2733.38469143 13 16 9
-1258.38954953045 -351.730691099246 2779.10731710799 13 16 9
-1268.36092268541 -354.566058914828 2724.45915502459 12 15 8
-1275.53943287717 -354.892300434419 2726.58748010032 10 13 6
-1283.04631460146 -355.489165518221 2722.628935901 12 15 8
-1291.71404689528 -356.950673421958 2699.38054521021 14 17 10
-1299.42760780897 -357.643769093975 2693.38084762462 13 16 9
-1305.32706894281 -357.056039633545 2715.82156712736 13 16 9
-1312.94801312482 -357.701556294584 2710.84122963165 16 19 12
-1322.43704523172 -359.547892776151 2679.42914142027 16 19 12
-1331.7172228918 -361.172696849028 2653.0812093711 14 17 10
-1339.98363558683 -362.108694569268 2641.97448306583 11 12 7
-1347.59006601483 -362.628143268718 2640.01892636864 10 11 6
-1356.01885150705 -363.615952330104 2627.88438624334 8 10 5
-1366.78710026001 -365.875856334023 2588.25153088077 8 10 5
-1374.44462855293 -366.356757061358 2587.29718305561 9 11 6
-1384.70726628136 -368.209789607873 2556.79625816821 7 9 4
-1399.84493549258 -372.494319364701 2474.2977153951 10 12 7
-1413.31522951305 -375.757302062568 2414.17511875322 18 20 15
-1414.75618922385 -373.013864739863 2482.51583907626 4 9 3
-1128.22636697589 -358.857854889044 2613.97302971957 75 71 68
-1135.91576352993 -359.075665603698 2619.06061521226 26 23 18
-1143.52760505153 -358.977670549784 2631.21133767609 22 21 16
-1151.00536824632 -358.560313660686 2650.43224151923 22 25 18
-1158.43219883249 -358.361700257759 2664.62116147557 19 24 17
-1165.83424248085 -358.33903759086 2674.78288966243 12 19 11
-1173.15856701595 -358.267017694258 2685.96163358411 14 19 12
-1180.69339148287 -358.829807011276 2683.00743992531 15 18 11
-1187.51945104433 -357.926981388754 2712.38598585257 15 18 11
-1194.63493472129 -357.841582478134 2723.59075664553 16 19 12
-1202.26911689696 -358.721230582004 2713.57070794359 16 19 12
-1210.04208111787 -359.7427490841 2700.51017184146 12 15 8
-1217.31347484854 -359.97777434291 2704.64203958227 12 15 8
-1225.27510734936 -361.144231761086 2688.5352791911 13 16 9
-1232.92999805981 -361.847281116999 2682.5429295127 14 17 10
-1240.6932027919 -362.645876156473 2674.52194030451 13 16 9
-1247.83253610747 -362.739108355596 2681.69345682947 11 14 7
-1254.13375365997 -362.024723491392 2706.09908016021 10 13 6
-1259.70631091923 -360.731585596207 2742.68755838425 13 16 9
-1267.16146893754 -361.332979190262 2738.73548092331 14 17 10
-1275.34344467361 -362.557257738038 2721.593447902 11 14 7
-1282.23116949938 -362.634403813982 2728.79608104801 10 13 6
-1290.81882989765 -364.106094429542 2706.56539677041 9 12 5
-1298.1984480015 -364.56929814808 2705.64568388941 11 14 7
-1305.18362871456 -364.741245925189 2710.82103057737 12 15 8
-1313.43127225516 -365.836173568836 2696.69376352459 13 16 9
-1322.59820104742 -367.521682101986 2670.36012412764 13 16 9
-1332.85496791445 -369.852878558436 2630.79152669546 13 16 9
-1342.47555226901 -371.655607045161 2602.38596799577 10 11 6
-1350.97623605268 -372.677424550592 2590.24254494879 10 11 6
-1358.22829576003 -372.910297388558 2594.37706006182 8 10 5
-1365.28346944313 -373.041959602227 2600.55125304851 8 10 5
-1374.38819439008 -374.368060044217 2582.28640715832 8 10 5
-1386.45334304962 -377.301036650955 2531.40844024975 11 13 8
-1395.36178237961 -378.39270410912 2518.20638830164 10 12 7
-1406.9953120662 -380.898852750023 2476.45082527415 12 14 9
-1416.98488380403 -382.458019210476 2454.04518084517 10 15 9
-1135.43495191747 -366.990612939207 2616.11815982775 27 24 19
-1143.07537669002 -366.999784247859 2625.24229592632 23 22 17
-1150.63418187775 -366.862300944596 2637.39953302016 21 24 17
-1158.11015514624 -366.67239243709 2650.57465608611 18 23 16
-1165.26812138148 -365.660959581888 2680.91918310761 12 19 11
-1173.06778025532 -366.952635699201 2662.81735136138 14 19 12
-1180.25317261666 -366.50845390391 2681.06698361543 15 18 11
-1187.49067661313 -366.39747850498 2692.25669990786 15 18 11
-1194.28753110708 -365.551584348615 2718.61573881856 16 19 12
-1201.93358315752 -366.456126366462 2708.59403411492 16 19 12
-1209.53576575878 -367.216403742148 2701.6007257067 13 16 9
-1217.16885759883 -367.978530769361 2694.6035648792 13 16 9
-1224.08228445657 -367.705372702764 2708.85659854365 14 17 10
-1232.33604399008 -369.260649324589 2685.65987587381 14 17 10
-1239.71962253692 -369.629746448825 2686.7550353917 13 16 9
-1247.57317234186 -370.546872716247 2676.70746933518 12 15 8
-1254.77603357704 -370.715906055944 2681.85564310582 11 14 7
-1261.50228934515 -370.430652415392 2696.13200276245 12 15 8
-1267.67923907862 -369.686579903632 2719.54536870279 13 16 9
-1274.8176174365 -369.945670114078 2722.68621225174 13 16 9
-1281.99045741681 -370.254036875781 2724.8151978638 10 13 6
-1290.16541644189 -371.426681201265 2709.68951897477 8 11 4
-1298.22625470018 -372.450692490183 2697.60075155753 11 14 7
-1306.21434025573 -373.375782265985 2687.53665747506 12 15 8
-1314.24933011211 -374.30377303555 2677.46647738406 14 17 10
-1324.17037463525 -376.575822236117 2640.96268164802 14 17 10
-1333.6908604947 -378.445525152937 2612.57003129226 13 16 9
-1344.57284203468 -381.15492318019 2567.88549071706 9 10 5
-1351.82350016351 -381.3263221164 2573.02770594767 9 10 5
-1358.30734366021 -381.025291989422 2587.33403540709 8 10 5
-1365.71914816345 -381.348180426981 2589.43323790175 8 10 5
-1375.28470783584 -382.984761764638 2566.07326471167 9 11 6
-1385.68327651297 -385.050733820012 2534.54800984717 13 15 10
-1394.76607510046 -386.279801799255 2519.30918653753 13 15 10
-1402.40420439726 -386.663898427557 2520.37261912737 6 8 3
-1407.78586121289 -385.822132301251 2544.89266274766 11 16 10
-1135.01384836697 -375.873064226602 2594.02330463921 26 25 20
-1142.53190881688 -374.300437052228 2634.39900793446 24 23 18
-1150.12032545616 -374.428046758159 2640.50688494932 20 23 16
-1157.82805376771 -375.261392060362 2632.49267011528 17 22 15
-1165.32011569753 -375.18323389704 2642.64301840739 14 21 13
-1172.56770290979 -374.540951238828 2663.90742871475 15 18 11
-1180.06410744497 -374.861928145971 2665.99606859162 13 16 9
-1186.96831425057 -373.848710271355 2694.35688439256 14 17 10
-1194.18597725824 -373.802842472472 2703.53363371652 15 18 11
-1201.59589876053 -374.217884533971 2703.61793968547 14 17 10
-1208.87840733982 -374.425324483855 2707.74834771394 13 16 9
-1216.26410614086 -374.838684083943 2707.83543183336 13 16 9
-1224.03449268841 -375.824804446525 2696.79073865501 13 16 9
-1231.39816127838 -376.186735625753 2697.88836394655 12 15 8
-1238.95453419498 -376.810097494448 2693.92371331735 12 15 8
-1246.70034464102 -377.644783878564 2685.9049898585 11 14 7
-1255.22416457445 -379.326337681508 2661.6672106956 11 14 7
-1262.79140099546 -379.850388973367 2659.71655729953 10 13 6
-1268.8624614483 -378.833963093566 2687.17340902469 11 14 7
-1273.8018401158 -376.848621438096 2732.90874572091 14 17 10
-1280.09156904958 -376.344623720617 2750.26230685432 12 15 8
-1290.23013175146 -379.374170473469 2700.63246762691 10 13 6
-1298.31331000417 -380.429082811508 2688.54123395598 11 14 7
-1305.41142437289 -380.624088986662 2692.69462054791 12 15 8
-1315.26396927506 -383.036896960191 2655.19205674462 15 18 11
-1321.71009749005 -382.692081635466 2669.50321781021 14 17 10
-1335.91169768497 -388.170812912387 2575.03142955028 13 16 9
-1344.45579137198 -389.254374046536 2562.88251153491 8 9 4
-1351.64231299572 -389.354865282725 2569.0404712562 9 10 5
-1359.3590395488 -389.837768009048 2568.07874111034 9 11 6
-1367.0744112133 -390.320539629547 2567.1171797013 9 11 6
-1376.34857797066 -391.798846838118 2547.8239022078 10 12 7
-1384.28814591565 -392.395341293408 2544.81928771704 15 17 12
-1393.24966043944 -393.604583907689 2530.60323483033 22 24 19
-1404.55311231751 -396.157712884475 2491.91204857755 9 11 6
-1407.09178608391 -393.572425444389 2547.01530380669 3 8 2
-1134.33819942602 -380.597490470505 2653.57792687168 26 25 20
-1141.86478942312 -380.386019494145 2665.73898938695 24 25 19
-1149.65765533046 -382.295879348613 2637.5620415395 21 24 17
-1157.56165929158 -384.054786489318 2612.39388808596 17 22 15
-1165.0403100106 -383.682121642428 2627.58381020472 16 21 14
-1171.98479057247 -381.855112142209 2670.04603743735 15 18 11
-1179.15772804047 -381.305197541681 2688.29694554488 13 16 9
-1186.57775806517 -381.612611909919 2690.39508079267 14 17 10
-1193.93097344035 -381.810474277804 2694.51688007756 15 18 11
-1201.09205033918 -381.680498439067 2704.70815661603 14 17 10
-1208.16257704849 -381.492146078766 2715.91850691726 14 17 10
-1215.72311632039 -382.228959686561 2709.93802065754 13 16 9
-1223.48634353111 -383.241484014259 2698.89429045601 13 16 9
-1231.11165274328 -383.982184950219 2692.9057315278 12 15 8
-1238.39538694716 -384.227800898996 2696.02864031126 11 14 7
-1245.78665017084 -384.637939118481 2696.11502154024 10 13 6
-1255.34155423106 -387.656747633141 2648.5736056471 10 13 6
-1260.89120289692 -385.846548123099 2689.19432945757 10 13 6
-1266.68275940801 -384.525019499958 2720.71648707528 11 14 7
-1274.30800885627 -385.265251277736 2714.72817463849 13 16 9
-1278.48546495987 -382.579630873009 2770.63434239523 13 16 9
-1288.74081360793 -385.905033921394 2717.96740653587 13 16 9
-1297.5242176854 -387.664802818204 2693.6974387831 11 14 7
-1305.45488542237 -388.58178778129 2684.6481758594 12 15 8
-1313.96870300802 -389.956213959971 2667.46512634552 16 19 12
-1325.10109565018 -393.388863425145 2613.68133591216 15 18 11
-1335.05014251646 -395.694951021187 2580.19743685145 12 15 8
-1344.86678809701 -397.78219947987 2550.76071331363 8 9 4
-1351.85140555174 -397.692490217396 2559.96642988991 9 10 5
-1358.86211558098 -397.657011326204 2568.16134598271 9 11 6
-1367.24804168876 -398.602127927233 2559.05510332071 10 12 7
-1375.15642967564 -399.20158551692 2556.0543877077 12 14 9
-1384.05532282397 -400.441835994833 2541.84623125653 17 19 14
-1392.01203366992 -401.044255087488 2538.83925276666 16 18 13
-1398.84358873461 -400.944787407014 2548.06404492587 14 19 13
-1408.05090391463 -402.309496419385 2531.80211252052 3 8 2
-1416.33820207473 -403.090381583947 2525.73128737773 7 12 6
-1133.79160456299 -387.110084518513 2674.82616003825 25 24 19
-1141.40292274847 -388.251788261299 2661.786353178 25 26 20
-1149.21838631087 -390.347268790477 2631.5914596371 22 25 18
-1157.04656749258 -391.723785590188 2614.49397899858 20 23 16
-1164.13991172697 -389.732716670095 2657.9448839785 16 21 14
-1171.32171584258 -388.854192335716 2681.23273622723 17 20 13
-1178.6968915683 -388.928773367494 2687.36684452957 16 19 12
-1185.94604492473 -388.77394272129 2697.54706419258 16 19 12
-1193.13448994232 -388.615192348556 2707.73484957491 17 20 13
-1200.18092038968 -388.281376601259 2720.96343833965 17 20 13
-1207.80718120562 -389.201651102766 2711.9519319942 16 19 12
-1215.21486363089 -389.665283999775 2711.02871798203 15 18 11
-1222.90317951498 -390.589262907348 2702.0097175551 14 17 10
-1230.7090768955 -391.631223785518 2690.96073988874 12 15 8
-1237.55207082336 -391.228881303528 2705.22198269515 12 15 8
-1244.57276292905 -391.16972393038 2713.41559072738 12 15 8
-1258.12385391539 -390.632954801004 2736.91718072784 10 13 6
-1267.18601557027 -393.081751389929 2701.52872105223 10 13 6
-1275.18601995835 -394.190743865065 2689.44800940602 11 14 7
-1281.76787915157 -393.77159139654 2703.74203628373 14 17 10
-1287.07855590945 -392.165697779725 2738.3465172812 12 15 8
-1295.80412787411 -393.984192129925 2714.0839212856 12 15 8
-1305.75429682574 -396.820312269461 2672.5393006941 12 15 8
-1314.29766269603 -398.239762662085 2655.35268229865 16 19 12
-1321.73194042071 -398.64865219194 2655.43393255257 15 18 11
-1333.67936736357 -402.772014013582 2592.48034493336 12 15 8
-1341.94716349115 -403.731169729667 2583.38912143477 9 10 5
-1350.25655221483 -404.69287312289 2574.29247386655 10 11 6
-1356.98837303094 -404.448692575983 2585.54494563931 10 12 7
-1366.2472922838 -406.078623762273 2565.24628314239 11 13 8
-1374.65725498366 -407.04644811071 2556.13734092459 12 14 9
-1391.69366484354 -409.050947178737 2536.88445418753 11 13 8
-1399.38169299103 -409.475315261682 2536.93407865106 8 13 7
-1406.28639158005 -409.407837780426 2545.14189980897 11 16 10
-1418.72750494333 -412.78650589279 2496.23356263716 19 24 18
-1125.76269815633 -398.440961787501 2603.29920257126 126 127 122
-1133.35703911976 -395.77992257592 2656.76365383522 23 24 18
