ply
format ascii 1.0
comment KinectMotionCapture
element vertex 764
property float x
property float y
property float z
property uchar red
property uchar green
property uchar blue
end_header
-729.973496749507 23.2870710253145 2238.21128744111 145 149 148
-730.201116795398 23.2270122629747 2229.25062105478 144 148 147
-731.426904776906 23.0977249690996 2220.31192348853 146 150 149
-729.65800786727 23.1753643577383 2211.30425721393 137 141 140
-721.90095715053 23.6667253108365 2202.12031227106 140 144 143
-723.127149360124 23.5367752237359 2193.16510441453 135 140 136
-721.35951927118 23.6135640514568 2184.11633792021 127 132 128
-722.585627517819 23.4832611986267 2175.16403285416 137 142 138
-709.842098107298 24.3177794808351 2165.67794644468 122 127 123
-696.102689014109 25.2205269727055 2156.0793853681 154 159 155
-682.365221737732 26.1225624357707 2146.40416684197 113 118 114
-679.603387455673 26.266312283507 2137.16675527198 107 112 108
-698.7878109105 24.8950343063974 2129.00235463245 140 145 141
-746.896670311267 21.5281321049258 2122.45799150089 133 138 134
-773.055802032283 19.6767945372977 2114.9674864225 129 134 130
-780.261837371512 19.1333666654412 2106.52295383963 130 135 131
-780.486039698805 19.0714419160263 2097.69386018252 119 124 120
-785.696328706183 18.6655639169647 2089.18137464712 121 126 122
-788.911316221156 18.3971836513873 2080.56484473289 150 155 151
-791.129119961088 18.1974666752669 2071.89659946883 138 140 139
-783.376748247623 18.6846110016025 2062.52525537993 145 147 144
-777.619164973804 19.033920301865 2053.25899581367 161 163 160
-603.777245863951 23.8461874671506 2477.67383653028 174 176 171
-596.011464452632 24.3226773219995 2468.8151499364 172 176 177
-599.248188768862 24.0643970093481 2459.36923986847 154 158 161
-595.484109720737 24.2732240948581 2450.26473879574 189 193 196
-620.720196220907 22.5467874058554 2439.86666085488 181 185 188
-633.953898137691 21.6214888590706 2430.09763481158 203 207 210
-644.186226147612 20.8965551532966 2420.51402436626 190 194 197
-651.417805278321 20.3718048836236 2411.09120649449 192 196 199
-670.645074136869 19.0472755641755 2401.31177894922 186 190 193
-697.866759640797 17.1901586985282 2391.39494763398 201 205 208
-705.093226097683 16.66616937763 2382.17276781466 181 185 188
-705.322228503154 16.6085034680953 2373.16064328823 182 186 187
-707.550205530419 16.4174516832053 2364.10409472792 194 198 197
-716.773441963482 15.7603633311084 2354.92396405396 190 194 193
-729.992564270236 14.837220743752 2345.72707458038 197 201 200
-735.215942013852 14.4466322435519 2336.71012778896 169 173 172
-748.432014239347 13.5239265555677 2327.63291516595 175 179 178
-750.656413594867 13.3329569724954 2318.7162826732 181 185 184
-752.880302857279 13.1419012545697 2309.81016911291 164 168 167
-750.109308604819 13.2830331422023 2300.92794995414 151 155 154
-754.331085180959 12.9587878574172 2292.02944369508 154 158 157
-751.560448701014 13.0994943910541 2283.13278483467 154 158 157
-745.79399862644 13.4391004571132 2274.20265197267 169 173 172
-743.024413430925 13.5791819993845 2265.26423420728 156 160 161
-745.248352372648 13.3871196058203 2256.36442290491 148 152 153
-740.482106300242 13.6594308672666 2247.37875861585 153 157 158
-734.71817047586 13.9977073588331 2238.3489325518 159 163 162
-731.950257836129 14.1366534000915 2229.3439262988 151 155 154
-731.179492333558 14.1427000944102 2220.36644283893 143 147 146
-726.415916634039 14.4136520865416 2211.2842764363 133 137 136
-722.650902735791 14.6179896861497 2202.20216729246 139 143 142
-723.87734417727 14.4908060112244 2193.24951373905 154 159 155
-720.113085840782 14.6945973492573 2184.13728809061 149 154 150
-715.351718022371 14.9642563167781 2174.96744169552 130 135 131
-706.59924916754 15.4982936664085 2165.6162218936 130 134 133
-700.841540430857 15.8333218252158 2156.3395318609 123 127 126
-686.104980534637 16.7632387959593 2146.63408912773 117 121 120
-679.351932294857 17.1634264246046 2137.22051628879 97 101 100
-691.5544793757 16.3071237340906 2128.70918914604 109 113 112
-737.672275563393 13.2041132550923 2122.04017191633 125 129 128
-764.831423825412 11.3580187970489 2114.57934766825 115 119 118
-774.033473969217 10.7016642807935 2106.22803850825 129 133 132
-777.250153704589 10.4416681677075 2097.56369780416 122 126 125
-783.458239803846 9.98359324052922 2089.1059621708 146 150 149
-786.673842029646 9.72357639352714 2080.48371201095 136 140 139
-786.897583673842 9.66142167914863 2071.67237652652 134 136 135
-780.141886216294 10.0607766168183 2062.36145021589 144 146 143
-784.35400455471 9.73442427920809 2053.82883416578 151 153 150
-605.521461062561 14.4357873764107 2477.62534991487 186 188 183
-592.753425760264 15.2101861726115 2469.03248697527 169 173 172
-591.989801137266 15.2157872235182 2459.77543470679 177 181 182
-593.226467332216 15.0932143899116 2450.41878834529 177 181 182
-631.465484798139 12.6032763012071 2439.44473787762 198 202 203
-645.699566247688 11.6495629390922 2429.66439118978 188 192 193
-653.931860967504 11.0798738045013 2420.19005138741 191 195 196
-660.163483364248 10.6381525243168 2410.82999500059 188 192 193
-683.390670101604 9.11000319156574 2400.94326098717 193 197 198
-703.615484630215 7.77418684264047 2391.27233567789 177 181 182
-709.842483713122 7.33315624872588 2382.09371601762 196 200 201
-709.071627296155 7.33918963513813 2373.11977151828 206 210 211
-712.298675362301 7.08966301059299 2364.05211707187 189 193 192
-719.523506886218 6.58479425154979 2354.92369107166 187 191 190
-730.744568417478 5.82480377226974 2345.76747004097 180 184 183
-739.965647798593 5.1926124084844 2336.69837689813 178 182 181
-748.18608318806 4.62436251983889 2327.68908616025 183 187 186
-753.408142050427 4.24746874415077 2318.74771494556 187 191 190
-753.633933996348 4.18927711217865 2309.8605018197 172 176 175
-752.860543389699 4.19463787867486 2300.97555523642 163 167 166
-752.087535550172 4.19977356829143 2292.08473190599 162 166 165
-749.316812225978 4.33210805782852 2283.18247796351 154 158 157
-744.549028099752 4.5914564144767 2274.25233236532 157 161 160
-741.77928707448 4.72321428807809 2265.31106765229 150 154 155
-741.007168558219 4.72743363312853 2256.3751777994 140 144 145
-741.233960404058 4.66785044217052 2247.44739097207 141 145 146
-736.468203180772 4.92603648193873 2238.43677897898 145 149 148
-733.699926565066 5.05673677611754 2229.43714451985 138 142 141
-728.935182658881 5.31426605349691 2220.37689861503 131 135 134
-725.169624246074 5.50791954709223 2211.31392400452 134 138 137
-722.402802564779 5.63774484155155 2202.2564861611 141 145 144
-718.638280708524 5.83078476714255 2193.1523405276 131 136 132
-713.876267249307 6.08699880082661 2183.99329187737 125 130 126
-709.114705770817 6.34286306584314 2174.80687791167 129 134 130
-705.351976079589 6.53493821132833 2165.63165235401 129 133 132
-701.589794999739 6.72668724370432 2156.43463500799 136 140 139
-690.843094486216 7.36196045373122 2146.90794760144 123 127 126
-681.095849966999 7.93325585540405 2137.36784982965 110 114 113
-693.299412576568 7.11001274642614 2128.86165392703 119 123 122
-732.437198136814 4.57680339782257 2121.83165812468 114 118 117
-765.58414035656 2.42485924982822 2114.68632600417 107 111 110
-774.786811835451 1.79336726001786 2106.33742838268 117 121 120
-778.003419186273 1.54178871754909 2097.67563006832 133 137 136
-780.222553786903 1.35342864541749 2088.96756432666 156 160 159
-780.446740946398 1.29149292933956 2080.13905170446 138 142 141
-776.682120793131 1.48229330528443 2071.03634320281 130 132 131
-777.903617976268 1.35676667506468 2062.26938281203 150 152 149
-785.107422202756 0.851999870882747 2053.95356112097 152 154 151
-599.262454735388 5.52633629025806 2478.01509647989 174 176 171
-589.494926877322 6.08073461716518 2469.24959907821 151 156 152
-588.731429917354 6.08320319712352 2459.98419389015 151 156 152
-590.96851660371 5.90174060924895 2450.57257964798 184 189 185
-626.210334943077 3.69939331902946 2439.72376120516 187 191 190
-649.446317114826 2.23274765495626 2429.55930904915 206 210 209
-657.678935284033 1.68478183094462 2420.0956525419 194 199 195
-667.91041931717 1.01460012202839 2410.60381611037 184 189 185
-687.139378345758 -0.205916013608254 2400.87001221083 209 213 212
-704.366019803274 -1.30358241215467 2391.29997348977 191 195 194
-712.592946318611 -1.85064378408778 2382.06906245196 197 202 198
-713.820970774888 -1.96973806709339 2373.0539001742 179 183 182
-712.050086307336 -1.90568151292492 2364.10933034669 177 181 180
-715.277192449356 -2.14723669827274 2355.05728999963 177 181 180
-726.499604048909 -2.87731012909895 2345.8897510339 171 175 174
-741.717712172253 -3.85131224422031 2336.72728564295 166 170 169
-748.939378644728 -4.33670682881601 2327.73414589788 178 182 181
-754.161746203611 -4.70000594745948 2318.7953066497 171 175 174
-755.386564268695 -4.81932694076889 2309.90521782323 174 178 177
-757.610513551968 -4.99973338723636 2301.01751759552 171 175 174
-750.842867258049 -4.63163325877952 2292.14003419636 162 166 165
-747.073100586912 -4.44673254065642 2283.23213484339 167 171 170
-743.303656606464 -4.26213966813188 2274.30196829135 170 174 173
-744.52922428421 -4.3823310768672 2265.39097220842 163 167 168
-739.761875078656 -4.1373423950086 2256.41908530257 162 166 167
-735.994069727814 -3.95357903141741 2247.43330955439 145 149 150
-734.223898414913 -3.89177549412872 2238.45844805664 122 126 125
-731.455537059849 -3.76937278062028 2229.45321620206 129 133 132
-729.686228686278 -3.70804969619692 2220.45343696083 136 140 139
-722.925076312895 -3.34301385803465 2211.31885845204 148 152 151
-718.161414579017 -3.09991467419307 2202.20082358154 137 141 140
-707.409071609743 -2.4926642869908 2192.87389893159 125 130 126
-704.643689916163 -2.37181258466038 2183.75054622776 99 104 100
-706.869206852938 -2.55478643321241 2174.78949520374 111 116 112
-709.094675411094 -2.73784806823474 2165.83956551358 118 122 121
-703.335859185173 -2.43558055563589 2156.57098413807 100 104 103
-689.594668993281 -1.64843572580417 2146.91790933378 105 109 108
-677.850962514383 -0.983240711021183 2137.28163474883 119 123 122
-679.080223776114 -1.1066961807949 2128.22277591116 124 128 127
-724.207976062261 -3.89661225688792 2121.46679406931 143 147 146
-758.35578479076 -6.01861230360978 2114.35376990567 107 111 110
-767.559395724772 -6.62539084573194 2105.98536573212 102 106 105
-773.769469106025 -7.05038417636566 2097.48548070454 169 173 172
-775.98904270686 -7.23316681554989 2088.766245932 169 173 172
-777.210799421261 -7.35552151171964 2079.99254793885 125 129 128
-773.446094726563 -7.17556207634959 2070.88150344214 131 133 132
-777.659555106973 -7.4795920055043 2062.32040382483 148 150 147
-786.858284638654 -8.08586186471361 2054.1526527372 163 165 162
-812.008760574127 -9.65873257922667 2047.26541955232 148 150 145
-859.87614061369 -18.4287691086227 2591.90900199586 195 197 192
-575.75653155451 -2.36185647398199 2488.68527337896 196 199 192
-579.996041840249 -2.6551985359301 2479.11752902816 189 192 185
-575.231332013287 -2.42163656971123 2470.0395417247 155 160 156
-571.467629230968 -2.24691044825215 2460.88371989196 185 190 186
-578.707609487005 -2.71606898263765 2451.19224706307 206 211 207
-621.954569953442 -5.2908625145755 2439.9587832698 209 214 210
-640.191703665049 -6.4023924154849 2429.9884830133 184 189 185
-654.426076036124 -7.27959578709886 2420.26959185138 196 201 197
-671.658808573978 -8.33178699097137 2410.51964515996 193 198 194
-686.888973846401 -9.26664061830784 2400.92797924576 0 2 0
-694.118194892851 -9.73387254256183 2391.65908224509 130 135 131
-704.345880893939 -10.3761545732103 2382.34564258895 192 197 193
-711.572970558342 -10.8430966510116 2373.16035859699 198 203 199
-714.800498584901 -11.076541544286 2364.10053774765 189 193 192
-716.02858028137 -11.1933509705262 2355.0949164163 188 192 191
-724.252926274593 -11.7184604505685 2345.97910658477 181 185 184
-737.473548386934 -12.5349058378939 2336.83816274911 190 194 193
-743.696712515006 -12.9430753520837 2327.84471010533 197 201 200
-754.91549395753 -13.6424622647749 2318.84267428343 183 187 186
-763.135234028153 -14.1668663167266 2309.91696208546 175 179 178
-767.356980818612 -14.4582025950798 2301.04563032229 173 177 176
-757.590771926824 -13.9346450915366 2292.19546864846 170 174 173
-748.824925138079 -13.4697592333267 2283.29285530201 157 161 160
-746.054170593907 -13.3543718135489 2274.37362508612 154 158 157
-750.276075071465 -13.6463052489004 2265.49548918369 163 167 168
-744.509414488088 -13.3568972236502 2256.52900973309 164 168 169
-739.742037878851 -13.1259306989075 2247.54313794575 154 158 159
-733.976745007027 -12.8372062645047 2238.51314481414 152 156 155
-733.205484871963 -12.8392429923025 2229.54631394953 159 163 162
-730.437176005738 -12.7253244411384 2220.52992100921 163 167 166
-726.670878130131 -12.553628613047 2211.47227071646 164 168 167
-720.908227031206 -12.2661626699741 2202.33767667731 150 154 153
-708.158076512104 -11.5730195902578 2192.95856832385 154 159 155
-703.396010919113 -11.3444004397227 2183.77192798184 46 51 47
-710.612858825553 -11.8116993487502 2174.98654423262 130 135 131
-710.841855214915 -11.8732423876816 2165.97049187361 118 122 121
-702.088253579426 -11.413544649695 2156.58372491441 99 103 102
-691.340064763962 -10.8385125910964 2147.05984798293 87 91 90
-685.582871376666 -10.553489960486 2137.70932422598 95 99 98
-685.813642289504 -10.6160681066521 2128.62280592383 135 139 138
-710.988750372373 -12.1251392693258 2120.84136613333 151 155 154
-753.121627245839 -14.6166195472939 2114.13144205359 106 110 109
-768.312397614771 -15.5455797227743 2106.09511816228 127 131 130
-776.517860483733 -16.0695182016785 2097.7185835725 178 182 181
-778.737383824248 -16.2466081576025 2089.00742551221 160 164 163
-777.964060297309 -16.250463168928 2080.10996202898 107 111 110
-771.206885739936 -15.9080631867836 2070.79561205176 114 116 115
-773.426358635934 -16.0855373391426 2062.08601301741 126 128 125
-777.639833333763 -16.3784675558954 2053.53627184207 145 147 144
-785.841526638927 -16.9021033263706 2045.31671467721 143 145 140
-552.200283958836 -10.5591511121774 2461.88225110108 65 70 64
-561.442698986281 -11.1212904615426 2452.04517865854 0 2 0
-589.689794073297 -12.7424923445878 2441.42258260231 17 22 18
-619.933315797375 -14.4742816020232 2430.87030106852 32 37 33
-641.171442304614 -15.7037243786519 2420.82733571951 30 35 29
-676.407576448774 -17.7122767124964 2410.39943262691 25 30 24
-702.638871401661 -19.2186230929821 2400.45896342623 19 24 20
-701.868027439183 -19.2213407987332 2391.47513591359 12 17 13
-701.097099951385 -19.2241906823916 2382.48510614906 15 20 14
-708.325164750611 -19.6722344226485 2373.29132687773 7 12 8
-712.552792692 -19.9533126780464 2364.20115363783 7 12 8
-713.780848567408 -20.0676138017811 2355.18990991682 1 6 2
-726.004520972789 -20.7932855436466 2346.002518149 2 7 3
-731.229619577139 -21.1297673678201 2336.97640974026 2 7 3
-733.455869258991 -21.2996001955542 2328.01015510453 3 8 4
-745.675736693006 -22.0246565719619 2318.97213553089 0 2 0
-762.890414462118 -23.0268961199184 2309.97214119982 0 2 0
-766.113286871916 -23.2519142743779 2301.10332596457 7 12 8
-755.347042555809 -22.7004687050724 2292.25047040203 88 93 89
-746.580891654937 -22.2604354314117 2283.342382808 141 146 142
-742.810842761761 -22.0979860930727 2274.4120823193 185 190 186
-749.031296757924 -22.4898891592749 2265.542016678 182 186 185
-746.260739637562 -22.3831970424217 2256.60573410913 174 178 177
-742.491843133556 -22.2213802405438 2247.63903987888 155 159 158
-737.724577872262 -22.004457807786 2238.63373676388 147 152 148
-739.94906284559 -22.1752162627858 2229.73545918328 157 161 160
-737.180041168852 -22.0694205794957 2220.73820363719 164 169 165
-731.415756073735 -21.7979798443864 2211.6502651956 151 156 152
-724.653894331425 -21.4716024816391 2202.50190278831 155 159 158
-715.896084511495 -21.0350996225154 2193.25470138053 179 184 180
-708.138034210791 -20.6543052284936 2183.99110578612 0 2 0
-717.351709211391 -21.2127275478388 2175.29060900244 187 192 188
-714.585589370958 -21.1084621564496 2166.17829653143 169 173 172
-706.829093169313 -20.7285210130312 2156.8437204191 149 153 152
-694.083504505079 -20.0731740394031 2147.24573642651 128 132 131
-691.319897152215 -19.9699182861366 2138.04346795416 132 136 135
-683.566718737686 -19.5912505558855 2128.57785393487 138 142 141
-705.750518368137 -20.8663206960809 2120.63387764329 169 173 172
-738.906800398954 -22.7466593745281 2113.41514238616 84 88 87
-757.092622478774 -23.799784457643 2105.51298904839 158 162 161
-767.294851758479 -24.4119417744685 2097.22683184847 125 129 128
-773.505417155984 -24.8036955024618 2088.74340724659 129 135 133
-779.715129829432 -25.1953422491428 2080.29342492315 171 175 174
-776.946991210071 -25.0919123371037 2071.25911625273 139 143 142
-775.176787229003 -25.0436825477866 2062.28028188317 136 140 139
-776.398519203324 -25.1605314120581 2053.51346255626 132 134 131
-774.628387252241 -25.1126252615198 2044.52214071873 137 139 134
-666.923451160196 -26.2653675518663 2419.88682246958 12 15 8
-694.159463244968 -27.7541010649349 2409.8149252053 26 29 22
-727.39209099412 -29.5595749341648 2399.69271886571 27 29 24
-713.618872549028 -28.8769235086676 2391.16989739044 22 24 19
-708.847504951514 -28.6709758814389 2382.32246867348 24 27 20
-707.076283162912 -28.6239574589797 2373.37278828757 29 31 26
-712.304261297612 -28.9471495690767 2364.25773211721 31 33 28
-701.535374154193 -28.4247698523471 2355.47695872733 26 28 23
-725.756970693891 -29.751844856019 2346.05862958321 22 24 19
-733.981282208009 -30.2332137770013 2336.9911325581 19 21 16
-691.228310559313 -28.0221028133447 2328.52730775006 16 18 13
-704.451408447792 -28.767912194636 2319.36544550945 13 15 10
-736.661275189427 -30.5156908953044 2310.1700691579 8 10 5
-747.880692689712 -31.1549580097272 2301.20772600432 3 5 0
-757.100214932448 -31.6885136449078 2292.3053986723 1 3 0
-747.333888973588 -31.2205626334097 2283.40010641664 1 3 0
-741.565378678288 -30.9638120492422 2274.46153028243 0 1 0
-746.787383250109 -31.2867042364645 2265.58026367705 7 9 6
-745.015644251879 -31.2409960776463 2256.64939077491 93 95 92
-743.244186053001 -31.1954677089427 2247.70735021658 144 146 143
-739.475476966554 -31.0449243651576 2238.72122648781 183 185 180
-742.69867227737 -31.2627661801007 2229.84749656289 183 185 182
-734.935848015448 -30.9023301866105 2220.74862462823 184 186 181
-730.169806300338 -30.6999580113322 2211.67987814392 178 180 175
-729.398881647797 -30.7080259399982 2202.69345962112 169 171 168
-725.632604171932 -30.558700141116 2193.61099282128 190 192 187
-721.866642046637 -30.4096202146348 2184.50661224167 0 1 0
-722.094817483908 -30.4707271237035 2175.52311381699 148 150 147
-719.328125164358 -30.3745769461126 2166.42446232145 190 194 193
-714.565568671445 -30.173758469081 2157.22715782691 149 153 152
-701.818441491222 -29.5538707830063 2147.6512309169 125 129 128
-694.063347625607 -29.1966000581336 2138.2375049051 129 131 128
-685.311668537724 -28.787360643647 2128.73074465201 160 162 159
-695.5217436607 -29.3735028274277 2120.16587776377 172 174 171
-721.696230350897 -30.7969112085047 2112.53472469984 92 97 93
-743.875725396807 -32.0101154398444 2104.81608854402 58 64 62
-757.072813981462 -32.7518438067469 2096.67514187703 86 92 90
-769.270495436742 -33.4409015934464 2088.54287972195 79 88 85
-777.475970729261 -33.9205193120033 2080.21344779547 169 175 175
-778.697990771309 -34.034191969961 2071.44810493785 173 179 179
-776.927265654252 -33.9912145161822 2062.47467402642 153 159 159
-777.151642002589 -34.0528554901806 2053.63908372026 139 143 142
-753.022568636642 -39.5757610143616 2443.20522288918 29 32 25
-697.222819828773 -36.8185982669617 2436.79755108818 35 38 31
-692.679640236468 -36.684666221661 2418.94509506696 24 27 20
-683.907284622891 -36.2916490234451 2410.22902689903 15 18 11
-623.127140089559 -33.2891664444968 2403.17641978726 14 17 10
-719.37113690525 -38.1659445532055 2391.04526472245 18 21 14
-698.598465307345 -37.1714049789433 2382.65374361073 24 27 20
-712.827172598764 -37.9324487563565 2373.28098661266 27 30 23
-685.289083367317 -36.6477669409026 2355.8411731585 21 24 17
-755.501903424223 -40.2131883049197 2345.61981016766 20 23 16
-700.744872442461 -37.5182235419524 2337.50049199702 18 21 14
-734.960895336557 -39.2794207286994 2328.09949946974 17 20 13
-679.213549389729 -36.5370193713435 2319.62789268194 14 17 10
-707.429750267159 -37.9975254444427 2310.38529214419 16 19 12
-743.637166078134 -39.8570420519587 2301.27384653384 13 16 9
-742.864337367298 -39.8663511209298 2292.36051256438 13 16 9
-738.094417173943 -39.6759855228139 2283.43045870781 14 17 10
-740.319756150181 -39.8354626850027 2274.51091671842 12 15 8
-726.55858268904 -39.1962682518931 2265.47067477273 0 1 0
-720.792164404441 -38.9569055967146 2256.44099058245 0 2 0
-724.017260768403 -39.1667983425457 2247.50149601314 5 7 2
-733.235226529063 -39.6758313119788 2238.67700715418 9 11 6
-740.454394092509 -40.0849516186175 2229.86343087589 11 13 8
-729.922327520212 -39.6575760539248 2211.73420582145 83 85 80
-734.144380082849 -39.9173111819241 2202.88485430372 176 178 173
-734.371662231593 -39.977940195969 2193.93678181607 179 181 176
-723.61557387285 -39.4914113113312 2184.62661850949 4 6 1
-720.848316294321 -39.4032357245025 2175.5414967917 69 71 66
-722.07484242821 -39.5141361374318 2166.59369208991 194 199 195
-717.311701572762 -39.3269364582607 2157.4046036913 184 188 187
-701.568714306311 -38.5935664765669 2147.70530538209 138 143 139
-690.818796198491 -38.1092054549973 2138.15165961012 144 146 143
-681.068406763848 -37.6749815576954 2128.58729920327 130 132 129
-691.279524907517 -38.2336351106194 2120.01118262782 66 68 65
-712.466467091131 -39.3376100325771 2112.09407088934 70 75 71
-732.652673104691 -40.3913139197646 2104.23501072947 45 49 48
-748.844935349208 -41.2461167646192 2096.24470126513 65 71 69
-758.050885680623 -41.7535895392263 2087.90081701005 82 91 88
-765.260155240727 -42.1617627514591 2079.47510590801 85 94 93
-771.470916450396 -42.5202580379033 2071.0197386415 140 145 148
-769.700534989209 -42.4827212728588 2062.02703467566 174 180 180
-770.922785071459 -42.5937436791884 2053.24622189788 183 189 187
-765.163247248077 -42.3586929514702 2043.93367084416 151 156 149
-676.9628874396 -44.8963407461863 2437.73344957919 26 29 22
-659.649009519114 -44.2198897519163 2411.14323617397 22 25 18
-658.112676999002 -44.2447266298343 2392.94544157477 19 22 15
-715.350697766381 -47.0070586051913 2382.24307428392 23 26 19
-666.577076495611 -44.7439791933776 2374.47527240505 21 24 17
-696.266848543108 -46.2971744437687 2346.64904516258 21 24 17
-721.490451577362 -47.5399358560879 2337.26752236387 19 22 15
-678.962419130707 -45.6257447065401 2319.68415989083 19 22 15
-739.16632635913 -48.5219937982156 2310.26402055733 15 18 11
-756.384109358649 -49.3845629550218 2301.29263037386 16 19 12
-745.616226228573 -48.9242357792915 2292.41531421326 15 18 11
-732.851113998645 -48.3699773106731 2283.47183775019 14 17 10
-726.083235064003 -48.0994255925369 2274.48938199809 14 17 10
-720.315940094447 -47.8764022988416 2265.47641774496 14 16 11
-711.551838935124 -47.5122279938273 2256.3974428442 12 14 9
-714.777791614219 -47.7140960958472 2247.43309675756 17 19 14
-712.00934805679 -47.6332421916986 2238.38646574468 23 25 20
-716.233732105926 -47.8822769345928 2229.45748090731 23 25 20
-710.46906667941 -47.6604532243428 2220.33113219438 21 23 18
-722.68340883851 -48.2860575174726 2211.61584349252 11 13 8
-742.885657237273 -49.2876369450047 2203.18575857534 14 16 11
-742.113746118564 -49.3010615317878 2194.23214300075 19 21 16
-736.349000534084 -49.0795765955017 2185.10856338939 10 12 7
-724.594036884653 -48.5764744988408 2175.73821513433 12 14 9
-705.851749731619 -47.7451366635092 2166.03332652704 18 20 15
-707.079563305467 -47.8535920790843 2157.04715424983 3 5 2
-688.341166871609 -47.0234701210661 2147.18889734356 7 9 4
-681.584164277644 -46.7571075391738 2137.7861833364 16 18 13
-685.80772661427 -47.0069063307447 2128.88849349387 16 18 13
-687.036450222981 -47.1160285239436 2119.85671317897 26 28 23
-750.368347370942 -50.191486329046 2105.32528167037 143 145 140
-759.575251043884 -50.6741293148226 2096.96147305258 117 119 116
-763.791988241172 -50.9225311934179 2088.33203319652 130 135 131
-768.008391211552 -51.1708772361038 2079.72504082638 120 122 119
-769.230967358035 -51.2788579570705 2070.93475025631 85 87 86
-762.472730245327 -51.0129394564157 2061.57980869803 99 101 100
-760.702954103588 -50.9809880662079 2052.55744960589 109 111 108
-629.683555861236 -51.8752311693101 2439.85663830568 37 40 33
-647.927096023618 -52.7411837998249 2429.90895850722 30 33 26
-666.399326248064 -53.6664153392215 2410.950304942 20 23 16
-664.093355888693 -53.7124918038924 2383.70165598719 29 32 25
-692.787575478147 -55.14250060652 2355.79984906703 22 25 18
-699.016816069732 -55.4700054829237 2346.65551865467 22 25 18
-717.243067877492 -56.3322601142888 2337.37817348344 20 23 16
-701.474966424271 -55.6790440832284 2328.57436145462 20 23 16
-713.700628213668 -56.2735449057815 2319.45005889859 22 25 18
-701.933499067494 -55.7992204192549 2310.52428121847 17 20 13
-742.145123023746 -57.6394550068165 2301.38651048828 18 21 14
-740.372560074349 -57.610036478477 2292.47034990145 16 19 12
-740.59920456514 -57.6697004774263 2283.54823545445 15 18 11
-741.825126677816 -57.7738717480202 2274.63126322889 16 19 12
-742.051712079162 -57.8336775656818 2265.7113059281 22 25 18
-722.294222100174 -57.005377902095 2256.57263660703 20 23 16
-732.513551203365 -57.5096044779289 2247.73404678532 19 22 15
-721.751204964052 -57.0817362142494 2238.60547787299 21 24 17
-716.984172189397 -56.9204533156324 2229.53134692822 21 24 17
-724.205270119643 -57.2914721691422 2220.69256042235 21 24 17
-747.40688421365 -58.3713507223052 2212.2866125381 20 23 16
-739.642770948762 -58.0772345831887 2203.15758536463 17 20 13
-769.831112706795 -59.4660891831551 2195.13014488118 18 21 14
-749.084390992322 -58.5966282118807 2185.59011265885 16 19 12
-733.333356496251 -57.949220041726 2176.11302878766 18 21 14
-701.60839557164 -56.5949172295458 2165.93412189861 25 26 20
-667.891160272819 -55.1534895893473 2155.49742339531 25 26 20
-640.168671423897 -53.9785113635085 2145.13746973401 8 9 3
-654.378900656959 -54.6596826011223 2136.58198503801 9 10 4
-692.544344887444 -56.3999504324854 2129.2883696679 20 21 16
-685.787493778936 -56.1530443427567 2119.85884420151 26 27 22
-723.945693480018 -57.8914653845117 2112.85967786559 27 28 22
-744.134108523807 -58.8348609313968 2105.03272175205 50 51 45
-758.331980898697 -59.5131481662088 2096.95395771179 176 177 172
-766.540566932763 -59.9266353008995 2088.57395315723 96 98 93
-771.754808693747 -60.2078032201898 2080.04088439662 80 81 76
-768.986278472237 -60.1367168510013 2070.98715288946 124 124 122
-755.243851661517 -59.5818466233149 2061.13301085414 124 124 122
-750.481594875694 -59.4233694657848 2051.8692051322 120 121 116
-619.422251647542 -60.6673737115593 2440.35403567671 52 55 48
-630.663640912042 -61.1903472026116 2430.66715178769 33 36 29
-626.89537746032 -61.0830912006266 2421.61713249635 17 20 13
-617.124853667691 -60.7241988247408 2412.75880736296 20 23 16
-612.357601135777 -60.5755176886835 2403.67973449104 17 20 13
-652.605837235679 -62.314292290865 2393.21064948543 20 23 16
-621.830414144789 -61.0753819383842 2384.91410178007 26 29 22
-753.540613604013 -66.7436130661877 2354.6793219606 16 19 12
-707.767147008571 -64.8776952148587 2346.56245111516 20 23 16
-682.998091330999 -63.8919241515161 2337.90275213145 22 25 18
-719.222798462542 -65.4575694688482 2328.43103817114 23 26 19
-696.456115576004 -64.5562281450741 2319.6466682559 28 31 24
-721.67830794859 -65.6609415537643 2310.46850431622 26 29 22
-739.899408977122 -66.4725004962281 2301.44690256687 23 26 19
-748.122419576414 -66.8661015802773 2292.52448814338 24 27 20
-749.348160657047 -66.9674519092428 2283.62694497533 24 27 20
-751.57287779539 -67.1105177300115 2274.74000301125 22 25 18
-735.809124846473 -66.5033086290783 2265.71683767195 25 28 21
-732.039060681917 -66.3967173392184 2256.73648275949 27 30 23
-718.277457176864 -65.8738860188624 2247.59743145933 23 26 19
-715.508280779443 -65.8095298099186 2238.56172841751 25 28 21
-714.737760724165 -65.8285689017992 2229.54771684201 28 31 24
-733.947397374523 -66.6794901988268 2220.96594089268 28 31 24
-731.177803923647 -66.6152180202948 2211.94644751924 23 26 19
-776.353877031377 -68.5456140913427 2204.22480696096 30 33 26
-780.573524865306 -68.7715366179482 2195.51507072704 23 26 19
-752.833178314881 -67.6688873789354 2185.77539660746 21 24 17
-746.068594273501 -67.4387722950607 2176.6300720572 21 24 17
-709.347509999912 -65.9646480550796 2166.29549413566 13 14 6
-666.640456633315 -64.2432096302392 2155.51125113449 28 28 20
-663.877109509986 -64.1810580471075 2146.24535271 14 14 6
-657.120727707096 -63.953396718258 2136.77682161226 14 15 9
-659.349877576163 -64.0986779866899 2127.71425439865 12 13 7
-640.61590158984 -63.3748787494617 2117.56906994048 12 13 7
-690.758189715798 -65.5060807986689 2111.10371619206 15 14 9
-724.923699442677 -66.9739161019894 2103.99194262345 53 53 45
-753.096261068898 -68.1925567028637 2096.70528692568 139 136 129
-769.289589537028 -68.9145061508447 2088.81595349453 154 151 142
-774.504008003697 -69.1817179197948 2080.29096350299 158 153 147
-770.737302938545 -69.0773638440153 2071.17692120106 136 129 123
-757.991357589129 -68.6019340440269 2061.39969649668 153 148 142
-750.235468274361 -68.3332122193744 2051.92198240408 162 157 151
-644.953745249807 -70.8682029487807 2448.42876143734 44 47 40
-658.19625051786 -71.4395271077153 2438.69574036555 37 40 33
-644.41862439989 -70.9502496152247 2430.14688076746 16 19 12
-601.625193508763 -69.3233510895738 2422.63706099064 27 30 23
-598.859408896117 -69.2672539549806 2413.45992729204 20 23 16
-630.110035168897 -70.5445089344092 2403.14271694698 18 21 14
-610.335955021228 -69.8218374225522 2394.53903351536 19 22 15
-581.561861687143 -68.7473808609168 2386.07265660642 24 27 20
-581.799261671744 -68.8095819248158 2376.7274560973 28 31 24
-718.062890717669 -74.1946675630421 2364.38302795663 19 22 15
-732.292511501244 -74.8021669779978 2355.13943263147 12 15 8
-727.519354163226 -74.6662840097061 2346.28672313882 18 21 14
-699.747030596402 -73.6316983833609 2337.72374012946 20 23 16
-667.979016980619 -72.4419395814561 2329.05080686859 23 26 19
-700.205670789794 -73.7524172654121 2319.66887391598 29 32 25
-758.422046434267 -76.076507966758 2310.31704519006 32 35 28
-764.645621016409 -76.3700003238605 2301.43068207851 27 30 23
-747.876508922427 -75.7665000594651 2292.57896597945 25 28 21
-770.093115211943 -76.6836478941982 2283.73710120851 25 28 21
-756.32478676923 -76.1976634669983 2274.82132041253 20 23 16
-743.557770565305 -75.7511837246907 2265.83653335356 20 23 16
-721.798299758493 -74.954973121648 2256.68210677031 25 28 21
-729.021264208073 -75.287709703452 2247.80214998962 24 27 20
-715.259786826788 -74.8037480368707 2238.61643409512 26 29 22
-756.453436659655 -76.4577902273491 2230.40577109134 24 27 20
-713.718498056065 -74.8474699481876 2220.58274485657 20 23 16
-724.936360971237 -75.335370911913 2211.8530103777 8 11 4
-775.335434784293 -77.3961581879244 2195.4178635947 16 19 12
-778.556211162316 -77.5723067356417 2186.68344096223 13 16 9
-744.823653962625 -76.3146183303793 2176.64829038355 20 23 16
-717.087593390511 -75.2906247428353 2166.65665100343 18 18 10
-672.379451683696 -73.6095967998304 2155.81283433139 20 20 12
-658.631827339729 -73.1298521238816 2146.08116586914 16 16 8
-660.861379835679 -73.2695006455554 2137.01823540001 23 24 18
-659.096937293537 -73.2544841355673 2127.7692373889 11 12 6
-693.271955802597 -74.6305947816874 2120.38431454494 19 20 14
-659.56200829274 -73.37931209191 2109.45862099935 24 23 18
-758.839044151872 -77.324028109691 2097.12037992815 102 98 89
-769.044941728953 -77.77039535221 2088.86886557214 123 116 108
-771.26583902476 -77.908073469259 2080.14632597661 128 121 111
-767.499047045101 -77.8145634534644 2071.02403707829 132 123 114
-757.745819197421 -77.4902102511293 2061.45264099536 107 98 89
-757.971488440104 -77.5511601017962 2052.56726197435 113 104 95
-811.074319876436 -79.6510510102851 2047.75172482165 145 141 132
-632.456270298846 -79.5369344772476 2458.23964327788 35 36 30
-676.729157258539 -81.2066169461467 2446.98941852696 41 42 36
-681.963901441472 -81.4496862442345 2437.69595145746 44 45 39
-636.159244887034 -79.8300036503879 2430.5337038024 26 27 21
-618.380142441024 -79.2341365345748 2422.03955171929 24 25 19
-637.626602841902 -79.9889239888426 2412.12179715149 20 21 15
-635.858780861981 -79.9772522484838 2403.00128791979 21 22 16
-622.085671449558 -79.5283246564018 2394.23257520677 18 19 13
-587.305804065304 -78.3149054451782 2385.96491523033 25 26 20
-579.540172347086 -78.0859458679639 2376.83459916347 30 31 25
-606.784941395773 -79.1310885701581 2366.88741827395 19 22 15
-714.042081779893 -83.0852982861955 2355.54212335256 14 17 10
-676.26528346123 -81.7638810201995 2347.18705587805 11 14 7
-663.495393277891 -81.3523643574309 2338.27705322852 13 16 9
-707.72693744738 -83.0116153908959 2328.66317319832 21 24 17
-722.954377284373 -83.6165333179801 2319.5322862864 19 22 15
-734.180384718561 -84.0758096769107 2310.505645898 19 22 15
-750.403887340864 -84.7160488600704 2301.52473618196 20 23 16
-789.618531783971 -86.1893998516341 2292.62882326002 18 21 14
-749.856055563607 -84.7993573654607 2283.73828772011 17 20 13
-756.079478304416 -85.0764653607374 2274.87545135972 19 22 15
-751.307389320475 -84.9552813844046 2265.95587945505 20 23 16
-735.542327698518 -84.4364282810291 2256.8889917264 20 23 16
-746.988729706556 -84.954458106556 2239.1948077437 20 23 16
-732.226524349158 -84.4728198944579 2230.00102648009 20 23 16
-683.495273791197 -82.7644444974192 2219.98163191503 21 24 17
-807.057698156966 -87.3819675849221 2196.43435316177 17 20 13
-772.319133886946 -86.1803434416962 2186.53975976359 17 20 13
-745.576021548008 -85.2681089513112 2176.73775199946 19 22 13
-715.840444563472 -84.2489547992143 2166.67262080299 20 20 10
-672.127555003282 -82.7273980098865 2155.86783650825 22 22 12
-702.317225641826 -83.8677893088116 2148.06456431587 18 19 11
-650.623331618305 -82.060767352793 2136.60764827587 18 19 13
-698.782195550198 -83.846934995439 2129.79688107994 19 20 14
-697.015323474246 -83.8366821509076 2120.64704759767 17 18 12
-770.571834622587 -86.6377271865637 2097.89719234943 49 40 31
-767.802250598273 -86.5906154633476 2088.85890497805 107 97 87
-766.031037525561 -86.579447614051 2079.87039036058 134 122 110
-763.262192662848 -86.5326077004997 2070.80292214492 143 127 114
-756.502208090456 -86.3428664266122 2061.43448412549 141 125 112
-751.738934117606 -86.2249120465581 2052.17624814698 143 129 118
-770.922484443362 -86.9645753140652 2044.73347643447 146 138 127
-646.449117165901 -89.2730508673121 2448.44838699296 42 43 37
-650.685253150708 -89.4694622399729 2439.11659872063 47 48 42
-639.90849570539 -89.1591045671033 2430.42509584007 30 31 25
-626.130982618725 -88.7479044378976 2421.78798512763 23 24 18
-659.387966733962 -89.9230492990674 2411.390646369 20 21 15
-653.616009615681 -89.7818499131481 2402.4627140401 22 23 17
-618.828793873384 -88.6634914017758 2394.3801844939 17 18 12
-617.062692414455 -88.658076437788 2385.19503808527 22 23 17
-619.29825701592 -88.7874236412524 2375.8988696794 29 30 24
-678.553385090638 -90.8346949864101 2365.35438670124 19 22 15
-689.786991911658 -91.2655779895876 2356.06122254834 16 19 12
-646.007942247226 -89.8474521749472 2347.74047289225 12 15 8
-720.251108174068 -92.394977845267 2337.54346640827 16 19 12
-720.47895088966 -92.4552665677892 2328.57385040509 18 21 14
-731.70668460111 -92.8847003933759 2319.51178373506 16 19 12
-696.936261760963 -91.7710170703314 2310.76790954186 17 20 13
-746.158828615084 -93.4742854614132 2301.59044474879 18 21 14
-739.386489495539 -93.2997259178892 2292.68856425778 17 20 13
-742.612300597393 -93.460274475724 2283.77411724441 17 20 13
-742.838735769897 -93.5203478958201 2274.85974407628 20 23 16
-764.056225284335 -94.2827994105353 2266.1154383589 21 24 15
-770.278299351834 -94.5431031311089 2257.32335595953 20 23 14
-771.726735448997 -94.6958324414661 2239.6576285058 21 24 15
-720.987106199916 -93.0535966687624 2229.84529125492 21 24 15
-752.191177584499 -94.1481927474304 2221.54373227543 18 21 12
-741.653072982981 -93.9019883239661 2203.45596670164 19 22 13
-705.915002247357 -92.7636708473896 2193.44941278387 17 20 11
-711.139043457797 -92.9911385372517 2184.59100676188 17 20 11
-750.324007396124 -94.3492649117223 2176.96950531698 19 22 13
-708.600231923905 -93.0134475518112 2166.458792383 20 20 10
-675.870804723144 -91.9782113073482 2156.08715626832 22 22 12
-630.163233960327 -90.5125820300079 2144.96504896645 18 19 11
-694.308151609005 -92.6990733677834 2138.71130062412 18 19 13
-699.530973635876 -92.9263740262886 2129.90072386486 20 22 17
-703.754461315443 -93.1203596089861 2121.06587980393 20 21 16
-762.566480774256 -95.2841395494252 2088.59703194936 79 69 59
-766.784431661542 -95.4767198615681 2079.98941857077 134 118 105
-765.01326676077 -95.47094779549 2070.99322765057 147 128 114
-758.252617817977 -95.30019072876 2061.63037174838 146 127 113
-752.490762076524 -95.1627103186286 2052.30364947016 141 125 112
-752.716775840489 -95.2233580156548 2043.40512979322 141 129 117
-616.930942971058 -97.4732262478033 2459.09555749943 31 32 26
-602.149922701697 -97.0692517817129 2450.56306361296 34 35 29
-634.416689529014 -98.1252442112669 2439.87729683039 34 35 29
-647.661942570033 -98.5904613089536 2430.15081286254 17 18 12
-663.907943559391 -99.1482596310266 2420.37910767063 21 22 16
-626.110292625329 -98.031717913859 2412.62837784621 20 21 15
-650.361133255044 -98.8371867455302 2402.61782410372 23 24 18
-597.796418755649 -97.3205472133687 2385.77563681318 18 19 13
-670.067964677528 -99.6095328646848 2374.68832205606 30 31 25
-698.310823133921 -100.536121098933 2364.96780605177 20 23 16
-665.528502220764 -99.5777122088149 2356.58094815544 16 19 12
-696.768941015464 -100.596002107295 2346.9492812925 13 16 9
-726.004316220827 -101.551454845393 2337.51494184344 11 14 7
-731.232561177218 -101.765955033644 2328.50616237159 13 16 9
-738.460120460033 -102.041904604143 2319.50759710988 18 21 14
-722.686653657017 -101.609385976472 2310.67651366339 19 22 15
-710.915108555203 -101.300569990153 2301.74561654686 20 23 16
-719.14272805498 -101.607331715392 2292.74563652997 19 22 15
-727.369001681251 -101.913804205943 2283.78924368173 18 21 14
-703.603183776384 -101.237015834629 2274.70526195771 19 22 15
-763.811520798238 -103.139912353286 2266.16925165069 18 21 12
-770.034048661976 -103.383814768438 2257.37704378083 18 21 12
-764.261487179912 -103.259555223722 2248.45454338534 18 21 12
-743.49822942869 -102.675874613908 2239.25394782103 19 22 13
-753.718425903134 -103.042377386214 2230.52933533918 20 23 14
-743.404969685399 -102.886386968528 2203.56466785069 18 21 12
-709.662076667821 -101.907960122266 2193.62430249794 17 20 11
-696.903621667249 -101.5720039712 2184.18624223421 17 20 11
-691.139642036506 -101.450141695244 2174.92575935736 19 22 13
-672.391194535583 -100.93208032197 2165.13459113716 22 24 13
-672.622730399175 -100.993796781672 2156.01910112219 23 25 14
-687.835335868587 -101.512398610869 2147.5606722625 17 20 13
-629.143824029311 -99.7779111586588 2135.74123703037 17 19 14
-727.24202122634 -102.821764335364 2131.3352098797 18 23 19
-596.898100859242 -98.9629919337565 2106.22821230537 19 18 13
-636.072536248821 -100.210466088351 2099.14633763829 22 19 12
-739.361393327935 -103.459291191849 2087.20139184664 100 90 80
-757.555847650674 -104.065477788914 2079.45107346446 129 111 97
-758.779544210996 -104.156053989801 2070.63568087344 145 122 106
-758.007131027466 -104.186061155647 2061.68388263508 153 127 112
-749.250864428574 -103.974082151279 2052.13529038003 142 120 106
-760.454266804971 -104.367154745218 2044.07254325065 140 128 114
-602.6589409055 -106.31897162541 2459.84539394526 29 30 24
-618.91248549502 -106.834834008714 2449.82388630782 30 31 25
-641.169953851346 -107.519946194022 2439.62480763328 30 31 25
-638.400150561071 -107.497057874456 2430.57840549821 17 18 12
-636.631391311142 -107.502549163906 2421.47609968575 23 24 18
-661.885940685185 -108.270906657104 2411.39446511519 20 21 15
-643.102757827638 -107.796108580027 2402.90509737811 23 24 18
-629.325646690403 -107.463088199882 2394.1590089079 17 18 12
-629.559589143549 -107.525335288211 2384.9488912881 17 18 12
-631.794777103665 -107.643945571138 2375.68829659749 29 30 24
-671.048021769254 -108.80434549147 2365.61977602004 21 24 17
-671.279158486634 -108.865851122654 2356.52011239313 14 17 10
-667.508933357961 -108.814879020935 2347.48632891538 13 16 9
-638.731995428339 -108.061490483811 2338.77706574904 12 15 8
-661.970489339306 -108.769560823814 2329.32894588292 11 14 7
-692.206795741486 -109.673241272446 2319.94782358442 13 16 9
-697.437112658806 -109.874640969231 2310.87213100059 18 21 14
-705.66655184972 -110.159939196209 2301.8147522134 20 23 16
-717.894827833325 -110.556989547999 2292.80028500011 18 21 14
-639.133258291004 -108.406381372949 2283.61584389586 16 19 12
-703.353931386566 -110.258818970996 2274.75999143579 16 19 12
-746.571451395253 -111.521847407258 2266.08563505004 17 20 11
-750.796204604207 -111.693789838014 2257.22499795549 17 20 11
-731.030308592505 -111.195577959305 2248.06044267205 17 20 11
-748.24940733926 -111.730356617452 2239.38958472052 18 21 12
-745.477379352949 -111.706913884072 2230.43072670016 19 22 13
-743.704842325937 -111.711437519784 2221.47710849511 20 23 14
-744.930540431888 -111.799566854287 2212.58611582384 18 21 12
-713.181135278046 -110.969459261761 2202.79973363778 18 21 12
-701.419848704547 -110.696662423003 2193.4385478989 16 19 10
-702.64833469245 -110.785539011682 2184.43779279921 16 19 10
-693.886364765379 -110.596694209068 2175.08726664275 18 21 12
-660.151724638994 -109.71443790714 2164.7304139771 22 24 13
-659.385278957019 -109.748582374045 2155.54094279016 23 24 16
-703.565845635335 -111.029839123493 2148.31597607267 17 20 13
-645.867664309877 -109.484649541745 2136.58797644181 15 20 14
-639.110072533372 -109.353066318753 2127.05424924585 16 21 17
-650.561967855083 -109.781658715635 2109.24139855761 28 27 23
-613.851328645228 -108.821789058736 2097.93709960853 28 25 20
-729.131178311454 -112.119344176821 2086.62554328509 125 113 101
-741.338066198894 -112.510742023525 2078.45306618698 114 96 82
-747.554051648983 -112.736416179397 2069.9361306076 145 119 102
-751.772840769696 -112.906808663719 2061.31025495536 151 124 107
-756.9892793622 -113.104563493216 2052.78088896025 141 118 102
-756.216804877758 -113.137181843351 2043.81935809708 135 121 108
-591.388652925962 -115.318361771094 2460.44668382934 14 17 10
-608.645294095461 -115.816434609018 2450.34794982558 16 19 12
-632.907471927369 -116.492803856642 2440.03291613766 24 25 19
-641.149331513931 -116.759578106716 2430.50999488166 27 28 22
-646.387346294179 -116.949479417235 2421.14578922929 21 22 16
-672.643935472157 -117.674822948357 2411.05531479706 20 21 15
-646.852608737027 -117.073827547858 2402.82820575875 22 23 17
-636.076755312058 -116.8558360403 2394.00219495676 17 18 12
-641.313638111686 -117.045452543835 2384.67321204403 17 18 12
-633.541721510996 -116.90426689135 2375.69428607587 25 26 20
-628.772437292171 -116.839608889384 2366.60440099645 22 25 18
-698.041198233088 -118.654341128608 2356.05173195486 10 13 6
-615.234566952752 -116.609334715965 2348.40695719629 12 15 8
-640.478814338167 -117.30601905528 2338.80491714192 13 16 9
-694.727911990708 -118.736588771433 2329.01615277536 10 13 6
-688.956111243124 -118.64592719889 2320.02784532619 11 14 7
-696.18717624072 -118.884403525712 2310.9325004694 17 20 13
-734.420034399207 -119.906390359853 2301.78467486126 19 22 15
-664.645962297737 -118.198391916219 2292.86389016817 18 21 14
-664.877751453424 -118.260197378831 2283.73840505613 16 19 12
-772.09608613181 -121.021311602949 2275.1815008074 16 19 12
-735.327680481225 -120.148390284099 2266.05088083543 16 19 10
-709.5614542614 -119.55392590076 2256.83574420278 16 19 10
-742.779177416375 -120.445537798742 2248.2772956377 17 20 11
-735.008722133647 -120.304639586651 2239.23162288173 18 21 12
-760.223996398168 -120.993469787027 2230.77038592981 19 22 13
-768.445058604545 -121.254393811222 2222.07590464778 18 21 12
-772.667271011282 -121.414615834167 2213.32715537695 19 22 13
-708.9352632372 -119.869328497094 2202.7451551606 18 21 12
-688.180053687204 -119.403996335857 2193.10293456268 16 19 10
-740.367715565129 -120.767463189668 2185.73794765347 15 18 9
-740.594450345109 -120.827792679757 2176.81158983906 17 20 11
-708.851886711965 -120.087968008708 2166.66087847601 16 19 10
-679.111813222492 -119.399291871925 2156.41664442886 21 22 14
-685.336295288819 -119.610540897555 2147.5831202469 17 20 13
-682.570408514203 -119.597015084725 2138.36426958539 14 19 13
-638.855665944726 -118.561442810496 2127.11009456963 14 20 18
-665.751663173127 -119.456284416425 2091.84734451629 25 16 7
-718.129495258308 -120.870123972477 2076.99576079338 89 70 56
-734.330248853645 -121.327572186652 2069.1002287226 138 111 94
-745.537634934291 -121.660502953189 2060.93703550494 139 112 95
-743.767982749041 -121.671089157137 2051.87348295953 131 108 92
-746.988780285006 -121.805457419173 2043.18309385435 124 105 90
-545.069543000037 -123.578159256116 2462.78323127806 14 19 12
-578.351106930928 -124.396158783736 2451.80870332733 14 19 12
-608.624459871662 -125.14445591739 2441.14651260229 22 25 18
-641.897088595575 -125.9600109928 2430.52382815806 18 21 14
-658.147052826635 -126.387049481336 2420.73762558949 17 20 13
-634.354738058359 -125.903001543742 2412.47295845603 24 27 20
-614.569684278076 -125.510810605848 2403.94331801408 23 26 19
-634.821698358975 -126.028321232315 2394.08797363814 19 22 15
-650.067130176102 -126.431542359733 2384.47978909249 15 18 11
-667.31178094295 -126.879557511784 2374.90342964924 30 31 25
-651.532691294443 -126.578863924707 2366.15056290732 20 23 16
-712.800549427463 -128.02277136228 2355.81511095959 15 18 11
-719.031858527756 -128.219683436417 2346.7301565544 13 16 9
-703.252607603855 -127.918881267405 2337.98370960049 12 15 8
-702.48101168976 -127.95755524852 2328.98133909444 11 14 7
-691.706817692545 -127.770504582836 2320.05725021418 10 13 6
-733.946340096008 -128.779327974541 2310.77121215607 16 19 12
-717.170538323121 -128.456842742115 2301.88854437283 19 22 15
-726.399258986981 -128.720460797749 2292.90722427299 18 21 14
-697.62630866503 -128.128719148992 2283.87787239415 16 19 12
-692.855931296703 -128.077588567806 2274.8161866815 16 19 12
-747.079280970672 -129.351951193224 2266.20146565691 17 20 11
-752.304544215508 -129.524504190989 2257.35426146437 16 19 8
-777.52393687669 -130.145365780457 2248.80504276369 16 19 8
-714.768391288945 -128.793426858541 2238.96007687047 18 21 10
-738.987425314394 -129.391636657688 2230.42449898175 18 21 10
-763.202876315671 -129.988925054866 2222.02062263218 17 20 9
-685.469755197553 -128.305437345648 2211.24745824215 16 19 8
-733.671233947355 -129.438790104492 2203.48142346895 16 19 8
-736.896382092273 -129.566181696775 2194.62848850523 18 21 10
-747.115856810634 -129.849513168127 2186.0213876887 18 21 10
-720.364184320203 -129.308183165125 2176.15569162639 15 18 7
-707.832844587401 -129.140309467991 2157.66070593354 22 25 18
-721.04855418737 -129.490023660728 2149.21290010973 19 20 14
-713.285291719743 -129.372957649451 2139.86051804055 16 17 11
-716.425735802215 -129.72036040393 2094.97371837252 21 17 8
-671.722235888433 -128.786725058281 2083.14599173971 67 58 49
-713.887407927155 -129.775157827743 2076.7877173793 74 56 46
-729.09114601844 -130.166514271863 2068.81248266957 123 95 81
