ply
format ascii 1.0
comment KinectMotionCapture
element vertex 774
property float x
property float y
property float z
property uchar red
property uchar green
property uchar blue
end_header
-161.141775391656 153.885446140766 1967.41148146551 148 152 153
-173.001254048953 152.43439095973 1973.99728726679 158 162 163
-184.035156801166 151.304649246441 1977.66221259811 158 162 163
-193.491399319167 150.813322899337 1975.47549596011 155 159 160
-202.69871969091 150.427300608848 1972.31211919041 153 157 158
-209.385482277978 151.098788465707 1959.38267615864 159 163 164
-215.637320353133 151.977259271123 1944.49158985609 157 161 162
-223.453439052881 152.217534977482 1935.4533341015 157 161 162
-232.785486013026 151.822581471288 1932.27441571099 162 166 167
-242.129676284437 151.426583112717 1929.09374438986 166 170 171
-250.766834384722 151.344555333348 1922.97741837883 169 173 174
-260.143628853898 150.945852817234 1919.79268536788 170 174 175
-268.360715530712 151.069500922399 1911.71262568182 171 175 176
-278.007151065194 150.563223888315 1909.50245372061 165 169 170
-285.599418462098 150.995363747003 1898.47625382142 161 165 166
-294.15221459463 151.006987005881 1891.36228169162 161 165 168
-302.29154519553 151.224253510319 1882.28375159649 169 173 176
-311.579880557874 150.919077353364 1878.10212436257 172 176 179
-320.231162929 150.923413700214 1870.976121191 169 173 176
-328.054206496427 151.339448320813 1859.92116420263 165 168 173
-336.996439474356 151.234847601821 1853.76658582675 162 165 170
-344.70645532423 151.747198048031 1841.71779328683 163 166 171
-352.891852630645 152.049390984193 1831.62560359027 149 150 154
-360.30841851792 152.759410523346 1817.59729685118 139 140 144
-367.3924516923 153.669977145195 1801.59434563002 158 159 161
-369.975873443271 156.932632479516 1762.96860509438 173 174 176
-355.665539826428 169.085696715074 1638.75242797967 137 141 140
-360.836000579888 171.285407215291 1609.88399101774 95 100 96
-370.17305301061 171.333018881945 1601.66436646601 108 113 107
-378.983682542304 171.683242082177 1590.48633789989 124 129 122
-386.177853458987 172.944594788341 1570.43772969543 151 159 148
73.0872995914114 163.611265189965 1936.15048167946 125 143 157
63.8617985774992 163.223129133147 1932.98484163963 114 126 122
53.6617544982503 162.512371485835 1932.72149529374 128 138 130
41.5569589509726 161.159140315578 1938.2687422832 124 125 129
30.7495896801016 160.235734585938 1939.94577981014 110 110 118
24.3344981104241 160.807795124504 1928.05842892048 106 107 112
19.7186099913695 162.015664893718 1910.34733047705 118 122 121
15.3170335809334 163.32409063508 1891.65478469036 119 124 120
8.37992919180164 163.776169537416 1880.71029275249 163 163 163
-44.6092471346646 159.655837678387 1884.18599935118 153 158 161
-57.7764042802897 157.885220347347 1893.63299799563 137 141 150
-68.599535482222 156.958929243179 1895.3080761253 127 128 149
-81.9561158785926 155.088739247904 1905.73914491843 130 131 151
-95.2498336579612 153.222138410665 1916.17828941136 144 145 147
-109.035900443014 151.149942880281 1928.5719072818 147 149 144
-119.998030745715 150.126607118311 1931.23758180728 149 151 146
-133.118899366278 148.26988304288 1941.69827084325 147 148 152
-146.176704326441 146.416848012506 1952.16682013623 146 150 153
-160.50613055676 144.04753143449 1967.51671398123 151 155 156
-171.838738044625 142.825322279332 1972.15229333538 158 162 163
-183.402244267884 141.501020181796 1977.76701384873 155 159 160
-192.858583322991 141.00649254744 1975.58029359394 150 154 155
-202.065770435832 140.614536388178 1972.4169490808 151 155 156
-208.243810757462 141.459068275664 1957.53516167854 160 164 165
-214.498793845251 142.298666102359 1942.64354499887 157 161 162
-222.567289476911 142.413505319092 1934.58205179468 154 158 159
-232.392633272003 141.80725299042 1933.35750351982 147 151 152
-242.462127869878 141.098063486619 1933.11044484775 148 152 153
-251.087924745343 141.002545600723 1926.99557217613 158 162 163
-259.504776005767 141.007152252727 1919.89858364066 164 168 169
-267.955493352202 141.009332690817 1912.79737520721 169 173 174
-276.90374686347 140.805471043457 1907.65023427141 167 171 172
-284.729106827423 141.107995574955 1897.60297423343 167 171 172
-292.604564075404 141.407032514861 1887.54971180375 164 168 171
-301.42493918644 141.297503875524 1881.41035354675 162 166 169
-310.71580578345 140.983506746518 1877.22843365943 170 173 178
-319.369059187195 140.970992809562 1870.10198862052 171 174 179
-327.624707209189 141.157589936696 1861.00926383435 169 172 177
-336.350791390732 141.139779317076 1853.87374389357 169 172 177
-343.638752150273 141.822695925361 1839.86155768872 170 173 178
-352.035951954049 141.999319836502 1830.75119434114 182 183 187
-360.887207299555 141.972579540258 1823.60007729509 180 181 185
-368.155016199656 142.742939000428 1808.58248854733 154 155 157
-370.912611972968 145.803166102667 1770.94299204041 158 160 159
-358.133226554059 156.819791586268 1654.60097200424 155 159 158
-360.733647985329 160.238368119327 1612.94915756402 101 106 100
-369.105215874135 160.763468398906 1599.81008656627 108 113 106
-377.354137060215 161.383165619275 1585.67814466733 120 125 118
84.5939037771728 154.54054526739 1934.58726397899 1 20 37
77.6518463571181 154.880528749977 1924.65013622963 142 159 169
66.1291267484667 153.751386438723 1928.25381825988 121 131 130
55.2735127852517 152.832790574663 1929.92482246783 103 109 105
44.7505376194077 152.01939477499 1930.62937389233 105 106 110
33.921033147801 151.102163624436 1932.30363281655 117 117 125
26.8606387801162 151.434339614414 1922.35175787649 107 107 115
20.6806445235321 152.07492544306 1909.48563791577 109 113 114
17.2018961506526 153.644837287647 1887.88450570354 117 119 118
10.5604354539748 154.17195877337 1875.9690236305 170 170 172
-41.6244260407543 150.379825088333 1876.5209381036 159 166 158
-55.9697507292227 148.227021008487 1889.85266327193 151 158 151
-69.3781418128252 146.386021751544 1900.27742979357 145 150 156
-83.5734525761833 144.241970674005 1913.6280930309 143 146 151
-96.8478893849398 142.408756041891 1924.06931548485 148 150 147
-110.059349230508 140.579197574514 1934.51862773184 145 147 142
-122.932582723966 138.855043321464 1944.00194368282 147 148 150
-134.930693665514 137.43887561687 1950.57059738842 148 148 160
-147.157132951756 135.923583157685 1958.11846493744 150 153 158
-159.336594058644 134.410957509982 1965.67242833129 155 159 160
-170.940360021819 133.103112154177 1971.28208132886 156 160 161
-182.246247993236 131.898132955554 1975.92094974622 149 153 154
-193.003184785054 130.896290027014 1978.61217460816 148 152 153
-201.433219168365 130.800552369569 1972.52173251698 152 156 157
-207.355358662749 131.706932076625 1956.66378978413 157 161 162
-213.36001178208 132.607908390603 1940.79580433708 155 159 160
-222.177620586485 132.402662200759 1935.66473046574 155 159 160
-232.000569800554 131.796024920912 1934.44048203419 147 151 152
-242.067901479066 131.089215293585 1934.19392728309 149 153 154
-250.930438611566 130.880273304578 1929.05749662352 156 160 159
-259.578631561023 130.768992830203 1922.93963029574 164 168 167
-267.785699552515 130.854131286108 1914.86092229617 169 173 174
-276.496131241106 130.738288624916 1908.73530095606 169 173 174
-284.77627169589 130.818204584693 1900.64748769833 168 172 173
-292.64229306665 131.092816541695 1890.59522686393 164 168 171
-301.454053678801 130.969655178609 1884.45721981549 160 164 167
-310.072930953843 130.942847873288 1877.33510235529 169 172 177
-318.725464000187 130.913568030115 1870.20879136515 171 174 179
-327.843373572395 130.685699713468 1865.04054157666 172 175 180
-336.557935043164 130.65181135954 1857.9065019422 172 175 180
-344.043670156933 131.201840814601 1844.87791198769 172 175 180
-351.179928778144 131.942535242204 1829.87657779009 173 174 179
-360.033297179903 131.89885103892 1822.72548193703 176 177 181
-367.301628003183 132.630564348414 1807.70768956086 167 168 170
-371.652805354279 134.812990933321 1777.93385274237 161 163 162
-365.135448339612 142.411115401398 1693.06776091238 166 170 169
-359.661614872073 149.689898128089 1611.09534578265 101 106 100
-366.88794953366 150.760947668681 1592.05091198779 112 117 110
-376.289409886799 150.765158978518 1583.82336400141 122 127 120
90.1803868597224 146.077633550157 1920.19020300094 7 15 18
79.281722778463 145.164178475873 1921.85582127058 152 157 161
67.7500441345946 144.047544582759 1925.45835232573 117 121 120
57.2069270169839 143.237822567113 1926.16038047895 127 131 130
47.9464466815438 142.835182712361 1922.99017315308 97 98 100
37.7263495527957 142.127151461472 1922.72455739404 101 102 106
30.0144575000407 142.229920195878 1914.70759799546 115 116 121
23.504560844666 142.734753216521 1902.80835276412 107 108 113
20.3182940855584 144.34680830168 1880.23592244724 105 106 111
-28.896074417871 141.575096589224 1871.07825785118 192 195 202
-40.9695390431075 140.25921691633 1876.62931639065 129 132 137
-55.3176646943581 138.146546878844 1889.96058632382 150 153 158
-71.30362943166 135.440510351275 1909.13586962675 155 158 163
-86.3278872216999 133.039610180396 1925.40682287336 151 155 158
-98.729953863578 131.538543547356 1932.93297597222 144 148 147
-110.807139229459 130.139253888761 1939.49147694067 144 148 147
-123.118433361008 128.643253319298 1947.02894457088 138 142 141
-135.110075883458 127.248788651661 1953.59834834277 147 151 154
-145.980189161718 126.251411419957 1956.27543768804 156 157 159
-157.632296304044 124.959418388535 1961.87901624572 158 160 159
-169.777518503965 123.472683666036 1969.43718426991 158 160 159
-181.875705332456 121.988644251801 1977.00097466364 158 160 159
-192.371739805941 121.095284830493 1978.71678580683 158 160 159
-199.775166084425 121.376853987288 1968.72247605231 156 158 157
-204.436587320631 122.729689716135 1947.9817717503 153 155 154
-211.467607612309 123.197743342577 1936.01783049597 159 161 160
-221.291903362244 122.59084111409 1934.79341472243 158 160 159
-231.363499050329 121.886355256356 1934.54608145984 153 155 154
-241.431265087137 121.181757540122 1934.29946667841 155 157 156
-250.533769018957 120.864560896045 1930.14106176392 162 166 165
-259.416268289905 120.642641654569 1925.00217412262 174 178 177
-267.85199028324 120.612034344097 1917.90292336595 173 177 176
-275.857049985141 120.77171234752 1908.84130114248 174 178 177
-285.054256705365 120.447377731731 1904.67109667748 169 173 172
-292.227860645603 120.985728555381 1891.68148960338 166 170 169
-302.380972956782 120.273630872115 1891.42400359363 173 177 178
-310.094599783815 120.613920730801 1880.38290063873 173 177 178
-318.738266435788 120.56839393072 1873.25773890797 178 182 183
-325.903706662905 121.187807502571 1859.26100977422 173 177 178
-335.060412417717 120.945821818938 1854.08795562908 172 176 177
-342.976348649789 121.272058824646 1843.02164266416 174 178 179
-350.11599027579 121.973899980933 1828.02022887501 158 158 158
-358.358423286316 122.19717959207 1817.9211292752 168 168 168
-366.650745112829 122.416952527239 1807.8158130808 174 176 175
-372.395741247194 123.859641452229 1784.92451448469 177 179 178
-364.268412147946 131.980335365268 1692.19550362427 175 177 176
-365.434798452142 140.338182458874 1588.22871597151 115 120 114
-374.090473109485 140.69691336399 1576.06231535469 127 132 125
-382.061617838002 141.425459701377 1559.94913720006 153 159 147
84.8320904587518 136.623775760201 1907.45445737364 154 158 159
72.6111019542146 135.319074768618 1912.9873166352 129 133 132
60.7475374789308 134.115563770195 1917.55634618663 115 119 118
50.5074045674367 133.408555429353 1917.28822738655 113 117 116
41.2186755569743 132.997994447168 1914.11451565306 100 104 103
34.423369533928 133.37537620573 1903.18791602525 85 89 90
28.8147025303693 134.143066609308 1888.37738540629 88 92 93
24.3605294149913 135.29907504685 1869.67867724732 116 120 123
-37.6611065389676 128.316319309971 1902.26749973967 170 173 182
-41.4819714257637 129.748306566268 1880.62403662857 112 115 124
-56.9781833644458 127.288039175527 1897.84417649599 140 143 148
-73.2327861517923 124.542868930161 1917.99348524515 139 143 146
-88.803505483819 121.998178289805 1936.21247672292 144 148 149
-100.615827601497 120.71607516261 1941.79603535414 139 143 144
-112.113876093142 119.53241810801 1946.4108671235 137 141 142
-123.030180280476 118.543027411472 1949.08217108414 140 144 143
-134.745223676827 117.266195803165 1954.67785564233 140 144 143
-147.504728383423 115.607545725103 1964.17519177064 164 166 165
-159.671594185627 114.143798835354 1971.73059826358 163 165 164
-172.056414209874 112.587055166646 1980.26673736004 158 160 159
-182.554360980262 111.701546833715 1981.98228918432 158 160 159
-192.518853087944 111.007288253717 1981.7482948822 160 162 161
-198.372737618712 111.835124294747 1965.89931707598 160 162 161
-203.546987258895 112.942542365127 1947.11087558475 162 164 163
-210.327673107778 113.474749341946 1934.17031854516 158 160 159
-221.152075068568 112.488466123857 1936.85308317692 157 159 158
-231.464540385677 111.692091698486 1937.5836198921 147 149 148
-242.254218121735 110.707306450388 1940.27095422571 147 149 148
-251.821228900107 110.194202008971 1938.0704717155 157 161 160
-260.443930602985 110.056209796974 1931.95609715775 165 169 168
-268.389736707082 110.197535522429 1922.90191776305 169 173 172
-276.845053503049 110.148539641393 1915.80027011651 171 175 174
-286.023184904525 109.816733157805 1911.63270608415 168 172 171
-294.083961248708 109.949958230611 1902.56420041596 160 164 163
-303.086467593941 109.707583439501 1897.41039047023 158 162 161
-311.225544202664 109.835312697427 1888.33212786497 170 174 173
-319.190283464678 110.052695232081 1878.26793860175 167 171 170
-326.556462659497 110.544465003421 1865.25418167518 164 168 167
-334.202253997191 110.939342397352 1853.21371333579 175 179 178
-342.751784433399 110.960948078727 1845.09243535903 165 169 168
-349.883857262543 111.624598787447 1830.09182641542 163 163 161
-358.119776362873 111.823272277386 1819.99384478118 173 173 173
-366.405410894262 112.018507355277 1809.88942774125 170 172 171
-372.141507180836 113.401202444827 1786.99915751642 171 173 172
-363.980553741047 129.892195264573 1584.40671758802 112 114 109
-372.645467688057 130.219966335265 1572.23900522535 133 136 129
-383.235239203097 129.635855893969 1569.91131548223 160 161 153
88.4260201788618 127.42061833558 1898.85753032192 141 150 149
76.5038501064523 126.229349510687 1903.41921400197 119 128 127
63.9692403412979 124.847087051024 1909.92082653788 111 120 117
52.7510940132456 123.85217352086 1912.55447692801 124 130 126
43.133174959167 123.338605515926 1910.34788285549 101 107 103
37.8958068595263 124.167014707572 1894.57560087695 91 95 94
32.8867409103546 125.085944485515 1877.82388417614 73 77 76
27.7899242541868 125.999346265868 1861.06147153241 67 71 70
-46.0827123670338 117.934162916314 1898.22081286511 151 154 159
-61.2448651174935 115.62233285702 1914.47432307292 139 143 146
-74.8792250563868 113.787323415261 1925.87856134156 144 148 149
-89.0129060579183 111.768223025963 1939.23634628689 147 151 150
-100.256381354467 110.692855304791 1942.87497501168 142 146 145
-111.474575425116 109.618829392943 1946.5167551504 139 143 142
-120.18589344715 109.388403163128 1941.39901205106 143 147 146
-131.650832413696 108.222144256519 1946.01792987601 142 146 145
-145.788487154994 106.125114709598 1960.3833515127 167 169 166
-160.109079881581 103.939976756525 1975.73386269889 163 165 162
-171.955144609401 102.596382736829 1982.32129975286 163 165 162
-182.972913385672 101.533360757988 1985.9878225362 167 169 166
-191.369738580299 101.39739568216 1979.90163069292 174 176 173
-197.226505100745 102.183568557506 1964.05216268115 176 178 175
-201.894996881476 103.425589744704 1943.31110811187 163 165 162
-210.193419172798 103.371479229452 1936.22905344117 158 160 157
-219.769491887522 102.855440967974 1934.02768804973 167 169 166
-230.090706510491 102.06346610356 1934.75712131718 164 166 163
-241.132768810592 100.99704760375 1938.42086162573 171 173 170
-251.908558291511 100.023327247105 1941.10965972373 140 145 141
-260.522586456759 99.8717035685769 1934.99640347018 135 140 136
-268.223924455245 100.082392950035 1924.96486248487 140 145 141
-276.905572292997 99.9260110899446 1918.84293995772 146 151 147
-286.305287864488 99.4952731095189 1915.6556711617 157 162 158
-294.354140935134 99.6069515244773 1906.58871018992 159 164 160
-302.223116086416 99.8059188226939 1896.53652021743 81 86 82
-310.807386433708 99.7307314804614 1889.41884890433 103 108 104
-319.206289131579 99.7431802449117 1881.31639249323 170 175 171
-326.562496212258 100.202409619364 1868.30396572153 191 196 192
-333.771263794989 100.746888720662 1854.30202692721 172 177 173
-340.84064566054 101.376044754556 1839.30957255447 156 161 157
-348.611570762218 101.731952087869 1827.25335061864 160 160 158
-356.854347924919 101.905194942419 1817.15458010943 157 159 156
-365.349723150916 101.985978723444 1808.0319771724 169 171 170
-371.488023308268 103.130243850015 1787.10775664425 174 176 175
-362.909169355717 119.246334268396 1582.55284105624 122 124 119
-372.145916562964 119.278845764732 1573.33808667098 140 143 136
-386.091966486201 117.107087093133 1588.73530335089 168 171 162
91.0415383439049 117.885604685533 1893.16243851857 141 154 160
80.3994843611202 117.084358562434 1893.85185734622 109 120 122
66.5499354611632 115.346823010137 1904.2212975125 110 122 122
54.9959214262843 114.267588153271 1907.8211830226 93 102 99
44.732127275174 113.563190783042 1907.54986429506 98 107 102
38.8622154492864 114.163310611788 1893.71486025608 112 119 112
34.1640092783468 115.13092942216 1875.99412169879 119 125 121
28.4481289126606 115.814180730412 1861.17043385344 82 88 84
29.6821692921423 118.624135023873 1824.02972902461 210 215 211
-49.8141922246147 106.492485698653 1912.90154503672 166 170 171
-62.0455261307307 105.148323777396 1919.44066400174 152 156 155
-73.3754421100088 104.081095809548 1923.06848400461 147 151 150
-86.3840385431638 102.467165322908 1932.53461719061 132 137 133
-98.210054945622 101.221217550368 1938.11637164221 134 139 135
-109.999901090579 99.9773376459436 1943.7028747512 152 157 153
-118.718823903274 99.7348707031171 1938.58421432773 137 141 140
-128.827032369772 99.0373118449492 1938.33253403358 154 158 157
-143.259711832228 96.891407605773 1953.66895413719 171 173 170
-155.995419003463 95.2930103433698 1963.16910138358 153 155 150
-171.0595899239 92.8861760761015 1981.45070379984 109 111 106
-182.868474315409 91.5659728688902 1988.0427191411 92 94 89
-192.817537497262 90.8770867811498 1987.81063612945 76 78 73
-197.365248937841 92.0716190635849 1967.08477929292 77 79 74
-204.31135541524 92.4534384833491 1955.13166187531 77 79 74
-212.828216453532 92.2951024110738 1949.03030891287 65 67 62
-222.120279563474 91.8672186195378 1945.85622672247 63 65 60
-231.178630827474 91.5272164372242 1941.70363212621 35 37 32
-241.47224368923 90.7416582944115 1942.43649303207 34 36 31
-251.515647875386 90.0450600607602 1942.19265713048 22 27 21
-259.650114802238 90.0565576882297 1934.12320324506 14 19 13
-266.64655039906 90.5070861741586 1921.15593700982 14 19 13
-277.200373140219 89.6304404371834 1922.86449250394 8 13 7
-286.359069861374 89.2825501146355 1918.69915589227 14 19 13
-290.079313056387 91.0415278471184 1891.02054526028 11 16 10
-300.011944392466 90.4237226331357 1889.78263855869 1 6 0
-309.280178815726 90.0680503845791 1885.60389305153 4 9 3
-318.346639902981 89.7982772893838 1880.4419338158 2 7 1
-327.869126137819 89.352432005623 1877.23938375136 14 19 13
-332.485711865783 90.9066273569461 1851.46506862261 18 23 17
-340.82778170907 90.9757099465018 1842.36186837442 9 14 8
-347.338604197693 91.8217630305551 1824.41524615577 50 55 51
-355.793860584789 91.883124845129 1815.29770095971 56 61 57
-362.872579599726 92.5456777768715 1799.29630631819 91 96 92
-367.629993699743 94.2366407987516 1771.48844200327 100 105 101
-360.492010224398 109.187966718879 1573.81107188872 145 147 142
-369.562662549413 109.282191409521 1563.60919554512 150 155 148
92.0226076428443 107.860647766649 1892.30358343609 139 153 162
81.3774232702351 107.06397999513 1892.99259955268 94 107 113
69.7758376437718 105.994913159336 1896.58652163227 110 121 125
58.1993763987645 104.927324942565 1900.1833349235 110 120 119
46.6481059701256 103.861105140496 1903.78352854475 106 115 112
38.8869899238882 103.881815146951 1895.76064238154 66 72 68
31.086589919002 103.900020035888 1887.73262014092 80 85 79
26.0219728501871 104.726696075989 1870.97445420448 84 89 83
-36.5987450397018 97.8830411081844 1905.50352269243 129 131 128
-47.9989792908886 96.8248605393765 1909.12254356468 136 138 133
-59.6634979019874 95.6791525250287 1913.71650090985 157 159 154
-69.5764173469238 95.0678884856593 1912.48103690979 157 160 153
-82.616653727184 93.4813853935721 1921.94314938837 154 156 151
-95.8809957891045 91.8097676667569 1932.38544631608 146 148 143
-106.573324318837 90.936541365524 1934.07670810167 116 118 113
-115.870800127073 90.5046995614104 1930.90196086181 6 8 5
-124.360538009482 90.335758757136 1924.80402063605 3 5 4
-128.00654568229 91.7451893410575 1901.16682360858 7 9 4
-141.426013653579 89.9918336057537 1912.59766409222 7 10 3
-157.164676209172 87.4552966299853 1932.81104997256 18 21 14
-176.988036688253 83.5289604262403 1968.6425446021 16 19 12
-190.370139885882 81.706189165924 1981.08591789011 9 12 5
-199.820376546582 81.1922250251781 1978.90025063216 14 17 10
-207.495971277351 81.2851599377754 1969.87991945486 21 24 17
-215.719850508073 81.2017864548302 1962.80724438041 27 30 23
-219.991832795672 82.4995156303373 1940.10015095035 29 32 25
-226.601782816827 83.0128949652348 1926.17302294766 23 26 19
-234.014683641863 83.2631109066096 1915.1696860264 23 26 19
-248.231394404508 81.102676854641 1931.54078310889 17 20 13
-257.586123598139 80.6637860202092 1928.35914981712 25 28 21
-266.010622475536 80.5663478872074 1921.26147563557 38 43 37
-272.838589251616 81.0647633040772 1907.30717983772 28 33 27
-275.824555767951 83.0083570352807 1876.69665511999 27 32 26
-283.979225615102 83.0687714199357 1867.61662384209 17 22 16
-293.302555141471 82.7013749917784 1863.43079339825 25 30 24
-308.418256944105 80.1280401237388 1884.72970510178 21 26 20
-316.609469253047 80.1852332148511 1875.64536229258 36 41 35
-325.711954013648 79.9015517424067 1870.47918441135 22 27 21
-339.117265188582 77.9305151123622 1884.93542612895 20 25 19
-340.604946187387 80.6747289248896 1844.4321783934 23 28 22
-347.107715246845 81.4743534154979 1826.48668346315 22 27 23
-347.115348718544 84.9485587346373 1777.09630981243 16 21 17
-358.841489810456 98.7474161340328 1569.00586613726 119 122 115
103.660739715226 98.6219746488481 1890.75698166831 153 171 181
93.0035059670475 97.8294066216183 1891.44448329753 157 174 184
83.0044918042043 97.2140911872028 1890.19828585486 148 161 169
72.0379664895867 96.3339379439876 1891.85534774458 129 140 146
61.0857373912548 95.4545162852242 1893.51419179098 103 113 114
51.0977765480811 94.8396661219419 1892.26937251199 110 119 118
42.3638221687932 94.5754906241345 1887.14913367532 128 133 129
35.7852965969909 94.9227044436138 1875.24173904549 136 141 137
27.9116009283644 94.9164744363538 1867.20487455653 126 131 125
-27.9836036010317 90.1715849022469 1879.38947545611 82 85 78
-42.089153960313 88.3442626903098 1891.74257880009 18 21 14
-50.906208167391 88.073628673783 1886.61198660447 35 38 31
-64.6259537364122 86.3381115690994 1898.00530724175 0 3 0
-79.699050331288 84.1770823290848 1914.26977427142 0 3 0
-90.7340766777229 83.2221429118669 1916.92617168227 0 2 0
-114.954293428784 80.632071916901 1930.03464759474 5 7 4
-119.616288104839 81.6421480175618 1910.30270174304 11 13 12
-126.549200641662 81.9649663304361 1898.35138622853 13 15 10
-135.420264198135 81.6894259107755 1893.21382663751 11 14 7
-155.995469490191 77.6834607923146 1930.96707937555 15 18 11
-170.312700600983 75.6358109562245 1946.3178882702 13 16 9
-185.840062900608 73.1715290138686 1966.55721262348 16 19 12
-200.478441342641 70.9669055782871 1983.88373181056 26 29 22
-208.903434595061 70.7861161959986 1977.79414280341 29 32 25
-211.057234263041 72.7010212686758 1947.28730287046 28 31 24
-215.618007164834 73.8518805885979 1925.55224395379 29 32 25
-226.458503175263 72.9060192885952 1928.23289369362 24 27 20
-238.010544461487 71.7109100088683 1933.84870473864 20 23 16
-249.767465517903 70.4345685328734 1940.44708928861 22 25 18
-261.482632464908 69.160556057345 1947.0504381025 31 34 27
-272.448729734169 68.1375276410847 1950.72354413157 22 25 18
-272.900292907537 70.8389044103882 1910.349710585 27 30 23
-275.642790592729 72.7833540018754 1878.76163971721 25 28 21
-285.612429374432 72.162653701477 1877.5191223293 27 30 23
-300.308133758497 69.8147008307635 1896.85447949581 31 34 27
-309.556963016062 69.4429428629961 1892.67795773104 30 33 26
-315.968746984622 70.134433743918 1875.75178906644 36 39 32
-325.938364980682 69.512450740551 1874.50927765041 21 24 17
-339.764253106145 67.4221837553677 1890.92896230503 22 25 18
-347.573038368512 67.6163927958556 1879.87636883861 21 26 19
-340.61509097366 73.5732238453498 1799.10057103264 12 19 12
-354.08395980766 71.6406032102159 1813.54902023172 26 31 25
-342.909183099694 86.6522197672978 1603.27436592262 77 79 74
-349.901134262779 87.5088476031073 1583.25205937645 119 122 115
-357.3820512618 88.1982612578335 1565.18478760241 153 156 149
-367.4237525637 87.8410101969821 1559.9015947923 154 157 148
108.607022706845 89.6118769463892 1878.29708296368 94 108 119
95.2941133242107 88.1351613668358 1886.7171912439 132 144 158
82.6829449687774 86.8329740001547 1893.2087985767 135 145 155
72.0459989133804 86.0462696669882 1893.89905681695 120 127 137
61.7375374600564 85.3453871467207 1893.62215461794 98 101 106
53.0166385287973 85.0704871116834 1888.50357326669 100 101 105
45.5290180404546 85.1341588886317 1879.50677722698 109 109 109
39.2422117428344 85.5343094650558 1866.62820120143 95 95 93
32.5804666958551 85.8456439639097 1854.71051576 109 109 107
-24.1775929478278 83.1958640759713 1834.53353021623 17 20 11
-37.2113281252757 81.7346341911705 1842.98843700577 14 17 8
-55.3626423175646 78.7760715764604 1868.94845274142 17 20 11
-74.787540209027 75.4105433134064 1899.78928025002 10 13 4
-66.9819931269819 80.0258282779987 1837.26235989908 11 14 7
-89.6629180470005 75.6714790966925 1879.79266476191 12 15 8
-100.769405023568 74.7220504165896 1882.44012979626 12 14 9
-109.118779260047 74.5988502530489 1875.35189856915 13 15 12
-118.044307747013 74.3086148364673 1870.20782104429 14 15 9
-156.154172924607 67.4896446590547 1933.99742074046 16 17 9
-163.366775804555 67.6983033952686 1923.01918925802 16 17 9
-176.88111151174 65.9427189644323 1935.4461240452 21 22 14
-190.0638303541 64.2730961674174 1946.90628891277 23 24 16
-204.707222008552 62.1193626373943 1964.23180819509 26 27 19
-208.911161444103 63.3001606217466 1941.53351404483 32 33 25
-214.233034102338 64.1492223002412 1922.72733044605 31 32 24
-225.082502893631 63.2132407662424 1925.40683441787 32 33 25
-240.060989490785 60.9066667657513 1944.7067930662 30 31 23
-252.996699686522 59.250868727048 1956.19774674556 22 25 16
-261.090314123136 59.2060230888674 1948.13353938739 22 25 16
-272.998636199507 57.8756207446668 1955.72061918197 23 26 17
-274.829550318779 59.988240842924 1921.22280438836 20 23 14
-281.226150349625 60.5721142818567 1905.30650109432 17 20 11
-290.439616110763 60.1944595964223 1901.13464828237 22 25 16
-300.120815886406 59.6564626137941 1898.91998121401 24 27 18
-306.917004599491 60.1490886689451 1883.96197927843 21 24 15
-315.328396901503 60.0824758409921 1875.85817244447 21 24 15
-321.174397199074 60.9610448495998 1855.97881601022 19 22 13
-336.126796176343 58.5220667187953 1877.29775311723 21 24 15
-356.051192816176 57.2767766206652 1874.81458563555 33 40 32
-358.384651247099 59.5514162010023 1837.23032804701 15 20 14
-340.24383076586 76.6472087475451 1593.55574218876 61 62 57
-348.627729641288 76.9064738794341 1580.41559215544 133 134 128
-357.655732285147 76.9288499386425 1570.21898718198 137 140 133
99.879924957708 78.9948287122483 1875.22033791217 140 148 159
84.634851759493 77.0480431984684 1889.44716461012 120 127 137
72.6973868810441 75.9342476100492 1894.00697583453 106 109 118
63.0280616507821 75.400650157841 1891.79377905322 108 107 113
55.8872529405379 75.526173258828 1881.83265336038 107 105 110
49.6392675499588 75.8954097404856 1868.95876309694 102 98 99
43.948169268732 76.4246634989526 1854.13857345628 94 93 91
36.017545871367 76.3753006384728 1846.09471831216 98 97 95
-48.4474391779028 68.2010624273302 1882.94017147265 13 16 5
-57.2972881153382 67.9051371265713 1877.80555329227 16 19 8
-76.1344223736067 64.7912635198753 1906.70345303876 14 17 6
-90.57646756165 62.8919327232979 1921.03036791462 14 17 8
-102.978982456406 61.5585374498 1928.55602351761 14 17 8
-107.036521901096 62.6268760994721 1906.88374220781 14 17 10
-110.93518155337 63.7676089935604 1884.2236506797 15 17 12
-131.498055674642 60.0432529898534 1920.97001356918 15 16 10
-146.481950336158 57.9208906318177 1938.25295747438 16 17 9
-167.990591661009 56.1473290347823 1942.62776703098 19 20 12
-171.296831402059 57.5122223368395 1917.01771412367 22 23 15
-184.017857695884 56.0318456884824 1926.51938265368 23 24 16
-199.486537083318 53.689883101026 1946.76594843255 25 26 18
-213.324064255843 51.8257489899191 1961.16821089365 29 30 22
-219.58763993263 52.3153947336496 1946.27644349603 29 30 22
-232.101808802538 50.8469444282776 1955.80413547076 31 32 24
-243.825391163516 49.6156645708614 1962.40632155592 30 31 23
-251.884178223748 49.5535682017717 1954.34650587761 23 26 17
-261.176458614544 49.1006793346315 1951.17270269056 20 23 14
-265.049830627159 50.4281565249879 1925.49173329387 23 26 17
-273.89826537664 52.8254942506687 1877.01653026757 23 26 17
-290.714800691526 49.8950895832871 1905.15841855942 19 22 13
-298.807993294269 49.892023927303 1896.0862264506 22 25 16
-309.839997192941 48.889969784518 1899.75105248694 22 25 16
-312.269285988686 50.8703776677091 1865.17891224743 23 26 17
-324.224091110302 49.5592904644504 1872.76014036703 19 22 13
-336.346122930252 48.1747149179119 1881.32862047918 19 22 13
-339.730955106194 49.9064855947355 1849.66119041548 19 25 15
-353.740157842075 47.8390824083934 1867.0658656464 13 20 12
-367.234887833844 45.9290218175718 1882.518715213 29 34 27
-341.73933203348 65.0097165391763 1604.48503827973 39 38 33
-348.527063728422 65.8370808155543 1583.4806070822 119 116 111
-356.967141865011 66.0592628562244 1570.33354386621 137 137 129
-379.545718651334 60.7581732839213 1630.01099639115 168 172 158
100.534652509011 68.8235958246705 1875.32882961965 113 114 116
85.9371965663509 67.080080790493 1887.62032535172 121 119 120
74.638270769648 66.1417166730295 1890.24398628961 115 111 112
65.2781124993498 65.6839337306747 1887.06148496412 102 94 92
58.4426053790339 65.8631642690095 1876.13039030122 95 85 83
51.8659340679386 66.1184668211765 1864.22370938596 76 65 63
46.7873381439841 66.7669644964086 1847.46402792867 56 46 44
38.8391150491161 66.6966825274576 1839.41803153608 55 47 44
43.1723227316716 71.8353879157651 1758.31659596738 12 8 5
-50.1202765067499 57.4663479438839 1890.82165807526 21 23 12
-60.3857674489447 56.7706241444726 1890.55034502543 20 22 11
-67.5142898467944 56.9301427895415 1879.58273569875 20 22 11
-97.2716303536238 50.8799383226952 1946.42827104221 17 18 10
-107.649455411015 50.1166692585929 1947.15080433515 18 19 11
-116.911120596153 49.6627421422651 1943.98058421023 18 21 14
-131.118841403334 47.8204731602513 1958.33659111325 19 21 16
-141.442409102615 47.0600310143573 1959.06564769039 18 19 13
-147.189237496502 47.6044671525275 1943.23077618069 20 21 13
-154.082432015959 47.8373632735816 1931.28441377809 23 24 16
-162.353278358846 47.6842009478917 1924.20630154088 23 24 16
-180.039659353226 44.7841730475212 1952.23955823828 23 24 16
-183.638954470568 46.0016834115139 1927.6007687097 24 25 17
-193.239196019305 45.4650540772689 1925.39644141652 25 26 18
-209.159128696639 43.0343633833901 1947.60230131129 28 29 21
-222.95254248831 41.2159499429546 1962.00994845776 29 30 22
-230.23629790979 41.362981438116 1951.02299985192 30 31 23
-239.286436456453 40.9796937211332 1946.87130387641 30 31 23
-251.979982275361 39.4691090673191 1957.38440872587 27 30 21
-259.590886689814 39.5350298015581 1947.36453456029 25 28 19
-265.361470169189 40.1953835314422 1929.51077882639 27 30 21
-272.62694290199 40.4023561764391 1917.51826684094 27 30 21
-279.260564951586 40.828416477473 1902.58072756243 23 26 17
-286.884012931268 40.9525210760352 1891.551207442 19 22 13
-295.013977691701 40.9247493654494 1882.47473171655 22 25 16
-303.856934228685 40.6723326512323 1876.33317199049 23 26 17
-314.929178945066 39.6807318714239 1879.99270841338 25 28 19
-320.323491561399 40.6026080713769 1858.15423168707 20 23 14
-327.550179925807 40.9299900688709 1844.15062820264 19 22 13
-338.66413586648 39.9348959339876 1847.80496851096 21 24 15
-347.659546035522 39.6715128823838 1841.64441235237 10 15 8
-352.345063411969 40.9363025300521 1814.85457000284 25 28 21
-346.274405256019 55.5770232309954 1575.72652744668 92 89 82
-353.962220810206 56.0527914254417 1558.64192595077 122 119 110
102.172914008642 58.8845680346637 1872.53614748212 40 39 35
89.1916234050565 57.5654833454602 1879.98953761192 144 139 135
80.1293964699239 57.1774241418717 1875.83634564253 128 120 117
71.0492855271707 56.7881957632587 1871.6809249337 129 118 112
65.4417103946849 57.2449524091757 1856.87134940679 118 105 99
57.8695029755256 57.2357792970148 1847.86418925261 68 55 49
51.1881311094957 57.4537444771996 1835.94454065372 57 46 40
41.6625494600678 56.9791522859828 1832.74143973505 61 52 45
32.4310470439386 56.5799807906631 1828.5671524502 27 22 16
-33.0483349597035 49.6567767110783 1870.80214390726 31 32 26
-94.5539272784808 37.5858214408989 2008.27567172978 21 23 12
-95.9392227015707 39.1630383794203 1978.87379350859 17 19 8
-115.682867786996 37.8811322358381 1977.42096627755 18 19 11
-125.691673163395 37.2027586230134 1977.18140010898 21 22 14
-134.051200014484 36.9705384652454 1971.1001163628 21 22 16
-143.86564069496 38.4246914262113 1933.59212423712 24 25 19
-151.582666186845 38.403754378483 1924.56692262353 25 26 20
-157.236577527373 38.9693313912905 1907.7356635721 24 25 19
-167.672533949679 38.2059572876886 1908.450942691 23 24 18
-182.22863477483 36.2694076465122 1924.77933657726 24 25 19
-191.581562739259 35.8021266405818 1921.59776256401 27 28 22
-205.242530747394 34.0927028678234 1935.01396404265 26 27 21
-218.074025948489 32.6065330816221 1945.50954906034 27 28 22
-224.660272649203 32.9409419891097 1931.58585040416 27 28 22
-237.677451566377 31.3854979695165 1943.06637298999 28 29 23
-248.690897904958 30.4127552023653 1946.73343770966 32 33 27
-257.526094493211 30.0909605026869 1941.60047591323 32 33 27
-261.418232735642 31.2794655828766 1915.91777084884 32 33 27
-272.22658995932 30.3760537711001 1918.60231953004 27 28 22
-285.325505412281 28.7570592133197 1931.0804963357 20 21 15
-288.758343305256 30.1452386738499 1902.43128184088 21 22 16
-287.604628337135 33.0214493774211 1853.18741240717 19 20 14
-299.203714382485 31.8959652623005 1858.79716918898 21 22 16
-309.444615559329 31.1984162337739 1858.52868933443 23 24 18
-314.895067613207 32.058830294517 1836.68336859656 19 20 14
-326.691328579873 30.8630238448817 1843.27639140344 18 19 13
-335.475431756249 30.6562314847466 1836.13436898054 19 22 15
-344.502668014485 30.3767239873418 1829.96964330858 27 33 23
-340.739687359992 34.4439625014272 1762.9086891662 26 29 22
-349.583014184379 34.2898121621614 1754.75120998433 21 18 13
-355.646631302533 35.1101910996181 1732.82923503377 27 24 19
-343.039743777454 45.6195077836823 1563.05576375588 65 60 54
104.139657032077 49.0033994488216 1868.77661842844 156 148 137
94.4017408783553 48.4554463283553 1866.55513997927 103 91 79
85.6252449612021 48.1308068266358 1861.42951117124 100 83 73
79.3868876578441 48.400370685269 1848.55732518922 65 47 37
73.0822100696984 48.6657219877849 1835.67663365261 51 33 23
62.933775776403 48.03736402414 1834.41182380806 42 28 17
53.4075102571319 47.5566366028802 1831.20865370339 61 48 39
42.3216780425937 46.7060598900662 1832.8507489086 52 42 32
32.4770704096062 46.1507724102988 1830.61597530834 25 18 10
-19.493274989584 42.7106428177653 1828.17043156839 25 26 20
-74.9272887959569 32.6099327797482 1944.22591015109 23 24 16
-87.038226828889 31.4214945850723 1950.77988398516 18 20 9
-107.583157023468 28.071612432784 1986.51957264012 15 17 6
-115.612867127407 27.9005466084045 1979.47159992817 17 18 10
-128.942151950858 26.3630237989818 1990.91312634718 19 20 12
-152.905608944022 29.9480541381381 1894.19131960979 22 23 17
-170.686420204105 27.2050819337968 1922.2123783677 23 24 18
-193.472174434427 23.059443407189 1969.76796754872 24 25 19
-190.689675403671 25.9052063072197 1920.72744091995 27 28 22
-200.81616320531 25.2199328704068 1920.47320685089 24 25 19
-217.192655401132 22.7817441208365 1944.63772502789 26 27 21
-224.521911993039 22.8701561249293 1933.64525251733 24 25 19
-231.661906742979 23.0246362835151 1921.66829741067 25 26 20
-244.914300354187 21.4348355205141 1934.12748443746 29 30 24
-258.810659130701 19.6410589386864 1949.52990687633 27 28 22
-266.936858735979 19.5153340055765 1941.4618460745 27 28 22
-274.166529690922 19.6633248867196 1929.4737169969 25 26 20
-284.232126235249 18.9799921051147 1929.22731695485 21 22 16
-285.380119102768 20.978724701978 1890.78379768451 21 22 16
-291.703653260964 21.4550297270407 1873.86920875881 19 20 14
-297.222428105453 22.1993412117355 1853.02335459078 20 21 15
-303.291585471327 22.8000130589716 1834.12480867292 22 23 17
-319.257713303557 20.3300414781985 1859.34830869359 19 20 14
-332.068661901762 18.8198361918872 1870.85444846942 20 21 15
-339.92684084637 18.8720295438104 1859.79606495673 21 24 17
-341.531627647811 23.6168021319963 1769.89266286648 13 16 7
-350.967746735901 23.2425586339403 1764.68508788547 27 24 17
-338.624206759011 35.9905539941853 1544.48465770038 57 50 42
-346.973856018939 36.1730879465676 1530.34129678724 93 89 80
109.391373347642 39.8222108176536 1855.34759946062 164 152 138
97.9873137848599 38.9080528064884 1857.95783631139 113 95 83
91.4485959166595 39.073696520903 1846.05612787477 95 73 62
85.4897571699935 39.3789763395616 1832.21080273249 54 32 21
79.4591360669488 39.6797280017776 1818.35653150123 54 34 23
66.4273461142315 38.404902853147 1825.80326278615 50 36 25
55.3158350875931 37.5603048321333 1827.44213768274 46 36 26
43.5994230325381 36.5743721539608 1831.02151117205 51 44 34
34.9772372669241 36.2989596807891 1824.90732262284 15 11 2
-48.6524894284879 28.8778682200868 1857.82403904122 19 22 13
-74.132171693732 24.4952830315589 1909.07505458193 17 20 11
-83.4920777688397 24.0173151239582 1905.8926378853 14 17 8
-102.104369724318 21.2534662088991 1934.8179151131 14 17 8
-113.341521413724 20.2956588445449 1938.45678312692 17 20 11
-137.459903845925 16.1007289397742 1987.86157219023 21 24 15
-129.758056270151 19.8963868831001 1924.31594184563 19 22 13
-147.909919915886 19.0775404653706 1916.00649012035 20 23 14
-168.356972993733 15.7321446065508 1953.77399591147 23 26 17
-183.367335551734 13.7612463570333 1972.06116527126 26 29 20
-189.226523035909 14.1731203992279 1956.21238084018 26 29 20
-201.561555026195 12.8864469911776 1964.75402196852 26 29 20
-206.000208211784 13.6972341291814 1943.03509843845 24 27 18
-218.063682133992 12.4788730812831 1950.60276141189 22 25 16
-225.127522943401 12.6077165038152 1938.63537738023 24 27 18
-232.007452254425 12.7995748812749 1925.6833316392 27 30 21
-242.102558206977 12.1175996060421 1925.43300515378 31 28 21
-256.744973987314 10.1679618180271 1943.76603610748 32 29 22
-265.123182468098 9.95505847229355 1936.67444276728 73 73 65
-274.237695852254 9.54066034724879 1932.51479512078 38 35 28
-280.824145586434 9.85326752063634 1917.58344144313 25 25 17
-280.854590101259 12.0760550194391 1874.24011980001 21 21 13
-286.543424821774 12.7030083836596 1854.38103932147 18 19 11
-292.112988779209 13.3889159352761 1833.5290007771 20 23 14
-301.101374241731 13.0846675713095 1827.3694288777 20 23 14
-318.616681215629 10.2291697558005 1859.45490599459 20 23 16
-337.455915488468 6.92848481400127 1898.43062742083 22 23 17
-339.924323509619 8.58335811008024 1862.84677551881 24 27 20
-337.967650316661 11.6528867790137 1805.64038383677 18 21 12
-339.841188771427 13.6030436015869 1765.09107449271 22 23 15
-350.107916233794 12.9585795495569 1763.81154477482 21 16 10
-360.577591035732 12.2494001499517 1763.51478622126 29 22 16
-336.753994306052 25.4247491279303 1538.69927070235 41 32 25
-347.053612042414 24.9320635452996 1534.39217547493 78 71 61
97.9905243134136 28.5480797404486 1860.00089378308 97 78 64
91.459033707453 28.6833821522975 1848.10016716881 82 55 44
88.0719612279426 29.5050669476218 1826.5124459954 61 32 24
81.0739305855745 29.5621438609371 1815.561391045 49 27 16
73.7052889401411 29.5470019918782 1805.57196331623 42 28 17
55.0376453714501 27.0618185527254 1830.45837020408 48 38 29
43.328282345813 26.0892349317088 1834.03858821631 55 48 38
34.1008595364547 25.6636275108213 1829.86487966034 13 9 0
-66.7375194680473 12.6703066174971 1955.37804702974 18 21 12
-62.0684750009708 17.1335028853858 1870.28955244276 21 24 15
-76.910297193014 15.3757521009765 1885.57389176424 15 18 9
-98.3862981818213 12.0270420091181 1924.22068676525 15 18 9
-126.941806269965 8.67908881950219 1952.91433471939 18 21 12
-131.841848210677 9.25718896301978 1934.16150666789 19 22 13
-150.579490197926 6.47091452503454 1965.08681447473 19 22 13
-155.80626306058 6.97924789658408 1947.30108316228 21 24 15
-169.310240561431 5.45083468757773 1959.72871234505 24 27 18
-182.740266279379 3.92684644727784 1972.16531835138 25 28 19
-190.924363983468 3.71075144101329 1965.09795729367 25 28 19
-194.280402234516 4.72739496149296 1939.48236666138 24 27 18
-215.497242050241 1.1968681208899 1982.19321118284 22 25 16
-219.438310728466 2.07854910299149 1958.52058209606 21 24 15
-224.24855040534 2.75867687150355 1937.76331795368 23 26 17
-233.580290647185 2.27381371016436 1934.58443434493 26 29 20
-243.166692670538 1.72386708191022 1932.38186921332 30 27 20
-255.876201177278 0.34134010125475 1942.89264477838 35 30 24
-264.967282205405 -0.0800756606189612 1938.73593983208 72 69 62
-274.544670018632 -0.630119906614962 1936.53449987768 40 37 30
-280.65484306664 -0.228536746057356 1919.64673393452 28 25 18
-278.154747629474 2.5733151957216 1865.53216461633 24 24 16
-281.82906629069 3.71474717261111 1836.85346454997 19 20 12
-291.690379050876 3.14604541322988 1834.61640130589 20 23 14
-301.337793276391 2.63941722041452 1831.3984210364 20 23 14
-313.832367809565 1.31756156823978 1840.92793194797 18 24 14
-328.638070050909 -0.688093495326725 1861.2563477013 19 25 15
-342.049968269706 -2.3128449974533 1875.71109573395 21 24 17
-336.47898959015 1.65918838427448 1801.82148928208 14 17 10
-357.702358006135 2.57738527402701 1752.81355005699 31 24 14
-329.56267745627 13.7898609662205 1561.79814263584 30 21 12
-335.667863345992 14.5801041356723 1536.84799821524 43 33 21
-344.616371077776 14.5063226577541 1525.65363959735 50 42 29
110.702099935895 19.3587094375585 1855.56506029243 85 76 61
99.9487602007456 18.5981067354752 1856.2404842831 96 77 63
92.1148862586299 18.4361945829407 1848.20899929358 90 63 52
89.3728453598754 19.3325973527641 1824.6859630158 61 32 24
84.597189660321 19.8243129756085 1806.95681248932 54 27 18
69.9533208652523 18.2651747628762 1819.242030622 47 29 19
57.2586882560735 17.1052910767686 1825.72308762643 67 54 46
44.2952589868615 15.8822253861188 1833.17821361382 73 64 55
-59.408716181613 4.24024295173289 1933.13635348546 17 20 11
-54.273473931248 6.96961724429246 1881.36668051191 17 20 11
-68.5639287495434 5.38483271228982 1894.70375725639 18 21 12
-85.322719789511 3.22917398354086 1916.80420829988 18 21 12
-91.8615853574787 3.37782712540541 1903.89483907709 18 21 12
-101.521096599454 2.82229732634456 1901.6831650503 22 25 16
-118.611378300112 0.552901879953882 1925.75792173708 21 24 15
-127.395568765533 0.1905976305632 1920.63167215243 18 21 12
-140.246450444877 -1.12013663655414 1930.11692901959 19 22 13
-159.444409469917 -3.93822155702656 1963.0000096809 22 25 16
-166.03935617306 -3.79403693822661 1950.08365363168 23 26 17
-178.191615107451 -4.96906947666978 1957.63988238766 20 23 14
-185.897794210105 -5.07976230341975 1948.61651097671 17 20 11
-186.478635501975 -3.44963835943646 1912.26035405294 17 20 11
-192.576230369015 -3.13623483292361 1896.38207710852 16 19 10
-218.309462636912 -7.65957407520285 1956.67172646861 16 19 10
-226.841487271677 -7.96143302849148 1950.56885914137 19 22 13
-229.515304802998 -6.78677413104148 1921.00700083227 21 24 15
-239.624703058809 -7.46527032689062 1920.75488158987 20 20 12
-249.010535661195 -7.95987766944636 1917.56951350401 31 28 21
-259.120232591655 -8.63881094793054 1917.31735813981 57 54 47
-268.522596913375 -9.13488951123523 1914.12993086753 33 33 25
-285.585680934839 -11.6369461862893 1943.24761039738 27 27 19
-278.430190385303 -7.7670232540912 1869.55625083233 22 22 14
-282.315388628543 -6.76215512055942 1841.85904070631 19 20 12
-292.610590197917 -7.45376957712163 1841.58400912404 20 23 14
-301.796921723562 -7.84494988344947 1836.40741048784 21 24 15
-311.224503500708 -8.29770162770219 1832.20879475963 18 24 14
-328.214092314627 -10.8427269116617 1862.34368658012 18 24 14
-331.837083866854 -7.46614501228399 1783.2773064363 15 18 11
-336.663689114786 -6.56822620492431 1756.47106356455 16 17 9
-349.002593657745 -7.80566648053096 1765.01209176751 25 21 12
-335.171139253631 3.54800830028065 1537.94672617527 43 35 22
-342.564199297122 3.91373300640588 1518.88334348627 50 42 29
101.581536092561 8.5618003627532 1853.44737375383 104 86 74
93.7408094893832 8.37959402745769 1845.41508703672 77 53 43
88.74843431585 8.76707417645151 1828.66685279973 60 30 22
84.6228145138042 9.33926380087577 1809.00323678848 66 37 29
69.9819270141024 7.81782105049891 1821.28872769954 61 41 32
56.9782526775933 6.61620234325125 1828.73901512932 76 61 54
47.1226588821643 6.04655102651885 1826.50266807885 75 66 57
47.4050517677258 7.5469002432689 1792.27019389928 22 19 10
-47.1205640986991 -3.26624843470733 1894.37924314391 18 21 12
-66.3262074627131 -5.85783422919761 1924.23770707318 18 21 12
-89.6498293969288 -9.35995632324948 1968.70093703491 18 21 12
-94.8797286374761 -8.98871268111914 1951.92310395684 19 22 13
-90.9405672199572 -6.607925557605 1903.02838672173 18 21 12
-99.4912726152399 -6.9233520068972 1896.92322387553 22 25 16
-115.774380187565 -8.94122708322345 1918.07498745705 20 23 14
-124.579575084172 -9.31642567963223 1912.94615060037 18 21 12
-147.973671909424 -12.9545128713671 1960.4242453349 18 21 12
-152.407118782709 -12.360210350252 1939.71422872456 21 24 15
-161.179579918203 -12.733831256841 1934.58947269295 22 25 16
-168.66705469193 -12.8096066460088 1924.58537496853 17 20 11
-165.328930611528 -10.3804524868871 1873.59966972031 14 17 8
-177.130111700668 -11.4227604966295 1879.18422746286 14 17 8
-197.008837678337 -14.3632782680229 1916.0136635172 14 17 8
-197.613795097348 -12.7905659006766 1878.64696113648 15 18 9
-229.68749927657 -18.6704417481068 1964.35047591156 17 20 11
-237.718697143622 -18.8683655276306 1956.29446089811 18 21 12
-234.379779623398 -16.3096238465561 1902.28545210778 23 23 15
-245.4970726559 -17.2232306143506 1905.93916137269 23 20 13
-254.69011081666 -17.6684909275898 1901.76979557278 18 18 10
-263.900876131105 -18.1150597288381 1897.59822097475 22 22 14
-290.061430098475 -22.7991943721836 1964.88925678683 27 28 20
-287.64798944968 -20.3429432275368 1911.77271095769 18 19 11
-289.600128257559 -18.9433874926267 1876.25371850231 19 20 12
-306.459850503428 -19.3925824503428 1860.04232732895 21 24 15
