ply
format ascii 1.0
comment KinectMotionCapture
element vertex 751
property float x
property float y
property float z
property uchar red
property uchar green
property uchar blue
end_header
-1157.93013572693 419.023811817169 2372.99990653992 143 145 142
-1155.2609205246 420.402258634567 2381.00004196167 139 141 138
-1151.5873670578 421.428710222244 2387.00008392334 140 142 139
-1146.92628383636 422.103345394135 2391.00003242493 136 138 135
-1140.81692695618 422.249615192413 2391.99995994568 133 135 132
-1135.18083095551 422.573775053024 2394.00005340576 133 135 132
-1129.53805923462 422.899186611176 2395.99990844727 133 135 132
-1124.35758113861 423.402428627014 2398.9999294281 134 136 133
-1121.96028232574 424.965679645538 2407.99999237061 130 132 129
-1119.98093128204 426.706612110138 2417.99998283386 132 134 129
-1117.49017238617 428.272098302841 2427.00004577637 135 137 132
-1112.2077703476 428.77995967865 2430.0000667572 137 139 134
-1107.36787319183 429.465442895889 2434.00001525879 137 139 134
-1101.60529613495 429.799199104309 2436.00010871887 134 137 130
-1097.18382358551 430.66343665123 2440.99998474121 134 137 130
-1092.73850917816 431.528776884079 2446.00009918213 136 139 132
-1088.71328830719 432.571560144424 2451.99990272522 138 140 135
-1085.10005474091 433.791965246201 2459.00011062622 136 138 133
-1081.01308345795 434.836894273758 2464.99991416931 135 137 132
-1076.46095752716 435.706585645676 2470.00002861023 134 136 131
-1071.01833820343 436.224520206451 2473.00004959106 132 134 129
-1065.56236743927 436.743527650833 2476.0000705719 132 134 129
-1060.94813346863 437.616318464279 2480.99994659424 132 134 129
-1057.15918540955 438.842862844467 2487.99991607666 134 136 131
-1053.33507061005 440.070480108261 2494.99988555908 135 137 132
-1048.21693897247 440.7699406147 2499.00007247925 134 136 131
-1042.24610328674 441.117644309998 2500.99992752075 133 135 130
-1037.92309761047 442.171782255173 2506.99996948242 130 132 127
-1033.98108482361 443.403333425522 2513.99993896484 132 134 129
-1029.18601036072 444.283008575439 2519.00005340576 135 137 132
-1024.36602115631 445.163637399673 2523.9999294281 133 135 130
-1018.3117389679 445.516139268875 2526.00002288818 131 133 128
-1013.44990730286 446.398615837097 2530.99989891052 132 134 129
-1008.56292247772 447.28210568428 2536.00001335144 129 131 126
-1005.62560558319 449.04825091362 2546.0000038147 135 137 132
-1001.0666847229 450.10980963707 2552.00004577637 138 140 135
-995.308518409729 450.643122196198 2555.0000667572 138 140 135
-989.148676395416 451.000899076462 2556.99992179871 136 138 133
-983.363926410675 451.535910367966 2559.99994277954 138 140 135
-979.471683502197 452.953696250916 2568.00007820129 133 135 130
-975.916028022766 454.54865694046 2576.99990272522 136 138 133
-971.185028553009 455.615252256393 2582.99994468689 117 119 114
-965.676367282867 456.329941749573 2586.99989318848 109 111 106
-959.776759147644 456.869006156921 2589.99991416931 123 125 120
-955.701589584351 458.290874958038 2598.00004959106 123 125 120
-954.140067100525 460.948318243027 2612.99991607666 142 144 139
-953.585803508759 464.135855436325 2631.00004196167 141 143 138
-1296.24330997467 413.432002067566 2371.99997901917 207 209 206
-1284.12711620331 411.622375249863 2361.99998855591 202 204 201
-1277.48334407806 411.55743598938 2361.99998855591 178 180 177
-1271.3850736618 411.668568849564 2362.99991607666 168 170 167
-1265.28906822205 411.781460046768 2364.00008201599 165 167 164
-1257.06470012665 411.199420690537 2361.00006103516 166 168 165
-1250.45311450958 411.141604185104 2361.00006103516 153 155 152
-1243.84880065918 411.085605621338 2361.00006103516 145 147 144
-1238.82329463959 411.553502082825 2364.00008201599 139 141 138
-1232.74517059326 411.67476773262 2365.00000953674 137 139 136
-1225.63123703003 411.449611186981 2364.00008201599 138 140 137
-1217.49806404114 410.87806224823 2361.00006103516 131 133 130
-1210.41345596313 410.656213760376 2359.99989509583 140 142 139
-1205.89113235474 411.305963993073 2364.00008201599 121 123 120
-1199.83041286469 411.435186862946 2365.00000953674 132 134 131
-1195.28377056122 412.087708711624 2368.99995803833 130 132 129
-1189.21518325806 412.219852209091 2369.99988555908 125 127 124
-1184.14485454559 412.701308727264 2372.99990653992 105 107 104
-1175.09365081787 411.792933940887 2368.00003051758 169 171 168
-1166.07522964478 410.886168479919 2362.99991607666 154 156 153
-1159.05261039734 410.676509141922 2361.99998855591 149 151 148
-1155.45618534088 411.685228347778 2368.00003051758 144 146 143
-1152.80187129974 413.042813539505 2375.99992752075 139 141 138
-1148.17869663239 413.7062728405 2380.00011444092 136 138 135
-1142.0990228653 413.84956240654 2381.00004196167 137 139 136
-1137.92634010315 414.689362049103 2385.99991798401 137 139 136
-1133.25643539429 415.356606245041 2390.00010490417 132 134 131
-1128.56888771057 416.025042533875 2394.00005340576 133 135 132
-1123.39508533478 416.520893573761 2397.0000743866 134 136 133
-1120.53847312927 417.886763811111 2404.99997138977 132 134 131
-1118.10529232025 419.427514076233 2414.00003433228 133 135 130
-1115.16618728638 420.795530080795 2421.99993133545 136 138 133
-1111.27185821533 421.817243099213 2427.99997329712 133 135 130
-1106.43863677979 422.492533922195 2431.99992179871 133 135 130
-1102.94377803802 423.690170049667 2438.99989128113 134 137 130
-1096.26770019531 423.672914505005 2438.99989128113 135 138 131
-1091.38238430023 424.351632595062 2443.00007820129 136 139 132
-1086.47871017456 425.03148317337 2447.00002670288 138 140 135
-1083.76264572144 426.580846309662 2456.00008964539 136 138 133
-1080.12354373932 427.783817052841 2463.00005912781 135 137 132
-1074.70631599426 428.293108940125 2466.00008010864 134 136 131
-1070.57476043701 429.324448108673 2471.99988365173 133 135 130
-1065.12248516083 429.835826158524 2474.99990463257 133 135 130
-1060.93966960907 430.869251489639 2480.99994659424 132 134 129
-1055.0274848938 431.209057569504 2483.00004005432 133 135 130
-1051.21791362762 432.41810798645 2490.00000953674 134 136 131
-1046.11420631409 433.107167482376 2493.99995803833 134 136 131
-1041.40841960907 433.970928192139 2499.00007247925 133 135 130
-1036.26370429993 434.661954641342 2503.00002098084 131 133 128
-1031.92222118378 435.701251029968 2509.0000629425 133 135 130
-1027.5502204895 436.741411685944 2515.00010490417 134 136 131
-1023.95963668823 438.129842281342 2523.00000190735 133 135 130
-1017.90904998779 438.477277755737 2525.00009536743 132 134 129
-1013.05079460144 439.346581697464 2529.99997138977 133 135 130
-1007.76958465576 440.043121576309 2533.99991989136 132 134 129
-1004.04870510101 441.435158252716 2542.00005531311 136 138 133
-997.932434082031 441.786080598831 2543.99991035461 137 139 134
-991.807222366333 442.137897014618 2546.0000038147 137 139 134
-986.833274364471 443.011581897736 2551.00011825562 137 139 134
-982.986330986023 444.407016038895 2559.00001525879 137 139 134
-979.097366333008 445.803284645081 2566.99991226196 134 136 131
-975.545287132263 447.374105453491 2575.99997520447 136 138 133
-970.817863941193 448.424696922302 2582.00001716614 123 125 120
-966.059267520905 449.476093053818 2588.00005912781 112 114 109
-960.528254508972 450.180888175964 2592.00000762939 126 128 123
-956.448316574097 451.581209897995 2599.99990463257 118 120 115
-953.421652317047 453.503400087357 2611.00006103516 130 132 127
-952.148675918579 456.294864416122 2627.00009346008 143 145 140
-1293.99061203003 406.254023313522 2368.00003051758 203 205 202
-1283.51855278015 404.987871646881 2361.00006103516 198 200 197
-1274.71601963043 404.238551855087 2357.00011253357 168 170 167
-1269.70946788788 404.691398143768 2359.99989509583 161 163 160
-1262.55309581757 404.460161924362 2358.99996757507 168 170 167
-1253.81231307983 403.716415166855 2355.00001907349 169 171 168
-1246.16003036499 403.317332267761 2352.9999256134 152 154 151
-1241.16015434265 403.776884078979 2355.99994659424 140 142 139
-1237.7222776413 404.752165079117 2361.99998855591 136 138 135
-1231.13012313843 404.700726270676 2361.99998855591 138 140 137
-1224.54476356506 404.650896787643 2361.99998855591 131 133 130
-1217.44990348816 404.431372880936 2361.00006103516 132 134 131
-1210.36696434021 404.213428497314 2359.99989509583 148 150 147
-1204.31590080261 404.339671134949 2361.00006103516 118 120 117
-1197.75772094727 404.296100139618 2361.00006103516 132 134 131
-1194.23270225525 405.281364917755 2367.00010299683 124 126 123
-1188.17138671875 405.411928892136 2368.00003051758 124 126 123
-1183.10785293579 405.886262655258 2371.00005149841 102 104 101
-1173.56741428375 404.821425676346 2365.00000953674 178 180 177
-1165.54570198059 404.27166223526 2361.99998855591 142 144 141
-1158.03647041321 403.894484043121 2359.99989509583 151 153 150
-1153.47111225128 404.545664787292 2364.00008201599 151 153 150
-1150.34401416779 405.711323022842 2371.00005149841 134 136 133
-1146.21818065643 406.535983085632 2375.99992752075 136 138 135
-1141.11030101776 407.019674777985 2378.99994850159 146 148 145
-1135.03670692444 407.162427902222 2380.00011444092 148 150 147
-1130.85865974426 407.990694046021 2384.99999046326 142 144 141
-1126.6576051712 408.820241689682 2390.00010490417 139 141 138
-1122.90179729462 409.82186794281 2395.99990844727 139 141 138
-1119.11737918854 410.824686288834 2401.99995040894 133 135 132
-1116.69373512268 412.341713905334 2411.00001335144 131 133 128
-1113.30354213715 413.517713546753 2417.99998283386 135 137 132
-1109.42137241364 414.523839950562 2424.00002479553 132 134 129
-1103.69038581848 414.847046136856 2426.00011825562 130 132 127
-1099.76089000702 415.855348110199 2431.99992179871 133 136 129
-1095.35253047943 416.69374704361 2437.00003623962 133 136 129
-1090.92044830322 417.533189058304 2441.99991226196 128 131 124
-1085.57653427124 418.031811714172 2444.9999332428 136 138 135
-1081.10201358795 418.873429298401 2450.00004768372 136 138 135
-1078.35745811462 420.399963855743 2459.00011062622 135 137 134
-1073.38798046112 421.072632074356 2463.00005912781 135 137 134
-1069.26572322845 422.088295221329 2469.00010108948 133 135 132
-1064.25297260284 422.762989997864 2473.00004959106 133 135 132
-1059.6489906311 423.609673976898 2477.9999256134 132 134 131
-1053.74598503113 423.944532871246 2480.00001907349 132 134 131
-1049.94547367096 425.13507604599 2486.99998855591 134 136 133
-1045.69005966187 426.155656576157 2493.00003051758 135 137 134
-1041.4046049118 427.17719078064 2499.00007247925 136 138 135
-1034.60478782654 427.174001932144 2499.00007247925 134 136 133
-1029.45256233215 427.855551242828 2503.00002098084 134 136 133
-1025.09784698486 428.879857063293 2509.0000629425 134 136 133
-1021.93033695221 430.417835712433 2517.99988746643 133 135 132
-1017.1035528183 431.27304315567 2523.00000190735 134 136 133
-1012.25161552429 432.129144668579 2528.00011634827 135 137 134
-1006.57904148102 432.644188404083 2530.99989891052 132 134 131
-1002.4721622467 433.8438808918 2538.00010681152 135 137 134
-996.367573738098 434.189707040787 2539.99996185303 133 135 132
-990.643680095673 434.707343578339 2542.99998283386 131 133 130
-984.905004501343 435.225784778595 2546.0000038147 134 136 133
-981.456458568573 436.770707368851 2555.0000667572 135 137 132
-977.960646152496 438.316464424133 2563.99989128113 138 140 135
-975.174903869629 440.204948186874 2575.00004768372 137 139 134
-971.578896045685 441.752374172211 2584.00011062622 140 142 137
-966.815769672394 442.787677049637 2589.99991416931 123 125 120
-960.538923740387 443.139940500259 2592.00000762939 130 132 127
-955.723941326141 444.176763296127 2598.00004959106 115 117 114
-952.703356742859 446.069210767746 2608.99996757507 146 148 145
-950.711667537689 448.475390672684 2622.99990653992 147 149 146
-949.004948139191 451.053410768509 2638.00001144409 141 143 140
-1290.64655303955 398.761421442032 2361.99998855591 202 204 201
-1280.19332885742 397.51610159874 2355.00001907349 194 196 193
-1270.86865901947 396.610498428345 2349.99990463257 165 167 164
-1265.88380336761 397.056818008423 2352.9999256134 161 163 160
-1258.74865055084 396.829873323441 2351.99999809265 168 170 167
-1251.09386444092 396.43594622612 2349.99990463257 169 171 168
-1243.98708343506 396.212428808212 2348.99997711182 149 151 148
-1240.05353450775 397.002577781677 2354.00009155273 136 138 135
-1236.6224527359 397.962689399719 2359.99989509583 132 134 131
-1230.55899143219 398.081213235855 2361.00006103516 134 136 133
-1223.97792339325 398.032605648041 2361.00006103516 128 130 127
-1219.46573257446 398.659855127335 2365.00000953674 128 130 127
-1211.86029911041 398.277223110199 2362.99991607666 148 150 147
-1206.31241798401 398.57029914856 2365.00000953674 123 125 122
-1198.72999191284 398.19073677063 2362.99991607666 131 133 130
-1195.20092010498 399.160742759705 2368.99995803833 128 130 127
-1188.13180923462 398.952633142471 2368.00003051758 123 125 122
-1182.07192420959 399.08292889595 2368.99995803833 109 111 108
-1172.53839969635 398.03546667099 2362.99991607666 175 177 174
-1165.01724720001 397.663354873657 2361.00006103516 139 141 138
-1157.51230716705 397.292703390121 2358.99996757507 150 152 149
-1152.46295928955 397.765427827835 2361.99998855591 150 152 149
-1147.88699150085 398.407757282257 2365.9999370575 135 137 134
-1144.25885677338 399.388134479523 2371.99997901917 136 138 135
-1138.68355751038 399.696230888367 2374.00007247925 144 146 143
-1133.10194015503 400.005519390106 2375.99992752075 140 142 139
-1128.93617153168 400.821089744568 2381.00004196167 133 135 132
-1126.16121768951 402.142733335495 2388.99993896484 133 135 132
-1122.87819385529 403.297245502472 2395.99990844727 136 138 135
-1118.62909793854 404.116153717041 2401.00002288818 136 138 135
-1114.81976509094 405.104547739029 2407.00006484985 137 139 134
-1109.60018634796 405.589073896408 2410.00008583069 136 138 133
-1105.28326034546 406.411319971085 2414.99996185303 133 135 130
-1099.57790374756 406.729817390442 2417.00005531311 130 132 127
-1097.03099727631 408.227443695068 2426.00011825562 133 136 129
-1093.5389995575 409.389406442642 2433.00008773804 134 137 130
-1089.11895751953 410.215944051743 2437.99996376038 130 133 126
-1083.34314823151 410.538762807846 2440.00005722046 134 136 133
-1077.55947113037 410.862624645233 2441.99991226196 135 137 134
-1075.27613639832 412.533432245255 2451.99990272522 135 137 134
-1071.19846343994 413.532376289368 2457.99994468689 135 137 134
-1067.09098815918 414.532274007797 2463.99998664856 133 135 132
-1061.23232841492 414.860218763351 2466.00008010864 133 135 132
-1057.50370025635 416.030317544937 2473.00004959106 133 135 132
-1052.04021930695 416.528433561325 2476.0000705719 133 135 132
-1048.67362976074 417.868614196777 2483.99996757507 134 136 133
-1043.58839988709 418.536901473999 2487.99991607666 135 137 134
-1038.90085220337 419.374346733093 2493.00003051758 137 139 136
-1032.53221511841 419.53980922699 2493.99995803833 136 138 135
-1027.8058052063 420.379132032394 2499.00007247925 135 137 134
-1022.6457118988 421.051055192947 2503.00002098084 134 136 133
-1019.08957958221 422.396779060364 2510.99991798401 135 137 134
-1015.08891582489 423.575162887573 2517.99988746643 135 137 134
-1011.0524892807 424.754500389099 2525.00009536743 135 137 134
-1005.38885593414 425.261706113815 2528.00011634827 133 135 132
-1001.29079818726 426.44265294075 2535.00008583069 135 137 134
-994.803130626678 426.615178585052 2536.00001335144 135 137 134
-989.869773387909 427.461296319962 2540.99988937378 132 134 131
-982.976853847504 427.467226982117 2540.99988937378 132 134 131
-979.926824569702 429.156184196472 2551.00011825562 136 138 133
-976.442694664001 430.677711963654 2559.99994277954 139 141 136
-973.289906978607 432.368278503418 2569.9999332428 138 140 135
-969.708204269409 433.891445398331 2578.9999961853 143 145 140
-965.332627296448 435.078948736191 2585.99996566772 128 130 125
-960.179209709167 435.930699110031 2591.00008010864 129 131 128
-955.367505550385 436.951369047165 2596.99988365173 113 115 112
-952.350497245789 438.814133405685 2608.00004005432 142 144 143
-949.274837970734 440.677642822266 2618.99995803833 142 144 143
-946.860134601593 442.87845492363 2631.99996948242 135 137 136
-1302.72877216339 394.024342298508 2371.99997901917 206 208 205
-1286.75770759583 391.136586666107 2355.00001907349 198 200 197
-1277.4133682251 390.244215726852 2349.99990463257 178 180 177
-1268.10479164124 389.353841543198 2345.00002861023 160 162 159
-1262.59732246399 389.627456665039 2346.99988365173 163 165 162
-1256.55138492584 389.736771583557 2348.00004959106 169 171 168
-1250.5065202713 389.847636222839 2348.99997711182 167 169 166
-1243.40403079987 389.628231525421 2348.00004959106 147 149 146
-1238.42144012451 390.074193477631 2351.0000705719 136 138 135
-1235.00049114227 391.019254922867 2357.00011253357 131 133 130
-1229.46774959564 391.302108764648 2358.99996757507 130 132 129
-1223.41227531433 391.420632600784 2359.99989509583 129 131 128
-1218.38855743408 391.872346401215 2362.99991607666 126 128 125
-1212.32891082764 391.993820667267 2364.00008201599 137 139 136
-1206.26962184906 392.116725444794 2365.00000953674 133 135 132
-1197.67427444458 391.412198543549 2361.00006103516 135 137 134
-1193.14312934875 392.035394906998 2365.00000953674 137 139 136
-1185.58478355408 391.66533946991 2362.99991607666 115 117 114
-1180.03916740417 391.959756612778 2365.00000953674 127 129 126
-1172.00696468353 391.426920890808 2361.99998855591 152 154 151
-1164.9831533432 391.226887702942 2361.00006103516 137 139 136
-1158.46085548401 391.193956136703 2361.00006103516 139 141 138
-1152.4316072464 391.328066587448 2361.99998855591 137 139 136
-1146.88682556152 391.629159450531 2364.00008201599 136 138 135
-1143.26512813568 392.594039440155 2369.99988555908 137 139 136
-1139.13547992706 393.394410610199 2375 138 140 137
-1134.02938842773 393.864780664444 2378.00002098084 134 136 133
-1128.91089916229 394.336223602295 2381.00004196167 133 135 132
-1124.72319602966 395.140111446381 2385.99991798401 127 129 126
-1121.44947052002 396.276295185089 2392.99988746643 129 131 128
-1117.67554283142 397.247970104218 2398.9999294281 131 133 130
-1113.87288570404 398.220717906952 2404.99997138977 132 134 129
-1108.19947719574 398.532330989838 2407.00006484985 136 138 133
-1103.43432426453 399.176090955734 2411.00001335144 134 136 131
-1097.74112701416 399.489879608154 2413.00010681152 131 133 128
-1094.75386142731 400.798052549362 2421.0000038147 130 133 126
-1091.7261838913 402.107208967209 2428.99990081787 133 136 129
-1087.76497840881 403.086334466934 2434.99994277954 138 141 134
-1082.44216442108 403.569787740707 2437.99996376038 134 136 133
-1076.66516304016 403.888881206512 2440.00005722046 136 138 135
-1073.94993305206 405.367583036423 2448.99988174438 137 139 136
-1070.31714916229 406.516224145889 2456.00008964539 137 139 136
-1065.34993648529 407.169252634048 2460.00003814697 136 138 135
-1059.93354320526 407.65780210495 2463.00005912781 135 137 134
-1055.78649044037 408.643841743469 2469.00010108948 134 136 133
-1052.03437805176 409.796357154846 2476.0000705719 134 136 133
-1047.40226268768 410.618722438812 2480.99994659424 136 138 135
-1041.90671443939 411.111056804657 2483.99996757507 135 137 134
-1036.39733791351 411.604315042496 2486.99998855591 134 136 133
-1030.04610538483 411.767482757568 2487.99991607666 136 138 135
-1024.51431751251 412.262558937073 2490.9999370575 136 138 135
-1020.1940536499 413.255035877228 2496.99997901917 137 139 136
-1016.6552066803 414.579421281815 2505.00011444092 138 140 137
-1013.47780227661 416.070073843002 2513.99993896484 136 138 135
-1009.0526342392 417.065143585205 2519.99998092651 134 136 133
-1003.40354442596 417.564570903778 2523.00000190735 136 138 135
-999.319911003113 418.726801872253 2529.99997138977 135 137 134
-994.023382663727 419.393360614777 2533.99991989136 136 138 135
-989.875435829163 420.557230710983 2540.99988937378 136 138 135
-982.596397399902 420.397877693176 2539.99996185303 132 134 131
-978.781640529633 421.728879213333 2548.00009727478 132 134 129
-974.543571472168 422.895163297653 2555.0000667572 132 134 129
-971.783757209778 424.724280834198 2565.99998474121 138 140 135
-968.213737010956 426.223158836365 2575.00004768372 137 139 134
-963.476359844208 427.226275205612 2581.00008964539 139 141 136
-959.448873996735 428.561180830002 2588.99998664856 129 131 128
-954.643487930298 429.565727710724 2595.00002861023 122 124 121
-951.632440090179 431.398719549179 2605.99994659424 134 136 135
-948.562979698181 433.232545852661 2617.00010299683 140 142 141
-945.794641971588 435.232579708099 2628.99994850159 141 143 142
-943.319380283356 437.39902973175 2641.99995994568 156 158 157
-1302.66439914703 387.534439563751 2371.99997901917 203 205 202
-1285.60292720795 384.367972612381 2352.9999256134 195 197 194
-1277.35316753387 383.817404508591 2349.99990463257 172 174 171
-1269.12784576416 383.268743753433 2346.99988365173 158 160 157
-1262.54057884216 383.211672306061 2346.99988365173 163 165 162
-1254.89068031311 382.829815149307 2345.00002861023 165 167 164
-1249.92060661316 383.265793323517 2348.00004959106 163 165 162
-1243.3522939682 383.213669061661 2348.00004959106 143 145 142
-1237.84410953522 383.489459753037 2349.99990463257 134 136 133
-1233.37960243225 384.093105792999 2354.00009155273 129 131 128
-1228.89924049377 384.698122739792 2358.00004005432 127 129 126
-1223.36614131927 384.978175163269 2359.99989509583 132 134 131
-1218.85967254639 385.585963726044 2364.00008201599 129 131 128
-1213.3115530014 385.868906974792 2365.9999370575 134 136 133
-1207.24821090698 385.990172624588 2367.00010299683 136 138 135
-1198.14145565033 385.134518146515 2361.99998855591 140 142 139
-1191.5910243988 385.095685720444 2361.99998855591 145 147 144
-1185.04595756531 385.05819439888 2361.99998855591 113 115 112
-1180.5020570755 385.674148797989 2365.9999370575 130 132 129
-1171.47624492645 384.824484586716 2361.00006103516 133 135 132
-1164.95013237 384.791165590286 2361.00006103516 124 126 123
-1158.42914581299 384.759128093719 2361.00006103516 124 126 123
-1152.88889408112 385.054349899292 2362.99991607666 121 123 120
-1146.37219905853 385.024935007095 2362.99991607666 128 130 127
-1142.2723531723 385.811448097229 2368.00003051758 132 134 131
-1138.14949989319 386.599093675613 2372.99990653992 133 135 132
-1135.43438911438 387.876629829407 2381.00004196167 133 135 132
-1130.30886650085 388.340681791306 2384.0000629425 131 133 130
-1125.17130374908 388.805896043777 2387.00008392334 125 127 124
-1120.95868587494 389.59801197052 2391.99995994568 128 130 127
-1116.25707149506 390.228390693665 2395.99990844727 133 135 132
-1112.92684078217 391.348421573639 2403.00011634827 136 138 133
-1106.3392162323 391.329526901245 2403.00011634827 138 140 135
-1100.67081451416 391.637414693832 2404.99997138977 136 138 133
-1096.35984897614 392.43495464325 2410.00008583069 130 132 127
-1092.47744083405 393.396317958832 2415.99988937378 128 130 125
-1089.91408348084 394.847214221954 2424.99995231628 130 133 126
-1085.96467971802 395.810604095459 2430.99999427795 137 139 134
-1081.09784126282 396.449387073517 2434.99994277954 135 137 134
-1076.21252536774 397.089093923569 2438.99989128113 137 139 136
-1071.74706459045 397.892713546753 2444.00000572205 138 140 137
-1067.69323348999 398.860067129135 2450.00004768372 138 140 137
-1063.17639350891 399.66556429863 2454.99992370605 137 139 136
-1058.63523483276 400.472015142441 2460.00003814697 137 139 136
-1054.49736118317 401.442259550095 2466.00008010864 134 136 133
-1049.90446567535 402.250587940216 2470.99995613098 135 137 134
-1046.13125324249 403.385370969772 2477.9999256134 136 138 135
-1040.22550582886 403.707236051559 2480.00001907349 135 137 134
-1033.89441967011 403.867155313492 2480.99994659424 133 135 132
-1028.38838100433 404.353559017181 2483.99996757507 136 138 135
-1023.6908197403 405.166447162628 2489.00008201599 136 138 135
-1019.37699317932 406.142950057983 2494.99988555908 137 139 136
-1015.03264904022 407.12034702301 2500.99992752075 139 141 138
-1010.65766811371 408.098548650742 2506.99996948242 136 138 135
-1007.45356082916 409.565955400467 2516.00003242493 134 136 133
-1003.00920009613 410.545855760574 2522.0000743866 135 137 134
-999.324142932892 411.852151155472 2529.99997138977 133 135 132
-993.243873119354 412.182569503784 2532.00006484985 133 135 132
-988.712668418884 413.164854049683 2538.00010681152 136 138 135
-982.989907264709 413.659602403641 2540.99988937378 132 134 131
-978.789031505585 414.80627655983 2548.00009727478 130 132 127
-973.788857460022 415.628165006638 2552.99997329712 128 130 125
-968.762993812561 416.450798511505 2558.00008773804 131 133 128
-964.463353157043 417.599827051163 2565.00005722046 134 136 131
-960.873484611511 419.075101613998 2573.99988174438 142 144 139
-958.718776702881 421.202480792999 2586.99989318848 129 131 128
-954.655289649963 422.51655459404 2595.00002861023 125 127 124
-952.010214328766 424.482673406601 2607.00011253357 128 130 129
-948.213696479797 425.96098780632 2615.9999370575 137 139 138
-946.168422698975 428.254276514053 2630.00011444092 139 141 140
-943.333983421326 430.222630500793 2641.99995994568 146 148 147
-940.435528755188 432.191699743271 2654.00004386902 158 160 157
-1315.91188907623 383.036673069 2384.0000629425 206 208 205
-1298.20823669434 379.760444164276 2364.00008201599 207 209 206
-1284.99567508698 377.771884202957 2351.99999809265 181 183 180
-1277.8377532959 377.55224108696 2351.0000705719 168 170 167
-1271.23355865479 377.494812011719 2351.0000705719 158 160 157
-1264.63675498962 377.439022064209 2351.0000705719 158 160 157
-1256.44218921661 376.90332531929 2348.00004959106 168 170 167
-1250.40054321289 377.011358737946 2348.99997711182 167 169 166
-1243.30151081085 376.79997086525 2348.00004959106 137 139 136
-1238.32166194916 377.232015132904 2351.0000705719 129 131 128
-1232.28394985199 377.344578504562 2351.99999809265 123 125 122
-1228.85286808014 378.260731697083 2358.00004005432 127 129 126
-1222.80311584473 378.37615609169 2358.99996757507 122 124 121
-1217.26953983307 378.65337729454 2361.00006103516 123 125 122
-1213.26947212219 379.413098096848 2365.9999370575 123 125 122
-1208.22751522064 379.853427410126 2368.99995803833 140 142 139
-1200.13129711151 379.333078861237 2365.9999370575 113 115 112
-1192.0577287674 378.814280033112 2362.99991607666 141 143 140
-1184.50796604156 378.457188606262 2361.00006103516 109 111 108
-1179.96823787689 379.063278436661 2365.00000953674 141 143 140
-1172.43492603302 378.708928823471 2362.99991607666 95 97 94
-1166.39804840088 378.836780786514 2364.00008201599 115 117 114
-1160.85147857666 379.126131534576 2365.9999370575 111 113 110
-1155.29882907867 379.416733980179 2368.00003051758 107 109 106
-1148.28455448151 379.22790646553 2367.00010299683 118 120 117
-1141.76297187805 379.200577735901 2367.00010299683 127 129 126
-1138.12351226807 380.13556599617 2372.99990653992 129 131 128
-1136.36314868927 381.712436676025 2382.99989700317 129 131 128
-1131.70778751373 382.329285144806 2387.00008392334 129 129 127
-1125.14877319336 382.306575775146 2387.00008392334 126 126 124
-1120.00024318695 382.765501737595 2390.00010490417 128 128 126
-1115.30518531799 383.385717868805 2394.00005340576 135 135 133
-1111.05501651764 384.167075157166 2398.9999294281 137 137 135
-1105.40044307709 384.46918129921 2401.00002288818 136 136 134
-1100.19624233246 384.932428598404 2404.00004386902 134 134 132
-1094.52438354492 385.236620903015 2405.99989891052 134 134 132
-1089.74969387054 385.862112045288 2410.00008583069 133 133 131
-1087.20350265503 387.289136648178 2418.99991035461 133 133 131
-1085.05856990814 388.877183198929 2428.99990081787 140 140 138
-1081.53033256531 389.985978603363 2436.00010871887 139 141 138
-1077.08442211151 390.775442123413 2440.99998474121 135 137 134
-1071.73728942871 391.245752573013 2444.00000572205 139 141 138
-1066.81287288666 391.877144575119 2447.99995422363 142 144 141
-1062.73555755615 392.829596996307 2453.9999961853 138 140 137
-1058.62843990326 393.783062696457 2460.00003814697 136 138 135
-1054.06379699707 394.577294588089 2464.99991416931 133 135 132
-1049.89945888519 395.532518625259 2470.99995613098 136 138 135
-1045.70519924164 396.488696336746 2476.99999809265 138 140 137
-1040.22228717804 396.965503692627 2480.00001907349 136 138 135
-1033.47551822662 396.963089704514 2480.00001907349 138 140 137
-1027.55916118622 397.28170633316 2482.00011253357 136 138 135
-1022.86791801453 398.0812728405 2486.99998855591 137 139 136
-1018.9688205719 399.2018699646 2493.99995803833 137 139 136
-1013.81635665894 399.843126535416 2497.99990653992 136 138 135
-1008.6442232132 400.485247373581 2502.00009346008 137 139 136
-1006.2552690506 402.248650789261 2513.00001144409 139 141 138
-1003.41057777405 403.852730989456 2523.00000190735 138 140 137
-998.933792114258 404.817461967468 2529.00004386902 135 137 134
-992.072343826294 404.822468757629 2529.00004386902 135 137 134
-985.991835594177 405.148446559906 2530.99989891052 137 139 136
-981.836259365082 406.275570392609 2538.00010681152 136 138 135
-977.644264698029 407.403439283371 2545.00007629395 128 130 127
-973.415791988373 408.532053232193 2552.00004577637 125 127 124
-966.878414154053 408.700913190842 2552.99997329712 125 127 124
-962.216913700104 409.670919179916 2559.00001525879 131 133 130
-959.017634391785 411.28209233284 2569.00000572205 136 138 135
-957.247674465179 413.534373044968 2582.99994468689 135 137 134
-953.563630580902 414.986908435822 2592.00000762939 130 132 129
-950.196862220764 416.600227355957 2601.99999809265 124 126 123
-946.777164936066 418.214380741119 2611.99998855591 134 136 133
-945.822536945343 420.950025320053 2628.99994850159 138 140 137
-943.348705768585 423.045992851257 2641.99995994568 147 149 146
-940.096497535706 424.822449684143 2653.00011634827 159 161 158
-1307.56902694702 374.145567417145 2368.99995803833 205 207 204
-1295.40121555328 372.504979372025 2358.99996757507 204 206 203
-1284.93654727936 371.340274810791 2351.99999809265 176 178 175
-1277.78029441834 371.124684810638 2351.0000705719 168 170 167
-1271.7182636261 371.226489543915 2351.99999809265 158 160 157
-1265.12038707733 371.172040700912 2351.99999809265 158 160 157
-1257.45952129364 370.803564786911 2349.99990463257 169 171 168
-1250.34940242767 370.594561100006 2348.99997711182 167 169 166
-1243.2519197464 370.387196540833 2348.00004959106 133 135 132
-1238.27373981476 370.812267065048 2351.0000705719 125 127 124
-1232.23745822906 370.923310518265 2351.99999809265 121 123 120
-1228.28650474548 371.666550636292 2357.00011253357 126 128 125
-1221.72284126282 371.622741222382 2357.00011253357 121 123 120
-1217.74280071259 372.368603944778 2361.99998855591 118 120 117
-1212.71586418152 372.800499200821 2365.00000953674 126 128 125
-1208.18793773651 373.391270637512 2368.99995803833 144 146 143
-1200.09326934814 372.880220413208 2365.9999370575 99 101 98
-1192.52562522888 372.528195381165 2364.00008201599 142 144 141
-1184.47279930115 372.02000617981 2361.00006103516 111 113 110
-1179.93438243866 372.616082429886 2365.00000953674 139 141 138
-1173.8908290863 372.740775346756 2365.9999370575 84 86 83
-1168.34020614624 373.024255037308 2368.00003051758 106 108 105
-1161.31198406219 372.836500406265 2367.00010299683 107 109 106
-1156.73351287842 373.437494039536 2371.00005149841 104 106 103
-1149.22714233398 373.094648122787 2368.99995803833 123 125 122
-1141.73662662506 372.753202915192 2367.00010299683 131 133 130
-1137.13920116425 373.357713222504 2371.00005149841 128 130 127
-1135.38551330566 374.908149242401 2381.00004196167 130 132 129
-1130.73647022247 375.514835119247 2384.99999046326 130 130 128
-1123.24154376984 375.178039073944 2382.99989700317 128 128 126
-1118.10517311096 375.629544258118 2385.99991798401 127 127 125
-1112.9561662674 376.08215212822 2388.99993896484 132 132 130
-1109.18414592743 377.008080482483 2394.99998092651 134 134 132
-1103.08110713959 377.147942781448 2395.99990844727 137 137 135
-1097.43404388428 377.446293830872 2398.00000190735 135 135 133
-1091.77982807159 377.745777368546 2400.00009536743 134 134 132
-1087.0224237442 378.360986709595 2404.00004386902 133 133 131
-1084.94341373444 379.921525716782 2414.00003433228 132 132 130
-1082.36622810364 381.325572729111 2423.00009727478 139 139 137
-1078.41122150421 382.258415222168 2428.99990081787 139 141 138
-1074.86808300018 383.349627256393 2436.00010871887 138 140 137
-1070.41263580322 384.127080440521 2440.99998474121 141 143 140
-1066.80452823639 385.22008061409 2447.99995422363 142 144 141
-1061.42902374268 385.684698820114 2450.99997520447 140 142 139
-1056.47039413452 386.307537555695 2454.99992370605 140 142 139
-1051.92029476166 387.088626623154 2460.00003814697 134 136 133
-1048.19548130035 388.185322284698 2467.00000762939 136 138 135
-1044.43514347076 389.28297162056 2473.99997711182 140 142 139
-1039.80016708374 390.066772699356 2479.00009155273 138 140 137
-1034.30712223053 390.536695718765 2482.00011253357 137 139 136
-1028.80012989044 391.007512807846 2484.99989509583 135 137 134
-1023.69046211243 391.636580228806 2489.00008201599 135 137 134
-1018.96953582764 392.423778772354 2493.99995803833 136 138 135
-1013.00621032715 392.739742994308 2496.00005149841 137 139 136
-1007.43722915649 393.213957548141 2499.00007247925 137 139 136
-1005.05709648132 394.947648048401 2509.99999046326 137 139 136
-1002.22146511078 396.524906158447 2519.99998092651 140 142 139
-998.543560504913 397.788256406784 2528.00011634827 138 140 137
-991.685628890991 397.793531417847 2528.00011634827 137 139 136
-985.21900177002 397.956937551498 2529.00004386902 138 140 137
-981.069445610046 399.065166711807 2536.00001335144 139 141 138
-976.499557495117 400.016814470291 2542.00005531311 134 136 133
-972.279965877533 401.126652956009 2549.00002479553 123 125 122
-965.751469135284 401.292949914932 2549.99995231628 118 120 117
-960.346877574921 401.932060718536 2553.99990081787 123 125 122
-956.415116786957 403.201431035995 2562.00003623962 127 129 126
-955.035328865051 405.573070049286 2576.99990272522 137 139 136
-952.471852302551 407.47344493866 2588.99998664856 137 139 136
-949.479222297668 409.217149019241 2599.99990463257 120 122 119
-946.79057598114 411.118984222412 2611.99998855591 132 134 131
-946.556210517883 414.123326539993 2631.00004196167 144 146 143
-944.077551364899 416.184037923813 2644.00005340576 140 142 139
-940.111935138702 417.61589050293 2653.00011634827 149 151 148
-933.988273143768 418.103814125061 2655.99989891052 138 139 134
-1302.54018306732 366.26872420311 2359.99989509583 207 209 206
-1292.04678535461 365.122675895691 2352.9999256134 197 199 196
-1283.7860584259 364.599257707596 2349.99990463257 170 172 169
-1276.09372138977 364.232748746872 2348.00004959106 167 169 166
-1271.66378498077 364.798545837402 2351.99999809265 159 161 158
-1265.06745815277 364.745408296585 2351.99999809265 156 158 155
-1258.47852230072 364.693850278854 2351.99999809265 166 168 165
-1249.76754188538 364.023655653 2348.00004959106 163 165 162
-1242.67411231995 363.820195198059 2346.99988365173 130 132 129
-1237.69998550415 364.238291978836 2349.99990463257 124 126 123
-1231.66811466217 364.347845315933 2351.0000705719 121 123 120
-1227.20038890839 364.923655986786 2355.00001907349 125 127 124
-1221.68040275574 365.190893411636 2357.00011253357 130 132 129
-1218.21713447571 366.079151630402 2362.99991607666 121 123 120
-1212.67592906952 366.348952054977 2365.00000953674 126 128 125
-1208.65941047668 367.084801197052 2369.99988555908 140 142 139
-1201.07078552246 366.73778295517 2368.00003051758 98 100 97
-1193.49873065948 366.392135620117 2365.9999370575 136 138 135
-1184.43834781647 365.583389997482 2361.00006103516 128 130 127
-1179.40235137939 366.014689207077 2364.00008201599 138 140 137
-1173.85900020599 366.292387247086 2365.9999370575 77 79 76
-1168.3098077774 366.571366786957 2368.00003051758 102 104 101
-1161.77344322205 366.54195189476 2368.00003051758 107 109 106
-1155.7297706604 366.668522357941 2368.99995803833 110 112 109
-1149.20032024384 366.64155125618 2368.99995803833 135 137 134
-1141.22867584229 366.151541471481 2365.9999370575 137 139 136
-1137.59434223175 367.055475711823 2371.99997901917 126 128 125
-1134.40835475922 368.115186691284 2378.99994850159 129 131 128
-1130.71441650391 369.021266698837 2384.99999046326 126 126 124
-1124.16338920593 369.000017642975 2384.99999046326 125 125 123
-1118.55387687683 369.289368391037 2387.00008392334 125 125 123
-1112.47158050537 369.425058364868 2388.00001144409 131 131 129
-1106.85098171234 369.71652507782 2390.00010490417 137 137 135
-1101.68325901031 370.163708925247 2392.99988746643 136 136 134
-1096.96090221405 370.766639709473 2397.0000743866 135 135 133
-1090.85536003113 370.906531810761 2398.00000190735 135 135 133
-1086.10463142395 371.511459350586 2401.99995040894 135 135 133
-1082.23414421082 372.426688671112 2407.99999237061 134 134 132
-1079.22756671906 373.652160167694 2415.99988937378 140 140 138
-1075.73688030243 374.723970890045 2423.00009727478 136 138 135
-1071.32840156555 375.487357378006 2427.99997329712 138 140 137
-1068.21143627167 376.715660095215 2436.00010871887 141 143 140
-1064.61799144745 377.790153026581 2443.00007820129 139 141 138
-1060.12308597565 378.556281328201 2447.99995422363 140 142 139
-1055.60398101807 379.323363304138 2453.00006866455 142 144 141
-1051.48780345917 380.245923995972 2459.00011062622 134 136 133
-1047.76644706726 381.323993206024 2466.00008010864 133 135 132
-1043.16544532776 382.093727588654 2470.99995613098 141 143 140
-1038.95890712738 383.018881082535 2476.99999809265 140 142 139
-1033.88893604279 383.635669946671 2480.99994659424 136 138 135
-1028.38551998138 384.098708629608 2483.99996757507 136 138 135
-1022.04549312592 384.253263473511 2484.99989509583 135 137 134
-1017.33636856079 385.027199983597 2490.00000953674 137 139 136
-1011.38472557068 385.338068008423 2492.00010299683 139 141 138
-1006.23047351837 385.958969593048 2496.00005149841 138 140 137
-1003.058552742 387.353867292404 2505.00011444092 136 138 135
-999.441862106323 388.594835996628 2513.00001144409 142 144 141
-996.17862701416 389.99131321907 2522.0000743866 141 143 140
-989.730000495911 390.151381492615 2523.00000190735 139 141 138
-984.056711196899 390.621513128281 2526.00002288818 136 138 135
-979.916155338287 391.710966825485 2532.99999237061 137 139 136
-975.739181041718 392.801135778427 2539.99996185303 137 139 136
-971.52578830719 393.892079591751 2546.99993133545 125 127 124
-965.382099151611 394.210487604141 2549.00002479553 118 120 117
-959.604859352112 394.684195518494 2552.00004577637 119 121 118
-955.305933952332 395.77728509903 2559.00001525879 120 122 119
-953.564405441284 397.953629493713 2572.99995422363 138 140 137
-952.116131782532 400.285482406616 2588.00005912781 139 141 138
-948.761701583862 401.844710111618 2598.00004959106 117 119 116
-946.44159078598 403.868675231934 2611.00006103516 127 129 126
-945.491075515747 406.512081623077 2628.00002098084 145 147 144
-943.378269672394 408.692240715027 2641.99995994568 137 139 136
-939.064264297485 409.944921731949 2650.00009536743 143 145 142
-934.004366397858 410.88879108429 2655.99989891052 135 136 131
-1300.8246421814 359.356969594955 2357.00011253357 203 205 202
-1288.14518451691 357.621788978577 2345.99995613098 186 188 185
-1280.99834918976 357.412964105606 2345.00002861023 168 170 167
-1273.86498451233 357.205778360367 2344.00010108948 163 165 162
-1268.9071893692 357.609659433365 2346.99988365173 154 156 153
-1263.9399766922 358.014971017838 2349.99990463257 154 156 153
-1255.75304031372 357.507735490799 2346.99988365173 164 166 163
-1247.58994579315 357.002168893814 2344.00010108948 147 149 146
-1242.09761619568 357.259601354599 2345.99995613098 132 134 131
-1237.65456676483 357.822984457016 2349.99990463257 126 128 125
-1231.62412643433 357.930958271027 2351.0000705719 117 119 116
-1226.63640975952 358.344733715057 2354.00009155273 119 121 118
-1222.67544269562 359.064251184464 2358.99996757507 131 133 130
-1219.20800209045 359.937161207199 2365.00000953674 121 123 120
-1212.63718605042 359.898239374161 2365.00000953674 121 123 120
-1207.60202407837 360.317140817642 2368.00003051758 129 131 128
-1200.02019405365 359.976559877396 2365.9999370575 100 102 99
-1193.46404075623 359.94166135788 2365.9999370575 140 142 139
-1185.40823459625 359.451681375504 2362.99991607666 138 140 137
-1180.36806583405 359.875738620758 2365.9999370575 130 132 129
-1175.31657218933 360.300958156586 2368.99995803833 74 76 73
-1167.29331016541 359.814882278442 2365.9999370575 102 104 101
-1160.76385974884 359.786361455917 2365.9999370575 108 110 107
-1154.23917770386 359.759032726288 2365.9999370575 117 119 116
-1148.68927001953 360.036969184875 2368.00003051758 137 139 136
-1142.16864109039 360.012024641037 2368.00003051758 135 137 134
-1138.05031776428 360.74835062027 2372.99990653992 126 128 125
-1134.38582420349 361.637711524963 2378.99994850159 128 130 127
-1130.21886348724 362.376183271408 2384.0000629425 125 125 123
-1123.67177009583 362.355649471283 2384.0000629425 124 124 122
-1118.53468418121 362.792193889618 2387.00008392334 125 125 123
-1111.52172088623 362.62184381485 2385.99991798401 133 133 131
-1105.44443130493 362.756550312042 2387.00008392334 138 138 136
-1100.74651241302 363.348186016083 2391.00003242493 136 136 134
-1095.5730676651 363.788932561874 2394.00005340576 135 135 133
-1090.84153175354 364.382535219193 2398.00000190735 136 136 134
-1086.09163761139 364.977121353149 2401.99995040894 136 136 134
-1082.22210407257 365.876585245132 2407.99999237061 134 134 132
-1077.42977142334 366.473108530045 2411.99994087219 140 140 138
-1072.61884212494 367.070496082306 2415.99988937378 135 137 134
-1068.67182254791 367.972761392593 2421.99993133545 136 138 135
-1066.01059436798 369.331687688828 2430.99999427795 139 141 138
-1062.86752223969 370.539575815201 2438.99989128113 138 140 137
-1059.25071239471 371.596425771713 2446.00009918213 139 141 138
-1055.16803264618 372.50217795372 2451.99990272522 141 143 140
-1050.62794685364 373.256951570511 2457.00001716614 134 136 133
-1045.6383228302 373.860597610474 2460.99996566772 131 133 130
-1042.31834411621 375.07289648056 2469.00010108948 140 142 139
-1038.53750228882 376.134008169174 2476.0000705719 140 142 139
-1033.05447101593 376.588344573975 2479.00009155273 136 138 135
-1027.14312076569 376.891613006592 2480.99994659424 136 138 135
-1020.40088176727 376.891851425171 2480.99994659424 136 138 135
-1015.70343971252 377.652496099472 2486.00006103516 137 139 136
-1010.16914844513 378.11005115509 2489.00008201599 139 141 138
-1006.63638114929 379.327982664108 2496.99997901917 139 141 138
-1001.06012821198 379.78720664978 2500 138 140 137
-996.662378311157 380.702883005142 2506.00004196167 136 138 135
-991.838812828064 381.467372179031 2510.99991798401 139 141 138
-988.559007644653 382.840275764465 2519.99998092651 141 143 140
-985.232174396515 384.214043617249 2529.00004386902 143 145 142
-980.697333812714 385.132700204849 2535.00008583069 142 144 141
-974.979102611542 385.596364736557 2538.00010681152 141 143 140
-970.390260219574 386.516451835632 2543.99991035461 137 139 136
-965.012907981873 387.13338971138 2548.00009727478 129 131 128
-959.991037845612 387.902945280075 2552.99997329712 121 123 120
-955.689966678619 388.97705078125 2559.99994277954 113 115 112
-952.834725379944 390.659749507904 2571.00009918213 121 123 120
-951.760470867157 393.102824687958 2586.99989318848 130 132 129
-949.504792690277 395.090788602829 2599.99990463257 120 122 119
-948.26751947403 397.535413503647 2615.9999370575 118 120 117
-944.785714149475 399.06895160675 2625.99992752075 139 141 138
-941.96480512619 400.907129049301 2638.00001144409 133 135 132
-938.016593456268 402.29007601738 2647.0000743866 137 139 136
-934.372067451477 403.825640678406 2657.00006484985 135 136 131
-928.929388523102 404.601871967316 2661.99994087219 132 133 128
-1311.29479408264 354.01850938797 2364.00008201599 211 213 210
-1298.55859279633 352.31277346611 2352.9999256134 189 191 188
-1287.53972053528 351.05836391449 2345.00002861023 182 184 181
-1278.75852584839 350.404590368271 2341.00008010864 172 174 171
-1272.18151092529 350.351214408875 2341.00008010864 157 159 156
-1266.15226268768 350.448966026306 2342.00000762939 155 157 154
-1261.20042800903 350.847512483597 2345.00002861023 157 159 156
-1253.02910804749 350.349843502045 2342.00000762939 158 160 157
-1246.47808074951 350.302487611771 2342.00000762939 146 148 145
-1241.5224313736 350.705236196518 2345.00002861023 133 135 132
-1237.61010169983 351.408421993256 2349.99990463257 128 130 127
-1232.62858390808 351.813763380051 2352.9999256134 115 117 114
-1227.11575031281 352.070957422256 2355.00001907349 114 116 113
-1223.15335273743 352.777928113937 2359.99989509583 128 130 127
-1218.13786029816 353.18711400032 2362.99991607666 118 120 117
-1212.59939670563 353.448122739792 2365.00000953674 118 120 117
-1207.05580711365 353.710472583771 2367.00010299683 119 121 118
-1200.49238204956 353.675246238709 2367.00010299683 99 101 98
-1193.93479824066 353.641241788864 2367.00010299683 148 150 147
-1186.88082695007 353.459119796753 2365.9999370575 146 148 145
-1182.33227729797 354.02524471283 2369.99988555908 117 119 116
-1176.27882957459 354.144364595413 2371.00005149841 73 75 72
-1167.26469993591 353.368610143662 2365.9999370575 107 109 106
-1160.24565696716 353.191584348679 2365.00000953674 109 111 108
-1153.72490882874 353.165090084076 2365.00000953674 124 126 123
-1148.66411685944 353.587687015533 2368.00003051758 139 141 138
-1142.62700080872 353.712826967239 2368.99995803833 135 137 134
-1138.50712776184 354.436248540878 2374.00007247925 130 132 129
-1132.93361663818 354.712843894959 2375.99992752075 129 131 128
-1127.3535490036 354.990541934967 2378.00002098084 128 128 126
-1122.2380399704 355.418533086777 2381.00004196167 124 124 122
-1117.5788640976 355.99684715271 2384.99999046326 125 125 123
-1111.0383272171 355.979204177856 2384.99999046326 134 134 132
-1104.96473312378 356.111764907837 2385.99991798401 137 137 135
-1100.27086734772 356.693208217621 2390.00010490417 137 137 135
-1095.55852413177 357.275515794754 2394.00005340576 136 136 134
-1091.28296375275 358.008056879044 2398.9999294281 137 137 135
-1086.07912063599 358.443081378937 2401.99995040894 136 136 134
-1081.31170272827 359.028249979019 2405.99989891052 135 135 133
-1076.52592658997 359.614431858063 2410.00008583069 138 138 136
-1072.60930538177 360.499888658524 2415.99988937378 135 137 134
-1068.22204589844 361.237108707428 2421.0000038147 134 136 133
-1064.68725204468 362.273573875427 2427.99997329712 137 139 136
-1061.11752986908 363.310933113098 2434.99994277954 138 140 137
-1058.81154537201 364.796727895737 2444.9999332428 139 141 138
-1056.02359771729 366.134256124496 2453.9999961853 140 142 139
-1051.05125904083 366.726577281952 2457.99994468689 134 136 133
-1045.21012306213 367.021381855011 2460.00003814697 130 132 129
-1040.62700271606 367.764592170715 2464.99991416931 138 140 137
-1036.01932525635 368.508696556091 2470.00002861023 140 142 139
-1031.38661384583 369.253605604172 2474.99990463257 136 138 135
-1025.90107917786 369.700908660889 2477.9999256134 136 138 135
-1019.5791721344 369.850695133209 2479.00009155273 137 139 136
-1014.47927951813 370.448797941208 2483.00004005432 137 139 136
-1008.54802131653 370.749235153198 2484.99989509583 136 138 135
-1005.43022155762 372.09489941597 2493.99995803833 138 140 137
-1000.26309490204 372.695356607437 2497.99990653992 139 141 138
-995.07611989975 373.296529054642 2502.00009346008 135 137 134
-989.869236946106 373.898446559906 2506.00004196167 136 138 135
