ply
format ascii 1.0
comment KinectMotionCapture
element vertex 779
property float x
property float y
property float z
property uchar red
property uchar green
property uchar blue
end_header
-981.08388542156 -262.479975069649 2608.45130160967 15 18 9
-973.69648557762 -262.007184535075 2616.39149959858 14 17 8
-976.728778274809 -262.281738393241 2623.58014875275 15 18 9
-976.630567765159 -262.331631897073 2630.97665300126 16 19 10
-984.886602433443 -262.981353094526 2637.84064030694 16 19 10
-1000.46916033021 -264.157498517788 2644.29718594558 16 19 10
-982.594082713806 -262.930591183318 2652.73986365087 16 19 10
-987.722148348562 -263.356002882635 2659.82089342747 18 19 11
-1055.707762647 -268.299707806029 2663.6311223809 18 19 11
-1036.77660707074 -266.996889863813 2672.09796499742 17 20 11
-1013.62067603179 -265.389610633008 2680.65840485534 17 20 11
-984.132370245877 -263.325919054254 2689.37498458061 17 20 11
-957.752400820649 -261.484894650238 2697.80173742308 17 20 13
-1065.80771322318 -269.377728763512 2708.24322312705 21 24 17
-972.228366310164 -267.326915948404 2358.19990456056 31 34 27
-987.523233515189 -268.515481724658 2363.58046948596 26 29 22
-985.495334872454 -268.428238117071 2371.69257088888 26 29 20
-977.336672581281 -267.888785952433 2380.70762962224 25 28 21
-974.271042046366 -267.723818299539 2388.91222717698 22 25 18
-1025.37529677182 -271.551461374426 2389.1993505935 21 24 17
-996.759293931116 -269.502410760671 2401.14537664872 21 23 18
-962.981675691168 -267.071116893453 2413.65212472154 16 21 14
-955.787491226219 -266.599291979348 2422.30815487873 17 22 15
-982.407626522839 -268.622019071334 2426.34826345579 17 22 15
-994.700752463767 -269.587883919672 2432.41444327552 17 23 13
-1007.00789936372 -270.554734931611 2438.532057556 15 21 9
-997.757333905518 -269.929676084067 2447.44346179967 15 21 9
-1016.24529149461 -271.352964150643 2452.84126395087 15 21 9
-1005.95321162087 -270.650039759106 2461.83213893584 14 20 10
-1022.40755537028 -271.923189158442 2467.56789096346 13 19 9
-1075.96506986259 -275.939800293893 2469.05061273658 10 15 8
-978.065003045337 -268.757464576518 2488.07142223341 9 14 7
-1007.93483504338 -271.022385024514 2492.33421935832 13 16 9
-1032.68195808407 -272.909150441575 2497.2986803819 12 15 8
-1035.76808242778 -273.193453948668 2504.68104047095 11 14 7
-1025.41764428638 -272.48285586964 2513.4600874106 11 14 7
-1029.53139717083 -272.842667986805 2520.71290927145 11 14 7
-1053.31443092875 -274.659078303356 2526.03956367857 11 14 7
-1031.55150941984 -273.102036903256 2535.84300795599 13 16 9
-962.075056196932 -268.00822233034 2549.97213799732 14 17 10
-967.18139525391 -268.439728435287 2556.96865356025 14 17 10
-1012.7722215292 -271.872747547043 2560.41349398348 16 19 12
-1032.45591410766 -273.386025801282 2566.2976903148 17 20 13
-974.209754284483 -269.119366990771 2578.73723550853 16 19 10
-963.724998388527 -268.394100888405 2587.02684757311 16 19 10
-953.222866935388 -267.666940748845 2595.25314339532 17 20 11
-961.4511053968 -268.329730162503 2602.00474922271 17 20 11
-966.560931931775 -268.761119714145 2609.01428669357 15 18 9
-980.018410211417 -269.812536460301 2615.45314516625 14 17 8
-974.70539029397 -269.469933143807 2623.21934606968 15 18 9
-982.959260253801 -270.135167070736 2630.06457328934 15 18 9
-992.266534627829 -270.878955619713 2636.87496897704 15 18 9
-989.034019562823 -270.690874355204 2644.47454970439 16 19 10
-972.189102543908 -269.490565781252 2652.82982737547 16 19 10
-964.743788141197 -268.988656640275 2660.5724548998 17 18 10
-1000.25131805645 -271.681819476105 2666.01401866384 18 19 11
-1029.51255212285 -273.911484331961 2671.93578986997 17 20 11
-1050.41578436768 -275.52015602079 2678.39042213181 18 21 12
-1014.63922133507 -272.910078153981 2687.48467521414 17 20 11
-1039.67183080911 -274.880260597761 2701.24999605818 15 18 11
-1014.12431281341 -278.019019959497 2351.13601514795 32 35 28
-980.504827686197 -275.514628539529 2364.2760304432 29 32 25
-974.387442143292 -275.105008165819 2372.99533989898 26 29 20
-959.067856808551 -273.993001100374 2383.06087679991 25 28 21
-1008.10329566228 -277.788314173915 2383.47994460048 22 25 18
-1028.57123544672 -279.405563838374 2388.31300558714 21 24 17
-1012.2244741739 -278.213941328163 2398.51235398166 21 24 17
-970.250574098847 -275.065171826221 2412.21331170283 18 23 16
-968.180714641913 -274.961002064278 2420.18030711449 19 24 17
-995.843857818098 -277.126812387789 2424.10531485573 18 23 16
-1004.0444676481 -277.806574021183 2430.74455464121 18 24 14
-994.796171397625 -277.153183253241 2439.68227129977 16 22 10
-1012.25023306174 -278.539627399895 2445.16100222612 15 21 9
-994.761626972476 -277.25546687765 2455.07564865332 13 19 7
-981.361757071517 -276.282916651902 2464.38802618944 12 18 8
-1018.39945042118 -279.166533933837 2467.59604510118 12 18 8
-995.716671812457 -277.483136260051 2477.96126439723 10 15 8
-1065.80811658872 -282.896452039502 2477.60365129795 9 14 7
-1018.35473864862 -279.317058719638 2490.71478593368 13 16 9
-1011.10505242412 -278.812827009029 2499.18613791299 13 16 9
-1033.80956529907 -280.601327306776 2504.42239697503 12 15 8
-1025.52040656262 -280.016975116473 2512.98129550934 12 15 8
-1016.18197954985 -279.351716115767 2521.59186729349 12 15 8
-1024.4310213296 -280.033317193335 2528.40883506473 12 15 8
-1026.47107513169 -280.239105547846 2535.85323099829 12 15 8
-1014.98573067864 -279.457132498661 2552.15354583321 14 17 10
-1029.47471343171 -280.616797540763 2558.45658653237 15 18 11
-1045.01964301661 -281.857795203205 2564.73248131525 16 19 12
-1048.10539457818 -282.143384223271 2572.11264573169 16 19 12
-1005.41047959637 -278.916482487674 2583.18594502124 16 19 10
-969.942379515332 -276.242606169588 2593.46573958792 18 21 12
-963.596768664824 -275.802886212663 2601.35576748612 18 21 12
-976.006979492068 -276.80274181686 2607.83520055692 17 20 11
-970.69400991127 -276.442012811027 2615.61396098432 15 18 9
-974.767805142287 -276.801882703983 2622.71839143287 15 18 9
-973.620248971254 -276.760816231741 2630.17355768067 15 18 9
-981.877772067707 -277.442300654444 2637.02208856831 15 18 9
-993.282357747077 -278.365950395678 2643.71226533893 16 19 10
-976.432446162807 -277.117984563233 2652.07908746588 16 19 10
-939.651725018525 -274.33707584906 2661.44927232741 17 18 10
-954.187383504934 -275.501445976138 2667.92264033194 18 19 11
-996.015511669919 -278.765473634438 2673.09115207931 17 20 11
-1011.65341076918 -280.016126124114 2679.706128895 18 21 12
-1080.82793655637 -285.435971039048 2691.52626370566 17 20 13
-1081.8199844404 -285.561460712354 2699.02663583692 21 24 17
-1050.95440144643 -288.521233638782 2344.86786414779 31 32 26
-1060.19223930344 -289.302338127918 2351.39689632588 30 31 25
-974.499492957501 -282.601729259287 2372.57464575492 28 29 23
-968.366632372612 -282.169227248376 2381.25001665819 26 27 19
-980.623261133649 -283.18580685735 2387.14867095733 23 26 17
-1003.12408086416 -285.01030617886 2391.6059293978 22 25 16
-992.893894726373 -284.253423260974 2400.86067028229 19 25 15
-973.426381682261 -282.766926700632 2411.34840819191 18 24 14
-983.658038751808 -283.622871637336 2417.62372559797 18 24 14
-1009.28922271446 -285.694363697932 2421.85758443715 17 23 13
-1003.12872105541 -285.256469735704 2430.43373364537 17 23 13
-991.819814561631 -284.411403378803 2439.63539206269 18 21 12
-979.464081116543 -283.482997542357 2448.89932375109 18 21 12
-980.428042166108 -283.652403009454 2464.06125862864 14 17 10
-969.059414681129 -282.800140789624 2473.04572780179 12 15 8
-987.567776022158 -284.308741195492 2478.46542334005 13 16 9
-1017.44635099402 -286.716489312217 2482.67050750024 14 17 10
-1079.36511005093 -291.658377659098 2483.44029887085 14 16 11
-1026.69983437828 -287.539635493811 2497.02465532185 16 18 13
-1023.57864193805 -287.338145537141 2505.04602068265 9 12 5
-1025.62224857789 -287.544922459036 2512.50298347672 6 9 0
-1011.10268987341 -286.440804870303 2521.63756106802 18 21 10
-1021.42142984619 -287.301911236177 2528.23294156981 6 9 0
-1057.66671269634 -290.215555281327 2532.37718768549 9 12 1
-1052.46599948164 -289.848450405542 2540.57583036654 6 9 0
-1043.10294023687 -289.151343833787 2549.11505439019 16 19 10
-1026.45239857361 -287.87658372958 2558.2390144589 11 14 7
-1048.23649651905 -289.6461015958 2563.96625818185 20 22 17
-1059.64567803654 -290.594024857083 2570.65817336882 11 14 7
-1031.51328154159 -288.408302740973 2580.58970184907 17 20 13
-978.340693870867 -284.236895114057 2592.32375849709 19 22 15
-970.954394629219 -283.693756867533 2600.31245666917 18 21 14
-975.028673544446 -284.059112742129 2607.41521938078 18 21 12
-983.280562232161 -284.755831275987 2614.23321279282 19 22 13
-966.473459376522 -283.464985911651 2622.78604723055 17 20 11
-967.408769915085 -283.581256373359 2630.08158524588 16 19 10
-965.204764843589 -283.448401262903 2637.56863470985 16 19 10
-986.020137239558 -285.142464275991 2643.64407798359 15 18 9
-984.867344043134 -285.093282484231 2651.08492377045 15 18 7
-973.229788109438 -284.211592571402 2659.08949342687 18 19 11
-955.28123113062 -282.828536075575 2667.35794106703 18 19 11
-978.234278928456 -284.693553487449 2673.46865268606 16 19 10
-949.612307673431 -282.504208187197 2689.37834331597 17 20 13
-1096.6388669963 -294.275140626398 2697.88899992868 18 20 15
-1078.63394868121 -298.46215077589 2340.04866114913 31 30 25
-1036.86585008521 -295.111778769091 2354.64100069358 31 30 25
-992.993232996696 -291.588279420604 2369.32254888097 28 27 22
-971.539447172321 -289.887799748824 2380.36431278178 26 27 19
-1010.40538832232 -293.142587104056 2390.125920096 21 24 13
-977.643705214021 -290.519095734684 2402.6296592517 19 25 13
-980.702956609956 -290.812241757871 2409.90573362836 18 24 12
-988.890790953149 -291.522817257297 2416.47808627337 18 24 12
-1004.27113525955 -292.819529525482 2422.10773288967 17 23 13
-1000.15713065443 -292.527256533479 2430.39661730833 16 22 12
-997.061712655007 -292.317663508825 2438.51972299159 17 20 11
-979.560952516919 -290.932970176014 2448.45271497127 17 20 11
-1007.31507469738 -293.237948437868 2452.62764657323 15 18 9
-1002.14927933635 -292.858360797267 2460.96381336551 15 18 11
-1011.40116330408 -293.654491592951 2467.53550917643 15 18 11
-986.630339147668 -291.674569307657 2478.12807548467 14 17 10
-1012.39018877635 -293.817206664139 2482.79472730873 15 16 10
-1028.88819341967 -295.204353085236 2488.62061192638 10 11 6
-1014.40298745533 -294.062385692399 2497.90663089369 11 13 8
-1016.44109139818 -294.268872798272 2505.34334622703 14 17 10
-1021.58352667968 -294.728584432285 2512.4560725025 11 12 4
-1023.62328218553 -294.934915951297 2519.89901799494 8 11 0
-1020.48146387923 -294.717754239296 2527.85369788344 7 11 0
-1014.22099664275 -294.245545936048 2536.0812877964 11 13 0
-1039.08071460494 -296.315859916752 2541.34790874135 13 15 4
-1044.24130828389 -296.776689631416 2548.52734768996 10 13 4
-1002.64407738412 -293.415568840073 2559.86455133697 11 14 7
-1068.07202614973 -298.841800069522 2569.46023816629 15 17 12
-1023.27238659199 -295.217093646858 2580.7638304653 17 20 13
-979.450475433812 -291.671193957716 2591.7505328296 18 21 14
-998.128770838878 -293.23664964544 2597.7652647929 17 20 13
-969.875023350641 -290.962778395779 2607.30189356747 18 21 12
-969.77195631325 -290.991718680425 2614.69359524602 19 22 13
-973.844981587838 -291.362251210633 2621.78936418879 18 21 12
-981.057713915106 -291.989976977169 2628.68905250933 17 20 11
-986.080767336425 -292.476055945392 2643.13546017265 16 19 10
-979.68768085115 -291.99000435277 2650.87847171322 16 19 8
-1017.3170385704 -295.109522491205 2656.13521803744 15 18 7
-1030.86440867856 -296.257292072369 2662.8469951152 17 18 10
-1021.33054871894 -295.514378900529 2670.78098944989 16 19 10
-1026.48886644523 -295.975234221876 2677.95196206568 16 19 12
-967.245964840213 -291.233639498704 2702.57778963354 18 20 15
-1060.36095538375 -304.638757164888 2334.54712416542 24 25 20
-1030.83735595901 -302.203945856106 2347.26329148049 30 29 24
-1008.41538560637 -300.36389543797 2358.69574305624 32 31 26
-959.395809349303 -296.289718731488 2374.09784042669 29 28 23
-959.378247376855 -296.328439708281 2381.80175965833 27 28 20
-1005.39683151291 -300.23302037238 2382.64074151845 23 26 15
-984.929338180092 -298.553762789443 2393.43376820968 22 25 14
-981.846710502582 -298.333980217585 2401.61079499806 19 25 13
-973.630586421348 -297.682400872317 2410.48330059904 18 24 12
-991.048954950831 -299.18452443323 2415.7564759859 18 24 12
-1007.46167211093 -300.602070108292 2421.24651239674 17 23 13
-997.182043704224 -299.775925910346 2430.36141177352 17 23 13
-986.885200935964 -298.947668115648 2439.41280299161 18 21 12
-998.175862813798 -299.934111946859 2445.64128713699 18 21 12
-1038.30655012445 -303.345881434261 2448.30964858686 20 23 14
-1031.09807249406 -302.776576131652 2456.97508405879 19 22 15
-1020.78351428625 -301.945352332612 2465.96350292432 17 20 13
-1044.49737487062 -303.976791340784 2470.89664401413 12 15 8
-1046.56046952166 -304.186515345265 2478.4241013406 10 11 5
-1034.15953062997 -303.178658592377 2487.57128423763 11 10 5
-1044.48290229532 -304.083098398394 2494.15557381809 10 9 4
-1036.19552998692 -303.420737118364 2502.77035586505 15 14 9
-1058.95138117964 -305.371664113512 2508.09467632529 17 17 9
-1016.42952819923 -301.860260225589 2527.78371046287 7 7 0
-982.152609829601 -299.007053312059 2538.70209980188 13 13 5
-1027.76032163226 -302.882847817975 2541.93101669695 8 8 0
-1052.65144867464 -305.014040913309 2547.2758175147 15 15 7
-1098.36471298135 -308.90024519827 2550.88912895754 24 23 18
-1071.31918446304 -306.655246965019 2560.99708866764 14 13 8
-1054.64348199303 -305.283699358623 2570.08780913175 18 17 12
-1052.52545851853 -305.138779452801 2577.90170849363 17 20 13
-943.033523707044 -295.940739524072 2594.12371412049 16 19 12
-962.735552925841 -297.634347831451 2599.96213984836 15 18 11
-1007.5139076024 -301.443282233091 2604.04941961524 16 19 12
-982.36568205976 -299.354897696889 2613.30924593223 20 23 14
-981.221232957844 -299.290968481855 2620.79038245762 20 23 14
-997.853891743013 -300.726788471518 2627.08548156938 19 22 13
-987.292661056762 -299.868357258187 2635.17430218352 18 21 12
-998.709296925632 -300.864518233539 2641.86436817128 17 20 11
-989.176514840483 -300.092673226498 2649.8206304888 16 19 8
-1006.89755522447 -301.621310639216 2656.20082769135 16 19 8
-1043.53156272419 -304.747088579476 2661.6544020069 17 18 10
-1057.10678896504 -305.926847526327 2668.44940703484 15 18 9
-1052.83110067012 -305.599534255175 2676.1610432228 16 19 12
-1021.1011175536 -302.98710278185 2692.48737057834 19 22 15
-1023.79179329244 -309.180522677297 2340.07963316638 25 26 21
-1027.90956932826 -309.573849607108 2347.32716172407 30 29 24
-987.091293051143 -306.0791979562 2361.63984658581 33 32 27
-963.587255218325 -304.081257313218 2373.0507976937 30 29 24
-986.072054749935 -306.062125975061 2377.34985286007 27 28 20
-984.021573769426 -305.919587654915 2385.41302065565 24 27 16
-996.303915721767 -307.017183522776 2391.35599356984 23 26 15
-979.88531146057 -305.663613061927 2409.18348925578 17 23 11
-995.260307838134 -307.028159993699 2414.75045280507 17 23 11
-1007.57245280698 -308.127527503834 2420.80295995614 18 24 14
-1001.39834601195 -307.625506170761 2429.3700116483 18 24 14
-1003.44070202075 -307.834795705108 2436.82074476251 20 23 14
-995.190613677813 -307.1519647184 2445.58687836696 20 23 14
-1001.34500996985 -307.716920523172 2452.4940514915 19 22 13
-1027.08728449917 -309.97918125984 2457.01992647632 17 20 13
-1017.79587335693 -309.205213482568 2465.87369200345 14 17 10
-1043.57916655013 -311.471120671104 2470.54955906903 11 14 7
-1062.16557112901 -313.11346481444 2476.1745750591 11 12 6
-1003.2611552749 -308.03700138834 2490.57866227189 21 18 11
-992.88070873786 -307.166847888717 2499.34702885973 17 14 7
-1107.73908410617 -317.188245755186 2502.52974012791 4 3 0
-1087.03643847674 -315.422819282096 2512.50502397918 21 20 15
-935.629156463451 -302.317350249707 2535.33079083473 12 13 5
-1071.4719364265 -314.161512236234 2537.34170386896 15 14 9
-1103.67566278264 -316.985626534078 2542.12317780094 12 11 6
-993.375586362181 -307.469908473901 2567.2351675419 18 15 8
-1034.95542658674 -311.107787262487 2571.24487577478 18 19 13
-970.295989625168 -305.522279488627 2584.08654148771 17 20 13
-1033.80992300845 -311.065136456244 2586.50223295364 17 20 13
-961.750799497978 -304.835665524909 2599.55204914774 15 18 11
-994.013164716892 -307.665348605851 2604.54772184619 16 19 12
-987.653554147336 -307.14077527311 2612.4402725333 20 23 14
-991.739214985805 -307.523448815446 2619.57436062629 20 23 14
-1009.43021660501 -309.088304745504 2625.82109232936 19 22 13
-1006.20096959543 -308.835729786158 2633.47352464863 18 21 12
-993.533923769414 -307.762956497501 2641.67368955631 16 19 10
-993.429241629587 -307.781774167514 2649.06578556502 16 19 8
-990.173630882222 -307.52673491121 2656.62281934364 16 17 9
-1052.00750289593 -312.929951059921 2660.68157489869 16 17 9
-1041.42704459035 -312.038744790384 2668.720628608 14 17 8
-1043.44592537783 -312.243066408709 2676.08733930853 15 18 11
-1033.89182463538 -311.441143455569 2683.98343927042 16 19 12
-1060.65481618635 -320.067110379724 2333.69108698596 26 27 22
-1002.51615581885 -314.920699412453 2350.9824354522 26 25 20
-984.140513144052 -313.314850571748 2361.70310643971 31 30 25
-961.646197856481 -311.341303951518 2372.95030894218 29 28 23
-955.488000587891 -310.822399185559 2381.58615988101 26 27 19
-989.249552458816 -313.860399699709 2384.22385729551 23 26 15
-981.046597522271 -313.158758040923 2393.1768640736 22 25 14
-976.930274387144 -312.820588584221 2401.48704589237 19 25 13
-996.403966302715 -314.584951618549 2406.43302913572 18 24 12
-1005.63428921849 -315.436239633247 2412.88984960599 18 24 12
-987.132704339868 -313.814438554073 2423.15299328296 17 23 13
-1007.67338360836 -315.673477139686 2428.10346885034 17 23 13
-1013.83481186136 -316.250337373743 2435.02923443429 18 21 12
-1011.76489634803 -316.092727213067 2443.02976118962 18 21 12
-1002.47645530546 -315.290862312481 2451.91309592044 15 18 9
-991.110294156959 -314.30306940469 2460.9913600763 14 17 10
-1037.50382232591 -318.468100332167 2463.05800098198 14 17 10
-1024.07477582942 -317.295885476626 2472.38810933203 14 17 10
-1024.05556048664 -317.31974256851 2480.09527420248 15 16 10
-1043.66599706387 -319.12056307009 2493.31858700555 19 16 7
-1057.11052147617 -320.345802646111 2499.59960767265 15 16 8
-1093.36381271029 -323.607029038263 2503.55414205067 0 2 0
-1111.06019338884 -325.286546301075 2533.12730531183 12 17 11
-1122.50930187318 -326.333535371617 2539.90491653545 17 20 13
-967.329886595373 -312.543718938365 2576.43365375547 16 17 11
-973.487094966342 -313.116856203856 2583.34610223193 16 19 12
-1003.64341732126 -315.834236955228 2588.38692215238 17 20 13
-1012.95982435931 -316.689819921952 2595.16064448877 15 18 11
-979.456435266517 -313.718973176096 2605.12894767239 18 21 12
-967.856405605214 -312.705121372344 2613.35628512242 19 22 13
-977.158778105286 -313.559370006622 2620.07874239765 20 23 14
-1010.546733265 -316.566880632339 2625.24491855001 19 22 13
-1002.07799986773 -315.832882907877 2633.23156992062 18 21 12
-1015.6072115225 -317.065656960053 2639.82133182443 16 19 10
-992.439663558776 -315.017431906654 2648.61703042612 15 18 7
-1008.07412702413 -316.438733344194 2655.11151259441 16 17 9
-1010.0725545039 -316.640804968103 2662.40370470085 15 16 8
-1039.39830193541 -319.287148260253 2668.30193243607 14 17 8
-1050.88110279411 -320.338207321377 2675.20206726316 14 17 10
-1013.96247277553 -317.059808086895 2684.3743129744 15 18 11
-1012.79946099377 -316.979694771186 2691.79674770162 17 20 13
-999.558329403719 -322.159893375081 2343.22279836821 25 26 21
-973.016273017407 -319.753785206418 2355.30176780559 25 24 19
-973.009670974485 -319.778805120402 2363.05410021877 30 29 24
-960.725402460258 -318.678151712359 2372.69304431064 27 26 21
-960.703961546464 -318.700820006457 2380.39176759431 25 26 18
-966.824942046863 -319.286288526766 2387.16192377907 22 25 14
-964.751501360831 -319.120241133331 2395.15468908618 21 24 13
-988.314889160275 -321.304348616705 2399.43369635698 18 24 12
-991.379437396715 -321.608743399725 2406.72326400871 19 25 13
-989.309569409887 -321.442011645291 2414.72972611744 18 24 12
-992.373150642052 -321.745594255635 2422.01528721264 16 22 12
-995.437691604065 -322.049063935008 2429.30541191786 15 21 11
-1018.06015334658 -324.146367446789 2434.04206902347 15 18 9
-1022.17084644552 -324.545395665164 2441.25877150711 15 18 9
-1007.73087329853 -323.242119156339 2450.81457319107 17 20 11
-990.173429649113 -321.652384758503 2460.66656259726 17 20 13
-991.167564196203 -321.764367362767 2468.18320975577 16 19 12
-1005.58719958522 -323.108150203191 2474.11346396727 14 17 10
-1024.15834169882 -324.832894803934 2479.62979008003 13 14 8
-1026.2031974486 -325.040913753143 2487.09060642349 17 17 9
-1016.86263801301 -324.203610867859 2495.80188044174 13 13 3
-1080.00766946242 -330.019900198417 2496.67528045043 5 6 0
-1087.2682871401 -330.706431898331 2503.71655972649 0 3 0
-1057.19802343397 -327.965488443008 2514.59634551915 55 64 59
-1000.09806388435 -322.74237864458 2527.99996940065 218 230 228
-1064.43255760461 -328.668721456772 2529.32287827902 74 84 83
-1086.24067590957 -330.690510458283 2534.98003410078 0 7 2
-1092.47527138764 -331.282302683665 2542.16802797334 13 20 13
-1073.73764339127 -329.580576852832 2551.60525012139 13 14 6
-1023.72740512486 -325.006241585689 2563.64591656973 16 16 6
-995.451475241848 -322.44572936082 2581.0737973345 15 18 11
-1014.15337182356 -324.182072618846 2587.06826637515 17 20 13
-983.795032089761 -321.411227086286 2596.89828996715 17 20 13
-954.43750498646 -318.732024979416 2606.48902643409 17 20 11
-939.677241263118 -317.39366932294 2614.87779912071 18 21 12
-938.49815612728 -317.303198246393 2622.24616695999 22 25 16
-945.691658960105 -317.982198844824 2629.04301671447 21 24 15
-1035.67507390097 -326.26992523672 2630.58629668103 20 23 14
-1034.55028164386 -326.185105109515 2638.15360464682 18 21 12
-1019.78003465187 -324.846056969313 2646.5057486116 17 20 9
-1002.88669755989 -323.311861948311 2654.89205046497 15 16 8
-1005.93184381156 -323.610424141314 2662.11233571942 15 16 8
-1014.23543991912 -324.392551689923 2669.06838586629 13 16 7
-1004.66050946102 -323.531211381147 2676.92559120675 14 17 10
-1036.13231721211 -326.443984652194 2682.8299405603 15 18 11
-974.927571222899 -320.835305973872 2692.92661508913 16 19 12
-1010.91117630944 -330.756609646852 2340.98018631131 29 30 25
-991.517760819415 -328.950807916869 2351.94555550729 28 27 22
-975.161890616894 -327.430531549391 2362.31765004886 28 27 22
-971.058807981763 -327.063970429956 2370.69491625857 25 24 19
-981.282597640928 -328.04700865598 2376.85985443989 24 25 17
-971.023739797857 -327.099646591817 2386.12840146342 23 26 15
-964.848946759377 -326.536486811571 2394.73150488309 22 25 14
-974.054587215909 -327.422634495548 2401.07374662708 19 25 13
-992.511050000454 -329.180393878621 2406.14437608488 17 23 11
-996.604847456912 -329.58422669978 2413.29531498478 15 21 9
-987.333819833227 -328.727930842935 2422.27673816074 13 19 9
-1003.77111356286 -330.294641199986 2427.76384778605 14 20 10
-998.604734418306 -329.824581633468 2436.15496634225 16 19 10
-1007.8537961653 -330.713389921444 2442.65767208379 15 18 9
-1000.61453928978 -330.047116584403 2451.27005079176 17 20 11
-1007.80815241892 -330.741546429604 2458.05663981365 18 21 14
-980.934040347242 -328.223093376415 2468.97368025116 16 19 12
-1005.68350511147 -330.572665151597 2473.65464392897 15 18 11
-1031.49812119168 -333.022599440586 2478.33062165762 14 15 9
-1021.13069352768 -332.060023480123 2487.20567547284 15 18 9
-1029.38354457845 -332.853496495189 2493.96615623601 3 9 0
-1032.46398125559 -333.158920126209 2501.31406499323 6 17 11
-1098.79352380619 -339.430589168423 2502.03353748766 0 10 4
-1058.3424478065 -335.629256140979 2514.0068671921 100 112 110
-1070.75846342356 -336.84373851844 2535.95855876043 0 4 2
-1062.41734063546 -336.07077685087 2544.44360310576 9 20 14
-1067.59653210954 -336.573500773317 2551.66564221304 7 13 3
-1092.57479624525 -338.944458033005 2557.18352046085 17 20 9
-1022.64824372246 -332.372816723186 2578.36718322371 16 19 12
-986.042409347586 -328.931538006707 2588.80454045434 18 21 14
-975.501602278178 -327.949942509988 2597.0469494357 18 21 14
-969.124897408877 -327.361293261287 2604.91648651717 17 20 11
-953.321548091218 -325.882842100677 2613.41725618279 17 20 11
-947.962290893344 -325.390128625448 2621.10655882211 24 27 18
-958.306256448539 -326.379909898214 2627.71435836735 24 27 18
-1000.11008250845 -330.33974654275 2632.3524147713 21 24 15
-1035.67404040744 -333.711020529917 2637.57443167547 19 22 13
-1037.69286690112 -333.915393635288 2644.94090828756 20 23 12
-995.593797832049 -329.954268433408 2654.79369654375 15 16 8
-997.582428290941 -330.155957946051 2662.04975547689 15 16 8
-1018.50411840187 -332.145661302249 2668.33328375288 13 16 7
-1036.2938925663 -333.839834846032 2674.86416516353 13 16 9
-990.908261310667 -329.568074145605 2684.4006013368 14 17 10
-974.970200007707 -328.077335555499 2692.40896944356 15 18 11
-1010.01382357389 -338.219557688577 2340.7303465683 32 33 28
-1010.03289896875 -338.237322674562 2348.58259465708 29 28 23
-1026.41560444297 -339.838502702179 2353.84526644355 27 26 21
-997.777657067622 -337.081990773159 2366.15647078104 25 24 19
-989.583754580975 -336.30352697474 2375.19158900864 25 26 18
-985.475567050931 -335.920085325271 2383.56055922703 23 26 15
-974.178004547265 -334.840412999634 2392.95245358317 22 25 14
-987.497836327072 -336.143310883731 2398.72148555466 17 23 11
-1023.43228142019 -339.63511953658 2401.346629135 15 21 9
-1002.87692891782 -337.658023953878 2412.00149127064 15 21 9
-991.547626742679 -336.573756514364 2421.27844356176 14 20 10
-992.551808694215 -336.683095706118 2428.83499269852 13 19 9
-949.260598134962 -332.503240093606 2442.19232895414 15 18 9
-964.6621968602 -334.005979318067 2447.77081442727 16 19 10
-989.365959034174 -336.409302616251 2452.24815744725 17 20 11
-970.746829791265 -334.617244480492 2462.18237333013 18 21 14
-964.49415227243 -334.02237477774 2470.51632692422 18 21 14
-984.071693576928 -335.928780668172 2475.75820417142 16 19 12
-1011.94856114582 -338.638860243432 2480.13310558125 15 16 10
-1013.98332913951 -338.846059091628 2487.55698583233 6 12 2
-1017.05358750472 -339.15330940258 2494.86595124219 15 23 12
-1049.14811900585 -342.271765393902 2499.05617414288 6 18 14
-1041.86838633869 -341.57631787782 2507.53669321885 0 6 5
-1057.34350868841 -343.112588816497 2536.74676768089 0 6 7
-1054.19265418106 -342.816455155627 2544.71775668023 0 6 5
-1019.78817056521 -339.492262832186 2555.46080581607 0 11 3
-1102.06567076435 -347.472343136373 2555.86386703396 1 9 0
-1006.03009453844 -338.1853395814 2579.24055039634 17 20 13
-988.196859171309 -336.466018382478 2588.14946450813 19 22 15
-988.102848252724 -336.465454766517 2595.59434602165 19 22 15
-995.32680563874 -337.174023093314 2602.48467102489 18 21 14
-992.092150577362 -336.869186645542 2610.15094849815 17 20 11
-978.377956680816 -335.548741973388 2618.51501596294 17 20 11
-967.78589445106 -334.530956107334 2626.59090230678 23 26 17
-998.075003970202 -337.474946064677 2631.9816657529 21 24 15
-1031.55074963401 -340.728008161031 2637.31876249671 21 24 15
-995.762260409399 -337.268540289502 2646.90499634849 21 24 13
-1006.15846207266 -338.285151694299 2653.68887016168 17 18 10
-991.328994748842 -336.856937313789 2661.87743553747 16 17 9
-1012.25293186816 -338.894384524558 2668.13916354485 14 17 8
-1013.1964280286 -338.995369337285 2675.47474372845 13 16 9
-1008.86991812045 -338.585753351891 2683.04965085242 13 16 9
-1017.18749244363 -339.401846732253 2690.03615512616 15 18 11
-976.414247691764 -342.422628457243 2345.8122910959 23 24 19
-1033.67415777375 -348.12132881788 2344.39308840589 31 30 25
-1031.65823614975 -347.931433134643 2352.61446727859 29 28 23
-991.746745238152 -343.976575032867 2366.68809835409 26 25 20
-995.840762062342 -344.392802370624 2373.83295549697 23 24 16
-1007.11598520151 -345.522100551026 2379.91299885154 19 22 11
-1010.19415553693 -345.836793523508 2387.2466409492 18 21 10
-1033.8119660513 -348.191822354885 2391.61886928018 15 21 9
-1008.133166436 -345.648586560508 2403.0931967345 15 21 9
-986.529025605952 -343.509716093289 2413.85349896621 17 23 11
-974.153323688593 -342.287396040478 2423.22885368039 15 21 11
-957.638284980787 -340.653396488252 2433.08178562338 13 19 9
-952.432567216497 -340.142798749668 2441.35244127432 15 18 9
-954.435020438868 -340.348282056972 2448.65742621573 17 20 11
-964.692492430224 -341.373695369204 2454.92159590635 17 20 11
-963.602298811108 -341.271329881916 2462.62843905572 17 20 13
-965.607666571977 -341.476341540623 2469.94454288157 16 19 12
-989.328119635879 -343.839089452185 2474.69391848093 15 18 11
-981.000223769168 -343.016707583608 2483.2592731207 15 16 10
-1050.30683090349 -349.914745356155 2490.73929709335 7 15 4
-1075.17628178697 -352.391250097788 2495.78653590781 0 8 0
-1027.4422478913 -347.65179748107 2508.58805069777 0 10 10
-1041.7959691307 -349.099654614344 2545.38029264931 0 17 17
-1052.17136689025 -350.134894048655 2552.07609390533 9 20 12
-1045.87588610037 -349.513057800178 2560.267223586 13 21 10
-1154.33841262662 -360.29788882801 2558.70486989041 3 9 0
-1019.60582037424 -346.913212163805 2585.16824690592 19 22 15
-1003.84940618038 -345.350940204183 2593.89619755161 19 22 15
-994.34582505527 -344.409924211674 2602.06768301453 18 21 14
-1015.18723183724 -346.485483652682 2607.9989299879 17 20 11
-997.291613673008 -344.710423799718 2616.71141946894 16 19 10
-974.12657017178 -342.411608945709 2625.67462593058 21 24 15
-1002.33202466345 -345.219421692564 2631.20780257522 21 24 15
-998.029498857269 -344.795827333772 2638.88058318223 23 26 17
-988.465909510669 -343.849315250571 2646.832739824 22 25 14
-991.500914891062 -344.155318931094 2654.01160486782 18 19 11
-1046.08187789584 -349.586055009369 2658.40138591874 17 18 10
-1010.20676831395 -346.024142828564 2667.73069333492 15 18 9
-1001.6675228868 -345.180032348153 2675.52506678821 13 16 9
-960.437821528848 -341.08606066075 2684.79226987393 13 16 9
-1029.90174181238 -347.997437414194 2688.95255384108 14 17 10
-1010.25890504567 -353.319059212125 2339.89989201377 31 32 27
-1018.45851036063 -354.160161742827 2346.43354003554 30 29 24
-1006.19221136485 -352.915430482525 2356.22923561831 28 27 22
-968.294416329327 -349.058388874848 2369.9249278259 23 22 17
-998.00128588861 -352.089904440782 2373.09776030726 20 21 13
-1024.66872936468 -354.81147300122 2376.87230296411 18 21 10
-1033.91827558859 -355.757757118166 2383.34052024398 19 22 11
-1038.0411922857 -356.181247848401 2390.58716220251 18 24 12
-1012.35373917104 -353.566536231494 2402.07448700227 16 22 10
-988.685224049483 -351.157216475436 2413.13356038728 17 23 11
-956.744877213529 -347.904598017779 2425.18670864621 17 23 13
-962.873375298564 -348.53114139534 2431.95884363474 16 22 12
-963.853084692304 -348.632848465681 2439.42842046031 17 20 11
-962.767780953611 -348.523654418909 2447.15772997228 17 20 11
-969.936439139303 -349.255468414734 2453.82899280707 16 19 10
-972.980168241171 -349.566575314221 2461.03609639112 14 17 10
-987.396073117576 -351.036550640432 2466.87282861119 12 15 8
-1007.00133668197 -353.035065230861 2472.15948056475 13 16 9
-1022.4900370685 -354.613847420824 2478.01334788728 15 16 10
-1030.74592209008 -355.455501904967 2484.75467393218 13 14 6
-1004.80197798346 -352.811407518521 2495.30731966966 20 23 14
-1022.38672415264 -354.60335841658 2501.01616983805 0 11 11
-1050.37335069127 -357.455124525372 2505.70913133046 2 17 24
-1050.22118661769 -357.43614377998 2544.12215030746 0 4 11
-1053.3084998914 -357.749756822326 2551.49042015439 8 14 10
-1055.35411070629 -357.957227668238 2558.95438595032 14 17 10
-1037.5683747174 -356.143810744415 2568.09906305862 15 18 11
-1036.40554050838 -356.023134988119 2583.34133587113 17 20 13
-1009.14826372214 -353.244429099498 2592.99914181513 18 21 14
-984.99042051197 -350.781527095283 2602.27619396173 17 20 11
-993.264108166664 -351.6237386166 2609.08326601006 16 19 10
-971.152921121266 -349.369556888096 2618.03380651631 16 19 10
-985.715116316435 -350.852754371138 2624.40533824018 19 22 13
-979.305190270897 -350.198907878732 2632.19176470951 19 22 13
-973.93381191274 -349.650954250473 2639.87093959715 23 26 17
-971.705042017045 -349.423328629682 2647.32587526157 22 25 14
-1040.98001815275 -356.482512951211 2650.69132867924 19 22 11
-1066.14872400746 -359.047228102776 2656.79302209203 19 20 12
-1062.9164638473 -358.717886853767 2664.48366241277 16 19 10
-1008.04320372074 -353.12619001013 2674.69647219766 13 16 9
-1038.50460186291 -356.23088271237 2680.62545023317 13 16 9
-963.486298781065 -348.586646020755 2691.37519149035 14 17 10
-999.130323542447 -359.684386286668 2341.32247645035 28 29 24
-1016.53460524085 -361.5027691078 2346.34368065384 27 26 21
-988.898508286512 -358.616031510562 2358.56045653245 26 25 20
-970.444298969836 -356.688175482647 2369.19272345801 21 20 15
-964.267692744854 -356.042200053237 2377.841380337 20 21 13
-1019.65601697519 -361.826695601587 2377.21182037908 19 22 11
-1055.6057146302 -365.580332600449 2379.72828902153 19 22 11
-1027.88465849113 -362.682960319572 2391.63634228128 17 23 11
-1032.00307449053 -363.111071730805 2398.86335677526 17 23 11
-1019.6578654946 -361.819146080396 2408.39587106067 16 22 10
-1001.1129993075 -359.879483642533 2418.69992976629 16 22 12
-980.478487911058 -357.721204613507 2429.1752801859 17 23 13
-975.281404337574 -357.175097100474 2437.50041190767 17 20 11
-981.426047033723 -357.81350126932 2444.32500039032 15 18 9
-996.870666369775 -359.422884897812 2449.99588326579 15 18 9
-996.832103677535 -359.414870211366 2457.651337392 14 17 10
-1006.09785204669 -360.378451814853 2464.16878933419 13 16 9
-1016.40841780256 -361.450839390492 2470.59949965305 14 17 10
-1027.7657449291 -362.632380439586 2476.95139560843 15 16 10
-1038.09925785837 -363.706793677168 2483.46695441024 19 19 11
-1025.62996688788 -362.399477531468 2492.54849339655 10 11 5
-1018.32895848334 -361.631845331114 2500.99559346028 9 17 20
-1071.244398761 -367.152673954734 2503.04105572659 0 10 19
-1065.8823125926 -366.552565379635 2557.54721929748 21 22 16
-1029.30054621401 -362.726854963292 2568.31571730864 16 17 11
-1011.31111242845 -360.83095347838 2592.34332043729 17 20 13
-987.144136619626 -358.301950282554 2601.62819786699 16 19 10
-975.514101010312 -357.082041393179 2609.8742227697 16 19 10
-1001.6092893828 -359.8010364239 2615.42203956206 17 20 11
-1010.95066041014 -360.770764677779 2622.21638293917 18 21 12
-996.155201626073 -359.220718975435 2630.6072042537 18 21 12
-981.336500413223 -357.668338905531 2638.91413380554 23 26 17
-1005.39281499603 -360.174776886692 2644.81977900983 22 25 14
-1049.46729108866 -364.771069998508 2649.69384788691 19 22 11
-1074.64981518695 -367.39509192774 2655.80940253516 19 20 12
-1067.2069771298 -366.61342484179 2663.73877778867 17 20 11
-1051.31808641038 -364.950279278992 2672.03855537186 13 16 9
-1028.02081004554 -362.51404573733 2680.59663707076 13 16 9
-1100.74685543046 -370.10183908591 2684.75160797765 13 16 9
-1019.68580261231 -369.381118556079 2329.69063014334 33 36 29
-1050.40064790939 -372.66362412224 2332.55109665036 21 24 17
-1000.27451871433 -367.294778125347 2348.55941566048 21 24 17
-993.10531464615 -366.522568744288 2357.49784016194 17 20 11
-977.720673439671 -364.870785214302 2367.66355298627 22 25 16
-958.207943638868 -362.777075506151 2378.36677253405 20 23 14
-1017.71846556315 -369.138733111378 2377.09152421753 19 22 11
-1035.18623376815 -371.00137119064 2382.32050092377 19 22 11
-1042.39396371188 -371.765605199321 2389.11636123942 18 22 8
-1025.94602823421 -369.998474233047 2399.30248652933 22 25 14
-1029.03310742502 -370.321360592158 2406.6640325856 21 24 15
-1015.63730026397 -368.880274880219 2416.28730305654 17 20 11
-989.848371621173 -366.113158802299 2427.49316028472 16 19 10
-990.844347241733 -366.211548167461 2435.02522504774 16 19 12
-1014.55122791243 -368.73920911482 2439.62009155376 16 19 12
-992.831059770414 -366.406803889258 2450.07179483162 15 18 11
-986.585331230952 -365.729835956561 2458.48245212614 15 18 11
-1036.19322264191 -371.027370845328 2460.07849986221 16 19 12
-992.693170195004 -366.364703584729 2472.96619814246 15 17 12
-1011.28865752707 -368.344240847313 2478.41205053171 15 17 12
-1039.23712324154 -371.324051810284 2482.88248754565 18 19 14
-1034.02407610255 -370.756457456802 2491.16191534367 11 13 10
-1029.83888194173 -370.298718046488 2499.29188275154 1 11 13
-1104.59637092089 -378.284033768168 2499.04834058062 4 17 25
-994.998224709661 -366.489265285046 2563.2740742442 8 12 11
-1019.98109998905 -369.149985050075 2568.62520286561 11 16 10
-986.460041229906 -365.555188845738 2578.92276008765 5 10 4
-1045.98286709096 -371.908747838003 2581.59462730135 15 20 14
-1028.12850439764 -369.98919815828 2590.55244259502 16 21 14
-985.109106446362 -365.379504535756 2601.29402262319 19 22 15
-997.578670591579 -366.702206829221 2607.78999443232 15 18 9
-1027.89288677601 -369.932610828237 2613.09221815143 18 21 12
-1025.70901962234 -369.688927537499 2620.72493589097 18 21 12
-1026.6704082444 -369.781525985263 2628.13224198951 17 20 11
-1012.91661790622 -368.301399015818 2636.45011067026 23 26 17
-1006.50284525679 -367.605985108157 2644.24942796564 22 25 14
-1045.33137103549 -371.746557741426 2649.41656050212 19 22 11
-1065.25351130094 -373.866521773314 2655.80303672116 20 21 13
-1054.63848495862 -372.722517673669 2663.87334940097 17 20 11
-1025.02448165087 -369.548286733133 2672.82437527927 14 17 10
-1058.68341981722 -373.136785147204 2678.62985294958 13 16 9
-1118.78469411963 -379.551294652502 2683.41090489005 13 16 9
-1087.03207070335 -376.149388985873 2692.35896515767 15 17 12
-1024.94829888075 -377.491905245611 2336.31495146504 26 29 22
-1033.16293307263 -378.38210724798 2342.87247090272 27 30 21
-1006.53849596933 -375.454776609502 2354.9746494652 22 25 16
-989.104504311468 -373.534165840044 2365.49388993954 20 23 14
-979.854008209607 -372.509833690517 2374.65763195035 19 22 11
-988.047676113345 -373.396282209842 2381.13967742212 19 22 11
-1033.24996620666 -378.336490443042 2382.19039884377 19 22 11
-1026.05853198187 -377.536704321278 2391.06462666366 19 23 9
-1006.50355186682 -375.382421348293 2401.64922186386 18 21 12
-994.127535640273 -374.014385232503 2411.11633612595 18 21 12
-971.425030818523 -371.515174843457 2421.92244827684 17 20 11
-967.252382624512 -371.045311334011 2430.10665092201 16 19 10
-991.969267998294 -373.739157670824 2434.44929677328 16 19 12
-1005.35652803884 -375.191843769416 2440.3741082242 16 19 12
-1007.39077489584 -375.400888636591 2447.79488811715 16 19 12
-998.048426060916 -374.363911435827 2456.62558235611 16 19 12
-1010.42380138451 -375.704950117529 2462.76027289545 14 16 11
-1002.1001594372 -374.779196257471 2471.40668516803 14 16 11
-1039.36229503448 -378.84462634443 2474.70280844178 14 16 11
-1051.78285487478 -380.189735513295 2481.00269034325 19 24 20
-1049.68831513225 -379.945458398122 2488.96650913978 10 16 14
-1035.12555517494 -378.336029620162 2498.25971597805 0 13 16
-994.023227631529 -373.714933439943 2562.88483335134 4 14 15
-998.114224724114 -374.147332719674 2570.00826870507 11 16 12
-1022.07561118013 -376.753934333082 2575.49822630624 14 19 13
-1026.18585941325 -377.18832190074 2582.69095304823 15 20 14
-974.802909710401 -371.550953242436 2594.20154597164 10 15 8
-983.071664332735 -372.440605245361 2600.96128022362 22 25 18
-1022.80474576127 -376.772607319457 2605.4696716881 20 23 16
-1002.78276739654 -374.567144219488 2614.35270636927 17 20 13
-1010.02941213659 -375.34511440492 2621.28344837114 18 21 12
-1022.53625376556 -376.698411735391 2627.89850806653 18 21 12
-1038.21121460969 -378.398332280019 2634.3683725691 19 22 13
-1021.29013856423 -376.532982148065 2642.85983010326 22 23 15
-1004.34331359322 -374.665231688201 2651.25720236486 22 25 18
-968.407159077836 -370.720951086507 2660.60126931116 19 22 15
-1030.46326717394 -377.493985568061 2664.6212413211 16 19 12
-1043.01819242743 -378.85330614106 2671.41102333024 14 17 10
-1070.28366811046 -381.808231869598 2685.05125362929 13 16 9
-1067.02629862521 -381.439073875204 2692.67380615591 5 8 1
-904.316044259533 -371.526176184842 2348.10041212341 18 20 15
-1012.78570241866 -383.673647989646 2337.91066694055 20 23 16
-1022.01784425088 -384.693708712213 2344.26768643871 20 23 14
-1007.67748889113 -383.070663221818 2354.39523483696 24 27 18
-996.392109296606 -381.789813162631 2363.95937503614 19 22 13
-990.221738009008 -381.082106224641 2372.66922603595 18 21 10
-1003.56139094456 -382.561231140258 2378.40058955178 18 21 10
-1003.55038312518 -382.54328320374 2386.16369183189 18 21 10
-1017.94061900458 -384.139339909026 2391.82551891476 16 19 8
-984.985784551666 -380.42857898986 2404.29764103648 14 17 8
-965.376374457024 -378.213584973597 2414.71847816489 16 19 10
-959.14002828426 -377.497215052522 2423.18977572332 17 20 11
-987.972091317461 -380.710396112123 2426.89717835512 17 20 11
-987.931666919256 -380.687782277686 2434.55493746974 16 19 12
-986.855035969906 -380.5488017937 2442.33525294584 15 18 11
-1011.62172431485 -383.305076926564 2446.82339319428 16 19 12
-1019.8656853777 -384.209819642323 2453.48061731072 14 17 10
-1009.48177059003 -383.027384254686 2462.43326539965 12 14 9
-994.936343579992 -381.378772678907 2471.81556404126 12 14 9
-1068.49324599613 -389.598761908982 2470.8626390868 13 15 10
-1063.29986939134 -388.997165254874 2479.23656699555 18 33 30
-1050.82889646133 -387.580418328894 2488.38095006171 0 16 16
-1031.69774919394 -385.256055648505 2559.0959838558 0 15 15
-1068.22052020045 -389.323904811166 2563.54178442202 4 10 6
-1063.99384348728 -388.830347182253 2571.5403489915 11 16 10
-1040.91656937095 -386.227080370904 2581.02071198203 12 17 11
-1029.32723301304 -384.910036398579 2589.47917123465 18 23 16
-1007.23714399336 -382.418044324641 2598.65818557784 19 24 17
-986.162886185907 -380.040120156922 2607.64044522585 20 23 16
-987.099596548175 -380.125474194635 2614.96069952385 17 20 13
-964.927006157426 -377.625269052108 2623.83858774767 19 22 13
-985.815134487344 -379.943067156646 2629.78943683807 18 21 12
-1031.97119291349 -385.087634290237 2634.25322065711 17 20 11
-1037.1402555189 -385.646664321617 2641.40210453071 20 21 13
-1011.77057971042 -382.789965413318 2650.32480288651 23 26 19
-989.525454816682 -380.283162051443 2658.93755048737 20 23 16
-973.575290543814 -378.480991449552 2667.09760450754 15 18 11
-1055.74787088551 -387.653210255708 2670.25571442434 14 17 10
-1058.82464982988 -387.979172916049 2677.5761464463 14 17 10
-1015.40463151027 -383.10577060172 2686.99679342903 13 16 9
-1049.11974371312 -386.85858361531 2692.90709465091 18 21 14
-1039.49129798432 -385.76489856108 2700.71229858888 13 16 9
-1025.19537408906 -392.604410865138 2335.48461818057 19 22 15
-1006.76319639512 -390.470739517081 2346.32862522182 20 23 16
-978.045014925243 -387.157669286434 2358.69331786726 22 25 18
-997.52580922434 -389.37060107583 2363.38246803953 19 22 13
-1013.9495049774 -391.232477593876 2368.63180955855 18 21 10
-1003.66834557129 -390.03246551787 2377.97706524056 17 20 9
-1007.77005083106 -390.480999843519 2385.12914207448 17 20 9
-990.259067488659 -388.451895335886 2395.43102478068 15 18 7
-989.200866009023 -388.308460943084 2403.28257723061 16 19 10
-970.61587562096 -386.156249547686 2413.57092590438 17 20 11
-979.850931925272 -387.192186503808 2419.92874284347 17 20 11
-990.127875547209 -388.346995643144 2426.18351313083 17 20 11
-984.923084813243 -387.727557698963 2434.52632667162 15 18 11
-1022.08534642273 -391.96200747457 2437.34399819783 14 17 10
-1032.40389963577 -393.120473643064 2443.75094788494 15 18 11
-1053.08387537808 -395.465501557037 2448.91270476069 13 16 9
-1037.53883638596 -393.660564384119 2458.57865621401 12 15 8
-1026.11500671324 -392.327713417607 2467.66158905891 13 15 10
-1032.30441841203 -393.01218681596 2474.62238135163 14 16 11
-1053.02938642738 -395.361089683968 2479.94873927579 0 6 4
-1071.70285765547 -397.474594886422 2485.59955024266 27 51 51
-1055.76544507666 -395.397417819997 2564.11991453979 9 20 16
-1042.10919331014 -393.809630665947 2572.86789582455 17 22 16
-1013.77077406016 -390.54232052719 2582.71736025036 10 15 9
-1041.97664945934 -393.744675803752 2588.00393516592 18 23 16
-983.18442253461 -386.994103049364 2599.98425346747 16 19 12
-973.62677657519 -385.876603759203 2608.06735813465 23 26 19
-976.654005345317 -386.198857518208 2615.20616167737 18 21 14
-953.413583128494 -383.516825199342 2624.13144518745 23 26 17
-963.785838691033 -384.679588884714 2630.73413892319 21 24 15
-1013.09977213074 -390.295626439509 2634.93401280094 16 19 10
-1045.6313785518 -393.99187335436 2640.38315129608 19 20 12
-1042.3822632343 -393.596743718492 2648.05181804204 21 22 14
-1002.22479800276 -388.981983161856 2657.73250215668 24 27 20
-933.524171844448 -381.104981072619 2668.70664415849 18 21 14
-1016.75517359258 -390.597675602983 2671.69488431052 15 18 11
-1000.7890113002 -388.750272187451 2679.82409845033 13 16 9
-1023.91379807189 -391.371500308716 2686.09501136558 11 14 7
-1004.75175734624 -389.159539893082 2694.27860763816 6 9 2
-1100.94846504365 -400.132291963952 2697.71291024284 23 26 19
-962.836799312705 -392.852192034453 2337.59896138632 14 16 11
-1015.07097326306 -398.950570586104 2336.75038051445 15 17 12
-993.546680579327 -396.402532955679 2348.06546999032 16 19 12
-994.563737578672 -396.496312987393 2355.67871587276 14 17 10
-982.230135211785 -395.025216853775 2365.36837118289 16 19 10
-995.565209866309 -396.561975891195 2371.04542024875 15 18 9
-1006.85923379955 -397.859064732288 2377.08933302764 16 19 8
-996.55728095095 -396.625453937401 2386.3785992053 16 19 8
-987.267770912815 -395.510191104091 2395.45489899071 16 19 8
-969.718919755019 -393.42743225937 2405.65006045982 17 20 11
-990.294166250549 -395.810431177414 2410.39900526449 15 18 9
-994.385762349663 -396.262128807773 2417.51155162125 15 18 9
-995.382339169995 -396.351056249489 2425.05182228432 14 17 8
-982.94447995508 -394.866458130728 2434.36291679809 14 17 10
-991.166332531516 -395.801108603679 2440.91917424543 13 16 9
-1054.2357809978 -403.157488971884 2440.53961659527 14 17 10
-1061.47701994458 -403.976194689261 2447.42456966388 14 17 10
-1009.6654562995 -397.88132537239 2461.52989439793 13 15 10
-1006.51107687393 -397.4829490195 2469.55327577256 14 16 11
-1024.10089995037 -399.51278430153 2475.12985873344 15 17 12
-1042.75015577083 -401.666062704367 2480.66565192129 0 20 18
-1021.17339609543 -398.755236742853 2581.63685929529 11 16 10
-1024.23475362869 -399.083639923871 2588.89942284583 11 16 9
-991.63155791857 -395.243358151181 2598.86256300241 21 24 17
-978.925708625555 -393.729433729613 2607.19624895067 19 22 15
-980.90567659002 -393.93220097173 2614.41946531783 19 22 15
-974.476280335074 -393.15237417096 2622.21406910974 22 25 16
-980.65775454713 -393.846565713091 2629.14018456518 21 24 15
-1013.15920133801 -397.615973385384 2634.43022736984 17 20 11
-1052.02174328581 -402.128105497367 2639.48907207174 19 20 12
-1029.80222028771 -399.504109020664 2648.27086409082 23 26 19
-1003.20662078668 -396.342183643741 2664.52454223942 23 26 19
-958.721701153574 -391.119647865659 2674.10816433602 17 20 13
-1038.88255693309 -400.454811749274 2677.48783004012 14 17 10
-986.953176504995 -394.363975882295 2687.25592823447 11 14 7
-1015.38021658227 -397.657359284374 2693.30617385963 15 18 11
-1101.0289594906 -407.631724846441 2697.17427043292 8 11 4
-1011.08801166732 -405.974140999606 2337.01157004452 15 17 12
-1006.98959811429 -405.453125507549 2345.50275702352 14 17 10
-958.742257831216 -399.645260019818 2360.97025516374 15 18 9
