ply
format ascii 1.0
comment KinectMotionCapture
element vertex 769
property float x
property float y
property float z
property uchar red
property uchar green
property uchar blue
end_header
-303.145945072174 -22.6587373763323 1623.00002574921 132 109 91
-298.731952905655 -22.6604677736759 1623.00002574921 157 123 96
-294.13577914238 -22.6482227444649 1621.99997901917 156 122 95
-289.365589618683 -22.6219967007637 1620.00000476837 179 142 115
-285.13315320015 -22.637652233243 1621.00005149841 186 149 120
-281.067550182343 -22.6672571152449 1623.00002574921 187 146 116
-276.99026465416 -22.6968508213758 1625 191 150 120
-272.733479738235 -22.7124653756619 1626.00004673004 194 153 123
-268.47043633461 -22.7280650287867 1626.99997425079 195 156 125
-265.012562274933 -22.8135045617819 1633.00001621246 203 164 133
-261.680692434311 -22.9129083454609 1639.99998569489 192 153 124
-259.56454873085 -23.1240838766098 1654.99997138977 189 155 128
-257.828146219254 -23.3771931380033 1672.99997806549 179 154 134
-257.35530257225 -23.7560831010342 1700.00004768372 183 166 148
-256.437033414841 -24.1070557385683 1725.00002384186 15 1 0
-254.651993513107 -24.3881717324257 1745.00000476837 21 11 1
-250.752091407776 -24.4736298918724 1751.00004673004 15 8 0
-246.116250753403 -24.4891848415136 1751.99997425079 15 14 9
-241.611823439598 -24.5186947286129 1753.99994850159 12 13 8
-236.420601606369 -24.4782920926809 1751.00004673004 8 8 6
-231.509491801262 -24.4658198207617 1750 6 7 2
-227.509990334511 -24.5511941611767 1756.00004196167 7 8 3
-223.223209381104 -24.6085859835148 1759.99999046326 11 10 5
-219.03795003891 -24.6799439191818 1764.99998569489 12 11 6
-214.096352458 -24.6673822402954 1764.00005817413 18 19 13
-209.396705031395 -24.6827639639378 1764.99998569489 18 19 13
-204.806730151176 -24.7121062129736 1766.99995994568 19 20 14
-199.752420186996 -24.6854797005653 1764.99998569489 23 24 18
-195.150032639503 -24.7147716581821 1766.99995994568 26 27 21
-191.505372524261 -24.8699281364679 1777.99999713898 19 20 14
-188.7446641922 -25.1509677618742 1797.99997806549 16 17 11
-184.54472720623 -25.2501461654902 1804.99994754791 16 17 11
-179.907813668251 -25.2933520823717 1807.99996852875 21 22 16
-175.544112920761 -25.3785029053688 1814.00001049042 22 23 17
-171.993225812912 -25.5895480513573 1828.9999961853 15 16 10
-167.355313897133 -25.646673515439 1832.99994468689 17 20 11
-162.163496017456 -25.6198234856129 1830.9999704361 15 18 9
-158.355250954628 -25.8168261498213 1845.00002861023 15 18 9
-154.137387871742 -25.9578377008438 1855.00001907349 17 20 11
-150.265976786613 -26.1687971651554 1870.00000476837 22 25 18
-145.225167274475 -26.1838175356388 1871.00005149841 22 25 18
-141.75084233284 -26.4927055686712 1893.00000667572 26 29 22
-136.568307876587 -26.4936778694391 1893.00000667572 30 33 26
-130.968794226646 -26.4106392860413 1886.99996471405 30 33 26
-126.401662826538 -26.537511497736 1896.00002765656 29 31 26
-122.23219871521 -26.7623364925385 1911.99994087219 30 32 27
-117.72982776165 -26.9311480224133 1924.00002479553 32 33 28
-112.869001924992 -27.0299483090639 1930.99999427795 39 34 28
-108.916468918324 -27.3666884750128 1955.00004291534 77 67 58
-105.414673686028 -27.8573948889971 1990.00000953674 100 86 75
-100.615553557873 -28.040112927556 2003.00002098084 111 85 70
-95.1748788356781 -28.0548110604286 2003.99994850159 128 97 79
-89.7730886936188 -28.0834697186947 2006.00004196167 141 106 86
-84.3179449439049 -28.0980914831162 2006.99996948242 151 109 85
-78.8962468504906 -28.1266756355762 2009.0000629425 156 111 88
-73.426716029644 -28.1412228941917 2009.99999046326 161 117 92
-67.8162351250649 -28.099725022912 2006.99996948242 166 124 99
-62.3771771788597 -28.1281974166632 2009.0000629425 182 140 116
-447.858810424805 -30.2802380174398 1817.00003147125 29 30 24
-442.205935716629 -30.2327498793602 1814.00001049042 20 23 14
-433.91677737236 -30.001912266016 1799.99995231628 23 29 15
-424.749165773392 -29.7043528407812 1781.99994564056 25 31 17
-414.264500141144 -29.3067209422588 1758.00001621246 25 29 15
-405.073672533035 -28.9923753589392 1738.9999628067 19 21 8
-398.978024721146 -28.8947336375713 1733.00004005432 11 13 0
-394.734054803848 -28.9304573088884 1735.00001430511 12 14 1
-390.478491783142 -28.9661921560764 1736.99998855591 34 34 22
-386.433213949203 -29.0185958147049 1740.00000953674 32 30 18
-380.396515130997 -28.9208982139826 1733.99996757507 37 35 23
-373.091459274292 -28.7230927497149 1722.00000286102 24 20 11
-359.218329191208 -28.0081257224083 1679.00002002716 29 22 16
-344.732791185379 -27.2262990474701 1631.99996948242 17 7 6
-338.216811418533 -27.0616486668587 1621.99997901917 142 133 134
-333.606511354446 -27.047136798501 1621.00005149841 134 125 126
-329.406976699829 -27.0659793168306 1621.99997901917 143 133 131
-325.4015147686 -27.1015018224716 1623.99995326996 160 149 145
-320.989072322845 -27.1036382764578 1623.99995326996 58 39 32
-316.575765609741 -27.1057654172182 1623.99995326996 77 55 44
-311.969459056854 -27.0911920815706 1623.00002574921 145 118 101
-307.557165622711 -27.0932856947184 1623.00002574921 164 133 115
-303.144037723541 -27.0953699946404 1623.00002574921 152 120 97
-298.730075359344 -27.0974393934011 1623.00002574921 164 127 98
-294.133901596069 -27.0827952772379 1621.99997901917 159 122 93
-289.542347192764 -27.0681343972683 1621.00005149841 162 127 99
-284.955382347107 -27.0534493029118 1620.00000476837 179 144 116
-280.719369649887 -27.0721521228552 1621.00005149841 176 141 113
-276.136159896851 -27.0574297755957 1620.00000476837 179 144 116
-271.725296974182 -27.0593911409378 1620.00000476837 186 151 123
-267.643600702286 -27.0947441458702 1621.99997901917 189 152 123
-264.037072658539 -27.1801967173815 1626.99997425079 191 154 125
-260.40244102478 -27.265639975667 1631.99996948242 192 156 124
-257.837623357773 -27.4680349975824 1644.00005340576 186 152 124
-255.360633134842 -27.6871398091316 1656.99994564056 164 136 114
-253.720313310623 -28.0065182596445 1675.99999904633 177 156 139
-252.718836069107 -28.4094717353582 1700.00004768372 144 127 111
-253.044992685318 -28.9795771241188 1733.99996757507 15 0 0
-251.466363668442 -29.349172487855 1756.00004196167 22 12 2
-246.816903352737 -29.3677765876055 1756.99996948242 15 10 4
-242.298856377602 -29.403068125248 1758.99994373322 15 14 10
-236.823976039886 -29.321325942874 1753.99994850159 16 16 14
-231.904715299606 -29.3064154684544 1753.00002098084 19 19 17
-228.026613593102 -29.4252242892981 1759.99999046326 20 20 18
-223.982587456703 -29.5272972434759 1766.00003242493 16 15 11
-219.284579157829 -29.5457504689693 1766.99995994568 13 12 8
-213.973432779312 -29.480567201972 1763.00001144409 15 16 10
-209.395170211792 -29.5156799256802 1764.99998569489 17 18 12
-205.037072300911 -29.5842122286558 1769.00005340576 18 19 13
-199.864134192467 -29.5356530696154 1766.00003242493 19 20 14
-195.038184523582 -29.5372288674116 1766.00003242493 25 26 20
-190.965458750725 -29.6558551490307 1773.00000190735 22 23 17
-188.218399882317 -29.9919154495001 1792.99998283386 20 21 15
-183.827683329582 -30.0770550966263 1797.99997806549 19 20 14
-179.906457662582 -30.2458144724369 1807.99996852875 22 23 17
-175.736337900162 -30.3810965269804 1815.99998474121 22 23 17
-173.496514558792 -30.8676920831203 1845.00002861023 17 18 12
-167.993173003197 -30.78543394804 1840.0000333786 18 21 12
-162.339404225349 -30.6696686893702 1832.99994468689 17 20 9
-157.839074730873 -30.7713840156794 1838.99998664856 18 21 10
-154.136210680008 -31.0404002666473 1855.00001907349 20 23 14
-149.621978402138 -31.1587955802679 1861.99998855591 22 25 16
-146.854043006897 -31.6620580852032 1891.99995994568 22 25 16
-141.225591301918 -31.5628498792648 1886.0000371933 21 24 17
-136.278703808784 -31.6142141819 1889.00005817413 28 31 24
-131.31482899189 -31.6655412316322 1891.99995994568 29 32 25
-126.200675964355 -31.6833630204201 1893.00000667572 28 30 25
-122.039467096329 -31.9522060453892 1909.00003910065 29 31 26
-117.667727172375 -32.1875438094139 1922.99997806549 31 33 28
-112.926587462425 -32.3391668498516 1932.000041008 28 27 23
-108.637064695358 -32.6414071023464 1950.00004768372 66 58 55
-104.937106370926 -33.1612303853035 1980.99994659424 81 70 64
-100.514307618141 -33.4969013929367 2000.99992752075 99 77 64
-95.0791537761688 -33.5144773125649 2002.00009346008 125 96 80
-89.6381288766861 -33.5320048034191 2003.00002098084 134 101 82
-84.1492339968681 -33.5327461361885 2003.00002098084 146 105 83
-78.7385404109955 -33.5669293999672 2005.00011444092 146 104 80
-73.3896121382713 -33.6345434188843 2009.0000629425 145 103 79
-67.7819177508354 -33.5849225521088 2006.00004196167 150 110 85
-62.3145885765553 -33.6022265255451 2006.99996948242 170 128 106
-445.051968097687 -34.634243696928 1786.00001335144 13 14 8
-445.391297340393 -35.0443795323372 1807.000041008 20 21 15
-442.203193902969 -35.1830460131168 1814.00001049042 22 25 16
-432.467728853226 -34.7980260848999 1794.0000295639 14 20 6
-421.171188354492 -34.2771448194981 1766.99995994568 19 23 9
-409.077674150467 -33.6785763502121 1735.99994182587 18 21 10
-402.042925357819 -33.4873422980309 1725.99995136261 19 21 10
-397.133648395538 -33.4707014262676 1725.00002384186 23 25 12
-393.821448087692 -33.5898883640766 1730.99994659424 23 25 12
-389.801472425461 -33.6508639156818 1733.99996757507 17 17 7
-385.320216417313 -33.6730293929577 1735.00001430511 20 20 10
-379.955172538757 -33.617552369833 1731.99999332428 18 18 6
-372.438967227936 -33.3679430186749 1718.99998188019 21 18 9
-363.92268538475 -33.0212190747261 1700.99997520447 22 14 11
-348.321378231049 -32.0143401622772 1649.00004863739 19 11 8
-339.882582426071 -31.6480100154877 1629.99999523163 144 136 134
-334.63317155838 -31.5728820860386 1626.00004673004 149 139 137
-330.217003822327 -31.5753966569901 1626.00004673004 93 80 74
-326.000303030014 -31.5973162651062 1626.99997425079 53 36 29
-321.57975435257 -31.5998122096062 1626.99997425079 119 95 83
-316.963374614716 -31.5828695893288 1626.00004673004 130 102 88
-312.159359455109 -31.5464735031128 1623.99995326996 152 119 100
-307.365387678146 -31.5100625157356 1621.99997901917 155 120 98
-302.768260240555 -31.4930565655231 1621.00005149841 160 124 100
-298.727840185165 -31.5343178808689 1623.00002574921 163 124 95
-293.950378894806 -31.497847288847 1621.00005149841 163 126 97
-289.182931184769 -31.4613468945026 1618.99995803833 165 130 102
-284.425526857376 -31.4248204231262 1616.99998378754 171 136 108
-280.197709798813 -31.4465761184692 1618.00003051758 178 144 117
-275.793135166168 -31.4488783478737 1618.00003051758 182 146 120
-271.555483341217 -31.4705967903137 1618.99995803833 180 145 117
-267.31151342392 -31.492292881012 1620.00000476837 184 149 121
-263.223588466644 -31.5334089100361 1621.99997901917 186 149 122
-259.443014860153 -31.6133908927441 1626.00004673004 185 148 119
-256.42403960228 -31.7905806005001 1634.99999046326 175 140 112
-254.125744104385 -32.065000385046 1649.00004863739 171 139 116
-251.901686191559 -32.3588699102402 1664.00003433228 167 141 124
-250.3382563591 -32.749991863966 1684.00001525879 186 164 150
-251.437693834305 -33.5106700658798 1723.00004959106 14 0 0
-251.607477664948 -34.174170345068 1756.99996948242 33 20 11
-247.095808386803 -34.2152714729309 1758.99994373322 16 11 5
-242.434620857239 -34.2368967831135 1759.99999046326 19 18 13
-237.227082252502 -34.1806709766388 1756.99996948242 20 21 16
-231.638193130493 -34.0660475194454 1751.00004673004 21 22 17
-228.542938828468 -34.3210473656654 1764.00005817413 22 23 18
-223.980695009232 -34.362006932497 1766.00003242493 17 16 11
-219.034522771835 -34.3445613980293 1764.99998569489 13 12 7
-213.243395090103 -34.1908596456051 1756.99996948242 14 15 9
-209.393382072449 -34.348476678133 1764.99998569489 17 18 12
-205.03531396389 -34.4282351434231 1769.00005340576 18 19 13
-200.088739395142 -34.4106443226337 1768.00000667572 18 19 13
-195.257365703583 -34.4124808907509 1768.00000667572 24 25 19
-191.394627094269 -34.5894619822502 1776.99995040894 28 29 23
-188.531681895256 -34.9610857665539 1796.0000038147 26 27 21
-184.54173207283 -35.1380333304405 1804.99994754791 25 26 20
-180.103912949562 -35.2370925247669 1809.99994277954 27 28 22
-176.315426826477 -35.4724004864693 1822.00002670288 27 28 22
-174.059197306633 -36.0386744141579 1850.99995136261 24 25 19
-168.174296617508 -35.8650721609592 1842.00000762939 18 21 12
-161.718010902405 -35.5551093816757 1825.99997520447 19 22 13
-156.292751431465 -35.4592688381672 1820.99997997284 20 23 14
-152.888461947441 -35.8307398855686 1840.0000333786 22 25 16
-150.263473391533 -36.416407674551 1870.00000476837 20 23 14
-146.076530218124 -36.6515330970287 1881.99996948242 19 22 13
-141.898229718208 -36.9061045348644 1894.99998092651 21 24 17
-136.710330843925 -36.9074605405331 1894.99998092651 29 32 25
-131.105437874794 -36.7919057607651 1889.00005817413 31 34 27
-126.066192984581 -36.8321128189564 1891.00003242493 30 32 27
-122.038342058659 -37.1839292347431 1909.00003910065 32 34 29
-117.911420762539 -37.5357232987881 1927.00004577637 35 37 32
-113.393150269985 -37.7900898456573 1940.00005722046 29 30 25
-109.026037156582 -38.1223373115063 1957.00001716614 58 55 50
-104.671284556389 -38.4935140609741 1975.99995136261 66 59 51
-100.362695753574 -38.9231070876122 1998.00002574921 89 70 56
-95.0307846069336 -38.982518017292 2000.99992752075 124 98 83
-89.682050049305 -39.0418767929077 2003.99994850159 133 102 84
-84.1904729604721 -39.0427447855473 2003.99994850159 145 107 86
-78.8163542747498 -39.1020029783249 2006.99996948242 139 98 78
-73.4619796276093 -39.180688560009 2010.99991798401 121 83 62
-67.9164454340935 -39.1619130969048 2009.99999046326 124 86 65
-62.3450540006161 -39.1235984861851 2007.99989700317 143 105 84
-56.8409711122513 -39.1241870820522 2007.99989700317 157 110 92
-438.320815563202 -38.9099754393101 1758.99994373322 21 24 17
-436.268419027328 -39.1565375030041 1769.99998092651 26 29 22
-439.762383699417 -39.9120040237904 1804.00002002716 23 26 19
-433.669954538345 -39.804682135582 1799.00002479553 20 21 13
-421.644926071167 -39.1441397368908 1769.00005340576 20 21 13
-411.431163549423 -38.6383906006813 1746.00005149841 21 22 14
-403.204649686813 -38.3096039295197 1730.99994659424 17 18 10
-397.360920906067 -38.2020957767963 1725.99995136261 17 18 10
-392.680913209915 -38.2052361965179 1725.99995136261 17 18 10
-389.573782682419 -38.3633337914944 1733.00004005432 17 18 10
-386.427730321884 -38.5214425623417 1740.00000953674 17 18 10
-379.732877016068 -38.3253172039986 1730.99994659424 18 19 11
-372.869342565537 -38.1070151925087 1720.99995613098 21 22 14
-365.631371736526 -37.8443747758865 1708.99999141693 25 26 20
-354.655504226685 -37.183053791523 1679.00002002716 26 27 19
-342.799097299576 -36.4108718931675 1644.00005340576 19 17 5
-335.865259170532 -36.1479930579662 1631.99996948242 70 62 51
-330.823540687561 -36.0844172537327 1628.99994850159 121 102 87
-325.997650623322 -36.042969673872 1626.99997425079 137 109 95
-321.181774139404 -36.0014997422695 1625 153 116 97
-316.375911235809 -35.9600074589252 1623.00002574921 155 117 94
-311.580121517181 -35.9184890985489 1621.00005149841 160 125 97
-306.983798742294 -35.8991101384163 1620.00000476837 162 127 97
-302.578866481781 -35.9018631279469 1620.00000476837 162 127 97
-298.541218042374 -35.9489284455776 1621.99997901917 162 125 98
-293.766468763351 -35.9073206782341 1620.00000476837 163 126 99
-289.001762866974 -35.8656793832779 1618.00003051758 164 127 100
-284.071236848831 -35.8018428087235 1615.00000953674 167 130 103
-279.67569231987 -35.8044877648354 1615.00000953674 176 139 112
-275.449812412262 -35.8292758464813 1616.00005626678 177 140 114
-271.049827337265 -35.8318686485291 1616.00005626678 181 144 118
-267.144083976746 -35.9009578824043 1618.99995803833 182 145 119
-263.058930635452 -35.9478630125523 1621.00005149841 181 144 118
-259.281128644943 -36.0390953719616 1625 189 152 126
-256.108045578003 -36.2190306186676 1633.00001621246 185 144 122
-253.815174102783 -36.5320481359959 1646.99995517731 136 98 79
-251.142412424088 -36.8007197976112 1659.00003910065 152 116 100
-248.849391937256 -37.1359400451183 1674.00002479553 168 140 126
-249.684140086174 -37.9592552781105 1710.99996566772 103 84 70
-251.032322645187 -38.8935841619968 1753.00002098084 19 7 0
-247.51490354538 -39.0957742929459 1761.99996471405 21 21 11
-242.432311177254 -39.0538759529591 1759.99999046326 19 22 13
-237.629875540733 -39.0563160181046 1759.99999046326 17 22 15
-232.032850384712 -38.9255620539188 1753.99994850159 17 20 13
-229.058936238289 -39.2386317253113 1768.00000667572 19 20 12
-223.724886775017 -39.1521900892258 1764.00005817413 23 19 8
-218.908295035362 -39.1544848680496 1764.00005817413 19 16 7
-213.726788759232 -39.0901416540146 1761.0000371933 16 17 11
-210.221782326698 -39.3365398049355 1771.99995517731 18 19 13
-205.728694796562 -39.405319839716 1774.99997615814 17 18 12
-200.652629137039 -39.3630638718605 1773.00000190735 17 18 12
-195.697173476219 -39.3429547548294 1771.99995517731 19 20 14
-191.500410437584 -39.4782312214375 1777.99999713898 26 27 21
-187.794998288155 -39.7245027124882 1789.00003433228 28 29 23
-184.437662363052 -40.0595776736736 1804.00002002716 28 29 23
-180.002585053444 -40.172565728426 1809.00001525879 29 30 24
-176.023319363594 -40.3965599834919 1819.00000572205 30 31 25
-173.305168747902 -40.9314595162869 1843.00005435944 24 25 19
-168.629065155983 -41.0221517086029 1847.00000286102 20 23 16
-162.424862384796 -40.7352149486542 1833.99999141693 16 19 12
-155.604541301727 -40.2705073356628 1812.99996376038 20 23 16
-152.471452951431 -40.76087474823 1835.00003814697 24 27 20
-149.378016591072 -41.2956513464451 1858.99996757507 22 25 18
-146.618366241455 -41.9637151062489 1889.00005817413 21 24 17
-141.89675450325 -42.0986004173756 1894.99998092651 24 27 20
-136.420324444771 -42.011272162199 1891.00003242493 31 34 27
-130.340605974197 -41.7239367961884 1878.00002098084 33 36 29
-125.464871525764 -41.8142266571522 1881.99996948242 32 35 28
-121.845282614231 -42.3488467931747 1906.00001811981 33 36 29
-117.910169064999 -42.8167916834354 1927.00004577637 34 37 30
-113.333493471146 -43.0847182869911 1939.00001049042 35 38 31
-108.746334910393 -43.3748289942741 1952.00002193451 32 33 25
-104.458294808865 -43.8204519450665 1972.00000286102 51 49 37
-100.110478699207 -44.2882589995861 1993.00003051758 63 47 32
-94.8873087763786 -44.4004721939564 1998.00002574921 88 65 49
-89.6363481879234 -44.5126257836819 2003.00002098084 111 80 62
-84.1475650668144 -44.5136092603207 2003.00002098084 134 93 75
-78.8547769188881 -44.6256510913372 2007.99989700317 114 71 54
-73.4977424144745 -44.7154194116592 2012.00008392334 106 65 47
-68.0508762598038 -44.7606667876244 2013.99993896484 102 64 45
-62.4064840376377 -44.6725115180016 2009.99999046326 127 90 72
-56.8686798214912 -44.6509681642056 2009.0000629425 141 98 81
-436.074733734131 -43.485552072525 1750 21 24 17
-438.236832618713 -44.184971600771 1777.99999713898 27 30 23
-439.027577638626 -44.7602458298206 1800.99999904633 22 25 18
-431.255847215652 -44.4656871259212 1789.00003433228 21 22 14
-425.931751728058 -44.4196425378323 1786.99994087219 20 21 13
-415.904939174652 -43.8764132559299 1764.99998569489 22 23 15
-406.695246696472 -43.4076674282551 1746.00005149841 16 17 9
-399.199336767197 -43.1128777563572 1733.99996757507 16 17 9
-394.725203514099 -43.1412868201733 1735.00001430511 17 18 10
-390.469580888748 -43.1945584714413 1736.99998855591 16 17 9
-386.202275753021 -43.2478301227093 1738.9999628067 16 17 9
-380.168348550797 -43.1021302938461 1733.00004005432 17 18 10
-373.732715845108 -42.906641960144 1725.00002384186 18 19 11
-368.195444345474 -42.8106151521206 1720.99995613098 21 20 15
-361.200392246246 -42.5404161214828 1710.00003814697 25 25 17
-348.008841276169 -41.5237806737423 1669.0000295639 17 17 7
-336.891204118729 -40.730893611908 1636.99996471405 69 61 48
-330.61745762825 -40.5101850628853 1628.00002098084 146 124 110
-325.393497943878 -40.4138490557671 1623.99995326996 150 123 106
-320.783525705338 -40.3921455144882 1623.00002574921 155 118 99
-316.177994012833 -40.370412170887 1621.99997901917 154 116 93
-311.577171087265 -40.3486676514149 1621.00005149841 158 123 95
-306.9808781147 -40.3268858790398 1620.00000476837 158 123 93
-302.389174699783 -40.3050854802132 1618.99995803833 156 121 91
-297.98611998558 -40.3081551194191 1618.99995803833 161 122 93
-293.21962594986 -40.2614064514637 1616.99998378754 165 126 97
-288.463115692139 -40.2146242558956 1615.00000953674 167 127 101
-283.364832401276 -40.1180014014244 1610.99994182587 168 128 102
-279.153376817703 -40.1458628475666 1611.99998855591 174 134 108
-275.106102228165 -40.1986055076122 1613.9999628067 175 135 109
-271.214812994003 -40.2762368321419 1616.99998378754 181 141 116
-266.97638630867 -40.304034948349 1618.00003051758 182 142 117
-262.731671333313 -40.3318032622337 1618.99995803833 179 139 114
-258.640199899673 -40.3844565153122 1621.00005149841 187 147 122
-255.634874105453 -40.611494332552 1629.99999523163 184 144 119
-253.350228071213 -40.9631170332432 1644.00005340576 133 92 72
-250.382900238037 -41.2150695919991 1654.00004386902 148 113 94
-247.211545705795 -41.4421074092388 1662.99998760223 165 136 120
-246.03334069252 -42.0180447399616 1685.99998950958 163 141 127
-248.452052474022 -43.2420261204243 1735.00001430511 19 5 0
-246.248006820679 -43.6934567987919 1753.00002098084 19 16 7
-241.327732801437 -43.6712950468063 1751.99997425079 18 19 11
-237.087249755859 -43.773740530014 1756.00004196167 18 21 14
-231.236606836319 -43.5769855976105 1748.00002574921 17 20 13
-228.538244962692 -43.9785271883011 1764.00005817413 19 20 12
-222.961470484734 -43.8315495848656 1758.00001621246 23 19 8
-218.781769275665 -43.9587794244289 1763.00001144409 19 16 7
-213.724419474602 -43.9114384353161 1761.0000371933 15 16 10
-210.21942794323 -44.1882163286209 1771.99995517731 17 18 12
-206.190034747124 -44.3652421236038 1779.00004386902 17 18 12
-201.103061437607 -44.3177670240402 1776.99995040894 17 18 12
-196.136727929115 -44.2951880395412 1776.00002288818 20 21 15
-191.390544176102 -44.3224385380745 1776.99995040894 26 27 21
-187.582895159721 -44.5741340517998 1786.99994087219 28 29 23
-183.822125196457 -44.8507517576218 1797.99997806549 27 28 22
-179.901018738747 -45.1024025678635 1807.99996852875 29 30 24
-175.6342202425 -45.2791750431061 1815.00005722046 31 32 26
-172.174766659737 -45.6804521381855 1830.9999704361 27 28 22
-168.07933151722 -45.9320172667503 1840.99996089935 21 24 17
-162.865802645683 -45.8841398358345 1838.99998664856 16 19 12
-156.632646918297 -45.5367788672447 1825.00004768372 18 21 14
-152.220383286476 -45.7133427262306 1832.00001716614 21 24 17
-149.13521707058 -46.31407558918 1855.99994659424 23 26 19
-146.228551864624 -47.0146201550961 1883.99994373322 24 27 20
-141.820222139359 -47.2659580409527 1894.00005340576 27 30 23
-136.058032512665 -47.068040817976 1886.0000371933 30 33 26
-130.200266838074 -46.820130199194 1876.00004673004 33 36 29
-125.796735286713 -47.0962598919868 1886.99996471405 35 38 31
-122.099548578262 -47.6718619465828 1909.9999666214 33 36 29
-117.908775806427 -48.0976849794388 1927.00004577637 31 34 27
-112.513870000839 -48.0492115020752 1924.99995231628 30 36 26
-108.299359679222 -48.5248565673828 1944.00000572205 30 32 21
-104.298144578934 -49.1502434015274 1968.99998188019 57 57 45
-100.10926425457 -49.750629812479 1993.00003051758 80 68 52
-94.8386788368225 -49.8517192900181 1996.99997901917 67 48 33
-89.6800234913826 -50.0276312232018 2003.99994850159 101 74 57
-84.3145847320557 -50.1036308705807 2006.99996948242 113 76 60
-79.0894478559494 -50.2794235944748 2013.99993896484 123 84 69
-73.6064463853836 -50.3053702414036 2015.00010490417 74 36 23
-68.1514143943787 -50.3561981022358 2016.99995994568 77 44 29
-62.4367743730545 -50.2072386443615 2010.99991798401 105 73 58
-56.8962916731834 -50.1830317080021 2009.99999046326 130 91 74
-444.39485669136 -49.7257895767689 1802.99997329712 28 31 24
-438.048601150513 -49.5644100010395 1797.00005054474 24 25 17
-432.457238435745 -49.4857504963875 1794.0000295639 22 23 15
-423.544377088547 -49.0208603441715 1776.99995040894 25 26 18
-416.84365272522 -48.804197460413 1769.00005340576 24 25 17
-410.884171724319 -48.6702658236027 1764.00005817413 15 16 8
-402.648836374283 -48.2603684067726 1748.99995326996 14 15 7
-396.31399512291 -48.0711571872234 1741.99998378754 16 17 9
-391.814649105072 -48.1026954948902 1743.00003051758 16 17 9
-387.753129005432 -48.1894239783287 1746.00005149841 16 17 9
-381.480842828751 -48.0001345276833 1738.9999628067 18 19 11
-375.245630741119 -47.8108040988445 1731.99999332428 19 20 12
-370.117276906967 -47.7594546973705 1730.00001907349 26 26 18
-362.675338983536 -47.4043861031532 1717.00000762939 27 24 15
-349.673420190811 -46.303752809763 1677.00004577637 33 31 19
-336.887747049332 -45.2029146254063 1636.99996471405 15 8 0
-330.410927534103 -44.9303537607193 1626.99997425079 138 119 102
-325.390160083771 -44.8510572314262 1623.99995326996 143 116 97
-320.780158042908 -44.8269657790661 1623.00002574921 154 118 96
-315.979778766632 -44.7752252221107 1621.00005149841 154 116 93
-311.189442873001 -44.723454862833 1618.99995803833 153 116 89
-306.788086891174 -44.7269044816494 1618.99995803833 152 117 87
-302.385926246643 -44.730331748724 1618.99995803833 150 113 84
-297.982901334763 -44.7337366640568 1618.99995803833 154 115 86
-293.035089969635 -44.6542166173458 1616.00005626678 157 118 89
-288.102686405182 -44.5746555924416 1613.00003528595 161 122 93
-283.009916543961 -44.4674231112003 1608.99996757507 163 124 95
-278.63073348999 -44.4706939160824 1608.99996757507 168 128 102
-274.421244859695 -44.5015802979469 1610.00001430511 168 128 102
-270.708590745926 -44.6153692901134 1613.9999628067 170 130 104
-266.478329896927 -44.6462035179138 1615.00000953674 178 138 112
-262.728661298752 -44.7599552571774 1618.99995803833 179 139 114
-258.637279272079 -44.8183864355087 1621.00005149841 181 141 116
-255.631923675537 -45.0703464448452 1629.99999523163 176 134 110
-252.730846405029 -45.3499555587769 1639.99998569489 133 88 65
-249.623104929924 -45.6019155681133 1649.00004863739 135 97 76
-246.019452810287 -45.7709021866322 1654.99997138977 163 132 112
-244.133397936821 -46.2717600166798 1672.99997806549 136 118 104
-245.871528983116 -47.4918037652969 1717.00000762939 25 15 3
-245.964154601097 -48.4353490173817 1751.00004673004 19 15 4
-240.222916007042 -48.2447668910027 1743.99995803833 14 14 4
-233.979076147079 -47.9434616863728 1733.00004005432 13 16 9
-226.339265704155 -47.3377369344234 1710.99996566772 13 16 9
-227.239862084389 -48.5303364694119 1753.99994850159 18 18 10
-222.19780087471 -48.4778843820095 1751.99997425079 21 18 9
-218.654990196228 -48.7574338912964 1761.99996471405 18 15 6
-214.571312069893 -48.9262714982033 1768.00000667572 15 16 10
-210.335463285446 -49.0674078464508 1773.00000190735 17 18 12
-206.535145640373 -49.3192076683044 1781.99994564056 17 18 12
-201.3268917799 -49.2388531565666 1779.00004386902 18 19 13
-196.355134248734 -49.2137968540192 1777.99999713898 20 21 15
-191.603541374207 -49.2440387606621 1779.00004386902 27 28 22
-187.160655856133 -49.3572764098644 1782.99999237061 29 30 24
-183.717578649521 -49.7473068535328 1797.00005054474 27 28 22
-178.903713822365 -49.777414649725 1797.99997806549 28 29 23
-175.438433885574 -50.1950718462467 1812.99996376038 30 31 25
-171.138226985931 -50.3912195563316 1820.00005245209 29 30 24
-166.981607675552 -50.642691552639 1828.9999961853 23 26 19
-163.040816783905 -50.9772002696991 1840.99996089935 19 22 15
-157.40305185318 -50.7855452597141 1833.99999141693 19 22 15
-153.298571705818 -51.0922707617283 1845.00002861023 21 24 17
-149.052917957306 -51.3712652027607 1855.00001907349 25 28 21
-145.37288248539 -51.8717765808105 1873.00002574921 27 30 23
-140.171036124229 -51.8460422754288 1871.99997901917 27 30 23
-135.406956076622 -51.9864186644554 1876.99997425079 29 32 25
-130.267962813377 -51.9882589578629 1876.99997425079 31 34 27
-126.328378915787 -52.488598972559 1894.99998092651 34 37 30
-122.289717197418 -52.9889054596424 1912.99998760223 31 34 27
-117.723658680916 -53.2952770590782 1924.00002479553 29 32 25
-112.278580665588 -53.2137714326382 1921.0000038147 31 34 27
-107.740841805935 -53.5754300653934 1934.00001525879 28 29 21
-104.084871709347 -54.4356815516949 1965.0000333786 53 53 41
-99.7563153505325 -55.0188720226288 1985.99994182587 114 102 88
-94.7424247860909 -55.2695728838444 1995.00000476837 70 53 37
-89.4998237490654 -55.4093942046165 2000 95 69 54
-84.2294543981552 -55.549144744873 2005.00011444092 129 95 83
-79.0098533034325 -55.7442381978035 2012.00008392334 120 84 72
-73.6054554581642 -55.8284372091293 2015.00010490417 59 27 16
-68.2180747389793 -55.9402592480183 2019.00005340576 56 28 16
-62.4048858880997 -55.6918159127235 2009.99999046326 93 65 51
-56.8106099963188 -55.609542876482 2006.99996948242 119 82 64
-51.2836687266827 -55.5826053023338 2006.00004196167 148 106 90
-454.506188631058 -55.2771091461182 1824.00000095367 56 59 52
-442.172288894653 -54.3724298477173 1794.0000295639 27 30 23
-437.556743621826 -54.4072240591049 1794.99995708466 25 26 18
-433.417141437531 -54.5026510953903 1797.99997806549 23 24 16
-420.680016279221 -53.5067357122898 1764.99998569489 25 26 18
-415.189981460571 -53.4201860427856 1761.99996471405 24 25 17
-410.414129495621 -53.4245818853378 1761.99996471405 16 17 9
-404.025971889496 -53.2167106866837 1754.99999523163 15 16 8
-398.129850625992 -53.0694425106049 1750 16 17 9
-392.260074615479 -52.9221408069134 1745.00000476837 16 17 9
-386.638611555099 -52.8051406145096 1741.00005626678 18 19 11
-379.283100366592 -52.4454452097416 1728.99997234344 18 19 11
-373.724967241287 -52.3283556103706 1725.00002384186 20 20 12
-367.973864078522 -52.1808974444866 1720.00002861023 22 19 12
-362.248927354813 -52.0333908498287 1715.0000333786 16 14 2
-349.669516086578 -50.8845448493958 1677.00004577637 36 34 21
-336.266577243805 -49.5837666094303 1633.99994373322 36 29 13
-330.001056194305 -49.3145771324635 1625 130 111 94
-325.386434793472 -49.2881201207638 1623.99995326996 141 114 95
-321.17173075676 -49.3223443627357 1625 155 119 97
-316.171020269394 -49.2351315915585 1621.99997901917 155 118 92
-311.570227146149 -49.2085963487625 1621.00005149841 155 115 89
-306.784480810165 -49.1516701877117 1618.99995803833 152 115 86
-302.382349967957 -49.1554327309132 1618.99995803833 154 115 86
-297.795325517654 -49.1288118064404 1618.00003051758 153 114 85
-292.850226163864 -49.0414164960384 1615.00000953674 154 115 86
-287.920594215393 -48.9539764821529 1611.99998855591 160 121 92
-283.006489276886 -48.8664992153645 1608.99996757507 163 124 95
-278.454184532166 -48.8397181034088 1608.00004005432 164 124 98
-273.906528949738 -48.8129034638405 1606.99999332428 161 121 95
-270.202040672302 -48.9379353821278 1610.99994182587 157 117 91
-266.144990921021 -49.0021929144859 1613.00003528595 165 125 99
-262.563079595566 -49.1575673222542 1618.00003051758 172 132 107
-258.314847946167 -49.1913892328739 1618.99995803833 174 134 109
-255.158185958862 -49.4378805160522 1626.99997425079 171 129 105
-252.111196517944 -49.7147552669048 1636.0000371933 167 121 97
-249.165743589401 -50.0220209360123 1646.00002765656 140 99 77
-245.718970894814 -50.2381026744843 1652.99999713898 165 133 112
-243.10876429081 -50.6365410983562 1666.00000858307 169 150 135
-243.720352649689 -51.7340861260891 1702.00002193451 11 0 0
-244.696661829948 -52.9533214867115 1741.99998378754 22 16 4
-239.944249391556 -52.9566705226898 1741.99998378754 17 14 5
-235.326081514359 -52.99037322402 1743.00003051758 14 17 10
-232.156693935394 -53.3584654331207 1754.99999523163 14 17 10
-226.329982280731 -53.1184487044811 1746.99997901917 18 19 11
-222.194790840149 -53.2736368477345 1751.99997425079 18 18 8
-218.65202486515 -53.5808354616165 1761.99996471405 15 15 5
-214.811116456985 -53.8271963596344 1769.99998092651 15 16 10
-210.095331072807 -53.8606457412243 1771.00002765656 16 17 11
-205.836936831474 -54.0156960487366 1776.00002288818 18 19 13
-200.87143778801 -53.9882071316242 1774.99997615814 19 20 14
-196.352407336235 -54.0823265910149 1777.99999713898 20 21 15
-191.385462880135 -54.054718464613 1776.99995040894 27 28 22
-186.843141913414 -54.1487373411655 1779.99997138977 30 31 25
-183.203831315041 -54.5164979994297 1792.00005531311 27 28 22
-178.801700472832 -54.6712763607502 1797.00005054474 26 27 21
-175.145670771599 -55.0693944096565 1809.99994277954 28 29 23
-170.947730541229 -55.3153604269028 1817.999958992 28 29 23
-166.157588362694 -55.3787127137184 1820.00005245209 26 29 22
-162.330016493797 -55.7767227292061 1832.99994468689 22 25 18
-158.516511321068 -56.2051385641098 1847.00000286102 23 26 19
-154.542684555054 -56.6030889749527 1860.00001430511 24 27 20
-149.693608283997 -56.6966682672501 1863.00003528595 27 30 23
-144.672259688377 -56.7293129861355 1863.9999628067 30 33 26
-139.869511127472 -56.8532012403011 1868.00003051758 29 32 25
-135.044306516647 -56.9770261645317 1871.99997901917 29 32 25
-130.266070365906 -57.1312196552753 1876.99997425079 30 33 26
-126.726508140564 -57.8636862337589 1901.00002288818 31 34 27
-122.287936508656 -58.2308582961559 1912.99998760223 30 33 26
-117.354810237885 -58.3848841488361 1917.99998283386 29 32 25
-111.69246584177 -58.1735521554947 1911.00001335144 29 32 25
-107.516430318356 -58.7536282837391 1929.99994754791 23 24 16
-103.712566196918 -59.6076473593712 1957.99994468689 27 27 17
-94.5985689759254 -60.6457963585854 1991.99998378754 73 59 48
-89.4537568092346 -60.8603321015835 1998.99995326996 94 70 60
-84.2702090740204 -61.0748007893562 2006.00004196167 115 88 79
-79.0086761116982 -61.2587407231331 2012.00008392334 126 99 90
-73.5678225755692 -61.3208115100861 2013.99993896484 221 198 190
-68.2846382260323 -61.5350492298603 2020.99990844727 209 191 181
-62.2487291693687 -61.0489025712013 2005.00011444092 76 58 44
-56.6965378820896 -60.9889291226864 2003.00002098084 95 60 41
-51.206212490797 -60.9897710382938 2003.00002098084 139 98 80
-449.767023324966 -59.6256218850613 1804.99994754791 24 27 20
-441.921144723892 -59.2340975999832 1792.99998283386 24 27 20
-435.601979494095 -59.0407364070416 1786.99994087219 25 26 18
-427.868247032166 -58.6491040885448 1774.99997615814 23 24 16
-421.390444040298 -58.4226213395596 1768.00000667572 24 25 17
-410.472720861435 -57.5681999325752 1741.99998378754 24 25 17
-406.682819128037 -57.7051267027855 1746.00005149841 18 19 11
-403.330773115158 -57.9081773757935 1751.99997425079 18 19 11
-398.80782365799 -57.9459704458714 1753.00002098084 17 18 10
-391.80600643158 -57.6201193034649 1743.00003051758 17 18 10
-385.079622268677 -57.3272705078125 1733.99996757507 17 18 10
-378.620564937592 -57.0674203336239 1725.99995136261 16 17 9
-373.070657253265 -56.9397807121277 1722.00000286102 16 16 8
-367.755502462387 -56.8451620638371 1718.99998188019 19 16 7
-360.977232456207 -56.5190203487873 1708.99999141693 19 17 5
-352.375864982605 -55.8951422572136 1690.00005722046 23 21 8
-337.703019380569 -54.2788356542587 1641.00003242493 27 22 3
-330.20007610321 -53.7869483232498 1626.00004673004 143 126 106
-325.182050466537 -53.6919422447681 1623.00002574921 141 116 96
-320.97002863884 -53.7292398512363 1623.99995326996 147 111 89
-316.167026758194 -53.6672584712505 1621.99997901917 150 112 89
-311.37403845787 -53.6052361130714 1620.00000476837 161 121 95
-306.591063737869 -53.5431802272797 1618.00003051758 157 120 93
-302.004903554916 -53.5141788423061 1616.99998378754 147 108 79
-297.607392072678 -53.5182431340218 1616.99998378754 145 106 77
-292.665064334869 -53.4229725599289 1613.9999628067 147 108 79
-287.916779518127 -53.3607639372349 1611.99998855591 166 126 100
-283.00267457962 -53.2654002308846 1608.99996757507 172 132 106
-278.62361073494 -53.2693155109882 1608.99996757507 165 125 99
-274.073272943497 -53.2400794327259 1608.00004005432 158 118 92
-270.366102457047 -53.3763691782951 1611.99998855591 144 104 79
-266.141355037689 -53.4132942557335 1613.00003528595 145 105 80
-262.397170066834 -53.5495318472385 1616.99998378754 150 110 85
-258.151739835739 -53.5863973200321 1618.00003051758 159 119 94
-254.684180021286 -53.7888258695602 1623.99995326996 162 120 95
-251.491278409958 -54.057490080595 1631.99996948242 191 145 119
-248.859465122223 -54.4586516916752 1644.00005340576 149 107 83
-245.715484023094 -54.760430008173 1652.99999713898 163 128 106
-242.959395051003 -55.1615953445435 1664.99996185303 166 145 128
-241.998553276062 -55.9934861958027 1690.00005722046 41 27 14
-242.726594209671 -57.2561770677567 1728.00004482269 15 9 0
-238.701149821281 -57.4254766106606 1733.00004005432 18 15 6
-232.352420687675 -57.0313856005669 1720.99995613098 15 18 9
-230.169102549553 -57.6645545661449 1740.00000953674 14 17 8
-226.067528128624 -57.8337386250496 1745.00000476837 19 20 12
-221.176952123642 -57.8040257096291 1743.99995803833 19 19 9
-217.780157923698 -58.1720098853111 1754.99999523163 16 16 6
-214.80792760849 -58.6725696921349 1769.99998092651 15 16 10
-209.854945540428 -58.6427263915539 1769.00005340576 16 17 11
-205.602049827576 -58.8117279112339 1774.00004863739 18 19 13
-200.868427753448 -58.8480643928051 1774.99997615814 19 20 14
-196.128576993942 -58.8843375444412 1776.00002288818 19 20 14
-191.382557153702 -58.9205548167229 1776.99995040894 25 26 20
-186.525404453278 -58.9235536754131 1776.99995040894 28 29 23
-182.996556162834 -59.357576072216 1789.99996185303 27 28 22
-179.495453834534 -59.8247274756432 1804.00002002716 27 28 22
-175.336509943008 -60.0928775966167 1812.00003623962 28 29 23
-171.03910446167 -60.3278204798698 1819.00000572205 29 30 24
-165.333360433578 -60.0652098655701 1810.99998950958 27 30 23
-161.530449986458 -60.4990273714066 1824.00000095367 23 26 19
-158.256560564041 -61.1650124192238 1843.99998188019 24 27 20
-154.54027056694 -61.6982840001583 1860.00001430511 24 27 20
-149.530529975891 -61.7339350283146 1860.99994182587 26 29 22
-143.971472978592 -61.5373104810715 1855.00001907349 29 32 25
-139.56780731678 -61.8382096290588 1863.9999628067 28 31 24
-134.60935652256 -61.9068145751953 1866.00005626678 28 31 24
-130.333408713341 -62.3071268200874 1878.00002098084 27 30 23
-125.791251659393 -62.6078546047211 1886.99996471405 26 29 22
-121.39105796814 -63.0080476403236 1899.00004863739 28 31 24
-116.190426051617 -63.0100294947624 1899.00004863739 28 29 24
-111.51534318924 -63.3105486631393 1907.99999237061 28 29 23
-107.124745845795 -63.8101100921631 1922.99997806549 27 28 20
-102.757483720779 -64.3759742379189 1940.00005722046 144 141 132
-94.6920141577721 -66.1712437868118 1993.99995803833 70 60 50
-89.4075557589531 -66.3055330514908 1998.00002574921 91 71 62
-78.7325277924538 -66.5406733751297 2005.00011444092 114 91 83
-73.3474642038345 -66.6415169835091 2007.99989700317 178 161 153
-61.3163225352764 -65.5485764145851 1975.00002384186 90 74 61
-56.5540939569473 -66.3129389286041 1998.00002574921 95 60 41
-51.1798113584518 -66.4466097950935 2002.00009346008 140 99 81
-444.627225399017 -64.5193234086037 1804.00002002716 23 26 19
-437.790781259537 -64.2384886741638 1796.0000038147 24 25 17
-431.237936019897 -63.9933794736862 1789.00003433228 25 26 18
-419.240385293961 -62.9254356026649 1758.99994373322 26 27 19
-409.760922193527 -62.2150786221027 1738.9999628067 23 24 16
-405.047416687012 -62.2201785445213 1738.9999628067 17 18 10
-402.405023574829 -62.5473186373711 1748.00002574921 16 17 9
-398.802906274796 -62.7313479781151 1753.00002098084 14 15 7
-391.351521015167 -62.3070113360882 1741.00005626678 13 14 6
-383.964359760284 -61.8825852870941 1728.99997234344 12 13 5
-378.396391868591 -61.7444328963757 1725.00002384186 12 13 5
-374.365746974945 -61.8568174540997 1728.00004482269 16 16 8
-367.108941078186 -61.4322014153004 1715.99996089935 17 14 5
-361.606150865555 -61.2939223647118 1712.00001239777 20 18 6
-354.456275701523 -60.8691647648811 1700.00004768372 22 20 7
-340.579569339752 -59.2626295983791 1654.99997138977 25 20 1
-330.804824829102 -58.3362318575382 1628.99994850159 145 130 111
-325.377970933914 -58.1617578864098 1623.99995326996 136 113 95
-320.768058300018 -58.1305027008057 1623.00002574921 151 116 96
-315.96776843071 -58.0633878707886 1621.00005149841 152 114 91
-311.369717121124 -58.0320581793785 1620.00000476837 164 124 98
-306.586772203445 -57.9648688435555 1618.00003051758 157 120 93
-302.000671625137 -57.9334683716297 1616.99998378754 153 116 89
-297.419130802155 -57.902030646801 1616.00005626678 146 109 82
-292.842209339142 -57.8705556690693 1615.00000953674 130 93 66
-288.269847631454 -57.8390322625637 1613.9999628067 146 109 83
-283.350378274918 -57.7358044683933 1610.99994182587 148 111 85
-278.792709112167 -57.7041953802109 1610.00001430511 147 110 84
-274.239659309387 -57.6725415885448 1608.99996757507 146 109 83
-270.362108945847 -57.7842369675636 1611.99998855591 136 98 75
-266.30237698555 -57.8600503504276 1613.9999628067 130 92 69
-262.231022119522 -57.9358451068401 1616.00005626678 123 85 62
-258.147865533829 -58.0115988850594 1618.00003051758 144 106 83
-254.209876060486 -58.1231638789177 1621.00005149841 149 109 84
-251.025170087814 -58.4140047430992 1628.99994850159 174 128 102
-248.401582241058 -58.8482804596424 1641.00003242493 173 131 106
-245.71168422699 -59.2825561761856 1652.99999713898 149 115 90
-242.517858743668 -59.6092455089092 1661.99994087219 142 121 104
-241.135627031326 -60.4022219777107 1684.00001525879 124 108 95
-241.318166255951 -61.6256855428219 1718.00005435944 11 3 0
-239.248350262642 -62.3111538589001 1736.99998855591 19 15 4
-229.513600468636 -60.9876550734043 1700.00004768372 13 14 6
-224.741980433464 -60.9555058181286 1699.00000095367 15 18 9
-221.788808703423 -61.4256076514721 1712.00001239777 16 19 10
-221.300214529037 -62.613345682621 1745.00000476837 15 17 6
-217.90075302124 -63.0117133259773 1756.00004196167 13 15 4
-214.197650551796 -63.3382871747017 1764.99998569489 15 16 10
-209.614276885986 -63.4136199951172 1766.99995994568 17 18 12
-205.019235610962 -63.4889006614685 1769.00005340576 17 18 12
-200.299307703972 -63.5282248258591 1769.99998092651 17 18 12
-195.683628320694 -63.6033713817596 1771.99995517731 18 19 13
-191.056311130524 -63.6784732341766 1774.00004863739 21 22 16
-186.522305011749 -63.7893974781036 1776.99995040894 27 28 22
-182.380124926567 -64.043864607811 1784.00003910065 23 24 18
-179.094463586807 -64.6213814616203 1799.99995231628 22 23 17
-175.043284893036 -64.9475678801537 1809.00001525879 27 28 22
-170.942202210426 -65.2737021446228 1817.999958992 29 30 24
-165.87832570076 -65.240740776062 1817.00003147125 23 26 19
-162.413313984871 -65.8540353178978 1833.99999141693 24 27 20
-158.511355519295 -66.3236528635025 1847.00000286102 24 27 20
-154.371470212936 -66.7214170098305 1858.00004005432 24 27 20
-149.206593632698 -66.6881799697876 1856.99999332428 23 26 19
-143.891394138336 -66.5830448269844 1853.99997234344 23 26 19
-139.490559697151 -66.9087916612625 1863.00003528595 22 25 18
-135.112002491951 -67.2703832387924 1873.00002574921 21 24 17
-130.46994805336 -67.5241649150848 1879.99999523163 19 22 15
-125.389099121094 -67.5623863935471 1881.00004196167 25 28 21
-120.557971298695 -67.7441880106926 1886.0000371933 28 31 24
-115.760125219822 -67.9618343710899 1891.99995994568 35 36 31
-110.987395048141 -68.2153180241585 1899.00004863739 23 24 19
-106.064468622208 -68.3968886733055 1904.00004386902 24 25 19
-100.742943584919 -68.3269128203392 1901.99995040894 128 128 120
-94.4529175758362 -71.4559033513069 1988.9999628067 83 76 68
-89.495487511158 -71.8527585268021 2000 81 64 57
-73.3461752533913 -72.1446424722672 2007.99989700317 174 161 153
-56.524783372879 -71.7529729008675 1996.99997901917 87 51 35
-452.746510505676 -69.935642182827 1817.00003147125 18 21 14
-448.811620473862 -70.0953528285027 1820.99997997284 28 31 24
-441.197872161865 -69.6776509284973 1809.99994277954 28 31 24
-429.063081741333 -68.5283988714218 1779.99997138977 27 28 20
-421.856731176376 -68.1489929556847 1769.99998092651 27 28 20
-409.520000219345 -66.9224113225937 1738.00003528595 24 25 17
-407.138407230377 -67.312978208065 1748.00002574921 20 21 13
-402.860134840012 -67.3955082893372 1750 19 20 12
-398.34263920784 -67.4395188689232 1751.00004673004 18 19 11
-391.121506690979 -67.0213177800179 1740.00000953674 17 18 10
-385.291576385498 -66.8341442942619 1735.00001430511 17 18 10
-381.242841482162 -66.9551342725754 1738.00003528595 17 18 10
-376.093655824661 -66.8834820389748 1735.99994182587 20 20 12
-369.243144989014 -66.5035620331764 1725.99995136261 19 16 7
-362.868368625641 -66.2006214261055 1718.00005435944 19 17 5
-357.161700725555 -66.0132244229317 1713.00005912781 24 22 9
-343.867242336273 -64.3998011946678 1671.0000038147 24 21 4
-331.815421581268 -62.9788115620613 1633.99994373322 111 98 79
-325.373262166977 -62.5983104109764 1623.99995326996 146 123 105
-320.565700531006 -62.5261068344116 1621.99997901917 145 113 92
-316.158026456833 -62.5309720635414 1621.99997901917 157 121 99
-311.172872781754 -62.4201335012913 1618.99995803833 155 118 92
-306.582182645798 -62.3863749206066 1618.00003051758 155 118 92
-301.809370517731 -62.3140148818493 1616.00005626678 156 119 92
-297.598600387573 -62.3572841286659 1616.99998378754 145 108 82
-293.019026517868 -62.3234063386917 1616.00005626678 143 106 80
-288.622617721558 -62.3280480504036 1616.00005626678 137 100 74
-283.521860837936 -62.1783658862114 1611.99998855591 129 92 66
-279.134660959244 -62.1829181909561 1611.99998855591 146 109 83
-274.746686220169 -62.1874369680882 1611.99998855591 137 99 76
-270.693242549896 -62.2690618038177 1613.9999628067 139 101 78
-266.463160514832 -62.3120851814747 1615.00000953674 131 93 70
-262.226790189743 -62.3550601303577 1616.00005626678 118 80 57
-257.984161376953 -62.3979978263378 1616.99998378754 129 91 70
-253.892064094543 -62.4794736504555 1618.99995803833 152 112 87
-250.40465593338 -62.7153068780899 1625 172 128 101
-247.791990637779 -63.1826817989349 1636.99996471405 171 131 106
-245.410338044167 -63.7272745370865 1651.00002288818 149 114 92
-242.513820528984 -64.1560703516006 1661.99994087219 145 124 107
-240.988403558731 -64.970925450325 1682.99996852875 111 95 82
-241.735503077507 -66.4421319961548 1720.99995613098 17 7 0
-238.417878746986 -66.8324083089828 1730.99994659424 20 16 7
-231.129750609398 -66.1029294133186 1712.00001239777 14 15 7
-223.150849342346 -65.1416257023811 1687.00003623962 17 20 11
-223.728209733963 -66.6901916265488 1726.99999809265 18 21 12
-220.789134502411 -67.2347992658615 1741.00005626678 18 20 9
-217.648789286613 -67.7407756447792 1753.99994850159 16 18 7
-214.315295219421 -68.2081207633018 1766.00003242493 14 15 9
-209.373369812965 -68.1733340024948 1764.99998569489 15 16 10
-204.320251941681 -68.0998265743256 1763.00001144409 17 18 12
-200.069457292557 -68.2966560125351 1768.00000667572 18 19 13
-195.459321141243 -68.3775320649147 1769.99998092651 19 20 14
-191.160604357719 -68.5742422938347 1774.99997615814 21 22 16
-186.414018273354 -68.6163604259491 1776.00002288818 27 28 22
-182.274639606476 -68.8902214169502 1782.99999237061 23 24 18
-178.991749882698 -69.5117935538292 1799.00002479553 22 23 17
-174.943372607231 -69.8628500103951 1807.99996852875 26 27 21
-171.315222978592 -70.4070776700974 1822.00002670288 27 28 22
-166.057899594307 -70.2943131327629 1819.00000572205 27 30 23
-162.498906254768 -70.9157288074493 1835.00003814697 23 26 19
-158.680096268654 -71.4598223567009 1848.99997711182 21 24 17
-154.036313295364 -71.6560184955597 1853.99997234344 20 23 16
-149.123519659042 -71.7362016439438 1855.99994659424 20 23 16
-144.043982028961 -71.7389956116676 1855.99994659424 21 24 17
-140.311568975449 -72.4374651908875 1873.99995326996 24 27 20
