ply
format ascii 1.0
comment KinectMotionCapture
element vertex 780
property float x
property float y
property float z
property uchar red
property uchar green
property uchar blue
end_header
-634.370912893942 -465.000590378322 2366.19097982658 17 18 12
-631.011196205807 -464.367611265891 2373.59917106859 18 19 13
-635.884097712525 -465.054307992459 2379.56786476084 19 20 14
-634.576792141389 -464.750067254183 2386.59606725033 17 18 10
-631.948946980496 -464.139593066108 2400.60459500569 20 23 16
-599.642432645646 -458.871209916434 2412.57088340803 19 22 15
-536.057571095362 -456.479387013927 2310.48793884616 19 22 15
-572.530935050938 -462.340870479834 2309.72064450793 17 20 13
-586.557262587273 -464.535699755407 2313.65331758237 18 21 14
-589.345393589038 -464.895230091316 2319.88086349385 18 21 14
-545.032864568038 -457.570080692215 2335.32926771937 19 22 15
-579.555252949826 -463.106823751341 2335.31697733998 18 21 14
-597.717195634984 -465.972843741075 2338.59348464177 19 22 15
-607.693011451275 -467.50273628558 2343.49341838006 19 22 15
-588.929397274438 -464.347317541356 2353.7519445369 17 20 13
-580.412325681595 -462.862889363839 2362.03290816389 14 17 10
-601.700105157862 -466.234749585785 2364.90578360687 14 17 10
-606.551504845028 -466.927797777976 2370.79063527448 16 17 11
-620.674012658371 -469.129938200949 2375.0757909909 17 18 12
-582.263375171282 -462.778441413734 2388.44226810419 18 19 13
-548.952450876069 -457.259885028571 2400.73364585111 17 18 10
-598.139138857558 -465.168212703768 2399.11752991859 16 17 9
-632.935974278652 -470.731555724751 2400.10741378258 15 18 11
-571.684806739255 -460.670140995293 2416.73927901718 12 15 8
-639.593901826639 -471.616150203157 2412.57861703 22 24 19
-717.94124461304 -484.253884609075 2407.13999429359 20 22 17
-568.684759946226 -468.14131825913 2303.46834127872 18 21 14
-548.972835802612 -464.774563705203 2314.23572514355 16 19 12
-552.757525029746 -465.303995294326 2320.16063830714 18 21 14
-569.852412457372 -468.038527548488 2323.45471343189 19 22 15
-547.018821750733 -464.156486387148 2334.64810536434 20 23 16
-581.554588889123 -469.778364740112 2334.63173771841 19 22 15
-557.666631482949 -465.722740339301 2345.9154554777 19 22 15
-596.358747142538 -472.029312746497 2345.31323375011 18 21 14
-572.442602902632 -467.970081799194 2356.49457630489 17 20 13
-577.272458468264 -468.669303265386 2362.29554138975 15 18 11
-576.963143406012 -468.517850141854 2369.03630455222 15 18 11
-600.326458823557 -472.281655284473 2371.57421485582 16 19 12
-588.696842147364 -470.257224494929 2380.32972818561 15 18 11
-622.403464485421 -475.728462534882 2381.22726421827 15 18 11
-614.893866144582 -474.384747960622 2389.26361898365 15 18 11
-591.887973046862 -470.481154570937 2399.82996383458 15 18 11
-613.26420795849 -473.910960148246 2402.99467330836 17 20 13
-656.37434821245 -480.928490599291 2402.75970971857 16 19 12
-630.238460847585 -476.509044689321 2413.72057176917 17 20 13
-719.994234488852 -491.222304307037 2406.46559852472 18 21 14
-554.329960108003 -472.053443572455 2306.15132269961 16 19 12
-532.553584818876 -468.285743691516 2317.30050976333 15 18 11
-527.117185979648 -467.269467585587 2325.03395064384 17 20 13
-545.223308250339 -470.21423709842 2328.05348936091 19 22 15
-570.525451769559 -474.36781622349 2329.75116474994 19 22 15
-518.950654786656 -465.591490585273 2346.42848884092 19 22 15
-593.521489740279 -478.026725219608 2338.78524160441 19 22 15
-575.773132029356 -474.938979260396 2348.87417059633 18 21 14
-568.273546937038 -473.574702603764 2356.9606844133 18 21 14
-568.987711755296 -473.590762275686 2363.49841955909 16 19 12
-594.397358221369 -477.754290698571 2365.58895085399 16 19 12
-596.155308192276 -477.94426235682 2371.99593638722 19 22 15
-606.156872933436 -479.517915968096 2376.96384239026 16 19 12
-608.951683328324 -479.881049362548 2383.21391279674 15 18 11
-634.449685989547 -484.053179161699 2385.6270628682 13 16 9
-611.446871689878 -480.087445747876 2396.24499967353 13 16 9
-602.876558783373 -478.543945928509 2404.36558348014 19 22 15
-597.394031513478 -477.518868855439 2411.93331500841 16 19 12
-587.265637452969 -484.07747129108 2292.25583292287 66 68 63
-546.097248817782 -476.934411654158 2307.57203302503 14 17 10
-522.259143113014 -472.755625394684 2319.11952735345 14 17 10
-522.954306999099 -472.769140915515 2325.58832200597 16 19 12
-547.209540142352 -476.805873540423 2327.37004452787 17 20 13
-569.44603984014 -480.495638252769 2329.66830357226 16 19 12
-591.71135348432 -484.188381706519 2332.07073350835 17 20 13
-570.88865824542 -480.526579610734 2342.79756898036 17 20 13
-571.60761659071 -480.541229620567 2349.35399153937 18 21 14
-552.792552785514 -477.2242449383 2359.52442860767 18 21 14
-575.098265751953 -480.920332148384 2362.07474223654 17 20 13
-624.197784589036 -489.181582303825 2359.91216757723 17 20 13
-615.673958225072 -487.618453173265 2368.21866874715 19 22 15
-590.6421116013 -483.24326344779 2379.3534272385 16 19 12
-586.204491622166 -482.378133141505 2386.80339234162 14 17 10
-612.727376862081 -486.78558955096 2388.97683726974 13 16 9
-608.293828344377 -485.92041023197 2396.44194985522 14 17 10
-607.986739559921 -485.758000770866 2403.19696698627 15 18 11
-656.295831464654 -493.868120618148 2402.09235721817 17 20 13
-860.839768295322 -528.431215353849 2383.76160965899 20 23 16
-883.501327802883 -532.163092856265 2387.61144465658 20 23 16
-856.400156707376 -527.433993688875 2399.08021664621 20 23 16
-563.719574830464 -486.363577079218 2296.90878217261 17 19 14
-548.083933290091 -483.541177468471 2306.88071664028 14 17 10
-539.587533482397 -481.957875595441 2315.30085422921 14 17 10
-543.365823602567 -482.502741686526 2321.1922642263 16 19 12
-552.271389567834 -483.935776323176 2326.07511240521 16 19 12
-563.237539452239 -485.724727639838 2330.5920859071 15 18 11
-582.426703756148 -488.936909641891 2333.56759679232 16 19 12
-584.18158263372 -489.128374637501 2339.96223714288 16 19 12
-562.299667122144 -485.22772959968 2350.80257963576 17 20 13
-558.895687270011 -484.526904063135 2358.09019412806 17 20 13
-592.532935956538 -490.235279274835 2358.58044339351 17 20 13
-622.095423316459 -495.235642852846 2359.97418550246 17 20 13
-656.848897531642 -501.13104498662 2360.59436198967 17 20 13
-576.855008966 -487.072133842174 2388.09304028981 14 17 10
-592.020588693336 -489.579977304967 2392.160663284 14 17 10
-608.963477270435 -492.279107114728 2402.70631750873 12 15 8
-663.499642485315 -501.581181754762 2400.58929226092 17 20 13
-770.922918693826 -520.007426679376 2390.34401712179 20 23 16
-899.217885991666 -542.025955266157 2377.39127859098 20 23 16
-863.841096514703 -535.795275742054 2390.25567087747 19 22 15
-557.833046836454 -491.748414026812 2291.13608425388 99 101 98
-552.422606614393 -490.681655619761 2298.99870529682 15 17 12
-547.002282442472 -489.613573648293 2306.82453577791 16 19 12
-547.714566442663 -489.624447884226 2313.35856162768 15 18 11
-560.719255908371 -491.796963893667 2317.40850059387 16 19 12
-561.437104791007 -491.808077371287 2323.96303671679 15 18 11
-572.412773228607 -493.621806641134 2328.49877821611 12 15 8
-572.107847543272 -493.45220262533 2335.26729779795 14 17 10
-555.362219037011 -490.394453943961 2345.16297567958 14 17 10
-576.629675865234 -494.014157144667 2347.80485105397 16 19 12
-592.780600199049 -496.733511107127 2351.50007938618 16 19 12
-595.567438211933 -497.105434347222 2357.71592947494 17 20 13
-638.534926265248 -504.528103276998 2356.69554299703 17 20 13
-637.228586586521 -504.179436358331 2363.75538002028 17 20 13
-651.39300840229 -506.544292765986 2368.09249483584 17 20 13
-578.853858973183 -493.704626313731 2387.43064968709 16 19 12
-580.594949188969 -493.892936889057 2393.77608697478 14 17 10
-591.640406600647 -495.711791516216 2398.56770537429 13 16 9
-666.839655519621 -508.76964858377 2392.86547383818 12 15 8
-683.131461866614 -511.502407935036 2397.07530601249 17 20 13
-829.974905870581 -537.095030723017 2380.59451808727 17 20 13
-880.474187923422 -545.676344706982 2387.32323874035 18 21 14
-953.006319512665 -558.236754178929 2383.72154682267 21 24 17
-546.230061108139 -495.849220533094 2300.02056831201 11 13 8
-540.801884925248 -494.762207322042 2307.82919800893 16 19 12
-545.6054169057 -495.501131466538 2313.50736258868 15 18 11
-565.786821634 -498.982521403285 2316.09965449231 15 18 11
-580.865488623248 -501.552065973622 2319.8065616977 15 18 11
-585.699515728301 -502.293419470101 2325.59641493255 14 17 10
-562.807353563508 -498.092543023299 2336.77270940607 15 18 11
-569.686076081893 -499.19847482453 2342.13037051448 15 18 11
-595.084545010215 -503.602925004273 2344.02729641759 15 18 11
-612.28206144918 -506.544180004208 2347.57282804959 15 18 11
-607.872752609332 -505.636861869606 2355.15454205028 16 19 12
-597.27111946768 -503.627614863992 2363.81992111147 17 20 13
-580.463795807946 -500.515196223778 2373.52198175269 17 20 13
-594.592877168751 -502.907852381414 2377.71033307871 16 19 12
-593.247158265205 -502.54694812813 2384.63168877077 14 17 10
-607.399689078225 -504.941796434494 2388.90571930894 13 16 9
-650.527246344956 -512.485571286203 2388.4031785086 14 17 10
-713.134031881032 -523.359587722638 2391.87856260613 16 19 12
-856.796139061137 -548.613790166422 2383.28228641153 17 20 13
-929.291024068582 -561.348447812586 2379.43229406057 18 21 14
-995.590897926126 -572.836137189148 2384.54206012657 19 22 15
-921.690806975949 -559.588085895233 2402.98145904145 20 22 17
-542.078465008454 -501.350545382926 2300.61578811621 23 25 20
-541.763073737035 -501.171239309723 2307.35157639925 16 19 12
-552.715305132262 -503.030666207695 2311.77144966367 15 18 11
-566.756274652507 -505.447676095139 2315.61728332508 15 18 11
-570.553945849322 -506.010842762407 2321.5690974354 15 18 11
-561.007029628362 -504.16077076524 2330.15361855254 13 16 9
-556.581386711309 -503.237237447016 2337.68492474403 15 18 11
-556.259668350202 -503.055639921616 2344.3986684861 15 18 11
-604.292769252037 -511.609308092326 2341.98839600314 14 17 10
-625.620549184831 -515.335050192056 2344.78636280964 14 17 10
-586.186725706405 -508.088326415774 2358.81547071553 15 18 11
-576.595261581104 -506.231896273702 2367.23953741735 16 19 12
-574.210416607328 -505.676880744381 2374.32169375592 17 20 13
-582.144395522782 -506.983583985322 2379.57423808124 16 19 12
-595.252671065896 -509.222669485485 2383.96674335904 15 18 11
-629.054820836248 -515.191630492384 2384.90378877724 14 17 10
-690.83559212509 -526.200361275621 2381.33097189878 15 18 11
-664.696357641903 -521.359642299515 2392.54537651509 16 19 12
-715.185782532942 -530.326369308949 2391.20152908223 15 18 11
-791.661633336784 -543.96845320855 2385.97297049361 16 19 12
-843.341017826511 -553.138121815099 2385.02183371788 16 19 12
-983.12241459059 -577.727951679048 2393.6091115327 21 23 18
-547.134750685549 -508.51655125477 2299.27833430832 25 27 22
-584.429628274969 -515.105663637112 2304.999021681 14 17 10
-580.034109838874 -514.170826168427 2312.64931101487 15 18 11
-563.313036811031 -510.976238307286 2322.72255166961 15 18 11
-553.755735143837 -509.096551252021 2331.2881400802 13 16 9
-530.82076493664 -504.7661794933 2342.3872532432 15 18 11
-551.051163982004 -508.346470829352 2345.0990102775 14 17 10
-575.424062000653 -512.6832177721 2347.12818608571 13 16 9
-581.288546817721 -513.62854008798 2352.71883122212 13 16 9
-637.664007257819 -523.819517895265 2349.07504291482 13 16 9
-586.845995204672 -514.387717009381 2365.07967349672 13 16 9
-598.916021644109 -516.466759299429 2369.61472663262 15 18 11
-612.033055174721 -518.736087500549 2374.02065494332 16 19 12
-578.654776386623 -512.502333956625 2386.51349670429 16 19 12
-633.143028289793 -522.334007930583 2383.88328840378 16 19 12
-645.268551605951 -524.418428916531 2388.62099473884 17 20 13
-668.801221230944 -528.585512252961 2391.53400430498 17 20 13
-668.525664123851 -528.401974941384 2398.42036041528 17 20 13
-781.297968843845 -548.860226463434 2387.26861720315 16 19 12
-842.329364366001 -559.862246717337 2384.81407203782 14 17 10
-969.833389659514 -582.840279566161 2380.00883028023 15 18 11
-825.00370633558 -556.135735442726 2416.35821602059 28 31 24
-545.340124292658 -514.559212002527 2292.69653897417 13 15 12
-545.026719363055 -514.370373138895 2299.4457206599 16 18 13
-574.425703071639 -519.709118994049 2300.01969792453 15 18 11
-585.406528911079 -521.619163659972 2304.51377934715 14 17 10
-579.982560046248 -520.477874503652 2312.37229698187 15 18 11
-566.333804114267 -517.808245872765 2321.83205592697 15 18 11
-544.443304026363 -513.608482757415 2332.8303020881 13 16 9
-530.745871702566 -510.932986256024 2342.11211077444 14 17 10
-543.779723260368 -513.223483535098 2346.19583567572 13 16 9
-566.096441493673 -517.236081914751 2348.5881101431 13 16 9
-585.350495739452 -520.677765019347 2351.65964968279 12 15 8
-590.193303625357 -521.443298381456 2357.46683833463 13 16 9
-630.122702790816 -528.717097861874 2356.94957279503 13 16 9
-623.640090602892 -527.379331766 2364.89884992027 13 16 9
-588.214709113805 -520.676337626415 2377.88102431175 16 19 12
-556.527475309852 -514.538283784855 2396.59196488086 16 19 12
-628.35517152741 -527.57700495444 2397.86643131873 21 24 17
-749.361024284212 -549.844552288997 2384.96952245845 19 22 15
-817.615808539297 -562.335999337398 2381.11755707238 16 19 12
-872.4647795248 -572.33965549621 2379.71804747741 14 17 10
-914.918740830334 -580.044919382288 2380.50894155637 13 16 9
-884.648709087622 -574.297186815965 2392.54628604247 14 17 10
-880.344932570947 -573.353319184178 2400.54289631446 14 17 10
-897.896560198892 -576.449321573412 2405.30454496425 19 22 13
-573.941695888403 -526.196544993604 2286.33328316998 17 19 16
-545.989500373825 -520.788369764407 2298.96835076995 22 24 19
-565.148574536724 -524.266205326425 2301.66442310848 15 18 11
-579.203148056576 -526.779698771637 2305.49985108672 14 17 10
-575.824169120158 -526.006264037398 2312.92613072532 14 17 10
-567.302030000591 -524.264362615797 2321.3508347462 14 17 10
-581.379963474979 -526.779633494118 2325.27187147899 12 15 8
-568.730200790324 -524.26105278798 2334.44808339506 14 17 10
-568.412480595366 -524.06507170691 2341.18575256848 13 16 9
-586.322609638524 -527.161828234574 2351.17521999179 13 16 9
-604.576271574802 -530.457493444397 2354.52100739675 14 17 10
-600.143654385915 -529.485900605551 2362.05676174921 14 17 10
-591.570628821153 -527.736611986099 2370.29719826257 14 17 10
-591.252619666109 -527.539377253994 2377.03365705095 14 17 10
-558.865826053616 -521.318268638988 2389.30338521271 13 16 9
-638.667282662532 -535.88901937185 2395.83583755503 18 21 14
-716.161156699915 -550.289288936407 2390.01200058383 18 21 14
-804.139064402365 -566.647676043797 2382.91108197836 16 19 12
-849.650231128236 -575.033268877162 2382.93336633012 15 18 11
-878.298321140422 -579.948339935391 2400.47036852452 12 15 8
-946.889224043505 -592.643461172781 2397.73682755804 12 15 6
-584.132505782457 -534.453747241568 2283.88692720693 13 15 12
-553.100922294298 -528.38197151798 2297.19768359215 17 19 14
-548.685419091493 -527.399187259015 2304.80404449747 15 18 11
-556.575435485281 -528.767295135557 2309.85459692392 14 17 10
-563.446911433716 -529.940040420573 2315.14409942497 14 17 10
-572.38102400686 -531.505657807404 2320.04922975627 14 17 10
-593.664598614106 -535.42703270068 2322.56048757119 13 16 9
-597.481874511048 -536.013775412206 2328.56927638805 13 16 9
-592.03401258589 -534.832867943992 2336.36409670077 13 16 9
-578.332058039445 -532.078639862966 2345.679751281 13 16 9
-561.515166651544 -528.732193424827 2355.49311270035 14 17 10
-615.873993549882 -538.951306596254 2352.13869491944 15 18 11
-573.2390330868 -530.686137479197 2366.61549185426 15 18 11
-581.176206737971 -532.057330905916 2371.83918187995 14 17 10
-552.580796395016 -526.332916433221 2390.07841656033 12 15 8
-568.796540030904 -529.279344276839 2393.87187271831 13 16 9
-645.132420891869 -543.660593336557 2387.65696297884 15 18 11
-707.054234375779 -555.292241269836 2384.21453084874 17 20 13
-772.999388776822 -567.530760177223 2387.53232961403 16 19 12
-859.0287465767 -583.725740128549 2381.0935636406 15 18 11
-932.242835751571 -596.839424360089 2406.95063859404 19 22 15
-939.425463989391 -598.0428414533 2413.37602398737 15 18 11
-607.919323927697 -545.537732557446 2271.68668043637 61 62 57
-574.866487261585 -538.989185243683 2285.58656931795 23 24 16
-559.191964040355 -535.8095165341 2295.64063375343 16 17 9
-531.183071269957 -530.243833256423 2308.16370886856 14 17 8
-549.328079936562 -533.61341560348 2311.06034959035 15 18 9
-570.578055800093 -537.581443092924 2313.41647882561 15 18 9
-586.715028089824 -540.55815731838 2316.89835117809 15 18 9
-596.699802036822 -542.343366449914 2321.66942215039 14 17 8
-590.224633610642 -540.945979846528 2329.68397777131 13 16 7
-570.346063791078 -536.959181378011 2340.22410217098 13 16 7
-566.931363341709 -536.155208892711 2347.53610574806 13 16 7
-612.72761639461 -544.708674884137 2352.40812283968 13 16 7
-575.237896045161 -537.32619170933 2365.94744621572 13 16 7
-573.874471347525 -536.918701801841 2372.83247550783 14 17 10
-565.265487244051 -535.113784539672 2380.97452602745 15 18 11
-573.204650729961 -536.500869930867 2386.19649958762 14 17 10
-583.224459075785 -538.288166908194 2391.09632825967 14 17 10
-616.060845510986 -544.471714128604 2392.2094546042 15 18 11
-695.619697180843 -559.653035024818 2385.76579014448 16 19 12
-753.261456754423 -570.449899760678 2390.3382464505 16 19 12
-907.789209905093 -599.877967210162 2380.48283336577 16 19 12
-926.279876167411 -603.109105851124 2392.54287987026 13 16 9
-975.148963274607 -612.341283134558 2392.80808518557 14 17 10
-930.083958741262 -603.350897299354 2414.30760821547 17 20 13
-1015.60507605778 -619.615514089879 2409.83327124674 17 19 14
-616.076022456224 -553.528570376141 2269.64980599542 17 18 13
-587.113875313839 -547.694895410951 2282.70007978885 19 20 12
-556.057455470705 -541.453764487977 2296.02554566288 14 15 7
-556.769210442884 -541.445803460749 2302.56949893444 14 17 8
-553.371365262328 -540.632118696719 2309.95114366793 15 18 9
-579.769626935464 -545.65821655572 2311.27037887069 15 18 9
-595.917896235505 -548.67303453057 2314.77013809569 15 18 9
-597.678460156033 -548.867987583159 2321.18368371994 14 17 8
-566.483972098255 -542.610195184735 2334.00704855699 13 16 7
-561.007582036338 -541.390173129996 2341.72064439155 13 16 7
-584.396623761927 -545.8191369735 2343.93505407496 13 16 7
-576.856237747876 -544.19498018195 2352.03322775609 13 16 7
-589.956769974608 -546.608375605434 2356.28693345746 13 16 7
-564.836379540857 -541.547952155577 2367.52649586012 13 16 7
-551.054346312232 -538.70647080441 2376.5989921129 14 17 10
-608.655567198535 -549.813858596025 2373.03224744864 15 18 11
-612.484542008171 -550.411543566841 2379.07756366572 15 18 11
-626.678945709749 -553.032891477244 2383.36498906217 14 17 10
-646.07556121567 -556.667943205703 2386.84374779338 15 18 11
-922.633611722098 -610.14869919076 2362.87069375085 16 19 12
-901.722841465848 -605.903668139212 2373.63874417593 15 18 11
-926.566413053919 -610.579285424136 2377.20056468141 16 19 12
-929.573928776824 -610.997353746809 2384.20661426641 16 19 12
-963.84356909215 -617.504926893121 2386.53930894431 15 18 11
-933.387641654605 -611.236561938504 2406.00872897556 12 15 8
-933.138881612496 -610.853556754485 2420.91315167691 19 22 15
-578.135596816638 -552.392526917166 2277.57300295621 11 12 7
-575.790049727457 -551.773603206229 2284.84141291834 17 18 10
-573.438686633267 -551.15377577968 2292.0887997525 20 21 13
-554.65496163275 -547.27060072774 2302.7321255968 14 17 8
-567.690952006499 -549.707321052147 2306.73147392655 15 18 9
-578.686637612337 -551.737620967163 2311.20480388053 15 18 9
-598.954431079329 -555.606216753509 2313.87337873623 15 18 9
-572.91910750793 -550.287721465855 2325.77615617574 14 17 8
-583.933876732123 -552.319362000733 2330.31949346719 13 16 7
-581.559061474366 -551.69549358723 2337.48235828214 13 16 7
-593.621759615656 -553.933065807254 2341.89011538469 13 16 7
-592.995496829083 -553.501779233504 2355.4234267263 13 16 7
-619.557215390586 -558.60738578374 2357.30027671608 13 16 7
-586.150216891604 -551.839957387767 2370.02342218279 14 17 10
-584.787201855557 -551.417322297759 2376.91953434348 15 18 11
-654.901791300905 -565.134230326417 2371.40539941669 14 17 10
-651.505996146691 -564.30576339543 2378.80398818255 13 16 9
-840.732058357436 -601.222108366058 2368.35734702219 17 20 13
-898.778433772863 -612.519331019047 2366.32352208316 16 19 12
-906.969385699024 -613.965683922321 2372.44198934584 14 17 10
-867.28361039317 -605.960808751636 2386.01430659841 15 18 11
-924.418481082158 -617.066491465118 2384.61349193499 16 19 12
-961.823534349764 -624.273605536001 2386.45581668684 16 19 12
-899.136367823494 -611.737197366231 2403.21500080627 12 15 8
-955.249671129759 -622.457020095854 2409.95480864159 8 11 4
-564.762964535681 -556.007162179106 2280.19315025551 24 25 19
-577.79018934951 -558.472611279175 2284.14088691179 21 22 14
-567.227065005693 -556.190604215046 2293.1223770361 15 16 8
-556.646683634022 -553.906485756653 2302.04112822207 14 17 8
-579.965710027906 -558.439180581285 2303.92916536789 15 18 9
-582.744773160147 -558.840647507849 2310.09749651166 15 18 9
-596.846630113236 -561.516907412346 2314.00571638875 15 18 9
-573.888153863145 -556.747283551132 2325.29580602643 14 17 8
-567.38572072862 -555.285042000937 2333.24915012472 13 16 7
-577.373214268417 -557.133827006728 2337.99110895579 13 16 7
-608.013739560433 -563.125992584004 2338.8649023718 13 16 7
-620.104010483893 -565.392921911029 2343.35649726994 13 16 7
-647.710934608485 -570.770229932986 2345.04613219099 13 16 7
-624.67707576848 -565.991360664079 2356.06124909081 13 16 7
-623.342323837721 -565.564484712007 2363.06497408032 12 15 8
-638.573699943973 -568.457210181521 2367.13389178346 14 17 10
-655.89645771098 -571.766993065573 2370.91082168399 14 17 10
-635.905316060053 -567.603067910825 2381.14574647678 13 16 9
-680.228007220391 -576.315948087909 2380.44514227774 14 17 10
-744.341018817108 -588.983784651372 2376.69043423037 15 18 11
-787.755242032642 -597.502941523586 2376.63642276707 18 21 14
-859.305540238342 -611.643748662573 2372.28791596256 14 17 10
-850.651685910087 -609.568809810974 2388.22741941862 16 19 12
-822.149975837674 -603.532433626434 2407.01150113223 14 17 10
-898.130935685498 -618.534827453405 2402.98393035164 15 18 11
-907.381879075245 -620.207512279591 2408.99872365418 15 18 11
-1025.25322319668 -643.374171593921 2407.27612669334 14 17 10
-520.620273106736 -553.279047531339 2289.47255168216 22 23 17
-533.620061664943 -555.770329358826 2293.30304248944 18 19 11
-530.207990596732 -554.91721294033 2300.65583535012 14 17 8
-544.255077289603 -557.619436942598 2304.34524063611 14 17 8
-548.037876185929 -558.230671049598 2310.21056052201 15 18 9
-584.747653692344 -565.541770476053 2309.40674075562 15 18 9
-584.440606902284 -565.317960193748 2316.20067906778 15 18 9
-606.797487657566 -569.703233273295 2318.50678181187 14 17 8
-593.096595844283 -566.755148547698 2327.94877304889 13 16 7
-615.189025859112 -570.920382462951 2337.20458400223 13 16 7
-634.51985943828 -574.683634978021 2340.35816806705 13 16 7
-653.875008348762 -578.449526383433 2343.60036413414 13 16 7
-634.679381763156 -574.223957739134 2360.7241193042 12 15 8
-615.733435769149 -570.216943946155 2370.84333569217 14 17 10
-593.648454920893 -565.575881794434 2381.39812601658 13 16 9
-643.116859370189 -575.443416197965 2379.59102755159 13 16 9
-698.616642600036 -586.359798442081 2383.92885820242 15 18 11
-803.35321582789 -607.405311566939 2373.74367380714 18 21 14
-807.31733958446 -608.034231252323 2380.27198063459 14 17 10
-852.927110156001 -617.092364505669 2380.23575492626 14 17 10
-880.886508069956 -622.573461019187 2383.16852932405 14 17 10
-909.924296398329 -628.269319613475 2386.07231703017 17 20 13
-890.860883523556 -624.056955417989 2403.67769017514 11 14 7
-907.421468689839 -627.225981015078 2408.61093877996 11 14 7
-909.367065838718 -627.440485560167 2415.69913272671 14 17 10
-1031.54578955851 -651.752309774714 2413.65978426372 15 18 11
-501.732179483591 -555.375753565815 2299.85024282586 22 23 15
-534.244973081188 -561.919474619001 2299.53360846167 14 17 8
-534.936926876958 -561.899988000641 2306.01224952353 14 17 8
-557.931674371055 -566.312368138032 2314.56583285733 14 17 8
-564.814464292354 -567.566132428797 2319.84526174081 14 17 8
-579.950000476229 -570.518017469066 2323.52099434035 14 17 8
-623.984141113283 -579.415138484402 2321.6336676051 12 15 6
-597.890839345899 -573.879198782141 2333.45753736384 12 15 6
-643.026690628984 -582.99620516812 2331.62457280924 13 16 7
-581.763294003053 -570.231641781786 2349.91766039271 13 16 7
-616.602571275855 -577.227589871463 2350.16065069117 13 16 7
-628.717215945726 -579.550021096406 2354.70769953981 13 16 7
-625.309992135849 -578.682626461049 2362.0884328618 13 16 9
-602.20318602545 -573.770718361557 2372.91670459689 13 16 9
-562.467277779554 -565.448568663192 2386.50319859612 14 17 10
-618.159183762208 -576.714159628367 2383.54030147694 14 17 10
-658.346434888793 -584.792031107597 2383.47366978754 15 18 11
-760.720663221993 -605.442898111936 2380.35386028795 14 17 10
-854.16007926025 -624.418130216062 2372.39485280311 13 16 9
-926.895976425621 -639.139527719357 2368.18629684129 13 16 9
-941.140570014124 -641.500358814748 2388.40982566665 17 20 13
-914.914330354173 -635.94835812147 2399.75119217685 17 20 13
-903.280221740702 -633.385140546782 2408.83018959421 14 17 10
-950.190286773915 -642.795651466261 2409.50198015332 12 15 8
-1037.91142135633 -660.353127099791 2412.38056173222 13 16 9
-1008.41564528469 -653.94930227111 2431.60310846682 15 17 12
-506.10924157346 -562.552435949888 2292.08697496519 18 19 13
-498.569985116324 -560.814212771052 2300.26228703773 19 20 12
-515.678753006872 -564.220960451574 2303.18349597153 14 17 8
-555.430299894826 -572.349358451511 2301.46728003974 14 17 8
-558.191979556023 -572.757826450461 2307.566649652 14 17 8
-552.717669324855 -571.4488536244 2315.34412635088 14 17 8
-541.050794175705 -568.849843853262 2324.32406536243 14 17 8
-579.890011812396 -576.776035302962 2323.24453274681 14 17 8
-650.767746769823 -591.370507978197 2316.11250975039 12 15 6
-667.016070381211 -594.580363804999 2319.86061433394 12 15 6
-583.057606243652 -576.929014019098 2342.70124805399 13 16 7
-582.732663938677 -576.692685450633 2349.43757623973 13 16 7
-564.814945005522 -572.796725193258 2359.40796440471 13 16 7
-598.640932425916 -579.663764502142 2359.86651472059 13 16 7
-581.740541210495 -575.980941297846 2369.58315734899 13 16 9
-604.214643698404 -580.483346802855 2372.25053013002 13 16 9
-611.154021794858 -581.755497909758 2377.72845134372 13 16 9
-626.406665305399 -584.753565010606 2381.80982355937 15 18 11
-696.476675094295 -598.955953971498 2383.61723565116 16 19 12
-800.248887387701 -620.312743150836 2373.55229411736 17 20 13
-854.186314509617 -631.319008901672 2372.03265501227 13 16 9
-915.488547589546 -643.845433750839 2369.62031833586 14 17 10
-922.658033553295 -645.14287649201 2375.93754616957 14 17 10
-952.787187528969 -651.197399118709 2378.77059854424 14 17 10
-934.93047180673 -647.307569925079 2388.96360884237 16 19 12
-940.030575204267 -648.174491128369 2395.66207432513 18 21 14
-916.908074771622 -643.198380195333 2406.47261042577 16 19 12
-958.613075095589 -651.642225788089 2407.91277773243 14 17 10
-963.731775054468 -652.511528842174 2414.67878482673 13 16 9
-953.140744164976 -650.131210760194 2423.61873184651 14 17 10
-923.66307701304 -643.847585798611 2435.03905575621 7 9 4
-884.701194796898 -635.607898746337 2447.55097371691 24 26 21
-525.869949079649 -573.008215515566 2280.92139527129 14 15 10
-550.169555899994 -577.973930998725 2282.28042839289 16 17 11
-537.520830115393 -575.130303176867 2291.66570784807 11 12 4
-527.935551674699 -572.935441934098 2300.32640846436 14 17 8
-545.079600809475 -576.385320149885 2303.35137938099 14 17 8
-557.098156572901 -578.751227456241 2307.51422043112 14 17 8
-551.619603820994 -577.423683079778 2315.2876705867 13 16 7
-529.638158463584 -572.616212696486 2326.33192934204 13 16 7
-554.041715205051 -577.592282418877 2328.07130004503 13 16 7
-630.0885954432 -593.450987178511 2319.8505994525 13 16 7
-620.503883186208 -591.255144485544 2328.51309281168 13 16 7
-600.56645443572 -586.879941018239 2339.08083314234 13 16 7
-551.636543242059 -576.402314701369 2354.96139277175 14 17 8
-555.426042505351 -577.029696737451 2360.84232387241 14 17 8
-567.504987340401 -579.40102864893 2365.22595289785 14 17 8
-546.429421284187 -574.79610927138 2375.60843444291 13 16 9
-633.19561189493 -592.873988005031 2366.8203001765 13 16 9
-641.194291529068 -594.380363004002 2372.18700329423 14 17 10
-665.820430265259 -599.380377550626 2374.73673078774 15 18 11
-662.414094665248 -598.487379595328 2382.13692645474 16 19 12
-748.45052014255 -616.381213007709 2374.65090522065 16 19 12
-833.561945424322 -634.069359725082 2367.75764877382 18 21 14
-884.417153236561 -644.55564424306 2366.81158355231 12 15 8
-910.325244071916 -649.800902900615 2370.06979325703 15 18 11
-943.567067653076 -656.581219267803 2372.31145946296 18 21 14
-902.749395947568 -647.827293397268 2386.05142803463 15 18 11
-919.315874943112 -651.10854041716 2390.93477951834 14 17 10
-901.413013684998 -647.164619424277 2400.99061121635 18 20 15
-948.325172618059 -656.801535087869 2401.52816493471 20 23 16
-967.977601444554 -660.529049540686 2413.69190205445 12 15 8
-952.144218059374 -657.021026246075 2423.36252670984 13 16 9
-963.43070901898 -658.996603466336 2436.74367878174 22 24 19
-541.19189613097 -582.445305327682 2277.29849571372 18 19 14
-549.079876934932 -583.957247167638 2282.25068115941 18 19 13
-539.507001607262 -581.735565502551 2290.97343609149 13 14 6
-546.371395200486 -583.027992378126 2296.16108250488 14 17 8
-566.620772904356 -587.178900019274 2298.5830463156 14 17 8
-599.252924570252 -593.971599561063 2298.55330210445 14 17 8
-571.129582309923 -587.789027935741 2311.04184872564 13 16 7
-564.619945517064 -586.22336012866 2319.03374497658 13 16 7
-553.970936615867 -583.775624118693 2327.80099515264 12 15 6
-580.479406405717 -589.254308566763 2329.24460103593 13 16 7
-604.955687215142 -594.296201850625 2331.21149537641 13 16 7
-572.589830057853 -587.219510373841 2344.09912672151 13 16 7
-562.941889955674 -584.987991764711 2352.54939138964 13 16 7
-553.277876365835 -582.754448014316 2360.94218593909 14 17 8
-588.155496780373 -590.006692162794 2361.1657248935 14 17 8
-618.931260390512 -596.381142037231 2362.30027738633 14 17 10
-658.047923621012 -604.526360647582 2362.11349262214 14 17 10
-644.259979493491 -601.412462548569 2371.33603253921 14 17 10
-631.48948879921 -598.516972784222 2380.3019656655 15 18 11
-648.852781927663 -602.029300825812 2384.10244803178 16 19 12
-684.966891688222 -609.524246111295 2384.86728040604 17 20 13
-836.704666663738 -641.577525390413 2366.89212424447 17 20 13
-929.138691442337 -660.816965080279 2366.7233794009 15 18 11
-917.539548959794 -658.157162452918 2375.99317795519 18 21 14
-863.114047343721 -646.413198043211 2391.75264699712 15 18 11
-879.658039548101 -649.729110815319 2396.53155231387 15 18 11
-902.495286616328 -654.377495316339 2400.45504625122 18 20 15
-919.083677344903 -657.698542999551 2405.39555267236 20 23 16
-978.617538566589 -670.1172323198 2404.27918624171 19 22 15
-969.083427034441 -667.898308026504 2413.14505171138 12 15 8
-931.227282290377 -659.68383718455 2425.84918658538 13 16 9
-944.722762914634 -662.34526604534 2431.41266295138 16 19 12
-573.977322311204 -595.734851513402 2269.83881146983 24 25 20
-546.961625308874 -589.708853597457 2282.44465501378 21 22 16
-531.214053806822 -586.123816451056 2292.48250488685 19 20 12
-518.528304417293 -583.203294305622 2301.7788700038 14 17 8
-575.824697726428 -595.409959266315 2296.38633423344 14 17 8
-546.664763548883 -588.92878121158 2309.11106308406 13 16 7
-573.129256885453 -594.466095897024 2310.35437695293 12 15 6
-605.817947755766 -601.343485275832 2310.48015397436 12 15 6
-573.513607210103 -594.188125405651 2323.64585154674 11 14 5
-594.879314542188 -598.617985480275 2326.14102114745 11 14 5
-570.787664741649 -593.239752342061 2337.50349488646 11 14 5
-571.486953843003 -593.210773903699 2344.01536313851 12 15 6
-561.833234240758 -590.950281332886 2352.46246229824 12 15 6
-588.41992198838 -596.500515318061 2354.15130349638 12 15 6
-607.784699148929 -600.491422826353 2357.28718398127 12 15 6
-614.725982597567 -601.804404072556 2362.74640138172 14 17 10
-620.636187239798 -602.894693258109 2368.41527077572 14 17 10
-680.567768013471 -615.609615024622 2364.69221304783 14 17 10
-711.474269579662 -622.072086587445 2366.25659766148 16 19 12
-656.08447987286 -609.971973727208 2382.55795691169 16 19 12
-836.72441217492 -648.426060977442 2366.53794899745 16 19 12
-861.559130504544 -653.565276592184 2369.77513639625 12 15 8
-864.521370747326 -654.003576422629 2376.59938485992 14 17 10
-894.623058981354 -660.268773694015 2379.19745337731 16 19 12
-942.519693033177 -670.349269575906 2379.21379654737 15 18 11
-857.737944286904 -651.955950252213 2399.46617659824 16 19 12
-876.383896248495 -655.75911692438 2403.94805012514 18 20 15
-903.425785480653 -661.360206476836 2407.29485767542 20 23 16
-954.59153165922 -672.128722217086 2407.32357452546 20 23 16
-920.476088077001 -664.020535952642 2441.6435959511 12 15 8
-566.735238487547 -600.421915366422 2271.16455703811 23 24 19
-547.924327777815 -596.120371302956 2281.97108396434 19 20 14
-515.715337165964 -588.890602630466 2295.53777497532 18 19 11
-530.798970265336 -592.008686443735 2298.91587239017 14 17 8
-539.722085872265 -593.777878750809 2303.65257561641 14 17 8
-558.960780607807 -597.800301780179 2306.30043951858 13 16 7
-585.442994276613 -603.402681910632 2307.56753756969 12 15 6
-576.871503359845 -601.345271529883 2316.00820387997 12 15 6
-580.678039102834 -601.991838305704 2321.94027585034 11 14 5
-564.852414375772 -598.353004957681 2331.7222935024 11 14 5
-590.368195049093 -603.736876953916 2333.43641926065 11 14 5
-580.731642073697 -601.449890956432 2341.96398130396 11 14 5
-600.075391310956 -605.483539801376 2344.99480458862 11 14 5
-598.717562248052 -605.002178407231 2351.94724796523 12 15 6
-611.873498763313 -607.683663383545 2356.23740122199 12 15 6
-613.630233681757 -607.880484248723 2362.63555127287 14 17 10
-587.348964710813 -601.971989882582 2373.99674715666 14 17 10
-741.605853620272 -635.171607856128 2360.75450867455 15 18 11
-900.168074281971 -668.853330960747 2363.19274722508 12 15 8
-900.02621478491 -668.617778159011 2370.60740719234 13 16 9
-911.367089186918 -670.876210935118 2376.21925336825 13 16 9
-921.676275295674 -672.909440697664 2382.03821587171 15 18 11
-911.084519961934 -670.405534277223 2391.05350037896 19 22 15
-890.012606560493 -665.629991051356 2401.55726648084 20 22 17
-945.342864589902 -677.427739494139 2400.81291442652 22 25 18
-919.021247107592 -671.51515628506 2412.02688567708 23 26 19
-989.120646558304 -686.504932854798 2409.54905110027 20 23 16
-966.738841658057 -681.035942611646 2435.11164193187 13 16 9
-556.405079321106 -604.385098528908 2273.17086563011 20 23 16
-536.550304169088 -599.802361113049 2284.1755796203 16 19 10
-529.010960707149 -597.947728585413 2292.42406342979 20 21 13
-539.990353608113 -600.190861858558 2296.70252992351 15 18 11
-541.710283859075 -600.384754707182 2302.96588005392 14 17 10
-538.275271238938 -599.439223142575 2310.29277053648 13 16 9
-556.498444191701 -603.280142903235 2313.18111314236 13 16 9
-560.986853304663 -603.897269579975 2325.55975461347 13 16 9
-548.241663387978 -600.896740584375 2334.6859408399 10 13 6
-575.823665649903 -606.797353224935 2335.95172960608 11 14 7
-614.829259303318 -615.214102910222 2335.18020574283 12 15 8
-623.842974366819 -617.011276714751 2340.23562094167 13 16 9
-617.316154360097 -615.381356546221 2348.20521388722 13 16 9
-611.815412289039 -613.978749038223 2355.94367038143 13 16 9
-628.105245255439 -617.377795962654 2359.72644570977 14 15 7
-626.754723127748 -616.889538955114 2366.71037183402 16 17 9
-644.112153197375 -620.520527140018 2370.41324098694 16 17 9
-819.234813719705 -658.461719448269 2361.50860006121 18 19 11
-870.120133361732 -669.445685197485 2360.36105330898 17 18 10
-942.978905489089 -685.251524670112 2355.92311908749 16 17 9
-937.645394751139 -683.867918839838 2364.27140510301 14 15 7
-960.505555958133 -688.677464463805 2368.17822605042 13 14 6
-931.129786382678 -682.015123634621 2380.21597706299 15 16 8
-906.941202035837 -676.495993974766 2391.30750651796 16 17 9
-938.192975261402 -683.145247243284 2394.03682196313 20 21 15
-922.350160233694 -679.460523290795 2403.78398832335 22 23 17
-979.853960870097 -691.860903444428 2402.93553406093 25 26 20
-967.159253799328 -688.866444107713 2412.24532113501 26 27 21
-1005.87445592796 -697.139169045514 2414.38288052545 23 24 18
-1032.03606399275 -702.656944760685 2418.41029701128 17 20 13
-595.399694156077 -619.338569233436 2264.33531573168 18 21 14
-546.765033936495 -608.256605337855 2281.69456049245 17 20 11
-545.403875956638 -607.760995002995 2288.64364028809 19 20 12
-556.39759717244 -610.029411872947 2292.95934226712 15 18 11
-532.362325164799 -604.463141889183 2304.64985232183 14 17 10
-510.353755377901 -599.353824400722 2315.78397384704 13 16 9
-578.812246987254 -614.271634259649 2315.05277586917 12 15 8
-550.581660248291 -607.774829859916 2327.34153488403 12 15 8
-549.199465440226 -607.276208846839 2334.21440984426 11 14 7
-550.91774159317 -607.469621558788 2340.47192176608 12 15 8
-596.133870944364 -617.366862814243 2338.44441449352 12 15 8
-639.337294840205 -626.808546441706 2337.02531137337 13 16 9
-583.036966658924 -614.061286302361 2354.25091502623 12 15 8
-595.151886740505 -616.569583873293 2358.68164014394 12 15 8
-609.358239866072 -619.542082179945 2362.7908044099 14 15 7
-670.347589070298 -632.931461523776 2358.6728959574 15 16 8
-607.663339909001 -618.778798193108 2376.46333057775 15 16 8
-854.335364853422 -672.641950373662 2369.87668811418 15 16 8
-952.319408717793 -694.2018858505 2361.57293606671 15 16 8
-899.958992807436 -682.35631475352 2377.27024294031 15 16 8
-865.300496931 -674.449019712324 2389.96372546515 14 15 7
-924.768802365545 -687.438715392309 2388.24345972246 14 15 7
-933.780101955295 -688.798306916452 2409.15238384423 18 19 13
-979.806795339146 -698.787510330061 2410.0772108888 21 22 16
-992.294181473492 -701.338827694161 2415.86366901376 25 26 20
-1048.85499743259 -713.431575584313 2423.39728152362 21 24 17
-1056.07459503717 -714.5915223587 2437.78094160453 14 17 8
-567.592699622532 -619.357397527556 2270.18591079147 17 20 13
-609.461228377358 -628.637540661319 2267.80891224031 17 20 13
-580.342166332362 -621.848753911274 2280.88052835757 18 19 11
-554.271338898526 -615.754328481702 2293.14043956305 14 17 10
-575.589837597519 -620.379517494631 2295.33608327318 14 17 10
-545.347495965362 -613.346962977829 2308.2864760084 12 15 8
-526.05690070277 -608.601315491044 2325.38598164884 12 15 8
-580.490352439083 -620.70022846998 2321.12182407556 12 15 8
-580.161836322866 -620.429686094163 2327.86555518495 12 15 8
-559.123301692423 -615.486328700522 2338.60012822434 12 15 8
-574.315445203115 -618.718919972365 2342.30880951416 13 16 9
-589.526166802481 -621.953486593781 2346.08522047371 12 15 8
-578.475094594113 -619.071310504978 2361.42661188354 11 14 7
-617.608309654104 -627.691427523654 2361.0005258019 14 15 7
-627.682972901861 -629.762527877446 2365.92577040146 14 15 7
-936.948713363715 -698.295530634951 2348.67867545825 14 15 7
-906.55598190015 -691.245647686366 2361.08256951224 15 16 8
-869.851054899089 -682.782706290049 2374.32150114963 15 16 8
-873.862806822664 -683.469232562243 2380.98934322063 14 15 7
-936.458302892951 -697.306620417802 2378.65557378055 14 15 7
-788.495003453109 -663.676786814167 2415.53629207995 14 15 9
-912.845333853934 -691.14128965386 2411.77568757018 15 16 10
-955.725159936029 -700.535737121025 2413.08127201405 18 19 13
-939.839002855077 -696.758888719664 2422.72568037963 23 24 18
-967.023851324224 -702.631030959098 2426.43213908083 23 26 19
-1008.96885617408 -711.804033844265 2428.30304440993 23 26 19
-1054.12575073039 -721.690108787712 2429.95990918527 22 25 18
-1008.76137243355 -711.317728682411 2443.42686514982 17 20 11
-1013.92341404932 -712.253161261703 2450.31204060112 17 20 11
-968.464812929413 -701.870627642328 2463.43464706555 22 25 18
-572.989258046872 -627.036415284689 2261.99436436362 21 23 18
-558.277924708398 -623.467234916382 2271.97323191706 20 23 16
-581.62746192234 -628.610705952809 2273.58986665472 18 21 12
-571.016688949298 -625.981557625681 2282.61361357797 15 16 8
-546.989458619651 -620.286127780232 2294.41552558201 14 17 10
-612.661937045258 -635.100723532197 2287.30189106475 13 16 9
-528.401792227466 -615.44473335792 2318.08163833484 12 15 8
-528.040788990272 -615.16576174333 2324.71100193394 12 15 8
-584.564097638942 -627.873109158406 2320.02837003336 12 15 8
-599.762234606386 -631.140764608586 2323.73716616685 11 14 7
-561.120259991746 -622.12403242776 2337.92742396708 12 15 8
-549.370346974879 -619.24622751095 2346.77507631064 12 15 8
-585.312204463162 -627.2428166056 2346.58272909625 13 16 9
-618.908473266548 -634.497391264577 2353.73820849197 12 15 8
-607.156329905588 -631.619270630937 2362.57777933213 14 15 7
-634.907319140555 -637.736295333788 2364.33435236184 13 14 6
-849.160184716873 -685.200372190204 2370.00962921644 12 13 5
-903.17235112268 -697.028479118303 2376.04125569701 12 13 5
-901.974647971959 -696.536060691446 2383.59519603335 11 12 4
-919.622349404618 -700.319857186144 2388.28023972088 11 12 4
-802.109455815206 -673.448040131812 2413.15546682595 13 14 8
-935.96761243732 -703.362812300531 2408.07891528555 14 15 9
-909.573079043865 -697.162040487363 2419.20504026943 15 16 10
-930.425854538345 -701.66654039657 2423.64406216665 15 18 11
-948.149660704237 -705.459947513361 2428.60560016889 24 27 20
-1052.17775770982 -728.784403426192 2422.1447470367 23 26 19
-1016.30358187128 -720.440292680833 2434.49675108134 23 26 19
-952.982673831883 -705.894259573398 2450.17174915295 25 28 21
-986.57552254407 -713.270886471947 2453.34022361907 25 28 21
-546.199725314628 -627.090887144035 2267.70470083169 17 19 14
-570.563903915179 -632.526144071062 2269.00703243061 22 25 18
-553.7718468033 -628.43634354824 2279.38191350344 17 20 11
-578.1701429247 -633.875380174852 2280.80945948848 14 15 7
-579.91528123536 -634.073517088589 2287.16372272337 14 17 10
-541.418426373089 -624.971842110146 2301.94641015705 13 16 9
-549.330965693327 -626.59794010867 2306.91770433797 12 15 8
-542.43381828037 -624.601428741807 2321.53643146618 11 14 7
-575.189303966704 -631.95925282345 2321.60781225028 11 14 7
-591.421147643119 -635.500161028132 2325.08479190217 11 14 7
-582.805402546882 -633.308640070061 2333.44582151541 12 15 8
-578.32268003793 -632.071476821597 2340.96321188869 12 15 8
-592.507607271658 -635.137165404284 2344.9349195784 13 16 9
-618.131128187886 -640.835962942891 2346.85023624115 13 16 9
-631.319605432208 -643.667179960597 2351.16574485223 12 15 8
-642.444062784895 -646.021545855371 2355.91350979164 14 15 9
-648.379562063235 -647.180318213399 2361.63212749943 13 14 8
-658.48512026468 -649.297738855336 2366.64283480175 14 15 9
-733.98826881074 -666.239275872573 2367.40961157976 18 19 13
-830.569738239951 -688.000441630301 2365.46121946209 12 13 7
-831.420403587345 -687.975677203009 2372.53152851826 10 11 5
-890.815138883987 -701.390870192987 2370.27040356893 10 11 5
-915.765142651455 -706.892378800637 2373.70596135117 9 10 4
-939.699855655721 -712.157475016341 2377.41752231341 10 11 5
-810.492213500061 -682.083412081415 2411.55098061759 11 12 6
-891.922223186217 -700.306917469016 2414.0311325146 11 14 7
-918.010216753783 -706.059953487463 2417.63670176084 12 15 8
-912.595531471798 -704.597690370821 2425.73233367449 12 15 8
-957.662551642792 -714.68958337271 2426.92464070214 22 25 18
-1001.73559813162 -724.547594313012 2428.47142855802 21 24 17
-953.171853338286 -713.213411400815 2442.35688589643 20 25 19
-983.594110411543 -719.945285603572 2445.84959927795 21 26 20
-951.823117662925 -712.459193117467 2457.30799956281 21 26 20
-540.991154930745 -632.058103071005 2268.60911107718 19 21 16
-531.390181112927 -629.605636981672 2277.37417604876 16 19 12
-619.632601809559 -650.034261150976 2264.78835833953 17 20 13
-559.558329692914 -635.778723677488 2284.54143476478 12 13 5
-557.163827150649 -635.011570560586 2291.72166701163 11 14 7
-486.635471635195 -618.329940754156 2313.15755030085 11 14 7
-561.316127613243 -635.35987623479 2310.81476321595 10 13 6
-546.493672161906 -631.694429364428 2320.44183377345 11 14 7
-582.368698185478 -639.857057520063 2319.89745508085 12 15 8
-579.965471558543 -639.08866435361 2327.04607941357 12 15 8
-586.885196522108 -640.49395404485 2332.36790468701 14 17 10
-607.296702476794 -645.041982516416 2335.14109761394 14 17 10
-575.834951618042 -637.504543675704 2347.78006982638 11 14 7
-606.649145591472 -644.472944276297 2348.68231733118 12 15 8
-630.227359601229 -649.752272478903 2351.06221108975 14 17 10
-638.233910708861 -651.405013636132 2356.36573151583 17 20 13
-645.208006421333 -652.816418276893 2361.88556406458 12 15 8
-678.228656241025 -660.283349542697 2362.87163371832 15 18 11
-819.493998495092 -692.680253172417 2352.55700167812 20 23 16
-908.011605094909 -713.016118819222 2344.94870757431 10 13 6
-875.494702305203 -705.235231254801 2357.72012863499 13 16 9
-868.01391167114 -703.271260199911 2366.25503824051 10 13 6
-999.355761980306 -732.810050097341 2375.45309041642 11 12 6
-893.171828982876 -707.745287709129 2406.18090656452 8 9 3
-918.204048102543 -713.315457721597 2409.87836461917 9 12 5
-881.266102282033 -704.538352018056 2422.45048994726 11 14 7
-931.557142214332 -715.951029746594 2422.72308221484 12 15 8
-964.025151023445 -723.233619352573 2425.67093719136 19 22 15
-918.610961042643 -712.503500494394 2439.17788063439 20 23 16
-978.506387974849 -726.123096551246 2438.64667619922 18 23 17
-992.08477218835 -729.031353074147 2444.36119425665 17 22 16
-522.400073928637 -633.831154949869 2272.50032036926 19 21 16
-569.418909642788 -644.73808844114 2268.73580091337 16 19 12
-571.159132877112 -644.936465631279 2275.07166373521 15 18 9
-530.266664227875 -634.854062184795 2297.16529787786 11 14 7
-539.885553075532 -636.706680059365 2308.32892062736 10 13 6
-577.791935231371 -645.43972512391 2307.17286795328 10 13 6
-588.843595208388 -647.833964344907 2311.62517657395 11 14 7
-578.162722964399 -645.103351055282 2320.45178928632 12 15 8
-574.717969911019 -644.080094720925 2327.7915868 12 15 8
-589.931138608527 -647.452774980332 2331.48988563465 14 17 10
-619.690115388666 -654.248490280437 2332.480592383 13 16 9
-643.257734470071 -659.582157261747 2334.78591356644 12 15 8
-619.056848903461 -653.671400042088 2346.07995316519 12 15 8
-623.934984455674 -654.60553791871 2351.91185845409 14 17 10
-643.384699434577 -658.965518121519 2355.13008323305 13 16 9
-869.589474421503 -711.224721786981 2343.70361430316 11 14 7
-922.54330683888 -723.186406967209 2349.6187692038 11 14 7
-977.623148478134 -735.391715707421 2363.27263947431 10 13 6
-973.327931075627 -734.146604200432 2371.49121767215 10 13 6
-945.95903549357 -727.497876205917 2383.17886328591 10 13 6
-993.038205072345 -738.286675428576 2383.60925582127 11 14 7
-949.892495933635 -727.948987972343 2397.49822260916 11 14 7
-900.381744956596 -716.129345195217 2412.07044592446 12 15 8
-924.390440274418 -721.515411240038 2415.98031469954 12 15 8
-955.793019961571 -728.627253870307 2418.97749027316 12 15 8
-907.22995781331 -717.042378850946 2433.02282698899 23 28 22
-930.231150220303 -722.188492332481 2437.24077781491 19 24 18
-1001.75175157637 -738.665132022277 2435.20453944469 10 15 9
-1033.28222680949 -745.79292173921 2438.66649795796 18 23 19
