ply
format ascii 1.0
comment KinectMotionCapture
element vertex 786
property float x
property float y
property float z
property uchar red
property uchar green
property uchar blue
end_header
-665.587544441223 -602.217972278595 2280.99989891052 19 22 11
-661.716938018799 -604.346811771393 2289.00003433228 18 21 10
-658.375918865204 -607.004284858704 2299.00002479553 18 21 10
-650.725781917572 -605.701923370361 2293.99991035461 18 21 10
-641.979098320007 -603.343725204468 2285.00008583069 20 23 12
-633.837819099426 -601.513981819153 2278.00011634827 21 24 13
-627.387702465057 -601.268887519836 2276.99995040894 18 21 10
-623.671412467957 -603.664934635162 2286.00001335144 17 20 9
-621.79696559906 -607.91003704071 2302.00004577637 19 22 11
-614.220380783081 -606.610000133514 2296.99993133545 19 23 9
-604.288697242737 -602.933406829834 2282.99999237061 18 22 8
-595.742642879486 -600.577294826508 2273.9999294281 18 22 8
-593.467831611633 -604.560256004334 2289.00003433228 18 22 8
-588.545918464661 -605.902493000031 2293.99991035461 19 22 11
-584.865987300873 -608.565866947174 2303.99990081787 19 22 11
-579.624891281128 -609.644889831543 2308.00008773804 19 20 14
-1052.03974246979 -635.837197303772 2381.99996948242 12 17 11
-1047.67906665802 -637.126684188843 2387.00008392334 7 12 6
-1027.59289741516 -628.809452056885 2355.99994659424 13 16 9
-1004.21369075775 -618.359982967377 2316.99991226196 10 13 6
-1001.72412395477 -620.723009109497 2325.99997520447 9 12 5
-994.053661823273 -619.885265827179 2322.99995422363 8 10 5
-990.654706954956 -621.717393398285 2329.99992370605 6 8 5
-999.048829078674 -631.021976470947 2365.00000953674 7 9 6
-1011.87062263489 -643.261969089508 2411.00001335144 9 9 9
-966.904520988464 -618.685305118561 2319.00000572205 6 8 7
-983.334481716156 -633.328795433044 2374.00007247925 6 8 7
-994.939863681793 -645.037949085236 2417.99998283386 6 8 7
-967.88626909256 -631.672918796539 2368.00003051758 7 9 8
-940.820217132568 -622.28798866272 2332.99994468689 8 10 7
-922.828435897827 -614.530742168427 2303.99990081787 8 10 7
-947.960257530212 -635.580718517303 2382.99989700317 8 10 5
-949.748992919922 -641.161799430847 2404.00004386902 8 10 5
-942.401528358459 -640.609741210938 2401.99995040894 9 11 6
-930.781662464142 -637.125492095947 2388.99993896484 10 12 7
-710.38281917572 -614.986538887024 2305.99999427795 5 10 6
-698.327541351318 -609.932243824005 2286.99994087219 16 19 12
-694.244146347046 -611.812591552734 2293.99991035461 12 15 6
-689.8233294487 -613.426864147186 2299.99995231628 21 24 13
-685.07307767868 -614.775121212006 2305.0000667572 17 20 9
-674.995183944702 -611.323058605194 2292.00005531311 18 21 10
-664.987862110138 -607.871294021606 2279.00004386902 18 21 10
-662.567496299744 -611.355006694794 2292.00005531311 18 21 10
-659.503936767578 -614.305973052979 2302.99997329712 18 21 10
-653.544545173645 -614.590108394623 2303.99990081787 17 20 9
-642.522752285004 -610.073149204254 2286.99994087219 16 19 8
-633.262753486633 -607.156932353973 2276.00002288818 17 20 9
-626.266658306122 -606.375217437744 2273.00000190735 16 19 8
-622.560620307922 -608.795166015625 2282.00006484985 16 19 8
-620.156288146973 -612.549722194672 2296.0000038147 18 21 10
-612.863063812256 -611.502468585968 2292.00005531311 19 23 9
-603.209316730499 -608.054280281067 2279.00004386902 18 22 8
-597.031712532043 -608.07478427887 2279.00004386902 17 21 7
-591.631650924683 -608.896195888519 2282.00006484985 16 20 6
-588.78082036972 -612.386345863342 2295.00007629395 16 19 8
-583.574831485748 -613.475382328033 2299.00002479553 16 19 8
-578.346788883209 -614.564776420593 2302.99997329712 25 26 20
-1061.36178970337 -648.009777069092 2403.00011634827 5 10 6
-1061.33079528809 -652.007520198822 2417.99998283386 8 13 7
-1030.68876266479 -637.132585048676 2362.99991607666 11 14 7
-1006.42108917236 -626.035988330841 2322.00002670288 10 13 6
-992.718636989594 -621.412754058838 2305.0000667572 13 16 9
-987.671732902527 -622.183382511139 2308.00008773804 12 14 9
-995.367288589478 -631.042242050171 2341.00008010864 9 11 8
-1001.19543075562 -638.823568820953 2369.99988555908 8 10 7
-985.042929649353 -632.590115070343 2346.99988365173 7 7 5
-989.034116268158 -639.295756816864 2371.99997901917 6 8 5
-987.506508827209 -642.498672008514 2384.0000629425 6 8 5
-972.748577594757 -637.079119682312 2364.00008201599 6 8 5
-974.45285320282 -642.440795898438 2384.0000629425 6 8 5
-964.682281017303 -640.258371829987 2375.99992752075 7 9 6
-946.086168289185 -632.149517536163 2345.99995613098 7 9 6
-939.672946929932 -632.126092910767 2345.99995613098 7 9 4
-945.594489574432 -640.456855297089 2377.00009346008 7 9 4
-948.188543319702 -646.63290977478 2400.00009536743 7 9 4
-938.888847827911 -644.727289676666 2392.99988746643 8 10 5
-929.240226745605 -642.553746700287 2384.99999046326 9 11 6
-950.201869010925 -661.664962768555 2456.00008964539 14 14 12
-707.598090171814 -618.819653987885 2296.99993133545 6 11 7
-695.566654205322 -613.713264465332 2278.00011634827 20 23 16
-689.993798732758 -614.264905452728 2279.99997138977 11 14 5
-685.310423374176 -615.625441074371 2285.00008583069 21 24 15
-681.194722652435 -617.525517940521 2292.00005531311 17 20 9
-676.157891750336 -618.618011474609 2296.0000038147 18 21 10
-670.807838439941 -619.441568851471 2299.00002479553 18 21 10
-665.730893611908 -620.535254478455 2302.99997329712 18 21 10
-660.059869289398 -621.090590953827 2305.0000667572 17 20 9
-653.810799121857 -621.107518672943 2305.0000667572 17 20 9
-645.314335823059 -618.969202041626 2296.99993133545 17 20 9
-637.974500656128 -617.909133434296 2292.99998283386 18 21 10
-632.033884525299 -618.196904659271 2293.99991035461 17 20 9
-624.724090099335 -617.137670516968 2289.99996185303 17 20 9
-617.165744304657 -615.809381008148 2285.00008583069 19 22 11
-613.110482692719 -617.98483133316 2292.99998283386 20 23 12
-603.718459606171 -614.770591259003 2280.99989891052 19 23 9
-598.058938980103 -615.32986164093 2282.99999237061 19 23 9
-592.388570308685 -615.889549255371 2285.00008583069 18 22 8
-587.989807128906 -617.797255516052 2292.00005531311 16 19 8
-582.283914089203 -618.35765838623 2293.99991035461 16 19 8
-576.064765453339 -618.379294872284 2293.99991035461 24 25 19
-572.329521179199 -621.096968650818 2303.99990081787 20 21 16
-1060.96863746643 -654.305756092072 2401.99995040894 7 12 8
-1029.33442592621 -638.731718063354 2345.00002861023 10 15 9
-1045.12739181519 -652.576804161072 2395.99990844727 10 13 6
-1013.83137702942 -637.008786201477 2338.99998664856 11 14 7
-994.911730289459 -629.069566726685 2309.99994277954 13 16 9
-992.845058441162 -631.753087043762 2319.9999332428 13 16 9
-986.049771308899 -631.442785263062 2319.00000572205 11 13 8
-982.220470905304 -633.040070533752 2325.00004768372 9 11 6
-1002.2851228714 -650.157630443573 2388.00001144409 8 8 6
-993.236422538757 -648.489952087402 2381.99996948242 7 9 6
-985.052108764648 -647.368550300598 2378.00002098084 7 9 6
-974.012315273285 -644.343316555023 2367.00010299683 7 9 6
-988.787353038788 -658.468902111053 2418.99991035461 7 9 4
-975.265204906464 -653.813362121582 2401.99995040894 6 8 3
-944.900929927826 -637.727975845337 2342.99993515015 6 8 3
-946.90614938736 -643.419206142426 2364.00008201599 6 8 3
-936.751842498779 -645.279347896576 2371.00005149841 7 9 4
-935.37712097168 -648.796856403351 2384.0000629425 7 9 4
-938.219666481018 -655.308961868286 2407.99999237061 8 10 5
-962.986588478088 -677.333533763886 2489.00008201599 10 10 8
-704.814016819 -622.604250907898 2288.00010681152 11 16 10
-694.027721881866 -618.534088134766 2273.00000190735 13 15 10
-689.375698566437 -619.907021522522 2278.00011634827 15 18 11
-682.897508144379 -619.647741317749 2276.99995040894 21 24 15
-680.586040019989 -623.199164867401 2289.99996185303 18 21 10
-675.554096698761 -624.301910400391 2293.99991035461 19 22 11
-670.500636100769 -625.405311584473 2298.00009727478 19 22 11
-665.425896644592 -626.509368419647 2302.00004577637 19 22 11
-658.611536026001 -625.980913639069 2299.99995231628 19 22 11
-653.226554393768 -626.813888549805 2302.99997329712 18 21 10
-645.016074180603 -624.925673007965 2296.0000038147 19 22 11
-638.513088226318 -624.670803546906 2295.00007629395 20 23 12
-631.464600563049 -623.87216091156 2292.00005531311 19 22 11
-624.159753322601 -622.801601886749 2288.00010681152 19 22 11
-618.767082691193 -623.636901378632 2290.99988937378 20 23 12
-612.823605537415 -623.928308486938 2292.00005531311 19 22 11
-607.403934001923 -624.764442443848 2295.00007629395 20 23 12
-602.491974830627 -626.145601272583 2299.99995231628 20 23 12
-596.256494522095 -626.165926456451 2299.99995231628 19 22 11
-591.303765773773 -627.547979354858 2305.0000667572 17 20 9
-585.816144943237 -628.385841846466 2308.00008773804 16 19 8
-578.554213047028 -627.31808423996 2303.99990081787 17 18 10
-574.791491031647 -630.062580108643 2313.99989128113 23 24 19
-1049.13508892059 -657.521843910217 2390.00010490417 14 19 13
-1011.14881038666 -637.667417526245 2318.00007820129 13 16 9
-1021.24357223511 -648.075819015503 2355.99994659424 11 14 7
-999.259889125824 -638.130307197571 2319.9999332428 12 15 8
-993.740677833557 -638.639450073242 2322.00002670288 14 17 10
-994.166791439056 -643.000423908234 2338.00005912781 13 15 10
-987.326323986053 -642.687380313873 2336.99989318848 12 14 9
-994.765639305115 -651.725769042969 2369.99988555908 11 12 7
-997.440159320831 -657.74005651474 2391.99995994568 8 10 5
-982.598841190338 -652.20695734024 2371.99997901917 7 9 4
-984.741926193237 -657.948911190033 2392.99988746643 6 8 3
-970.013499259949 -652.419567108154 2372.99990653992 5 7 2
-951.743245124817 -644.418001174927 2344.00010108948 5 7 2
-967.511296272278 -659.511029720306 2398.9999294281 5 7 2
-961.350977420807 -659.759879112244 2400.00009536743 4 6 1
-936.489641666412 -647.090196609497 2354.00009155273 4 6 1
-947.560787200928 -663.813173770905 2414.99996185303 7 9 4
-964.734017848969 -680.559277534485 2476.0000705719 8 10 5
-708.191335201263 -631.836950778961 2299.00002479553 37 41 40
-696.458697319031 -626.901030540466 2280.99989891052 6 8 3
-689.665973186493 -626.363158226013 2279.00004386902 17 20 13
-686.183631420136 -628.84920835495 2288.00010681152 20 23 14
-680.86963891983 -629.686832427979 2290.99988937378 20 23 12
-676.423251628876 -631.349563598633 2296.99993133545 20 23 12
-670.194029808044 -631.363868713379 2296.99993133545 21 24 13
-665.12143611908 -632.4782371521 2301.00011825562 20 23 12
-658.30934047699 -631.943941116333 2299.00002479553 20 23 12
-651.508271694183 -631.41006231308 2296.99993133545 20 23 12
-645.841956138611 -631.976366043091 2299.00002479553 18 21 10
-637.661039829254 -630.069077014923 2292.00005531311 19 22 11
-630.895733833313 -629.5365691185 2289.99996185303 17 20 9
-624.687075614929 -629.554390907288 2289.99996185303 17 20 9
-619.01843547821 -630.122542381287 2292.00005531311 18 21 10
-613.339185714722 -630.691111087799 2293.99991035461 18 21 10
-608.178436756134 -631.810069084167 2298.00009727478 19 22 11
-602.733969688416 -632.654428482056 2301.00011825562 19 22 11
-597.0139503479 -633.224308490753 2302.99997329712 19 22 11
-589.230835437775 -631.594777107239 2296.99993133545 17 20 9
-584.018349647522 -632.715344429016 2301.00011825562 16 19 8
-580.039501190186 -635.211169719696 2309.99994277954 15 16 8
-576.011657714844 -637.707471847534 2319.00000572205 25 26 21
-1018.0162191391 -644.329130649567 2319.00000572205 8 13 7
-1012.06719875336 -644.5592045784 2319.9999332428 13 16 9
-1011.7518901825 -648.402690887451 2334.00011062622 12 15 8
-1012.22455501556 -652.80294418335 2349.99990463257 12 15 8
-1010.04493236542 -655.537664890289 2359.99989509583 13 16 9
-992.505371570587 -648.274779319763 2334.00011062622 13 15 10
-992.011666297913 -652.123868465424 2348.00004959106 12 14 9
-987.666547298431 -653.474628925323 2352.9999256134 11 12 7
-984.548389911652 -655.660152435303 2361.00006103516 9 11 6
-983.460783958435 -659.235417842865 2374.00007247925 8 10 5
-975.309073925018 -658.091425895691 2369.99988555908 7 9 4
-963.503301143646 -654.450297355652 2357.00011253357 6 8 3
-946.492969989777 -647.201538085938 2331.00008964539 6 8 3
-963.102340698242 -662.998795509338 2388.00001144409 6 8 3
-959.98626947403 -669.886350631714 2413.00010681152 5 7 2
-969.985067844391 -681.52117729187 2454.99992370605 5 7 2
-971.517384052277 -687.32738494873 2476.0000705719 6 8 3
-946.831345558167 -674.536228179932 2430.0000667572 6 8 3
-714.033544063568 -643.349945545197 2318.00007820129 96 100 99
-697.058141231537 -633.646309375763 2282.99999237061 12 14 9
-695.403873920441 -637.820959091187 2298.00009727478 17 20 13
-692.16912984848 -640.608429908752 2308.00008773804 23 26 17
-686.800360679626 -641.453802585602 2311.00010871887 18 21 10
-674.348175525665 -635.637998580933 2289.99996185303 17 20 9
-666.386783123016 -633.986234664917 2283.99991989136 17 20 9
-662.505030632019 -636.221170425415 2292.00005531311 18 21 10
-656.00311756134 -635.9583735466 2290.99988937378 19 22 11
-652.059555053711 -638.194620609283 2299.00002479553 20 23 12
-642.173528671265 -634.601831436157 2286.00001335144 19 22 11
-634.583830833435 -633.230090141296 2280.99989891052 19 22 11
-628.398895263672 -633.246898651123 2280.99989891052 18 21 10
-623.032510280609 -634.097099304199 2283.99991989136 17 20 9
-619.540393352509 -636.89124584198 2293.99991035461 17 20 9
-613.0530834198 -636.631846427917 2292.99998283386 20 23 14
-607.894539833069 -637.761235237122 2296.99993133545 19 22 11
-601.404666900635 -637.502610683441 2296.0000038147 19 22 11
-596.216261386871 -638.632833957672 2299.99995231628 18 21 10
-585.106372833252 -633.376836776733 2280.99989891052 17 20 9
-583.236336708069 -638.117671012878 2298.00009727478 17 20 9
-579.01406288147 -640.35964012146 2305.99999427795 17 18 10
-577.232182025909 -645.379245281219 2323.99988174438 16 17 12
-1014.11437988281 -648.14567565918 2309.99994277954 11 16 10
-1010.80596446991 -650.060653686523 2316.99991226196 13 15 10
-1011.36434078217 -654.502093791962 2332.99994468689 13 16 9
-1013.13042640686 -659.78616476059 2351.99999809265 11 14 7
-1001.09970569611 -656.095325946808 2338.99998664856 11 14 7
-991.270303726196 -653.809130191803 2331.00008964539 13 16 9
-980.220556259155 -650.683403015137 2319.9999332428 13 16 9
-977.210104465485 -652.888417243958 2328.00006866455 13 14 8
-969.988763332367 -652.290463447571 2325.99997520447 12 15 8
-971.481442451477 -657.583117485046 2345.00002861023 11 14 7
-971.226692199707 -661.754965782166 2359.99989509583 10 13 6
-957.402527332306 -656.675279140472 2342.00000762939 7 10 3
-976.570606231689 -674.308121204376 2404.99997138977 7 10 3
-969.180762767792 -673.717319965363 2403.00011634827 7 10 3
-966.377556324005 -680.950582027435 2428.99990081787 5 7 2
-951.439380645752 -675.037801265717 2407.99999237061 5 7 2
-955.453097820282 -682.582378387451 2434.99994277954 6 8 3
-941.0080909729 -676.953196525574 2414.99996185303 6 8 3
-712.175309658051 -647.960007190704 2312.00003623962 123 127 126
-704.680621623993 -646.848976612091 2308.00008773804 15 17 12
-699.931561946869 -648.26101064682 2312.99996376038 15 18 11
-695.755779743195 -650.234341621399 2319.9999332428 21 24 15
-687.084853649139 -648.004233837128 2312.00003623962 18 21 10
-676.690816879272 -644.092977046967 2298.00009727478 18 21 10
-667.248368263245 -641.022980213165 2286.99994087219 17 20 9
-660.756409168243 -640.756368637085 2286.00001335144 17 20 9
-656.274557113647 -642.452538013458 2292.00005531311 17 20 9
-650.909602642059 -643.308341503143 2295.00007629395 18 21 10
-642.719388008118 -641.361594200134 2288.00010681152 18 21 10
-634.011089801788 -638.854563236237 2279.00004386902 18 21 10
-629.759609699249 -640.83331823349 2286.00001335144 17 20 9
-626.561224460602 -643.933832645416 2296.99993133545 17 20 9
-620.602786540985 -644.231617450714 2298.00009727478 17 20 9
-611.698091030121 -641.445875167847 2288.00010681152 20 23 14
-606.817424297333 -642.865896224976 2292.99998283386 19 22 13
-600.075960159302 -642.323791980743 2290.99988937378 19 22 13
-593.345403671265 -641.782104969025 2289.00003433228 17 20 9
-586.369216442108 -640.960335731506 2286.00001335144 17 20 9
-581.693351268768 -642.662405967712 2292.00005531311 17 20 9
-579.244494438171 -646.888494491577 2306.99992179871 19 20 12
-575.224161148071 -649.432778358459 2315.99998474121 21 22 16
-575.331032276154 -656.744718551636 2342.00000762939 21 22 17
-1036.99469566345 -669.197022914886 2361.99998855591 6 11 7
-1035.72273254395 -672.545075416565 2374.00007247925 12 14 9
-991.46968126297 -647.850215435028 2286.99994087219 11 14 7
-981.730163097382 -645.537912845612 2279.00004386902 10 13 6
-1002.42781639099 -663.337409496307 2342.00000762939 10 13 4
-990.461707115173 -659.611642360687 2328.9999961853 13 16 9
-976.035356521606 -654.189109802246 2309.99994277954 14 17 10
-990.261793136597 -668.025195598602 2358.99996757507 13 14 8
-980.451643466949 -665.720999240875 2351.0000705719 13 16 9
-974.141836166382 -670.178651809692 2367.00010299683 11 14 5
-983.598589897156 -681.186079978943 2405.99989891052 10 13 6
-966.856479644775 -674.075543880463 2381.00004196167 9 12 5
-970.824062824249 -681.404888629913 2407.00006484985 9 12 5
-972.248494625092 -687.036573886871 2427.00004577637 6 8 3
-956.060409545898 -680.214464664459 2403.00011634827 6 8 3
-957.391798496246 -685.848832130432 2423.00009727478 5 7 2
-951.553404331207 -686.38950586319 2424.99995231628 6 8 3
-705.28119802475 -653.679132461548 2309.99994277954 13 15 12
-702.946841716766 -657.368063926697 2322.99995422363 13 15 10
-696.344196796417 -657.095968723297 2322.00002670288 16 19 10
-684.695363044739 -652.013540267944 2303.99990081787 20 23 14
-675.794839859009 -649.478614330292 2295.00007629395 19 22 11
-667.235195636749 -647.227227687836 2286.99994087219 18 21 10
-660.164535045624 -646.391332149506 2283.99991989136 17 20 9
-655.401229858398 -647.820234298706 2289.00003433228 17 20 9
-650.894701480865 -649.532735347748 2295.00007629395 17 20 9
-642.423152923584 -647.283375263214 2286.99994087219 17 20 9
-634.273529052734 -645.317554473877 2279.99997138977 17 20 9
-628.91674041748 -646.182537078857 2282.99999237061 17 20 9
-624.362230300903 -647.897183895111 2289.00003433228 17 20 9
-617.61474609375 -647.347867488861 2286.99994087219 17 20 9
-611.680388450623 -647.648274898529 2288.00010681152 20 23 14
-606.534540653229 -648.79834651947 2292.00005531311 19 22 13
-600.319385528564 -648.816525936127 2292.00005531311 19 22 13
-594.104051589966 -648.835062980652 2292.00005531311 17 20 9
-586.093425750732 -646.872401237488 2285.00008583069 17 20 9
-584.465205669403 -651.987493038177 2302.99997329712 17 20 9
-578.220069408417 -652.007222175598 2302.99997329712 16 17 9
-573.961734771729 -654.292285442352 2311.00010871887 17 18 12
-570.888161659241 -657.99343585968 2323.99988174438 22 22 20
-1039.68226909637 -677.375972270966 2368.00003051758 11 16 12
-1036.21065616608 -679.325044155121 2375 10 12 7
-982.413113117218 -648.098587989807 2266.00003242493 11 14 7
-981.775999069214 -651.76910161972 2279.00004386902 9 12 5
-1013.89622688293 -681.704103946686 2384.0000629425 13 16 9
-993.823647499084 -672.510027885437 2351.99999809265 15 18 11
-987.783551216125 -672.754108905792 2352.9999256134 14 15 9
-983.409643173218 -674.143433570862 2358.00004005432 13 16 7
-974.039733409882 -672.103703022003 2351.0000705719 12 15 6
-954.422056674957 -662.919223308563 2319.00000572205 11 14 5
-962.783098220825 -673.175156116486 2355.00001907349 11 14 7
-952.675998210907 -670.569002628326 2345.99995613098 11 14 7
-966.269373893738 -689.370214939117 2411.99994087219 8 10 5
-949.515879154205 -686.740517616272 2403.00011634827 7 9 4
-962.566077709198 -701.002836227417 2453.00006866455 7 9 4
-966.772615909576 -708.978652954102 2480.99994659424 7 9 6
-978.567540645599 -722.670614719391 2529.00004386902 7 9 6
-711.988627910614 -666.23455286026 2332.00001716614 7 9 6
-705.660045146942 -666.244029998779 2332.00001716614 15 17 12
-699.032247066498 -665.968656539917 2331.00008964539 15 18 9
-685.278177261353 -658.836901187897 2305.99999427795 22 25 16
-674.310505390167 -654.277086257935 2289.99996185303 20 23 12
-664.596915245056 -650.860488414764 2278.00011634827 19 22 11
-659.573376178741 -652.015864849091 2282.00006484985 17 20 9
-653.955817222595 -652.600526809692 2283.99991989136 17 20 9
-651.447534561157 -656.328856945038 2296.99993133545 16 19 8
-644.936323165894 -656.057417392731 2296.0000038147 16 19 8
-637.596309185028 -654.929399490356 2292.00005531311 16 19 8
-631.380081176758 -654.944777488709 2292.00005531311 18 21 10
-621.345579624176 -650.960147380829 2278.00011634827 18 21 10
-615.977585315704 -651.833593845367 2280.99989891052 19 22 11
-610.326409339905 -652.421951293945 2282.99999237061 20 23 16
-605.458319187164 -653.868079185486 2288.00010681152 19 22 13
-600.825011730194 -655.600428581238 2293.99991035461 19 22 13
-593.826293945313 -654.761254787445 2290.99988937378 17 20 11
-588.895916938782 -656.20881319046 2296.0000038147 17 20 9
-584.953546524048 -658.800005912781 2305.0000667572 17 20 9
-581.213116645813 -661.677598953247 2315.00005722046 17 18 10
-573.69327545166 -660.268187522888 2309.99994277954 18 19 13
-569.393813610077 -662.575006484985 2318.00007820129 19 20 15
-1034.46829319 -680.391311645508 2355.99994659424 14 18 17
-1008.10301303864 -675.61399936676 2339.99991416931 9 12 5
-1013.64970207214 -683.649241924286 2368.00003051758 8 11 4
-993.867099285126 -678.938031196594 2351.99999809265 16 19 12
-979.428946971893 -673.410534858704 2332.99994468689 14 15 9
-979.278922080994 -677.698731422424 2348.00004959106 11 14 7
-969.934701919556 -675.638616085052 2341.00008010864 11 14 5
-959.397256374359 -672.71476984024 2331.00008964539 11 14 5
-966.088891029358 -681.913197040558 2362.99991607666 11 14 5
-970.983862876892 -689.958035945892 2391.00003242493 13 16 9
-962.417185306549 -688.481390476227 2385.99991798401 13 16 9
-954.924166202545 -692.458152770996 2400.00009536743 12 14 9
-959.422409534454 -700.507342815399 2427.99997329712 11 13 8
-961.023092269897 -706.537783145905 2448.99988174438 11 13 8
-970.695018768311 -718.627750873566 2490.9999370575 11 13 10
-716.253995895386 -676.602363586426 2345.99995613098 7 9 6
-707.768619060516 -674.5924949646 2338.99998664856 17 19 14
-696.023166179657 -669.410705566406 2321.00009918213 16 19 10
-684.375941753387 -664.229393005371 2302.99997329712 21 24 15
-674.004673957825 -660.202324390411 2289.00003433228 19 22 11
-662.834525108337 -655.310392379761 2272.0000743866 18 21 10
-655.225336551666 -653.88011932373 2266.99995994568 17 20 9
-653.942704200745 -658.796191215515 2283.99991989136 17 20 9
-649.732053279877 -660.828411579132 2290.99988937378 16 19 8
-646.045506000519 -663.438379764557 2299.99995231628 16 19 8
-639.528691768646 -663.164258003235 2299.00002479553 17 20 9
-633.292973041534 -663.179099559784 2299.00002479553 18 21 10
-623.784482479095 -659.732937812805 2286.99994087219 19 22 11
-613.801062107086 -655.71004152298 2273.00000190735 20 23 12
-609.240353107452 -657.457172870636 2279.00004386902 20 23 16
-604.911804199219 -659.493267536163 2286.00001335144 19 22 13
-599.759697914124 -660.664439201355 2289.99996185303 19 22 13
-595.104217529297 -662.413060665131 2296.0000038147 17 20 11
-590.929210186005 -664.739310741425 2303.99990081787 17 20 9
-585.442066192627 -665.623426437378 2306.99992179871 17 20 9
-580.18958568573 -666.796445846558 2311.00010871887 18 19 11
-573.42529296875 -666.23866558075 2309.00001525879 19 20 14
-567.408680915833 -666.546821594238 2309.99994277954 12 13 8
-570.617496967316 -677.8205037117 2348.99997711182 13 14 9
-1042.42825508118 -692.088425159454 2374.00007247925 5 9 8
-1013.73076438904 -681.48410320282 2338.00005912781 5 10 4
-987.042129039764 -667.733609676361 2290.99988937378 7 12 6
-972.602605819702 -662.147462368011 2272.0000743866 9 11 6
-993.998765945435 -681.042909622192 2336.99989318848 12 14 9
-985.037863254547 -679.248332977295 2331.00008964539 14 16 11
-979.051887989044 -679.495275020599 2332.00001716614 10 13 6
-973.063945770264 -679.744005203247 2332.99994468689 12 15 8
-975.774884223938 -686.112701892853 2355.00001907349 10 13 6
-965.608835220337 -683.451235294342 2345.99995613098 9 12 5
-981.984078884125 -704.350709915161 2417.99998283386 11 14 7
-953.576564788818 -688.585996627808 2364.00008201599 12 15 8
-963.928759098053 -700.786113739014 2405.99989891052 20 21 16
-960.525333881378 -703.084111213684 2414.00003433228 8 9 4
-965.774357318878 -711.79074048996 2444.00000572205 9 10 5
-960.65878868103 -712.926149368286 2447.99995422363 18 19 14
-959.031224250793 -716.68404340744 2460.99996566772 7 8 3
-717.16171503067 -683.844566345215 2348.99997711182 18 23 19
-706.851840019226 -680.068135261536 2335.99996566772 7 12 6
-694.814085960388 -674.545705318451 2316.99991226196 13 18 11
-684.365689754486 -670.479416847229 2302.99997329712 15 21 11
-674.582719802856 -666.995882987976 2290.99988937378 16 22 12
-664.573550224304 -663.221895694733 2278.00011634827 12 18 8
-657.814681529999 -662.650883197784 2276.00002288818 12 18 8
-654.216468334198 -665.28332233429 2285.00008583069 17 20 11
-648.300886154175 -665.58700799942 2286.00001335144 16 19 10
-643.222868442535 -666.764795780182 2289.99996185303 17 20 11
-637.845277786255 -667.652130126953 2292.99998283386 18 21 12
-633.278131484985 -669.413447380066 2299.00002479553 19 22 13
-622.405409812927 -664.478242397308 2282.00006484985 19 22 13
-615.94557762146 -664.202272891998 2280.99989891052 20 21 13
-609.491467475891 -663.926839828491 2279.99997138977 18 21 12
-603.3074259758 -663.942992687225 2279.99997138977 18 21 12
-598.433077335358 -665.41576385498 2285.00008583069 18 21 12
-593.531489372253 -666.888892650604 2289.99996185303 16 19 10
-591.680526733398 -671.857178211212 2306.99992179871 16 19 10
-585.6773853302 -672.166526317596 2308.00008773804 15 18 9
-578.664422035217 -671.311259269714 2305.0000667572 17 18 10
-573.406040668488 -672.495007514954 2309.00001525879 17 18 12
-570.582211017609 -676.591753959656 2322.99995422363 17 18 12
-566.953659057617 -679.815351963043 2334.00011062622 19 20 14
-1038.99300098419 -700.590789318085 2381.00004196167 0 4 0
-1006.84654712677 -683.175504207611 2322.00002670288 9 14 8
-1000.44941902161 -683.122575283051 2322.00002670288 6 11 4
-991.059362888336 -681.012213230133 2315.00005722046 9 12 5
-983.412981033325 -680.080711841583 2312.00003623962 15 17 12
-986.774146556854 -686.798512935638 2335.00003814697 15 17 12
-985.813796520233 -690.576195716858 2348.00004959106 11 13 8
-982.282757759094 -692.590475082397 2355.00001907349 10 13 6
-973.74427318573 -691.077351570129 2349.99990463257 12 15 8
-961.943566799164 -687.213778495789 2336.99989318848 12 15 8
-980.882465839386 -705.405354499817 2398.9999294281 11 14 7
-967.806577682495 -700.662672519684 2382.99989700317 9 12 5
-956.031501293182 -696.804165840149 2369.99988555908 8 11 4
-942.327320575714 -691.47777557373 2351.99999809265 9 10 5
-954.588651657104 -705.262303352356 2398.9999294281 13 14 9
-962.643802165985 -716.107487678528 2436.00010871887 0 1 0
-966.967046260834 -724.307596683502 2463.99998664856 21 22 17
-970.750212669373 -732.214689254761 2490.9999370575 4 5 0
-704.120278358459 -683.764934539795 2326.99990272522 8 13 9
-693.305850028992 -679.365575313568 2312.00003623962 11 16 10
-681.978940963745 -674.379050731659 2295.00007629395 14 19 12
-674.278080463409 -672.919273376465 2289.99996185303 19 25 15
-669.23052072525 -674.104869365692 2293.99991035461 16 22 12
-662.427604198456 -673.528015613556 2292.00005531311 14 20 10
-655.349671840668 -672.657787799835 2289.00003433228 17 20 11
-645.168900489807 -668.555617332459 2275.00009536743 16 19 10
-638.434767723084 -667.980313301086 2273.00000190735 16 19 10
-632.268309593201 -667.993485927582 2273.00000190735 18 21 12
-629.407465457916 -671.533703804016 2285.00008583069 18 21 12
-620.754301548004 -668.90287399292 2276.00002288818 18 21 12
-615.390360355377 -669.799208641052 2279.00004386902 19 20 12
-608.94113779068 -669.520497322083 2278.00011634827 19 22 11
-602.232873439789 -668.948233127594 2276.00002288818 17 20 11
-596.321284770966 -669.258296489716 2276.99995040894 16 19 10
-592.218518257141 -671.626150608063 2285.00008583069 16 19 10
-588.585376739502 -674.582540988922 2295.00007629395 16 19 10
-583.629250526428 -676.069676876068 2299.99995231628 16 19 10
-577.641844749451 -676.381587982178 2301.00011825562 17 18 10
-571.649014949799 -676.693797111511 2302.00004577637 17 18 12
-570.80864906311 -683.17973613739 2323.99988174438 15 16 10
-569.848835468292 -689.666390419006 2345.99995613098 15 16 10
-1053.52532863617 -712.516903877258 2398.9999294281 2 6 5
-1019.91021633148 -698.44114780426 2351.99999809265 12 17 11
-1019.89185810089 -702.840030193329 2367.00010299683 7 12 5
-1011.23201847076 -701.301693916321 2361.99998855591 11 14 7
-999.200582504272 -697.390496730804 2348.99997711182 16 18 13
-985.553741455078 -692.294299602509 2332.00001716614 16 18 13
-991.318047046661 -700.855612754822 2361.00006103516 10 12 7
-987.332582473755 -702.590525150299 2367.00010299683 11 14 7
-978.344857692719 -700.765252113342 2361.00006103516 10 13 6
-964.04230594635 -695.083796977997 2342.00000762939 10 13 6
-957.206964492798 -694.746553897858 2341.00008010864 7 10 3
-956.066250801086 -698.565661907196 2354.00009155273 6 9 2
-956.067442893982 -703.276216983795 2369.99988555908 6 9 2
-955.983936786652 -707.98796415329 2385.99991798401 12 13 8
-941.490292549133 -702.019333839417 2365.9999370575 4 5 0
-725.695729255676 -704.903423786163 2377.00009346008 112 116 115
-706.533491611481 -692.455053329468 2335.00003814697 2 7 3
-692.997753620148 -685.345232486725 2311.00010871887 10 15 9
-684.34727191925 -682.980895042419 2302.99997329712 10 15 8
-676.329731941223 -681.210339069366 2296.99993133545 19 25 15
-673.012793064117 -684.18550491333 2306.99992179871 18 24 14
-665.884912014008 -683.305978775024 2303.99990081787 15 21 11
-657.342374324799 -680.944323539734 2296.0000038147 16 19 10
-645.156860351563 -674.727380275726 2275.00009536743 17 20 11
-637.579679489136 -673.256397247314 2269.99998092651 17 20 11
-631.698906421661 -673.565328121185 2270.99990844727 18 21 12
-624.98664855957 -672.985196113586 2269.00005340576 18 21 12
-620.4674243927 -674.778342247009 2275.00009536743 18 21 12
-618.345856666565 -679.241597652435 2289.99996185303 19 20 12
-609.72797870636 -676.586747169495 2280.99989891052 18 21 10
-601.423561573029 -674.228847026825 2273.00000190735 18 21 12
-595.78150510788 -674.837589263916 2275.00009536743 17 20 11
-589.091897010803 -674.260258674622 2273.00000190735 16 19 10
-585.490942001343 -677.243173122406 2282.99999237061 16 19 10
-580.313205718994 -678.446650505066 2286.99994087219 16 19 10
-575.113654136658 -679.650485515594 2290.99988937378 16 17 9
-571.879088878632 -683.228254318237 2302.99997329712 16 17 11
-570.544302463531 -689.179956912994 2322.99995422363 13 14 8
-572.744309902191 -699.582576751709 2358.00004005432 12 13 7
-1060.61458587646 -723.885774612427 2414.99996185303 2 7 3
-1036.92889213562 -712.134182453156 2375.99992752075 5 10 4
-1022.10175991058 -710.818529129028 2371.99997901917 12 17 10
-1011.71362400055 -708.066344261169 2362.99991607666 16 19 12
-993.721604347229 -699.9232172966 2335.99996566772 16 18 13
-984.334766864777 -697.775304317474 2328.9999961853 14 16 11
-984.647572040558 -702.51989364624 2345.00002861023 9 11 6
-990.298569202423 -711.159944534302 2374.00007247925 9 12 5
-976.316928863525 -705.722093582153 2355.99994659424 6 9 2
-971.493899822235 -706.876337528229 2359.99989509583 4 7 0
-980.963587760925 -718.514919281006 2398.9999294281 4 7 0
-979.662358760834 -722.367167472839 2411.99994087219 6 9 2
-974.258780479431 -723.226010799408 2414.99996185303 7 10 3
-968.841671943665 -724.086403846741 2417.99998283386 6 7 2
-960.625410079956 -722.852349281311 2414.00003433228 8 9 4
-706.224203109741 -698.49568605423 2334.00011062622 0 4 3
-695.089340209961 -693.714022636414 2318.00007820129 11 16 10
-688.796520233154 -693.7215924263 2318.00007820129 11 16 9
-681.031942367554 -692.233383655548 2312.99996376038 18 24 14
-672.419846057892 -689.847946166992 2305.0000667572 17 23 13
-665.296733379364 -688.95959854126 2302.00004577637 15 21 11
-655.041217803955 -684.779703617096 2288.00010681152 17 20 11
-647.414267063141 -683.293879032135 2282.99999237061 18 21 12
-641.219019889832 -683.305203914642 2282.99999237061 18 21 12
-631.686449050903 -679.725468158722 2270.99990844727 19 22 13
-626.075446605682 -680.336475372314 2273.00000190735 19 22 13
-621.272087097168 -681.846082210541 2278.00011634827 19 22 13
-614.011585712433 -680.662214756012 2273.9999294281 20 21 13
-607.040345668793 -679.778277873993 2270.99990844727 17 20 9
-600.085616111755 -678.894639015198 2267.99988746643 19 22 13
-593.409180641174 -678.310930728912 2266.00003242493 19 22 13
-591.92681312561 -683.71456861496 2283.99991989136 17 20 11
-586.243808269501 -684.329211711884 2286.00001335144 14 17 8
-575.729072093964 -679.25637960434 2269.00005340576 13 14 6
-568.067729473114 -677.476704120636 2263.00001144409 13 14 6
-568.136751651764 -684.978187084198 2288.00010681152 13 14 8
-571.999669075012 -697.270631790161 2328.9999961853 11 12 6
-575.154304504395 -708.965122699738 2368.00003051758 12 13 7
-570.651888847351 -711.379110813141 2375.99992752075 15 16 10
-1043.10047626495 -722.878813743591 2390.00010490417 7 12 6
-1010.09297370911 -708.846986293793 2344.00010108948 15 20 13
-1004.48966026306 -709.395349025726 2345.99995613098 18 21 14
-990.370750427246 -703.898370265961 2328.00006866455 16 19 12
-984.385192394257 -704.148530960083 2328.9999961853 12 15 8
-986.795961856842 -710.447013378143 2349.99990463257 8 10 5
-1013.29016685486 -734.27951335907 2428.99990081787 6 9 2
-1017.38953590393 -742.090106010437 2454.99992370605 6 9 2
-989.651143550873 -726.627767086029 2404.00004386902 7 10 3
-993.683040142059 -734.441578388214 2430.0000667572 8 11 4
-989.045739173889 -735.909521579742 2434.99994277954 10 13 6
-979.542970657349 -733.752608299255 2427.99997329712 11 14 7
-972.085177898407 -733.108699321747 2426.00011825562 13 14 9
-972.600102424622 -738.509893417358 2444.00000572205 15 16 11
-971.043467521667 -742.401540279388 2457.00001716614 7 8 3
-704.402625560761 -703.021466732025 2328.00006866455 20 24 23
-698.081254959106 -703.027486801147 2328.00006866455 10 15 11
-690.869033336639 -702.128291130066 2325.00004768372 13 18 11
-682.495892047882 -700.021803379059 2318.00007820129 19 25 15
-673.286139965057 -697.010099887848 2308.00008773804 18 24 14
-659.796178340912 -689.468801021576 2282.99999237061 17 23 13
-653.313457965851 -689.176321029663 2282.00006484985 20 23 14
-646.836459636688 -688.884258270264 2280.99989891052 19 22 13
-640.365183353424 -688.592851161957 2279.99997138977 19 22 13
-634.178042411804 -688.604116439819 2279.99997138977 20 23 14
-627.164900302887 -687.709867954254 2276.99995040894 20 23 14
-620.168268680573 -686.816096305847 2273.9999294281 20 23 14
-612.648069858551 -685.318768024445 2269.00005340576 20 21 13
-605.155348777771 -683.8219165802 2263.99993896484 17 20 9
-599.012911319733 -683.835864067078 2263.99993896484 19 22 13
-595.227360725403 -686.56861782074 2273.00000190735 19 22 13
-593.984723091125 -692.322671413422 2292.00005531311 15 18 9
-586.997330188751 -691.431820392609 2289.00003433228 12 15 6
-577.235281467438 -687.21866607666 2275.00009536743 10 11 3
-570.561408996582 -686.630547046661 2273.00000190735 10 11 3
-565.63663482666 -688.157558441162 2278.00011634827 10 11 5
-569.280445575714 -700.258374214172 2318.00007820129 10 11 5
-567.120969295502 -705.411732196808 2335.00003814697 13 14 8
-565.589666366577 -711.471974849701 2355.00001907349 17 18 12
-1032.66394138336 -726.619362831116 2381.00004196167 22 27 20
-1011.01303100586 -715.878248214722 2345.99995613098 15 21 11
-993.841052055359 -708.192110061646 2321.00009918213 14 17 8
-995.104491710663 -713.62841129303 2338.99998664856 9 12 5
-996.695220470428 -719.370901584625 2358.00004005432 7 10 3
-1010.78283786774 -734.266102313995 2407.00006484985 4 7 0
-1020.43271064758 -746.110737323761 2446.00009918213 5 8 1
-991.329073905945 -729.589462280273 2391.99995994568 8 11 4
-996.695935726166 -738.386690616608 2421.0000038147 15 18 11
-998.226165771484 -744.439840316772 2440.99998474121 15 18 11
-993.556976318359 -745.919764041901 2446.00009918213 13 16 9
-987.653136253357 -746.48642539978 2447.99995422363 6 9 2
-984.546482563019 -749.189376831055 2457.00001716614 11 12 7
-972.240149974823 -744.880974292755 2443.00007820129 10 11 6
-708.633422851563 -713.609337806702 2342.00000762939 32 36 37
-695.976197719574 -707.215905189514 2321.00009918213 9 14 10
-690.565049648285 -708.135962486267 2323.99988174438 10 15 8
-681.016206741333 -704.790890216827 2312.99996376038 19 25 15
-671.527743339539 -701.44659280777 2302.00004577637 18 24 14
-659.78741645813 -695.665061473846 2282.99999237061 16 22 12
-650.154769420624 -692.017078399658 2270.99990844727 18 21 12
-645.125031471252 -693.245410919189 2275.00009536743 18 21 12
-640.073716640472 -694.474160671234 2279.00004386902 19 22 13
-634.723126888275 -695.398986339569 2282.00006484985 19 22 13
-626.3267993927 -692.972183227539 2273.9999294281 19 22 13
-619.883239269257 -692.679166793823 2273.00000190735 18 21 12
-610.745251178741 -689.339160919189 2262.00008392334 18 19 11
-605.142116546631 -689.961433410645 2263.99993896484 20 23 12
-600.057363510132 -691.193699836731 2267.99988746643 14 17 8
-602.021455764771 -700.655162334442 2299.00002479553 10 13 4
-594.228863716125 -698.840916156769 2292.99998283386 8 11 2
-589.033424854279 -700.074851512909 2296.99993133545 8 11 2
-581.532895565033 -698.566317558289 2292.00005531311 9 12 3
-575.314521789551 -698.581993579865 2292.00005531311 13 14 6
-572.572410106659 -702.865302562714 2305.99999427795 15 16 10
-566.807448863983 -703.491508960724 2308.00008773804 17 18 12
-572.446405887604 -718.444347381592 2357.00011253357 17 18 12
-998.269736766815 -704.263746738434 2286.99994087219 22 27 20
-995.425581932068 -706.664979457855 2295.00007629395 10 16 6
-996.850669384003 -712.146461009979 2312.99996376038 8 14 4
-1005.88846206665 -723.170578479767 2348.99997711182 7 10 1
-1001.54232978821 -724.652051925659 2354.00009155273 5 8 1
-1005.20360469818 -731.983602046967 2378.00002098084 6 9 2
-986.05889081955 -722.695291042328 2348.00004959106 5 8 1
-982.102155685425 -724.48992729187 2354.00009155273 15 18 11
-982.674956321716 -729.67141866684 2371.00005149841 14 17 10
-986.86295747757 -737.623572349548 2397.0000743866 10 13 6
-989.275515079498 -744.345784187317 2418.99991035461 8 11 4
-991.976976394653 -751.376628875732 2441.99991226196 8 11 4
-993.344783782959 -757.485508918762 2461.99989318848 8 11 4
-983.385741710663 -754.98104095459 2453.9999961853 9 10 5
-955.166220664978 -738.327503204346 2400.00009536743 7 8 3
-958.074808120728 -745.671808719635 2424.00002479553 14 15 10
-714.68049287796 -726.118624210358 2361.99998855591 58 62 63
-696.570634841919 -714.13379907608 2322.99995422363 11 16 12
-685.210466384888 -708.91284942627 2305.99999427795 9 14 7
-676.887631416321 -706.766843795776 2299.00002479553 21 27 17
-670.061767101288 -706.158638000488 2296.99993133545 21 27 17
-658.334493637085 -700.324892997742 2278.00011634827 14 20 10
-650.146186351776 -698.180735111237 2270.99990844727 18 21 12
-644.548535346985 -698.804259300232 2273.00000190735 19 22 13
-638.940393924713 -699.428379535675 2275.00009536743 19 22 13
-631.096720695496 -697.593510150909 2269.00005340576 20 23 14
-621.358036994934 -693.607151508331 2256.00004196167 19 22 13
-621.507883071899 -700.689554214478 2279.00004386902 18 21 12
-615.323066711426 -700.701177120209 2279.00004386902 17 18 10
-612.078726291656 -704.095423221588 2289.99996185303 17 20 9
-603.483617305756 -701.340973377228 2280.99989891052 11 14 5
-597.556054592133 -701.661705970764 2282.00006484985 8 11 2
-594.732940196991 -705.672740936279 2295.00007629395 9 12 3
-589.275062084198 -706.609427928925 2298.00009727478 12 15 6
-582.025170326233 -705.394208431244 2293.99991035461 14 17 8
-574.545919895172 -703.87190580368 2289.00003433228 20 21 13
-574.294328689575 -711.267471313477 2312.99996376038 20 21 15
-571.456849575043 -715.588867664337 2326.99990272522 15 16 10
-567.086160182953 -718.065559864044 2335.00003814697 20 21 15
-1008.37397575378 -717.681646347046 2309.99994277954 1 6 0
-1005.03051280975 -719.79159116745 2316.99991226196 8 13 6
-999.066472053528 -720.03960609436 2318.00007820129 5 11 1
-1011.9434595108 -733.955979347229 2362.99991607666 6 9 0
-1018.61953735352 -743.524074554443 2394.00005340576 7 10 1
-997.22808599472 -732.596099376678 2358.99996757507 13 16 9
-988.632440567017 -730.987668037415 2354.00009155273 15 18 11
-980.902373790741 -730.002403259277 2351.0000705719 11 14 7
-986.455738544464 -738.954782485962 2380.00011444092 11 14 7
-983.618199825287 -741.698324680328 2388.99993896484 13 16 9
-979.098796844482 -743.201792240143 2394.00005340576 8 11 4
-981.867372989655 -750.29444694519 2417.00005531311 12 15 8
-982.898950576782 -756.146490573883 2436.00010871887 14 17 10
-961.788415908813 -744.928359985352 2400.00009536743 14 15 10
-945.256292819977 -737.127244472504 2375 8 9 4
-947.441637516022 -743.915379047394 2397.0000743866 16 17 12
-700.764238834381 -724.784910678864 2336.99989318848 12 17 11
-692.336678504944 -722.618281841278 2329.99992370605 14 19 12
-679.237008094788 -715.490281581879 2306.99992179871 19 25 15
-670.346915721893 -712.705016136169 2298.00009727478 18 24 14
-660.63916683197 -708.989799022675 2286.00001335144 15 21 11
-651.855945587158 -706.205785274506 2276.99995040894 17 20 11
-646.808505058289 -707.454264163971 2280.99989891052 19 22 13
-640.616297721863 -707.462847232819 2280.99989891052 18 21 12
-627.193093299866 -699.407994747162 2255.00011444092 20 23 14
-618.042647838593 -696.005821228027 2243.99995803833 20 23 14
-618.224382400513 -703.149914741516 2266.99995994568 16 17 9
-618.01141500473 -709.984660148621 2289.00003433228 12 13 5
-609.661042690277 -707.514703273773 2280.99989891052 9 12 1
-605.322897434235 -709.698081016541 2288.00010681152 11 14 5
-594.662487506866 -704.437494277954 2270.99990844727 13 16 7
-591.091215610504 -707.552433013916 2280.99989891052 16 19 10
-585.158169269562 -707.87638425827 2282.00006484985 17 20 11
-573.384344577789 -701.0657787323 2259.99999046326 17 18 10
-566.749930381775 -700.459659099579 2257.99989700317 18 19 11
-568.319976329803 -710.091233253479 2289.00003433228 17 18 12
-567.511677742004 -716.931521892548 2311.00010871887 20 21 15
-566.341102123261 -723.462283611298 2332.00001716614 24 25 19
-1019.6590423584 -727.535545825958 2321.00009918213 0 5 0
-1014.115691185 -728.093564510345 2322.99995422363 0 2 0
-1005.52904605865 -726.459860801697 2318.00007820129 9 14 7
-1021.54266834259 -742.690682411194 2369.99988555908 7 13 3
-1008.5791349411 -737.926602363586 2355.00001907349 9 12 3
-1005.48911094666 -740.371704101563 2362.99991607666 13 16 7
-997.708380222321 -739.372253417969 2359.99989509583 14 17 8
-985.327899456024 -734.929025173187 2345.99995613098 13 16 9
-986.380159854889 -740.512251853943 2364.00008201599 13 16 9
-989.409327507019 -747.662723064423 2387.00008392334 14 17 10
-986.55092716217 -750.429153442383 2395.99990844727 16 19 12
-973.421633243561 -745.367884635925 2380.00011444092 15 18 11
-972.977161407471 -750.016748905182 2394.99998092651 11 14 7
-973.260581493378 -755.293309688568 2411.99994087219 9 12 5
-965.037941932678 -753.995537757874 2407.99999237061 19 20 15
-947.685718536377 -745.498299598694 2381.00004196167 14 15 10
-949.457824230194 -752.031803131104 2401.99995040894 21 22 17
-694.709360599518 -731.4493060112 2338.00005912781 12 17 10
-678.34860086441 -720.816612243652 2303.99990081787 16 22 12
-670.924365520477 -719.570338726044 2299.99995231628 17 23 13
-659.765720367432 -714.257538318634 2282.99999237061 17 23 13
-652.99391746521 -713.638365268707 2280.99989891052 20 23 14
-646.800637245178 -713.645458221436 2280.99989891052 19 22 13
-638.641834259033 -711.463212966919 2273.9999294281 20 23 14
-628.018379211426 -706.465721130371 2257.99989700317 20 23 14
-617.206811904907 -701.155841350555 2240.9999370575 18 21 12
-615.214347839355 -705.858647823334 2256.00004196167 13 14 6
-613.140642642975 -710.56205034256 2270.99990844727 11 12 4
-606.442332267761 -709.947168827057 2269.00005340576 9 12 1
-600.019633769989 -709.645509719849 2267.99988746643 14 17 8
-597.792267799377 -714.350998401642 2282.99999237061 17 20 11
-586.673021316528 -708.418130874634 2263.99993896484 19 22 13
-575.400710105896 -702.172756195068 2243.99995803833 18 21 12
-570.0723528862 -703.124701976776 2246.99997901917 16 17 9
-566.986799240112 -706.893503665924 2259.0000629425 18 19 11
-567.808508872986 -715.669631958008 2286.99994087219 19 20 14
-566.513955593109 -721.943080425262 2306.99992179871 21 22 16
-568.025052547455 -731.972575187683 2338.99998664856 23 24 18
-1026.59475803375 -734.296143054962 2322.00002670288 6 12 8
-1021.92652225494 -735.48811674118 2325.99997520447 12 17 11
-1013.74793052673 -734.152674674988 2322.00002670288 9 14 7
-1025.9850025177 -747.678220272064 2365.00000953674 18 24 14
-1011.69407367706 -741.920471191406 2346.99988365173 16 22 12
-1023.63288402557 -755.447208881378 2390.00010490417 18 21 12
-1003.84831428528 -745.585203170776 2358.99996757507 19 22 13
-997.767806053162 -745.840013027191 2359.99989509583 19 22 13
-992.1053647995 -746.412873268127 2361.99998855591 16 19 12
-989.77392911911 -749.515473842621 2371.99997901917 14 17 10
-998.997449874878 -761.466503143311 2410.00008583069 14 17 10
-987.015187740326 -757.304847240448 2397.0000743866 13 16 9
-983.288168907166 -759.464025497437 2404.00004386902 13 16 9
-971.400618553162 -755.306839942932 2391.00003242493 14 17 10
-969.272375106812 -758.733153343201 2401.99995040894 14 17 10
-966.285407543182 -761.529147624969 2411.00001335144 22 23 18
-957.679510116577 -759.904861450195 2405.99989891052 19 20 15
-952.66181230545 -761.124968528748 2410.00008583069 20 21 16
-692.328751087189 -735.275566577911 2329.99992370605 12 17 10
-677.461206912994 -726.127624511719 2301.00011825562 18 24 14
-670.919299125671 -725.816190242767 2299.99995231628 18 24 14
-663.227796554565 -724.243402481079 2295.00007629395 16 22 12
-657.854080200195 -725.19588470459 2298.00009727478 19 22 13
-648.778438568115 -722.046554088593 2288.00010681152 22 25 16
-640.880882740021 -720.160186290741 2282.00006484985 23 26 17
-629.122674465179 -713.856220245361 2262.00008392334 17 20 11
-621.053755283356 -711.65531873703 2255.00011444092 10 13 4
-614.386737346649 -711.033046245575 2253.00002098084 10 11 3
-610.430598258972 -713.567197322845 2260.99991798401 13 14 6
-605.629801750183 -715.155363082886 2266.00003242493 14 17 6
-600.272953510284 -716.112852096558 2269.00005340576 17 20 11
-596.732914447784 -719.280123710632 2279.00004386902 18 21 12
-580.700814723969 -707.298457622528 2240.9999370575 17 20 11
-574.618816375732 -707.310497760773 2240.9999370575 14 17 8
-573.357403278351 -713.320076465607 2259.99999046326 16 17 9
-572.243750095367 -719.645798206329 2279.99997138977 20 21 13
-570.028781890869 -724.709808826447 2296.0000038147 25 26 20
-569.200336933136 -731.668293476105 2318.00007820129 22 23 17
-569.952368736267 -740.83685874939 2346.99988365173 21 22 16
-583.754360675812 -767.367660999298 2430.99999427795 23 24 18
-593.776524066925 -789.480447769165 2500.99992752075 25 26 21
-1024.19626712799 -743.470311164856 2331.00008964539 15 20 14
-1020.3675031662 -745.31090259552 2336.99989318848 26 32 22
-1019.54674720764 -749.385535717011 2349.99990463257 16 22 12
-1025.55584907532 -758.563458919525 2378.99994850159 14 20 8
-1015.13242721558 -755.626261234283 2369.99988555908 15 18 7
-1008.1672668457 -755.242049694061 2368.99995803833 16 19 10
-999.94295835495 -753.903746604919 2365.00000953674 17 20 11
