ply
format ascii 1.0
comment KinectMotionCapture
element vertex 778
property float x
property float y
property float z
property uchar red
property uchar green
property uchar blue
end_header
-162.949244700434 -362.530945287855 1732.67137511608 9 12 5
-188.098597721725 -366.206543993885 1726.30997135544 10 13 6
-180.282138292641 -365.019191430762 1737.00461263938 12 15 8
-168.676739486636 -363.273528596139 1749.57129208829 13 16 9
-161.773375099903 -362.221917126527 1759.67312707564 12 15 8
-116.109559112821 -355.455522739333 1789.23515894404 12 15 8
-50.5131956136702 -345.752107426829 1828.47320301245 21 24 17
-36.8718393329877 -343.709878755043 1841.46064830739 20 23 16
-39.3100876449246 -344.038424235988 1846.40963960454 15 18 11
-33.2187037135145 -343.109942327541 1855.5521409354 16 19 12
-34.704945273939 -343.298412543563 1860.95127432594 18 21 14
-34.292450751465 -343.207176427612 1867.27093450905 17 20 13
-51.9286792305584 -345.775311827087 1864.88731635251 16 19 12
-54.3768709455672 -346.105520072765 1869.8712467513 15 18 11
-53.0203569874823 -345.875190231269 1876.67008467369 16 19 12
-49.755083580252 -345.363937039029 1884.35300295623 16 19 12
-55.05950757834 -346.114850595738 1887.98606253133 17 18 10
-48.925480963171 -345.181155152987 1896.97446051026 17 18 10
-49.4609172013813 -345.229804588176 1902.82803599776 16 19 10
-43.3090920312189 -344.293877354445 1911.75176046642 15 18 9
-63.9088608732945 -347.296399641116 1908.4070475241 14 17 8
-78.7983977533826 -349.457762380492 1907.77127791292 14 17 8
-87.0071434449811 -350.635238997801 1910.22924396606 15 18 9
-80.8563729146887 -349.699260439254 1919.15691650965 14 20 10
-79.4877386110495 -349.467124454485 1925.91189426882 14 20 10
-77.1555454104411 -349.093172776698 1933.07522208464 14 20 10
-75.7777195179594 -348.859627140394 1939.79696325613 14 20 10
-85.9258620096583 -350.321686003917 1941.48228939339 17 20 13
-82.6252132863932 -349.805121248312 1949.03629048141 17 20 13
-138.016257912389 -357.920759009947 1931.35885910332 18 21 12
-138.596912558999 -357.974067653052 1937.37830912117 21 24 15
-158.450686973461 -360.86132305786 1935.23295893922 22 25 16
-150.363257291971 -359.639627578933 1944.94322310387 22 25 16
-183.762945370911 -364.517201430466 1937.2824110888 22 25 18
-194.029339459633 -365.993109981067 1939.39803826174 19 22 15
-144.320937020102 -366.095613776506 1649.56768450234 36 38 33
-154.3099985625 -367.555102125869 1650.66399714194 27 29 24
-169.911447926278 -369.85962642084 1648.6856429783 21 23 18
-181.7987393164 -371.604943557832 1648.85568387536 20 23 16
-175.007563840781 -370.539395293113 1659.38378228658 15 18 11
-175.687010300924 -370.598634758343 1665.7653535123 13 16 9
-163.25896906617 -368.686266484412 1679.2792923283 11 14 7
-139.567385283789 -365.080562964425 1698.80162016503 12 15 8
-163.653125433805 -368.662165226806 1692.44782411631 12 15 8
-157.748274941582 -367.733016780242 1702.28330836458 10 13 6
-178.124046127145 -370.756250099913 1698.09386016398 9 12 5
-189.131329725857 -372.370461578776 1698.97662726421 9 12 5
-190.7486338821 -372.572992277187 1704.85349333294 10 13 6
-144.366970382104 -365.561203732976 1735.80154748863 10 13 6
-179.855257813287 -370.855676679862 1723.94219707497 10 13 6
-177.69170056425 -370.491061706704 1731.7257424207 16 19 12
-169.862595751646 -369.275616333638 1742.39117020358 12 15 8
-166.739227276654 -368.767604417564 1750.59890731482 11 14 7
-146.603528302216 -365.704413295333 1767.39481402238 13 16 9
-81.9984904267397 -355.963021096604 1806.44111207054 20 23 16
-35.2705018815902 -348.908860538077 1836.12915166057 16 19 12
-26.3448279538974 -347.533046161173 1846.72173124119 15 18 11
-34.4605453401525 -348.716515844868 1848.83051772127 15 18 11
-32.1548553588284 -348.335231445652 1856.09687629224 15 18 11
-30.7924815508218 -348.095789989547 1862.87971033683 15 18 11
-37.9737842566485 -349.138908363411 1865.50412910258 15 18 11
-47.0648174834845 -350.468376905685 1867.24464669909 16 19 12
-58.0696578614179 -352.084905301644 1868.11687981927 16 19 12
-63.3774130354163 -352.846320381699 1871.75660630805 15 18 11
-60.1172544873771 -352.322256944796 1879.46660277814 15 18 11
-60.6635505646034 -352.369331821253 1885.36149281339 15 16 8
-55.484078376961 -351.557687210555 1893.91965838147 15 16 8
-59.8424505807087 -352.176673224919 1898.0207546158 14 17 8
-63.2495437081162 -352.652844717325 1902.5773531048 14 17 8
-62.8349943216253 -352.555933767882 1908.89203775083 14 17 8
-76.7715578630073 -354.610505565162 1908.68273652776 14 17 8
-85.9384844337963 -355.949625184756 1910.6998670732 13 16 7
-91.2835394223079 -356.715585240263 1914.47521100314 12 18 8
-76.4936261107803 -354.463874034638 1927.22686584319 13 19 9
-69.3579640840709 -353.359516837543 1936.49952611347 15 21 11
-61.2485356173469 -352.109462647634 1946.14694632821 15 21 11
-61.7763134106502 -352.153644828913 1951.97490790104 18 21 14
-90.1996226227837 -356.376303102413 1945.73378685177 16 19 12
-118.662979635653 -360.60388907315 1939.63917336991 17 20 11
-117.301415186547 -360.363848026703 1946.42539095542 22 25 16
-154.500408721462 -365.897863049649 1936.86907328221 24 27 18
-184.033573993209 -370.282672368189 1930.75086521353 24 27 18
-195.263152675337 -371.926117133973 1932.44051402285 24 27 20
-177.59972164752 -376.94622926776 1637.68691586958 31 33 28
-185.755145365947 -378.14699979405 1639.93220133248 24 26 21
-196.723811902524 -379.7791583781 1640.66025998707 22 25 18
-197.420768342788 -379.836956976288 1647.10775202514 18 21 14
-186.886358406462 -378.173954946996 1659.70136612715 15 18 11
-167.904442644573 -375.217564478068 1676.81729504187 12 15 8
-148.891247364364 -372.257780305118 1693.81830282023 12 15 8
-160.799450979225 -374.035735007094 1694.04631008163 11 14 7
-170.846226273237 -375.528470781902 1695.33591188549 10 13 6
-183.723960970064 -377.454592996648 1695.17373243615 9 12 5
-202.259941685394 -380.246984137521 1692.09188524417 11 14 7
-182.247258054866 -377.137423405776 1709.37379915727 12 15 8
-167.851008588604 -374.888667557067 1723.58518484113 11 14 7
-168.506645984991 -374.944640624643 1729.88134893456 12 15 8
-159.73123202936 -373.557545295034 1741.03800752176 15 18 11
-167.926763805668 -374.767922428552 1743.42614123371 11 14 7
-161.021560980135 -373.667986064195 1753.55258928933 11 14 7
-117.243150631651 -366.928176488493 1782.30347969261 12 15 8
-49.7494130079672 -356.563145423674 1822.70822485286 21 24 17
-22.8535788482216 -352.409670806738 1842.37045224667 17 20 13
-28.123169001373 -353.175791864867 1845.86457936249 16 19 12
-33.3983156266744 -353.942562693814 1849.37985536159 17 20 13
-35.8330787310555 -354.275210871919 1854.31331653796 16 19 12
-39.2189602788131 -354.75337001455 1858.78897666827 16 19 12
-39.7570351883152 -354.796208524426 1864.65694676165 16 19 12
-67.8695485356309 -359.052761275413 1857.24050238197 16 19 12
-62.7163136534654 -358.225723660097 1865.90580026019 16 19 12
-59.4576003389951 -357.688425567997 1873.62951826772 16 19 12
-43.8025863668749 -355.257819850671 1887.17848892381 15 18 11
-55.7803885636892 -357.048271988739 1887.65701185215 17 18 10
-55.3661831702485 -356.94591301627 1893.97641327349 17 18 10
-69.2768259323313 -359.030875922349 1893.65168592211 16 19 10
-68.8675605130553 -358.929037653231 1899.99002877699 16 19 10
-68.4555181745223 -358.826935985926 1906.31822777075 15 18 9
-71.8702049497573 -359.308946494561 1910.89840451414 14 17 8
-94.448920962765 -362.715407052591 1906.85253928526 13 16 7
-87.3371919070305 -361.590545102948 1916.22793263587 12 18 8
-77.3341234473106 -360.024742937725 1926.83662621048 13 19 9
-65.3936434607922 -358.163836446503 1938.23104469947 15 21 11
-56.3159116736984 -356.740101324072 1948.2883888782 15 21 11
-67.4169083224785 -358.393976616484 1949.49405251062 17 20 13
-93.9301569070938 -362.397659926265 1944.09306983271 18 21 14
-119.517586479454 -366.259162641871 1939.24171740857 19 22 13
-155.742908019895 -371.741297083791 1930.00035054405 20 23 14
-185.268398897348 -376.200539062534 1923.80572704594 21 24 15
-201.322401638911 -378.605400153588 1923.44333845309 21 24 15
-208.704126864879 -379.687880120771 1926.78796492746 25 28 21
-186.908415829335 -384.279914521555 1632.54849744038 57 59 56
-196.007134602772 -385.645285508214 1634.29581206374 24 26 21
-197.639110251657 -385.845238324794 1640.22877804875 24 26 21
-193.658021566937 -385.169872266135 1649.25394715865 23 26 19
-181.242511608517 -383.179113001731 1662.86297509267 22 25 18
-166.931557737682 -380.893720066596 1677.41417734325 18 21 14
-155.409059495148 -379.044538494513 1690.35400664782 16 19 10
-169.202828350979 -381.144463182336 1689.58590330346 14 17 10
-198.040763075203 -385.589924015144 1680.84721925986 13 16 9
-184.628883518428 -383.447438235381 1694.7499637439 13 16 9
-165.551125312865 -380.422882773602 1711.55215523536 14 17 10
-166.207664828367 -380.47526312647 1717.85393697224 15 18 11
-151.791680770079 -378.179167085384 1732.02194010295 13 16 9
-143.950083888796 -376.908438661878 1742.67589010714 11 14 7
-170.999711390214 -381.074025139485 1735.26783965123 11 14 7
-163.156093933301 -379.803525157476 1745.91414342813 10 13 6
-135.456904748067 -375.441377356404 1766.62080775164 7 10 3
-105.822133039803 -370.779375989829 1788.12391516575 11 14 7
-24.0956813084321 -358.008642189551 1835.65366802372 20 23 16
-20.8424722678942 -357.457820790352 1843.40543120719 17 20 13
-19.4774156677897 -357.201259034946 1850.18911343125 16 19 12
-28.5405838214468 -358.567890689594 1851.80363965133 17 20 13
-31.9207083091437 -359.04994754469 1856.25546413438 16 19 12
-36.2535413996639 -359.680305899037 1860.25455874671 16 19 12
-42.4917396064166 -360.60697239551 1863.34818637667 16 19 12
-61.1040783370265 -363.458104887701 1860.51275531559 16 19 12
-63.5581593408414 -363.795817830736 1865.51474243892 16 19 12
-51.7231130755131 -361.911578943011 1877.31534652392 15 18 11
-42.7281418389041 -360.469521459846 1887.69246120786 14 17 10
-52.8007040394263 -361.991985460166 1889.0590358962 17 18 10
-58.1118074846962 -362.774121555618 1892.6981116956 17 18 10
-63.4287182497371 -363.556871530216 1896.35836136396 17 20 11
-65.8827461176439 -363.894744489945 1901.35912115541 17 20 11
-60.681966801758 -363.043145212968 1909.86340281704 14 17 8
-62.1753705138273 -363.231750570863 1915.28904255139 13 16 7
-73.2534018571878 -364.908906922415 1916.39474206391 13 16 7
-86.2640687691414 -366.885814212106 1916.69405083763 12 18 8
-83.9339625845965 -366.480101325231 1923.88517969975 13 19 9
-72.9526327645025 -364.731328605757 1934.87361899089 15 21 11
-66.7594491164703 -363.726316922586 1943.68647481952 15 21 11
-76.9093639802656 -365.258080880239 1945.33530230217 17 20 13
-100.551134879069 -368.88314036594 1941.20201920777 18 21 14
-138.678330320367 -374.754811362994 1930.98243460054 18 21 12
-136.363707897068 -374.350427119291 1938.23021279769 20 23 14
-165.885684027139 -378.884589979239 1931.97523860918 20 23 14
-191.586654552991 -382.824846898191 1927.49572021077 21 24 15
-211.525644827336 -385.870186512865 1925.56695372041 16 19 12
-192.489029061576 -391.068451322865 1629.49976290548 80 82 79
-176.363973909269 -388.446124337863 1645.32092594102 21 23 20
-188.267269104119 -390.277869534396 1645.49674869865 23 25 20
-186.147808049637 -389.882134976641 1653.46366184873 23 26 19
-168.099813189639 -386.957553419467 1670.13065316273 23 26 19
-162.207447581814 -385.964457352822 1680.05286451941 21 24 15
-164.746032544602 -386.310499440951 1685.36333969391 19 22 13
-171.041355417281 -387.253239242139 1688.65798314667 16 19 12
-176.404244406716 -388.04812326269 1692.48128014932 15 18 11
-175.191476652862 -387.799758550662 1699.82520582764 13 16 9
-156.096768258012 -384.715079091947 1716.60335275506 13 16 9
-149.212192766098 -383.568419808811 1726.83495544 13 16 9
-135.718045084067 -381.374249840941 1740.46488518974 10 13 6
-150.493326446948 -383.663759865047 1739.32493077217 10 13 6
-153.963335203515 -384.160429231679 1744.10125235389 10 13 6
-153.658055273735 -384.058890825636 1750.82548363281 14 17 10
-133.500241071066 -380.811177822015 1767.65577828848 11 14 7
-40.4717267062462 -366.017486696945 1821.25900876285 23 26 19
-27.7660614206419 -363.954993069408 1833.83696517998 16 19 12
-26.4075989706079 -363.690817833098 1840.64993694411 13 16 9
-25.9929228431861 -363.576511677547 1846.9760624709 13 16 9
-33.1660905611717 -364.663978053241 1849.5422786145 14 17 10
-31.802080907791 -364.399681152711 1856.33473151225 14 17 10
-31.3842432751485 -364.28523328181 1862.64827943894 15 18 11
-34.7671814834925 -364.772648371192 1867.10809682917 15 18 11
-52.4286583049431 -367.519942002176 1864.70418066844 15 18 11
-48.2091375087417 -366.803944873488 1872.86975041039 15 18 11
-43.9810946589763 -366.087019893132 1881.0042652347 15 18 11
-46.4213046674811 -366.425208176496 1885.95445196609 14 17 10
-50.7722309498315 -367.065688627786 1890.0143324914 15 16 8
-48.4406640133073 -366.649177780937 1897.20685513437 16 19 10
-53.7512448668651 -367.441247022411 1900.83771938478 17 20 11
-61.9377592435382 -368.687782807105 1903.16954457983 16 19 10
-56.730528048492 -367.816894325226 1911.66204987285 12 15 6
-61.0947290643071 -368.458967832147 1915.77021110981 10 13 4
-80.8050832991345 -371.526041720327 1912.97884193368 13 16 7
-92.8660184639991 -373.38347063182 1913.72373565031 12 18 8
-98.2207973977869 -374.180940434029 1917.51528907871 13 19 9
-87.2442184726197 -372.398577239742 1928.54257477887 15 21 11
-84.9046752641254 -371.980797298825 1935.70628432688 15 21 11
-94.1089072150461 -373.385918844961 1937.81932325341 17 20 13
-118.735133639519 -377.225396993298 1933.3094374749 17 20 13
-126.046107581983 -378.330361039899 1936.3762540073 17 20 11
-124.684278233353 -378.065969704133 1943.17686157072 19 22 13
-130.075433965119 -378.867415599159 1947.10096462349 20 23 14
-171.811334920277 -385.352317600299 1942.09999358068 15 18 11
-167.921229637915 -392.943980313966 1650.10188032939 21 23 20
-166.723746822333 -392.68628509647 1657.50751775793 22 24 19
-164.585288880298 -392.277153910171 1665.41328614027 23 26 19
-171.811606519192 -393.381800721192 1668.16599069564 23 26 19
-168.731443947122 -392.821532148947 1676.56620595084 23 26 17
-173.151762349537 -393.473446362869 1680.8765071383 22 25 16
-179.454623009832 -394.429600391657 1684.19159690055 21 24 15
-174.486079105453 -393.565867983358 1693.56578335214 15 18 11
-172.329410908593 -393.156818676081 1701.40295991079 12 15 8
-170.167041775171 -392.74739885899 1709.21920392983 11 14 7
-156.694358152281 -390.513310782725 1722.95402772823 10 13 6
-147.912486311133 -389.037266418037 1734.14379623892 9 12 5
-149.493324304009 -389.233731097851 1739.88910035683 12 15 8
-152.962692645025 -389.735063241629 1744.66010036774 14 17 10
-161.159454440508 -390.998901015748 1747.01904865004 17 20 13
-126.813050087942 -385.403148715339 1771.10083991168 17 20 13
-64.0215792541445 -375.223981419796 1809.36430444591 22 25 18
-29.5445710469795 -369.61232253873 1832.97216079791 15 18 11
-13.0212662423144 -366.896047650484 1847.37401471694 13 16 9
-34.4104895845057 -370.289672054037 1842.81714981827 13 16 9
-42.5409304413393 -371.546359377868 1844.9343758739 14 17 10
-42.1319971557639 -371.427287369517 1851.28483235686 14 17 10
-28.4114481340478 -369.164814116647 1864.11637240174 15 18 11
-42.2572602570643 -371.341759905008 1863.49379743997 16 19 12
-58.0262915585132 -373.827924555147 1862.02203493196 16 19 12
-57.6190714041551 -373.709570576536 1868.37839860898 16 19 12
-57.2092610969359 -373.590852130354 1874.72444663932 15 18 11
-59.6591703180784 -373.932588364707 1879.70840465572 14 17 10
-56.3810430937715 -373.352659109677 1887.38602868304 16 17 9
-58.8296501896928 -373.694244746744 1892.36524724295 17 18 10
-69.8873350706246 -375.420402253583 1893.36446756406 17 20 11
-78.0880828197308 -376.686665080585 1895.7366838595 16 19 10
-77.6784822252781 -376.568209091371 1902.08427383316 13 16 7
-74.3906561409933 -375.987158114737 1909.72659609061 12 15 6
-77.8105150226112 -376.484381701289 1914.31637111031 13 16 7
-94.6727012553112 -379.141683676234 1912.89984010001 12 18 8
-96.1870093566644 -379.332186833615 1918.40189556337 13 19 9
-90.0101728146421 -378.286954072836 1927.30083847546 15 21 11
-93.4432098339468 -378.785644010444 1931.93861556026 15 21 11
-108.433237039477 -381.140253641392 1931.55486988364 16 19 12
-125.370636765553 -383.806651660264 1930.41092004434 16 19 12
-129.795372672347 -384.463293727481 1934.7346376407 16 19 10
-120.71428191226 -382.951776704216 1944.8358605303 18 21 12
-132.863597774009 -384.847956746941 1945.88349999419 20 23 14
-135.364164868574 -385.195147452638 1951.05209709828 23 26 17
-284.873884856556 -409.128458612893 1894.86239073636 23 26 17
-144.506294292003 -394.928364843755 1663.22481123256 28 30 25
-152.648733195384 -396.198628510982 1665.37801229097 22 24 19
-175.788654031459 -399.934266637553 1659.31164470863 22 25 18
-187.712332698412 -401.825558015671 1659.52555296136 22 25 18
-186.517817777775 -401.560992387714 1666.94747624214 22 25 16
-188.135625038949 -401.759133260295 1672.82898174709 23 26 17
-193.51173444569 -402.574898030527 1676.68818055584 23 26 17
-188.550434806283 -401.69322937923 1686.10058754829 19 22 15
-179.815113457904 -400.192638681806 1697.47775716196 16 19 12
-174.83094440388 -399.308844966026 1706.80659615468 14 17 10
-167.009431223826 -397.960086267215 1717.58437723612 15 18 11
-152.571501849868 -395.52639430885 1731.75777256985 17 20 13
-148.491862258356 -394.793474995796 1740.45337759016 15 18 11
-155.738941266264 -395.91918150849 1743.26986904642 13 16 9
-151.650802987572 -395.185799177367 1751.9342124323 10 13 6
-41.5984425053866 -377.077015843139 1814.56355558129 18 21 14
-26.9987329894532 -374.624555436827 1828.1481423714 12 15 8
-47.4309228515049 -377.915533497201 1823.99912564618 11 14 7
-49.8763123732826 -378.257844567254 1828.96593998351 10 13 6
-60.8633675085284 -379.999921977976 1829.69287490805 10 13 6
-71.8648208377388 -381.743895677333 1830.47207028744 11 14 7
-46.7680525534036 -377.57449776651 1849.02943098996 10 13 6
-64.4284092519329 -380.409185075418 1846.56710926174 9 12 5
-77.3542525467694 -382.467899592809 1846.49983576918 11 14 7
-71.2478807087042 -381.410136057562 1855.66831159137 12 15 8
-67.9895090734923 -380.81915473487 1863.42719096845 12 15 8
-65.6780901829694 -380.383369478393 1870.70668821052 11 14 7
-60.4970900112374 -379.478428719694 1879.31808297689 10 13 6
-74.4132087951055 -381.698158524623 1878.92860225633 14 15 7
-82.6115653244224 -382.981936844823 1881.2808820559 14 15 7
-80.2954161725013 -382.545893341962 1888.54297980775 12 15 6
-92.3360901842218 -384.457532250753 1889.17842247947 12 15 6
-98.6434527217863 -385.431298660046 1892.49817827215 12 15 6
-86.738066324016 -383.427724273942 1904.11296541807 12 15 6
-94.965461039326 -384.715149837381 1906.57075563246 13 16 7
-93.5992020183476 -384.434707027581 1913.36505075104 12 18 8
-91.2676653703191 -383.996479519165 1920.57139661248 13 19 9
-83.1595334435047 -382.614976295325 1930.30569164187 15 21 11
-85.6248585971828 -382.960632815903 1935.34441093084 15 21 11
-91.9446641894224 -383.935672164499 1938.71049070201 16 19 12
-118.515170634476 -388.216497660421 1933.34712216992 16 19 12
-130.65290322449 -390.139816872726 1934.33462096521 16 19 10
-136.048473550589 -390.962164875132 1938.26191804514 18 21 12
-120.195105051832 -388.316841171076 1951.21092793896 20 23 14
-198.099474021689 -400.9686715751 1924.6352708008 22 25 16
-139.783796374631 -399.904205106972 1665.92939734668 22 25 18
-161.034284169559 -403.383741738934 1660.803194069 21 24 17
-181.377846256524 -406.71085596972 1656.3023052992 23 26 17
-201.750103087615 -410.041808788558 1651.90553100679 23 26 17
-180.854986714194 -406.476612027805 1670.09513021777 21 24 15
-193.739048333452 -408.556308727286 1669.85855347894 22 25 16
-191.600381108249 -408.126704032454 1677.77647073537 24 27 18
-194.159834165729 -408.482084450338 1683.15760030037 22 25 16
-187.306391249602 -407.266362817045 1693.54932351232 20 23 14
-180.440079866603 -406.049326180464 1703.89409885315 16 19 10
-170.73254806135 -404.359128413819 1715.67766995022 16 19 10
-166.669084559889 -403.61161652376 1724.44254661166 16 19 10
-167.318386600414 -403.651086649905 1730.72560786375 17 20 11
-166.076626281123 -403.375446378201 1737.97818116697 10 13 4
-61.3649699254715 -385.781875876697 1804.5250230178 18 21 12
-41.0897785829454 -382.338045811798 1821.04333740411 9 12 3
-47.3219094849331 -383.313631927615 1824.08355303395 9 12 5
-50.7157026278704 -383.816043709397 1828.57327551982 11 14 7
-84.489942519371 -389.379750963952 1817.97359187925 10 13 6
-85.0624680104062 -389.41143192308 1823.97558550067 8 11 4
-80.8797980421132 -388.65140407036 1832.30577383819 11 14 7
-96.6692822531909 -391.217225638398 1830.85965776711 13 16 9
-96.2932318069107 -391.091269911564 1837.33654780699 10 13 6
-80.6683493514053 -388.427595666442 1851.14453814581 10 13 6
-70.7391662833028 -386.712809756217 1862.12161423555 10 13 6
-64.6102927650789 -385.631127989441 1871.22164644877 10 13 6
-84.2558489627834 -388.837383675331 1868.10275178256 11 14 7
-92.4600000377995 -390.139790375524 1870.46385558819 8 11 4
-102.58686948802 -391.761604080222 1871.9702672709 9 12 5
-91.6686011735997 -389.88396934548 1883.27419830331 11 14 7
-86.4792374432888 -388.959402753815 1891.8669315394 11 14 7
-86.0731710934495 -388.830257232714 1898.23346325894 11 14 7
-90.4608978325219 -389.497696033953 1902.41295657649 12 15 8
-91.0125717615608 -389.527781272367 1908.33946891203 13 16 9
-84.8376535127935 -388.440485370524 1917.27209053624 16 19 12
-78.6511027353809 -387.351793479298 1926.16333323863 17 20 13
-81.1133566971098 -387.699456086329 1931.18845423336 18 21 14
-85.5028325428364 -388.366923881304 1935.37442333598 18 21 14
-93.7512534609697 -389.674746579027 1937.89740203764 15 18 11
-116.475177162895 -393.384182990342 1934.2003104275 14 17 10
-180.729685798893 -403.98283856834 1912.79386573935 14 17 10
-84.7538968043562 -387.997687208699 1960.10391818889 17 20 13
-75.6203194547096 -386.421517587412 1970.05015790183 23 26 19
-131.27602517005 -395.58965225657 1952.6908698278 25 27 22
-154.714079796416 -408.190742794665 1657.68240549158 19 22 15
-177.857460884455 -412.045317759542 1651.55379465331 17 20 11
-189.783774850155 -413.992709123796 1651.7411396369 21 24 15
-194.219870592328 -414.667243968132 1656.09573751277 22 25 16
-189.270580319204 -413.747863547565 1665.57747118784 21 24 15
-177.733841929173 -411.710731269821 1678.58216282945 22 25 18
-180.282707023847 -412.066453966644 1683.92469428924 24 27 18
-191.30321461992 -413.860512591679 1684.74208440435 23 26 17
-188.210508847831 -413.259114959274 1693.12262497424 22 25 16
-185.110665855602 -412.657180703684 1701.47700524039 18 21 12
-173.514608662843 -410.614805369157 1714.26476798521 16 19 10
-178.889838633206 -411.451899760786 1718.10723521273 12 15 6
-183.326234942064 -412.129877584475 1722.46077531687 11 14 5
-171.695171897178 -410.084031312238 1735.12075956208 14 17 8
-41.3802913250674 -387.854590394726 1814.74277643753 12 15 6
-46.6639883732685 -388.681733977024 1818.2516822851 9 12 3
-46.2640389039151 -388.546132870707 1824.64500050156 8 11 4
-61.9937993340403 -391.142544612664 1822.95875772545 10 13 6
-75.8458690747679 -393.420258385141 1822.29486741937 11 14 7
-84.0140464983468 -394.73509064532 1824.51549228227 13 16 9
-74.1208690453981 -392.992517010759 1835.6428648561 11 14 7
-79.4400391632992 -393.825207390644 1839.27997330132 10 13 6
-75.2392803018425 -393.047143942005 1847.55438785494 11 14 7
-64.3569627461147 -391.139296086965 1859.0108719907 11 14 7
-59.1801603692488 -390.197292667354 1867.66125177051 11 14 7
-51.1291705784858 -388.769888563781 1877.63668376401 11 14 7
-65.9944624524929 -391.217344126378 1876.73120218822 12 15 8
-96.1784871707234 -396.253227050577 1868.72120448211 11 14 7
-100.569973297508 -396.928494742365 1872.90971291778 12 15 8
-89.6442919739755 -395.01568941736 1884.20832576976 13 16 9
-68.1586442891873 -391.319807053817 1900.28790601076 12 15 8
-77.3276531894029 -392.802940925722 1902.22091575507 12 15 8
-95.1457515003709 -395.745987416528 1900.27584540254 13 16 9
-91.8580230810684 -395.124691694964 1907.94486771854 14 17 10
-78.9515906013847 -392.880113614783 1919.89144446202 16 19 12
-76.6042868082617 -392.418407296147 1927.05500231815 17 20 13
-79.0647250911283 -392.76822833305 1932.0720193335 17 20 13
-87.3064872928442 -394.093188499459 1934.55945582561 17 20 13
-90.7379715595042 -394.606205355712 1939.18335160026 18 21 14
-106.714655283131 -397.234633856658 1938.39274388924 17 20 13
-142.022677663026 -403.12128506589 1929.38655470145 17 20 13
-150.327104448103 -404.453781536366 1932.10189448179 19 22 15
-80.3207531503198 -392.587560773056 1968.02281952315 23 25 20
-96.3285290980043 -395.219527478632 1967.34541730896 25 27 22
-165.910655929696 -415.910902204875 1651.51575339217 15 18 11
-187.196710919417 -419.50321094989 1646.45040572929 16 19 12
-173.809922947389 -417.106566678751 1660.60677271576 20 23 14
-179.172910515754 -417.948830544485 1664.40052256878 21 24 15
-171.390774556038 -416.522251138397 1675.37363547222 22 25 16
-179.575459342877 -417.852336594879 1677.64591886992 22 25 18
-173.658552170363 -416.749245510652 1687.54645730273 23 26 17
-182.794034762083 -418.243701596495 1689.34877120392 23 26 17
-185.34574710719 -418.602577008358 1694.69895446479 22 25 16
-183.18411974721 -418.148993922373 1702.54583491924 19 22 13
-186.678529992176 -418.671079240598 1707.39763716604 17 20 11
-178.843566611616 -417.240758501606 1718.17697429152 13 16 7
-181.390179803325 -417.600379935054 1723.50868341876 12 15 6
-173.534491646084 -416.16806663688 1734.21233150792 13 16 7
-50.1889296934241 -394.845181405968 1804.06804014054 15 18 9
-42.2171907666518 -393.399215191014 1814.34943420469 15 18 9
-42.7628213430287 -393.420564819519 1820.25809494054 15 18 9
-53.7423846608591 -395.238085172148 1820.90958349134 13 16 9
-72.3313605109248 -398.364725726681 1817.81439828877 11 14 7
-88.0960916222784 -401.004340481474 1816.22978965489 13 16 9
-80.1117096261219 -399.557836294713 1826.46458212762 15 18 11
-71.1615577657581 -397.946096381067 1837.11430195231 14 17 10
-62.1954575822314 -396.332519101241 1847.70689781821 12 15 8
-59.8846673143132 -395.863937469259 1855.00943492739 12 15 8
-61.3829133142345 -396.050503374149 1860.45434073133 12 15 8
-48.5649831909223 -393.77700255471 1872.74869870397 11 14 7
-48.1424754768289 -393.634228929487 1879.06279093195 12 15 8
-62.0547017268467 -395.95390653823 1878.59575618513 12 15 8
-90.3339218232766 -400.740170762242 1871.46475822045 12 15 8
-90.8924865569123 -400.764922581684 1877.41929298193 14 17 10
-79.9536373025318 -398.816165548181 1888.69171391416 15 18 11
-72.8309880547773 -397.523269040936 1898.13265095504 13 16 9
-84.8843347508392 -399.521456371995 1898.75957365449 13 16 9
-89.272195559845 -400.203814409044 1902.93014552297 14 17 10
-77.3295238646332 -398.084965683985 1914.48020687264 14 17 10
-59.5975031298763 -394.974221691848 1928.54063199337 16 19 12
-64.932004399846 -395.81960304474 1932.22664958543 17 20 13
-85.6808740783999 -399.307096952549 1929.12840411047 17 20 13
-109.349474217638 -403.293411023956 1924.86665549391 16 19 12
-115.690867577286 -404.309188459288 1928.28716651909 18 21 14
-104.666529448533 -402.349677714499 1939.24897334649 17 20 13
-124.532101722926 -405.681712450038 1936.86661592121 17 20 13
-132.82564585344 -407.030742336863 1939.53111220455 18 21 14
-107.273050772845 -402.584261101258 1956.57101325797 20 23 16
-102.977109930728 -401.77832159371 1964.50963525683 23 25 20
-170.557591889882 -422.539185808587 1648.99795400575 14 16 11
-183.41671089894 -424.706113347064 1648.61369725871 17 20 13
-187.847856040442 -425.393831168811 1652.94252050529 16 19 10
-174.441994734784 -422.952746599437 1667.05520019759 18 21 12
-162.89236789587 -420.838976765145 1680.06135351825 21 24 17
-173.894132701855 -422.680842761759 1680.77990127809 22 25 18
-173.616177155724 -422.545198095237 1687.62618652294 20 23 14
-182.754160766597 -424.060103908351 1689.42487533082 20 23 14
-179.649805736283 -423.429912806279 1697.779414155 21 24 15
-174.651513860272 -422.468696205131 1707.10469863436 21 24 15
-182.859954132581 -423.821342975714 1709.45093746104 20 23 14
-171.238092365439 -421.701471700552 1722.1927487812 20 23 14
-176.615381631553 -422.559015361271 1726.02902214975 18 21 12
-139.41884033753 -415.965317059957 1751.84968361905 11 14 5
-84.1722024927409 -406.21673440978 1786.68043554912 16 19 10
-42.1064695712781 -398.778681485379 1814.43835509164 22 25 16
-44.5475301603231 -399.128405888875 1819.38441655954 26 29 20
-54.5828041386889 -400.806223636278 1820.51446516426 23 26 19
-68.4301585184997 -403.149996707338 1819.79136126441 17 20 13
-76.5931077775672 -404.499577338016 1821.97063667514 14 17 10
-77.1564339645931 -404.520720662875 1827.94512799441 15 18 11
-71.0545986350826 -403.377763604135 1837.18516273702 16 19 12
-59.2255612399859 -401.235195156342 1849.17117233999 15 18 11
-58.8168696427216 -401.0880766324 1855.54023326597 14 17 10
-60.3136471531336 -401.273952801587 1860.98012231919 13 16 9
-59.9009979400611 -401.126658254526 1867.33367150263 13 16 9
-59.4853200122305 -400.979078324928 1873.67708485988 13 16 9
-72.4544354264371 -403.167045858023 1873.6879396553 13 16 9
-83.5268007696115 -405.023431462899 1874.65944645185 14 17 10
-90.7828971313913 -406.213492846714 1877.46878727908 15 18 11
-80.7963954252711 -404.396763197657 1888.29741243988 15 18 11
-83.2612143878144 -404.751430498743 1893.32856340529 14 17 10
-89.5670634436922 -405.775625228485 1896.61086213552 13 16 9
-90.1167973567914 -405.796467399661 1902.53507813838 14 17 10
-75.284629184166 -403.137591169396 1915.3878406646 14 17 10
-60.4283404926012 -400.475744844383 1928.15199457133 16 19 12
-68.6525130254478 -401.834312543541 1930.55290603361 17 20 13
-89.4112450280677 -405.37471290552 1927.45880409197 17 20 13
-119.840340853928 -410.596923481229 1920.24014082857 16 19 12
-124.261283336686 -411.290790509655 1924.52627229321 16 19 12
-125.789845024937 -411.481093640916 1930.08137481712 16 19 12
-110.891341056187 -408.813678848538 1942.69323633492 16 19 12
-120.14400952823 -410.347849106765 1944.90463597005 17 20 13
-136.182042162221 -413.061191386995 1944.2891236467 18 21 14
-149.336532879875 -415.272042659809 1944.97379301597 20 22 17
-146.151801772727 -424.008322285192 1662.66458539952 14 16 11
-188.074507226269 -431.388162659693 1646.10227543299 17 20 13
-181.245206246852 -430.0757594295 1656.64467262318 14 17 10
-175.342649235683 -428.929790122442 1666.62556145769 15 18 11
-159.086739288399 -425.940538917244 1682.19347205274 19 22 15
-168.207136140449 -427.472878009021 1683.91585821252 20 23 16
-178.280768342357 -429.174657118152 1685.17319543385 21 24 15
-171.405675518432 -427.859095189021 1695.54757071749 20 23 14
-160.745665899456 -425.871130321405 1707.88002233879 20 23 14
-168.941816265277 -427.239512322276 1710.17069675078 20 23 14
-169.592495876628 -427.26550176505 1716.46645462861 21 24 15
-163.625568469347 -426.115091552684 1726.21115255374 22 25 16
-172.781288471425 -427.654404262968 1728.06028386877 19 22 13
-182.89527081588 -429.363738387402 1729.4626634198 15 18 9
-112.499532924069 -416.765082677913 1772.19293420528 15 18 9
-61.9036652222451 -407.690599463206 1804.38296211221 18 21 12
-62.4620884129992 -407.707189850787 1810.34212405353 24 27 18
-63.0188727704448 -407.723713368959 1816.29617256833 25 28 21
-57.8733161093241 -406.72825047403 1825.09631308078 22 25 18
-54.6196840066404 -406.069356986619 1832.91473657627 19 22 15
-83.7141570743212 -411.151670339914 1824.72645377999 16 19 12
-76.6610992892645 -409.818414193807 1834.45125124543 15 18 11
-67.6889910784564 -408.145797996496 1845.05881456535 15 18 11
-62.5164070415618 -407.147786914501 1853.76021652068 18 21 14
-61.1518055801734 -406.825712939648 1860.58694957134 17 20 13
-60.7383049267585 -406.672601046136 1866.94101029167 16 19 12
-63.18959633586 -407.027552342739 1871.92175680258 16 19 12
-68.5123210104202 -407.891154481505 1875.55254655369 16 19 12
-69.0541477367599 -407.907731696114 1881.45009739219 16 19 12
-75.3431132300499 -408.942277999676 1884.66317532182 17 20 13
-81.639088210284 -409.97769988887 1887.90265432623 16 19 12
-85.0639458017857 -410.504558097958 1892.49227882673 14 17 10
-81.7699141668382 -409.842270200588 1900.16377885228 13 16 9
-81.3518439290282 -409.689091942976 1906.50091550018 13 16 9
-78.0457282546037 -409.025290933287 1914.12850515546 15 18 11
-68.9583545509271 -407.339394335283 1924.31556581904 15 18 11
-75.2647020265616 -408.376189154569 1927.59268906973 16 19 12
-86.3975176343854 -410.266023143501 1928.76751829234 16 19 12
-112.01289345671 -414.714769100588 1923.6482411544 15 18 11
-108.706333005234 -414.050743351026 1931.27432132865 14 17 10
-104.426977970453 -413.215347785313 1939.29219117 14 17 10
-109.805745810298 -414.086182559231 1943.12649190245 15 18 11
-112.288041378608 -414.44506624009 1948.21986807829 16 19 12
-124.453102558465 -416.513369777515 1949.21822608105 17 20 13
-146.322667952965 -420.293946810856 1946.19954642238 19 21 16
-185.228285218154 -436.733422323083 1647.74630439715 15 18 11
-176.514209399738 -435.055931257393 1659.31496915373 12 15 8
-167.784586896739 -433.37715490047 1670.82579456062 12 15 8
-171.266259526443 -433.908800431339 1675.62426872067 17 20 13
-171.927166342829 -433.930658193107 1681.9606067334 18 21 14
-172.58666908157 -433.952873463839 1688.29150596859 22 25 16
-161.932175518677 -431.930424587402 1700.66620902292 21 24 15
-156.919662901649 -430.929090867338 1709.9640225268 20 23 14
-154.729556209769 -430.438651728766 1717.72843378588 20 23 14
-165.761724635781 -432.337236905858 1718.52405470666 21 24 15
-161.679023475505 -431.50587616809 1727.2704434843 22 25 16
-176.513592708879 -434.090670741642 1726.16418610358 17 20 11
-184.739218432333 -435.48169792445 1728.54999975906 18 21 12
-177.81127887763 -434.138130543154 1738.74584666539 16 19 10
-131.035997750932 -425.606959210864 1769.1908054493 13 16 7
-90.8317296254619 -418.265457248491 1796.00545192822 21 24 15
-67.6620913316024 -413.999531487703 1813.98617044082 27 30 23
-38.7516122189031 -408.700999166006 1834.68398624276 27 30 23
-50.7016757050003 -410.769623294473 1834.8838975426 24 27 20
-61.7155967428631 -412.668870856943 1835.61135129213 16 19 12
-61.3110997553021 -412.510503745291 1842.00215872872 15 18 11
-66.6243798225206 -413.382256191266 1845.59273682658 15 18 11
-63.3557531424445 -412.70858043783 1853.36575016648 19 22 15
-62.9449592430764 -412.550004954428 1859.73330995871 18 21 14
-67.3092915285316 -413.251073132804 1863.80471242697 17 20 13
-68.8089687419851 -413.436533703995 1869.25562989608 16 19 12
-77.0080223154257 -414.827318238283 1871.54293956213 16 19 12
-72.7661977056893 -413.980211332902 1879.70847546518 16 19 12
-80.0176955831988 -415.200183769294 1882.48185874885 17 20 13
-81.522620447255 -415.386713388652 1887.95158477508 16 19 12
-87.8270526501241 -416.435937537617 1891.2137497653 14 17 10
-75.88682273422 -414.20651036715 1902.84176138205 12 15 8
-79.3082658345572 -414.737941583263 1907.41582138884 13 16 9
-85.6186107925239 -415.78796510468 1910.69943459795 15 18 11
-90.0107526987863 -416.493173866941 1914.87147458983 15 18 11
-79.9545766913683 -414.604496403844 1925.48683680897 16 19 12
-81.4519826915778 -414.79027196183 1930.92912284228 16 19 12
-65.5806271799646 -411.859516664538 1943.99062802565 14 17 10
-85.4127744904618 -415.335105476501 1941.39353773184 13 16 9
-85.9445233027141 -415.347578180909 1947.25719164591 14 17 10
-102.915657700304 -418.307749554 1946.05301891351 15 18 11
-129.587910973311 -423.005747140103 1940.80403579326 17 20 13
-146.612257631755 -425.972477141736 1939.79328898137 18 21 14
-166.567367556454 -429.462922624607 1937.64335504982 19 21 16
-170.174039041173 -439.814929928599 1656.15035697831 15 17 12
-169.899410318401 -439.659740619484 1663.02133353041 15 18 11
-173.382601366685 -440.195605410709 1667.82278146094 14 17 10
-179.69178685616 -441.250859971496 1671.09785816388 14 17 10
-174.707968035721 -440.232626594032 1680.51287566964 13 16 9
-159.347634300666 -437.310723891144 1695.46704450965 13 16 7
-142.075420878303 -434.040058679769 1711.33560994735 14 17 8
-149.314086109894 -435.268598309317 1714.0559392546 18 21 12
-149.004895506818 -435.112480502102 1720.80010954668 20 23 14
-162.871866279105 -437.556494113142 1720.08655083809 21 24 15
-167.297728070289 -438.268895433058 1724.3792451494 21 24 15
-167.941208496579 -438.28816008181 1730.65251954699 20 23 14
-188.478831191453 -441.9530073761 1726.65891280376 17 20 11
-206.200750720859 -445.100687796327 1724.22755433551 16 19 10
-179.351439755618 -440.084646594798 1744.60616359529 16 19 10
-127.770507551261 -430.543581737731 1777.3297356791 16 19 10
-72.308234978236 -420.297126376858 1811.67420889207 19 22 15
-47.1916893552469 -415.609305514273 1830.48637434688 26 29 22
-53.4417934753346 -416.662752695944 1833.54323458947 28 31 24
-44.4599558308312 -414.92991621877 1844.15269436113 22 25 18
-54.5255443500898 -416.681137332408 1845.34895187197 18 21 14
-60.7886968802924 -417.73678682463 1848.45286788031 17 20 13
-65.1497820087725 -418.444469186897 1852.5080384417 18 21 14
-64.7386503653571 -418.280142905646 1858.87890403168 19 22 15
-64.3246767735788 -418.115430172476 1865.23946200992 19 22 15
-70.6052269708479 -419.173842754937 1868.4062276757 18 21 14
-74.020631115459 -419.708792482501 1872.95564481955 16 19 12
-73.606095958751 -419.544419166308 1879.31390352715 17 20 13
-79.9009049335968 -420.604834583052 1882.53327377722 18 21 14
-73.7283525561172 -419.390264105513 1891.55503392201 18 21 14
-82.9092754368887 -420.977029545286 1893.46777941677 16 19 12
-84.4135238218788 -421.16313432809 1898.93526202838 15 18 11
-86.8797550738392 -421.524716498678 1903.96636183848 16 19 12
-98.0095366430738 -423.465438378404 1905.09779832024 17 20 13
-97.595372086142 -423.301570055087 1911.45711416611 18 21 14
-93.3228240227662 -422.434966303756 1919.52088919529 19 22 15
-78.4309390170246 -419.634522919249 1932.24038389189 17 20 13
-93.4401707461316 -422.280647756273 1931.74389340722 16 19 12
-90.1146312639973 -421.5875584762 1939.31692832959 15 18 11
-94.5160734567918 -422.301294728032 1943.51811465206 14 17 10
-107.629368872341 -424.600154389014 1943.99427004968 18 21 14
-132.378331600384 -429.014912600208 1939.57687839526 17 20 13
-166.851064583136 -435.196227180194 1931.18063776844 16 19 12
-145.133288118466 -431.156360454253 1946.61554306437 20 22 17
-162.620123631974 -444.208697836832 1660.39889605385 15 17 12
-170.797428186768 -445.624406026176 1662.58972038533 15 18 11
-179.925353336401 -447.217230722986 1664.30187019397 14 17 10
-190.006263947637 -448.987322766068 1665.54310151233 13 15 10
-184.084581710998 -447.774912436782 1675.49585853882 13 15 10
-156.467366911507 -442.52166728226 1697.06946990948 10 13 4
-155.223940932675 -442.184204762126 1704.35581929901 11 14 5
-159.641630835409 -442.901668667419 1708.61497673877 15 18 9
-160.283893035124 -442.91628664336 1714.88666176581 18 21 12
-159.033353841796 -442.579272305131 1722.14631822548 20 23 14
-161.563996964604 -442.946347109959 1727.41402794844 21 24 15
-171.672989657543 -444.723268502567 1728.75521083845 21 24 15
-193.168545833302 -448.617374635032 1724.27716094707 17 20 11
-207.106091064525 -451.104614736651 1723.79834042908 16 19 10
-190.68634120829 -447.948705955121 1738.86316442301 17 20 11
-152.390433961275 -440.730090156021 1764.89202713372 18 21 12
-73.1548829212336 -425.910349785585 1811.27375136161 17 20 13
-71.8120917380936 -425.564687867743 1818.19635389307 23 26 19
-44.7580112997903 -420.445824092402 1837.87961102337 26 29 22
-43.3873426451135 -420.097169071303 1844.70059965556 25 28 21
-52.5013801342786 -421.694741894276 1846.35818958449 21 24 17
-64.0793880888504 -423.654848510876 1853.03788466119 18 21 14
-60.7990723835901 -422.952836819687 1860.78445974676 19 22 15
-65.1626420310825 -423.668381063813 1864.84482028216 18 21 14
-71.4451675479126 -424.73967294239 1868.01078860899 17 20 13
-80.6082577716523 -426.344247586236 1869.84608114417 16 19 12
-73.4874526086999 -424.931691949581 1879.36848239807 18 21 14
-53.8828414438377 -421.208122847349 1894.6568217533 20 23 16
-82.2468374911773 -426.368004590318 1887.60469773636 19 22 15
-89.5153490108171 -427.620676461638 1890.42060462731 18 21 14
-91.9854516329037 -427.984901498536 1895.46440950849 18 21 14
-86.7594443656272 -426.925089851598 1904.00740814399 18 21 14
-76.709424996154 -424.973747561877 1914.68426302164 19 22 15
-91.6953828510461 -427.653169123278 1914.0803393949 20 23 16
-90.3082806133404 -427.304346468067 1920.8404191896 20 23 16
-87.951980485693 -426.776720879574 1928.01126437244 17 20 13
-83.6583942497011 -425.891393835052 1936.00874969721 17 20 13
-110.283051768543 -430.71848243517 1930.50155156202 15 18 11
-102.126671686056 -429.119396400855 1940.1940810417 15 18 11
-107.506423603173 -430.020499046502 1944.01292591052 17 20 13
-129.358605193405 -433.962197855993 1940.82797973911 17 20 13
-166.750036667451 -440.769812077027 1931.18299157969 15 18 11
-173.153034304291 -441.856315155823 1934.78757474321 19 21 16
-152.239831521668 -448.021741619964 1666.21111040203 15 17 12
-161.351648498038 -449.632343900428 1667.85222988481 15 17 12
-163.887840907941 -449.998262612719 1673.14034389693 15 17 12
-165.483562123915 -450.186801623637 1678.94591035759 14 16 11
-172.734208604433 -451.44520577729 1681.69186879675 13 15 10
-175.277359073147 -451.813669352754 1687.00513904661 12 15 8
-175.93427887793 -451.825823373487 1693.33280050079 12 15 6
-184.146700407119 -453.266215619412 1695.63842305436 12 15 6
-161.172731594094 -448.815365353667 1714.46237565062 12 15 6
-158.028759454086 -448.112204060143 1722.71682249259 13 16 7
-156.771298827179 -447.766186395433 1729.95646525496 13 16 7
-186.776978188115 -453.321443050197 1720.95640080804 16 19 10
-202.602593558374 -456.198471757587 1719.44795275359 17 20 11
-210.858177816183 -457.646455476468 1721.90903720025 18 21 12
-174.490410621232 -450.678662447415 1747.14570888432 19 22 13
-148.519251837679 -445.675098320448 1766.88052732561 17 20 11
-142.479428433137 -444.431571786552 1776.41336547085 13 16 9
-97.4042717905084 -435.833305088472 1805.42027298173 15 18 11
-48.4488707735276 -426.509036507939 1836.06516377929 20 23 16
-36.5934128149263 -424.177296201832 1848.07344123883 28 31 24
-41.8893798522038 -425.076500033888 1851.5814790592 24 27 20
-55.7829636644687 -427.593951045253 1850.92036482197 18 21 14
-62.0520149179029 -428.675476039634 1854.03077421859 18 21 14
-58.7675148432814 -427.959405302362 1861.77068970653 18 21 14
-49.7347081344919 -426.162676537553 1872.23124957777 18 21 14
-49.3042665611987 -425.984672083153 1878.53812784273 17 20 13
-54.6203454807093 -426.887364419815 1882.11956370332 16 19 12
-60.9011073522217 -427.971168067997 1885.27201370693 18 21 14
-55.6729970334824 -426.892158677979 1893.818395552 19 22 15
-60.0389152572614 -427.615996938554 1897.88131046055 18 21 14
-83.6316146723548 -431.950471267804 1893.117947171 17 20 13
-91.8678975414053 -433.399688668369 1895.50659046214 18 21 14
-75.0880061377117 -430.152788079349 1909.29079791745 19 22 15
-65.9867616274854 -428.348548505706 1919.5020035769 19 22 15
-80.0057434491222 -430.882870845451 1919.29581589762 21 24 17
-80.5375655686564 -430.886391099903 1925.16446507299 19 22 15
-72.3791098897504 -429.260608003508 1934.86614339737 17 20 13
-98.0212286411981 -433.971998464476 1929.68126654615 17 20 13
-105.329077524415 -435.244932357879 1932.63043297813 14 17 10
-116.515850669046 -437.244062054451 1933.93659237142 13 16 9
-100.604855664117 -434.166385854058 1946.94368205205 17 20 13
-99.2031426645528 -433.807497263955 1953.65587005593 17 20 13
-127.858754668785 -439.076317695539 1947.61768074678 15 18 11
-157.525183578298 -444.531577923732 1941.31749875812 19 21 16
-148.42990357621 -453.035817478086 1668.38342962578 14 16 11
-159.42294187019 -455.027791099751 1668.97480746068 15 17 12
-160.074413183708 -455.033827167712 1675.28610228977 16 18 13
-157.897976669183 -454.497947207771 1683.12995719384 15 17 12
-167.030217612645 -456.13257402024 1684.83173903163 14 16 11
-171.456057602223 -456.864324561072 1689.1121363127 12 15 8
-174.941944570283 -457.415744340151 1693.91284403745 11 14 5
-177.485526281135 -457.786972811494 1699.22596979433 11 14 5
-165.844446664474 -455.440218248178 1712.03874221397 12 15 6
-155.129717368714 -453.272856656685 1724.28129210006 13 16 7
-165.234442939015 -455.09463115545 1725.57831409692 13 16 7
-180.091488257696 -457.825863524505 1724.46305285778 12 15 6
-198.763035153743 -461.286238842642 1721.46373510695 15 18 9
-187.081927762482 -458.936703391889 1734.12964795147 17 20 11
-158.279736448434 -453.31345488005 1755.43452392932 18 21 12
-154.151894496932 -452.41291884778 1764.05605843356 15 18 9
-161.432912314345 -453.694772141648 1766.90090415694 13 16 9
-69.2945236384732 -435.866908876605 1825.72461430271 16 19 12
-37.422235509849 -429.673156306826 1847.68089910186 26 29 22
-34.1305478012401 -428.941928217777 1855.40369787196 25 28 21
-45.1576463358063 -430.945524006962 1856.11419707638 19 22 15
-49.50862446363 -431.673815375093 1860.11883087784 19 22 15
-51.9508800670043 -432.037830754781 1865.0603066255 19 22 15
-44.8224076748596 -430.57598726268 1874.58628775432 18 21 14
-50.1345108143416 -431.487975164247 1878.14616456734 18 21 14
-60.2453058812724 -433.314791247312 1879.4634674457 17 20 13
-69.4099740086691 -434.960439854317 1881.27775745532 18 21 14
-72.8253781634711 -435.509780552514 1885.81901795403 18 21 14
-70.479038247051 -434.96124014925 1893.04004796816 16 19 12
-81.5882720277274 -436.976183814579 1894.04833478839 15 18 11
-80.2027671256256 -436.610909177402 1900.82473209725 17 20 13
-76.8872238745391 -435.878424001976 1908.45975357222 18 21 14
-75.4917675790834 -435.511998436447 1915.19992994389 20 23 16
-83.7359704861638 -436.98021271066 1917.60598515243 21 24 17
-76.5484778961545 -435.512120901807 1926.91678071431 19 22 15
-79.0066029280307 -435.879408682994 1931.91418149418 18 21 14
-101.763336649963 -440.106067457255 1928.01235993471 18 21 14
-113.912104851209 -442.314122694206 1928.86106437173 14 17 10
-102.845035989466 -440.109361722803 1939.81905851661 14 17 10
-101.446321383006 -439.742617083726 1946.54733886446 17 20 13
-104.890280127671 -440.295895693225 1951.19213076775 17 20 13
-105.426985249898 -440.296976838782 1957.08044950075 17 19 14
-138.971119046471 -446.564132706626 1949.0786267851 20 22 17
-145.556510800472 -458.20769713992 1670.03604191151 14 16 11
-147.139377393107 -458.391918896074 1675.79660736381 16 18 13
-160.96628635309 -460.960926949156 1674.85539205088 17 19 14
-172.92683571504 -463.165814516386 1675.00727672833 17 20 13
-164.150643918892 -461.334412783864 1686.4424881717 16 18 13
-163.854945368753 -461.154719881011 1693.25070687067 15 18 11
-155.053675130207 -459.321457496466 1704.59398169095 14 17 8
-163.254526746074 -460.795575825986 1706.83535454039 12 15 6
-163.896325079 -460.800146567052 1713.11166061909 11 14 5
-174.952159402829 -462.828843724786 1713.91300248695 11 14 5
-161.385166674471 -460.073828826453 1727.62656098542 12 15 6
-174.347767116424 -462.472872241539 1727.47996470384 11 14 5
-174.990366321362 -462.479210832913 1733.75812813521 10 13 4
-179.430196925943 -463.22304231284 1738.0837715777 11 14 5
-164.865574104867 -460.279293019504 1752.10880247298 14 17 8
-171.202382525608 -461.392216020918 1755.45002887133 13 16 7
-196.583865690823 -466.198180321562 1749.23775420026 13 16 7
-187.707744513821 -464.360239796294 1760.30514666708 17 20 13
-115.896823677764 -450.326251517411 1802.58363477686 9 12 5
-30.6188254844257 -433.69100525588 1851.05693273927 20 23 16
-20.6358896035708 -431.650496632686 1862.04007943969 24 27 20
-32.6118518118526 -433.86392544082 1862.24379650236 21 24 17
-28.3482297992246 -432.932500341355 1870.38163701428 21 24 17
