ply
format ascii 1.0
comment KinectMotionCapture
element vertex 755
property float x
property float y
property float z
property uchar red
property uchar green
property uchar blue
end_header
-895.122633731038 371.598622881143 2588.30629217255 112 117 113
-891.131296559595 370.461832928218 2596.14931022175 119 124 120
-887.130962057919 369.326088977078 2603.959583338 121 126 122
-880.109835922461 367.739913129579 2611.95976023341 129 134 130
-877.094191660712 366.756931623859 2619.62519202052 120 125 121
-874.07075917969 365.774791376747 2627.26316782507 109 114 110
-869.027782852995 364.49306129994 2635.00646858425 116 121 117
-862.967655617643 363.062391530054 2642.77557503488 123 128 124
-863.947992270476 362.683591444586 2650.07346774928 137 141 140
-864.926740459813 362.30504358671 2657.36469303084 143 147 146
-866.912568684489 362.076607389517 2664.59346136114 152 156 155
-866.878625614639 361.54854456997 2671.9276159666 154 158 157
-872.903960994392 361.919390988399 2678.94549873043 150 154 153
-878.934418647492 362.289587307674 2685.98291807519 156 160 159
-883.958504857957 362.509600845179 2693.08538033491 155 159 160
-888.986520290381 362.729165364136 2700.20214753886 154 158 159
-898.071350162865 363.545951336899 2707.17191544617 163 167 166
-906.151955402646 364.2123044334 2714.21453905638 135 137 134
-1066.56038012013 407.099315385239 2319.84318132006 163 165 164
-1061.90222969138 405.791666413877 2328.99890138132 137 139 136
-1062.14013923296 405.237471574603 2337.32589306213 128 130 127
-1052.55469073038 403.18005171666 2347.19668595647 131 133 130
-1040.00309560618 400.673799489214 2357.46220773 131 135 134
-1027.42955943504 398.170099295048 2367.64787791677 134 138 137
-1020.73955462843 396.569696257679 2376.86753208278 131 135 134
-1015.02085999367 395.120837738753 2385.893756459 131 135 134
-1005.34801434443 393.073608836585 2395.44649491312 135 139 138
-999.602719263776 391.627862896099 2404.37592216636 131 135 134
-995.81979590565 390.483092889636 2412.98770166836 129 133 132
-991.040162596596 389.189690787003 2421.70137433214 138 142 141
-983.28451154208 387.448643005902 2430.77294651908 137 141 140
-979.471007575027 386.307463955615 2439.27345335552 130 134 133
-975.648755744182 385.167375984526 2447.74124091602 136 140 139
-962.901077092493 382.683951628108 2457.29315530603 137 142 138
-951.123002022038 380.35238994677 2466.6436464922 137 142 138
-936.348046122041 377.575579260057 2476.27608979333 138 143 139
-925.519562219808 375.398135301476 2485.35320835002 134 139 135
-917.652705408728 373.670028450416 2494.02006558434 133 138 134
-913.74818229563 372.539457453026 2502.18933354005 134 139 135
-913.814576805417 372.00544397711 2509.89226498016 132 137 133
-907.903631912659 370.579089051895 2518.21798039693 132 137 133
-900.984223207997 369.005376662593 2526.60368295185 134 139 135
-893.054407102874 367.284600108783 2535.04141263302 132 137 133
-889.101278258655 366.159708373389 2543.03380262424 130 135 131
-885.139143363828 365.035869063935 2550.99341936134 131 136 132
-886.164666329875 364.655000166422 2558.4568448383 124 129 125
-895.188471985513 365.46072871421 2565.19306070962 80 85 81
-901.219689602767 365.820713579082 2572.2268546746 74 79 75
-900.246074827062 365.143164246121 2579.87413483228 90 95 91
-892.252556229925 363.429812970117 2588.08003757764 103 108 104
-888.256081777738 362.310069677055 2595.91381525645 120 125 121
-885.253937492974 361.339208524956 2603.63795099145 120 125 121
-879.231405281228 359.925856711381 2611.55757404732 129 134 130
-877.216967816205 359.104712237344 2619.14707450725 118 123 119
-873.185262195686 357.989061656887 2626.85262968765 108 113 109
-871.15713809222 357.169516357753 2634.39232397687 114 119 115
-861.065692010431 355.170924531404 2642.42158797189 124 129 125
-859.019622253923 354.353454736688 2649.89596393345 137 141 140
-858.985044576446 353.831368232448 2657.23060647529 141 145 144
-865.003079002483 354.193007773626 2664.21649851111 148 152 151
-864.966078058796 353.671151070374 2671.54321804728 154 158 157
-873.012198560131 354.326215092814 2678.4506792521 155 159 158
-876.009213173274 354.245440663677 2685.62976095902 152 156 155
-883.055826905889 354.752111295242 2692.62981101785 153 157 158
-887.070675964855 354.817587185715 2699.78392694323 156 160 161
-895.142531905087 355.469721711287 2706.7850892577 156 160 159
-904.23689553978 356.26755704592 2713.7782897147 158 160 157
-1076.62031109974 400.199073037224 2317.76761104235 151 153 152
-1070.00365301084 398.614207158499 2327.27032556673 133 135 134
-1067.30053593958 397.621938169141 2336.09117494999 124 126 125
-1055.748075632 395.301518870759 2346.2863642487 132 134 133
-1042.20869818404 392.688289583292 2356.71322452311 135 139 138
-1021.75874925941 389.045223326213 2368.10840292462 137 141 140
-1014.07523028627 387.322584366145 2377.45940975812 132 136 135
-1004.40644129315 385.307013433144 2387.04719696576 137 141 140
-998.663923711456 383.882505762826 2396.00034526019 137 141 140
-992.90978514634 382.459425072741 2404.91031901895 125 129 128
-990.106018369599 381.478998906976 2413.36495271141 130 134 133
-979.389158977523 379.323373450898 2422.87028625676 136 140 139
-971.620011300891 377.610767852515 2431.90970503626 132 136 135
-968.784477374322 376.63414199656 2440.24786382177 135 139 138
-965.941143745746 375.658382194848 2448.55853964624 140 144 143
-956.152914828567 373.656776722485 2457.71168688617 137 142 138
-949.322255453454 372.096989707871 2466.43569005988 137 142 138
-939.500697288273 370.099202909271 2475.46843226755 140 145 141
-930.654891695526 368.249928422024 2484.32046602627 137 142 138
-918.811000213046 365.963470933169 2493.45507020015 133 138 134
-911.919882373941 364.410730397917 2501.95905172478 134 139 135
-906.010791564146 363.005718819083 2510.30605508228 136 141 137
-901.086109934115 361.748221982123 2518.50386046405 138 143 139
-898.144769018494 360.784010142569 2526.45701619689 138 143 139
-891.205433797415 359.236893123596 2534.78552642638 137 142 138
-889.2442783901 358.420641273563 2542.57501264774 135 140 136
-886.277844917987 357.459309934854 2550.43775225627 128 133 129
-890.302045994733 357.518750749369 2557.6227801597 112 117 113
-895.32905688701 357.723542160058 2564.72649073578 118 123 119
-902.362167540091 358.218935908897 2571.66928687343 101 106 102
-901.387264833425 357.550003724077 2579.31722561209 64 69 65
-894.392357324515 356.009465470835 2587.44263129452 79 84 80
-886.380699475415 354.325160113276 2595.59952462487 120 125 121
-884.378231528562 353.513733283743 2603.23960077182 117 122 118
-879.355647441397 352.267703770985 2611.08115338679 126 131 127
-878.344373298904 351.603021449199 2618.59673525388 112 117 113
-872.29773739289 350.214134188056 2626.44231165479 106 111 107
-868.25286193522 349.116343907425 2634.11117489189 116 121 117
-858.153385578997 347.150836931078 2642.13244111661 126 131 127
-856.10298487435 346.345051161471 2649.59718477585 136 140 139
-857.073585410497 345.973863105849 2656.86280601186 138 142 141
-864.10068655564 346.470132404285 2663.78384280055 146 150 149
-866.082374714584 346.243341185477 2670.99827843145 154 158 157
-873.119704418892 346.738526702202 2677.95567859003 159 163 162
-880.163834254896 347.232941996527 2684.9378400267 149 153 152
-886.201994045441 347.582341586398 2691.990725932 149 153 154
-888.192229590368 347.354608754901 2699.23630184686 168 172 173
-889.167926672033 346.982838562872 2706.52140704953 167 171 170
-899.2749204423 347.907078539161 2713.45686059641 176 178 175
-1138.36607379281 401.497605428556 2298.45519543388 190 194 193
-1102.3781385679 395.574239759212 2313.066985652 144 146 145
-1083.01774983056 392.124993817438 2324.73260607462 132 134 133
-1073.44633077639 390.130117296078 2334.69590317223 123 125 124
-1060.90874198373 387.702345494121 2345.06297614179 134 136 135
-1042.44797023055 384.407763764762 2356.27002460918 140 144 143
-1020.01927173856 380.537421187617 2367.96857311207 139 143 142
-1008.38946833059 378.263419343607 2377.9059081886 132 136 135
-999.696364567482 376.425789741326 2387.33224588276 139 143 142
-995.919226568566 375.312887551249 2395.98562496058 122 126 125
-991.145996258251 374.056580093461 2404.74649032054 124 128 127
-990.313830186737 373.379133128711 2412.91900642362 132 136 135
-980.579452288417 371.403334677278 2422.28931416657 135 139 138
-972.806190906691 369.718087885589 2431.33073248361 131 135 134
-968.978333628698 368.61120327028 2439.7996000006 137 141 140
-959.19706135793 366.640947446718 2448.99836843227 141 145 144
-949.397904938388 364.672716773243 2458.132944121 137 142 138
-941.565632187336 362.994381590785 2466.95962841789 137 142 138
-938.683371089916 362.036933640401 2475.1364063019 141 146 142
-926.850407051909 359.786616162618 2484.33532786894 138 143 139
-914.997175524711 357.538707624655 2493.45959207692 133 138 134
-905.1134646164 355.580328308171 2502.28645315215 133 138 134
-899.195554982914 354.198024257593 2510.61412126782 136 141 137
-895.258646687847 353.103932457131 2518.68618044542 138 143 139
-892.31017370505 352.154250554026 2526.6220296519 138 143 139
-888.355985024003 351.062193420518 2534.63121472543 136 141 137
-890.384938982417 350.830228118273 2542.0178723605 135 140 136
-889.415265167257 350.169067313329 2549.69013139091 112 117 113
-896.441743935402 350.652508634654 2556.60075850259 90 95 91
-900.472734128083 350.706456292791 2563.80752497149 90 95 91
-906.509145951882 351.045820755404 2570.84758536484 98 103 99
-906.537522024634 350.528044523711 2578.41868412312 75 80 76
-898.538628695477 348.869210909003 2586.63905113922 70 75 71
-892.532266984165 347.497252399598 2594.64577468165 117 122 118
-888.522971809102 346.411716633782 2602.45447739364 114 119 115
-883.499590610054 345.184809727802 2610.30514350126 123 128 124
-874.442465818567 343.389707002994 2618.40679170737 108 113 109
-869.395424293897 342.165543752661 2626.1713438638 104 109 105
-864.337965767462 340.942585280618 2633.89798036829 117 122 118
-860.278017999842 339.862933012951 2641.52233446448 126 131 127
-855.200467286667 338.64229830267 2649.1758397191 134 138 137
-858.187868480116 338.558413434836 2656.31819393722 137 141 140
-859.156177463575 338.19070727486 2663.57750537387 146 150 149
-861.133501047914 337.96499128406 2670.77641503738 150 154 153
-867.156713658814 338.306116977559 2677.76858128919 160 164 163
-877.234430235377 339.213106046614 2684.58537205679 155 159 158
-884.284415486304 339.694261890007 2691.58090217827 152 156 157
-886.272431332908 339.46736705206 2698.81876585356 166 170 171
-888.260082505369 339.240525221699 2706.05530903145 169 173 172
-896.338363516589 339.861480986264 2713.06064173775 172 174 171
-1126.19403330592 390.529983215582 2308.68418351878 127 129 128
-1094.07770662073 385.286453373506 2322.51257059964 137 139 138
-1072.71812533252 381.614895016349 2334.40972330467 131 133 132
-1054.27361216746 378.374325497781 2345.71123720548 139 141 140
-1037.76631776343 375.421717394752 2356.59442767571 138 142 141
-1020.24669816251 372.330209809287 2367.52767962275 139 143 142
-1008.61043390664 370.094380597879 2377.46512703917 138 142 141
-1002.87029208558 368.712709941767 2386.45414111545 133 137 136
-997.118502843748 367.332487375501 2395.39989582682 131 135 134
-993.329869513312 366.23724451577 2404.02174416843 129 133 132
-988.544004432044 365.001378203568 2412.74860456941 134 138 137
-976.824658271555 362.775302245432 2422.38374285111 134 138 137
-969.04366090912 361.117833194705 2431.41397639945 131 135 134
-964.219310134535 359.886508205174 2440.00081411753 137 141 140
-952.44610975957 357.666668060497 2449.4408682447 141 145 144
-940.652631793859 355.449252465535 2458.80623736298 137 142 138
-929.831185982688 353.375436159027 2467.9749120469 138 143 139
-930.910733588635 352.99756166527 2475.64081093303 134 139 135
-923.0419683282 351.350376995158 2484.35167249767 137 142 138
-914.163475915401 349.563927462329 2493.12293990977 133 138 134
-903.277986613076 347.497586703081 2502.05855333241 136 141 137
-895.362092468381 345.85590326945 2510.59790777952 138 143 139
-889.4253867613 344.497421035264 2518.87082960564 134 139 135
-886.469521867095 343.562241438237 2526.7893191132 133 138 134
-890.494858858911 343.611961656902 2533.97242737131 118 123 119
-896.52070484127 343.942381226307 2540.96761152895 99 104 100
-897.553019942108 343.570232966882 2548.46176062551 83 88 84
-900.584417298996 343.478938235969 2555.76278577584 76 81 77
-904.61827097672 343.527817873354 2562.97698412049 65 70 66
-909.656499231418 343.716592340477 2570.11223030502 57 62 58
-909.68516739321 343.204555440086 2577.68896606849 53 58 54
-906.700646242504 342.272960778504 2585.50239483019 44 49 45
-901.700238740546 341.062420045705 2593.44869051735 109 114 110
-897.694179372831 339.992908478034 2601.27952398765 107 112 108
-887.645824890314 338.085956298632 2609.52756414324 115 120 116
-874.56134885596 335.762040819677 2617.92879239425 97 102 98
-868.503529824131 334.417717667017 2625.76191250849 111 116 112
-860.418628898172 332.795779283854 2633.68624389239 122 127 123
-858.369498492053 332.012075828817 2641.1696455385 129 134 130
-853.286872830464 330.811062088878 2648.81669615782 134 138 137
-857.282197831693 330.864560311887 2655.89169003374 135 139 138
-858.24859406253 330.500292237437 2663.146070422 142 146 145
-858.201742195065 329.997123190459 2670.44801381677 152 156 155
-864.223867457709 330.328464010303 2677.42903627814 162 166 165
-869.238455979801 330.520257752165 2684.47841898078 160 164 163
-876.283687905242 330.989290922195 2691.44957633753 154 158 159
-878.265175202794 330.76373241791 2698.66404448087 161 165 166
-882.276081561872 330.815616236094 2705.79494061142 169 173 172
-890.351690134141 331.421648805248 2712.78092935134 180 182 179
-1149.72632723154 385.901104051793 2295.71710489476 187 191 192
-1136.2875446601 383.404243575251 2306.5909234048 121 122 124
-1105.14561625362 378.394299359997 2320.2882136698 136 138 137
-1074.937212806 373.529750728554 2333.64697391694 135 137 136
-1051.56647253368 369.647961380619 2345.73699941707 141 143 142
-1033.07968785044 366.46815540375 2356.92085939761 135 139 140
-1017.51785856653 363.710259094055 2367.54005797898 132 136 137
-1007.8444711568 361.791538317788 2377.17284730827 132 136 137
-1002.09979608319 360.432025386228 2386.15809051111 125 129 130
-998.317650008599 359.352275431193 2394.81380617119 127 131 132
-994.526498592939 358.273624755233 2403.43678079211 131 135 136
-985.782982190154 356.500931480008 2412.71694363321 135 139 140
-976.033712443967 354.591167394988 2422.07365150577 133 137 138
-969.237219174584 353.1000737519 2430.96787613231 130 134 135
-967.381839316952 352.30446834122 2439.16312131915 138 142 143
-952.629810758713 349.706526058515 2448.993617493 141 145 144
-939.837400278948 347.388676194039 2458.48398643884 136 141 137
-928.016216699656 345.211944450948 2467.7721756983 136 141 137
-927.105571755471 344.560568111222 2475.66977475641 131 136 132
-922.212458771322 343.356291218713 2484.01838861988 136 141 137
-915.318458337741 341.876666117421 2492.55782889355 134 139 135
-903.431809662111 339.707581558129 2501.60778711263 133 138 134
-894.514525749431 337.955248922614 2510.25563988902 134 139 135
-887.575566087818 336.480877736623 2518.63147240786 133 138 134
-887.60961565086 335.973792907428 2526.23131473795 124 129 125
-893.63327813393 336.294446066531 2533.21129696799 110 115 111
-897.66304008445 336.338870820759 2540.40841997398 97 102 98
-901.69549211754 336.383096292151 2547.61447589005 83 88 84
-901.726574332127 335.876509898815 2555.20361572323 84 89 85
-905.761146066142 335.9205624242 2562.41743248433 89 94 90
-907.793404721173 335.689413569982 2569.81687527279 88 93 89
-911.831499768073 335.733138035425 2577.04356628422 86 91 87
-909.849059024872 334.952722559361 2584.77757845821 67 72 68
-906.856291028977 334.035851751069 2592.56968417023 109 114 110
-899.834874323584 332.571255420463 2600.64554117862 101 106 102
-888.776435820603 330.559956029263 2608.97377835468 112 117 113
-874.678999081495 328.139889575701 2617.45062675881 101 106 102
-869.624682989511 326.954617667833 2625.21272383022 126 131 127
-863.551921909156 325.633757160165 2633.0042511101 124 129 125
-860.493547743119 324.724438012912 2640.5584707168 129 134 130
-852.380140123326 323.132730153035 2648.39604830348 132 136 135
-856.374992220171 323.181640012046 2655.46546050278 134 138 137
-855.317423586182 322.547801301321 2662.82863303775 142 146 145
-857.290263186227 322.323748402407 2670.01194453556 149 153 152
-857.237859677835 321.827073888344 2677.29737608375 169 173 172
-862.24785780748 322.012058589437 2684.32541668705 167 171 170
-870.303270256401 322.605118846421 2691.22823114051 154 158 159
-876.337747895145 322.925062822441 2698.24884920529 155 159 160
-883.393003822355 323.380448210299 2705.24767819825 168 172 171
-892.486825283937 324.106903660739 2712.19380015065 184 186 183
-1142.46065113701 375.681686040024 2305.15137934455 121 122 124
-1108.36039267941 370.351941909771 2319.35388421985 134 135 137
-1077.15672874485 365.439433813168 2332.88347863338 137 138 140
-1049.83992387589 361.080269349713 2345.60736059635 140 141 143
-1032.32735614479 358.094463802564 2356.63352948735 133 137 138
-1018.7275965457 355.659044074207 2366.94846231632 128 132 133
-1009.0492820353 353.773040140653 2376.58361398828 114 118 119
-1002.31417997367 352.298866286915 2385.71645440608 115 119 120
-995.566025774348 350.82630298555 2394.80092259075 128 132 133
-992.757806317727 349.900966596288 2403.27380515642 133 137 138
-982.029300094888 347.88587267312 2412.82462055484 138 142 143
-973.261479508542 346.145526978059 2422.03496929457 130 134 135
-966.458391355299 344.679418237806 2430.92048256957 128 132 133
-963.60723559039 343.759293070513 2439.2363121081 140 144 145
-950.828468088615 341.479947984929 2448.80164465891 140 144 143
-936.042513346822 338.931312159025 2458.53730907817 137 142 138
-927.192287329416 337.200655921288 2467.4478200195 138 143 139
-927.272959598227 336.693757010813 2475.22088069766 133 138 134
-922.376208897122 335.508877099253 2483.56823466937 135 140 136
-912.491021248267 333.64721788391 2492.4506769049 130 135 131
-900.595743330511 331.51659645724 2501.49288004762 137 142 138
-892.66799231788 329.930097337112 2510.02305275458 128 133 129
-889.714052415231 329.022083597303 2517.96584047859 127 132 128
-890.746523755492 328.65611632429 2525.46447201275 112 117 113
-895.773835220903 328.831162993081 2532.55051928509 103 108 104
-899.805254860338 328.870702423957 2539.74978360521 99 104 100
-904.839684924415 329.045026882445 2546.86180487341 96 101 97
-904.871290267963 328.544192730145 2554.45651864574 94 99 95
-904.89965450291 328.043769532242 2562.03945827216 95 100 96
-904.925007011762 327.543781221358 2569.61056149227 97 102 98
-906.953902229082 327.313599029465 2576.9981267957 97 102 98
-908.982414226563 327.083490042058 2584.38431549647 93 98 94
-906.990710547297 326.315273122689 2592.09163773444 83 88 84
-900.970634464715 325.009978119641 2600.08860132983 90 95 91
-888.900610313169 322.899779981392 2608.49490015096 101 106 102
-876.810101601371 320.791936543263 2616.82663044912 103 108 104
-870.7456534603 319.491701266177 2624.66297275662 123 128 124
-863.660936526194 318.058723913189 2632.5237709895 125 130 126
-860.599959134195 317.163522757926 2640.07630966697 130 135 131
-851.471853907394 315.465351237203 2647.97561871639 132 136 135
-853.444612846554 315.241834785479 2655.15896942082 134 138 137
-853.394159201616 314.75075833468 2662.45517475393 143 147 146
-855.364766082361 314.527526883259 2669.63071522153 146 150 149
-854.296601649766 313.903405289661 2676.96068251206 169 173 172
-859.304833499166 314.0812615481 2683.97766473747 168 172 171
-866.345337752938 314.525626465485 2690.91569493259 154 158 159
-871.36287458845 314.702453490996 2697.96657494392 149 153 154
-872.321805202265 314.345547571903 2705.19788503888 160 164 163
-880.393490501819 314.921562113694 2712.15035562513 187 189 186
-1139.79662987407 366.722240929914 2305.1910055016 119 120 122
-1111.57686531137 362.299131055545 2318.4183236964 131 132 134
-1078.39324709096 357.209699409587 2332.27860543108 137 138 140
-1050.07982878922 352.79744272036 2345.16505778139 141 142 144
-1028.617454026 349.329340750037 2356.80901017226 134 138 139
-1015.00753751473 346.937799526936 2367.11393496816 131 135 136
-1007.29403131312 345.352863400403 2376.4405434599 109 113 114
-998.578510888751 343.635799817502 2385.85977155729 121 125 126
-991.822793368633 342.188264909688 2394.93288925415 131 135 136
-986.04271585011 340.876066542509 2403.81656205673 133 137 138
-976.292553365561 339.030670821763 2413.21059418219 137 141 142
-970.485857564983 337.72165208306 2421.9974459715 130 134 135
-966.649033332085 336.681004749022 2430.47483969424 129 133 134
-963.794818024441 335.774830282134 2438.78904651465 141 145 146
-950.017119488239 333.403090948555 2448.48260239027 140 144 143
-936.215784882231 331.034034782662 2458.09102520536 137 142 138
-931.335562833691 329.866147302687 2466.51047495625 138 143 139
-929.428313572942 329.098697954264 2474.53184450167 133 138 134
-923.534166564744 327.80007499574 2483.00057044844 135 140 136
-909.660159007151 325.439517690109 2492.34453857326 129 134 130
-896.759427846393 323.21449094276 2501.49133771766 134 139 135
-890.818884774116 321.921291687202 2509.791228414 123 128 124
-891.853406322382 321.558192241131 2517.29928256446 120 125 121
-894.883687581276 321.460498989873 2524.5921241709 109 114 110
-897.915009592466 321.362743136808 2531.88879036314 102 107 103
-899.947187581108 321.132491770387 2539.28850027991 98 103 99
-904.982007290659 321.299377065847 2546.3972715273 94 99 95
-904.010351282769 320.672285787763 2554.0836807803 98 103 99
-904.036627028698 320.177967339416 2561.66179145311 103 108 104
-904.059401821795 319.684032215095 2569.22807480745 107 112 108
-908.094638256465 319.718609994115 2576.43837761297 108 113 109
-910.123032501672 319.4890778477 2583.82449330982 94 99 95
-909.135110027325 318.864033946102 2591.45180096734 60 65 61
-904.118404413278 317.712480253001 2599.37482628751 97 102 98
-892.043803497999 315.640247758548 2607.78903102439 97 102 98
-878.941628562251 313.438786075875 2616.20185763985 109 114 110
-870.85832825473 311.897484980831 2624.18304196861 124 129 125
-861.751273550736 310.226404794463 2632.17854055619 126 131 127
-856.666717585073 309.082683891857 2639.85459603299 130 135 131
-849.551254629377 307.677607311272 2647.61792637833 132 136 135
-852.532743432688 307.586113152786 2654.73352494291 134 138 137
-852.479993381345 307.101129477972 2662.02505082892 143 147 146
-854.449060904631 306.878646504083 2669.19534851351 148 152 151
-849.325420979235 305.739474739851 2676.72916499588 165 169 168
-859.400158174804 306.564787245124 2683.48239857674 168 172 171
-865.427322435841 306.86560431868 2690.46378777856 160 164 165
-870.44454450555 307.035138637042 2697.50889489264 138 142 143
-868.35334776346 306.289743496293 2704.86029834224 136 140 139
-878.457161125844 307.111772710165 2711.72034215591 183 185 182
-1150.59005515394 360.150951125601 2294.35654903976 189 193 194
-1151.87016459217 359.761361725124 2302.75969852127 101 102 104
-1122.66213158872 355.289429648272 2316.1841953149 122 123 125
-1080.61368930871 349.111881266839 2331.51381335727 131 132 134
-1046.37913586612 343.994125227856 2345.35061643504 132 133 135
-1025.88911992135 340.722892233475 2356.83178990007 131 135 136
-1015.22870873983 338.769249673625 2366.67422601443 128 132 133
-1005.53620734532 336.949129976312 2376.2983004239 102 106 107
-996.813998440727 335.262315252693 2385.71179305133 136 140 141
-991.041020412037 333.97082099705 2394.63489636034 128 132 133
-985.255962082449 332.680709530693 2403.51494992306 130 134 135
-974.509574173223 330.737248895258 2413.04459963247 137 141 142
-965.725502006453 329.057798370115 2422.23305546169 130 134 135
-963.864628965658 328.295838157945 2430.42914735306 130 134 135
-956.045189490842 326.750354494945 2439.38735458389 143 147 148
-946.225347030956 324.945330688711 2448.54816733115 139 143 142
-937.381516310412 323.272964838006 2457.51922425512 134 139 135
-930.509828144745 321.863407674196 2466.1857428341 133 138 134
-928.599663425962 321.107408239587 2474.20258770892 128 133 129
-919.713518476515 319.439979649363 2483.02058634464 134 139 135
-908.818546079532 317.514014046528 2492.00961642047 131 136 132
-897.904520986097 315.590266424809 2500.92930788578 125 130 126
-892.958410004682 314.449141668251 2509.12102152531 118 123 119
-895.990319714234 314.349129858977 2516.41751641122 115 120 116
-897.024472938196 313.989199701331 2523.92713299103 110 115 111
-897.05710880927 313.49977067547 2531.53194448734 104 109 105
-900.088377030882 313.399948674012 2538.82710651149 97 102 98
-904.122246388295 313.429745535559 2546.02931520608 97 102 98
-905.151962913201 313.070545128303 2553.52291991806 102 107 103
-904.174320945764 312.452630595632 2561.19289819312 100 105 101
-907.206440410016 312.352977229547 2568.49039815939 102 107 103
-908.230699686683 311.994537954699 2575.9642217174 101 106 102
-910.258300810998 311.765639096632 2583.34779253694 98 103 99
-910.274239012013 311.278495058892 2590.89205147886 62 67 63
-908.273929811429 310.533578376643 2598.58120463024 75 80 76
-896.195737457632 308.499258861257 2607.00601133002 84 89 85
-883.089568883889 306.33838504501 2615.4296354044 102 107 103
-869.961266972092 304.179998935617 2623.77358236298 126 131 127
-858.829795643773 302.281652785139 2631.90197573562 128 133 129
-850.709388934181 300.771562370998 2639.76509605617 132 137 133
-847.62807666231 299.906188187871 2647.26096649894 132 136 135
-850.60772137235 299.812827717757 2654.36854001518 133 137 136
-852.576343008137 299.590937872939 2661.53755667752 141 145 144
-853.531796140917 299.24075956217 2668.76020302666 146 150 149
-850.430864815316 298.37765450435 2676.1855933976 164 168 167
-856.451304738533 298.669248474001 2683.13619346606 171 175 174
-858.417041652786 298.447771690432 2690.29476050799 167 171 172
-862.414002458749 298.48245097827 2697.36301749329 143 147 148
-863.364075997963 298.132981493961 2704.56613798181 138 142 141
-877.535366292885 299.446147568296 2711.251793985 175 177 174
-1156.7702769611 352.353994415186 2292.89738008424 177 181 180
-1154.12110261713 351.45072171945 2301.97376681971 109 113 112
-1137.69059525607 348.742289336556 2313.2962122976 112 116 115
-1092.68052950028 342.298307999621 2329.15065216944 135 139 138
-1048.58590292696 335.991123647114 2344.59491339741 133 137 136
-1025.12923214215 332.395789494654 2356.54674856092 141 145 146
-1010.51523130443 329.962988486235 2366.99397616368 122 126 127
-1001.80107539839 328.304667150646 2376.45535722992 113 117 118
-994.058812086209 326.776794116702 2385.71122285576 136 140 141
-992.235096010999 326.021295506953 2394.04935079529 129 133 134
-982.48836984193 324.23973859058 2403.49644576571 137 141 142
-970.743519297388 322.203757410201 2413.15690715924 133 137 138
-956.005060853826 319.785596052774 2423.15129077378 131 135 136
-953.142658629948 318.907619740563 2431.45290401747 140 144 145
-948.287903049797 317.774537275549 2439.98887983859 141 145 146
-940.443108971512 316.25889791844 2448.87179252847 138 142 141
-937.553013145907 315.384290587992 2457.07271185546 134 139 135
-928.687755938264 313.743957549478 2465.98444027299 136 141 137
-923.787654357066 312.616328979182 2474.3554985834 130 135 131
-917.880890387711 311.36231681617 2482.80647416964 134 139 135
-911.962481207464 310.109738045821 2491.21418931682 133 138 134
-902.041992024053 308.34871815881 2500.02910227682 123 128 124
-895.098797290268 306.971931175405 2508.44989133714 118 123 119
-897.132652087536 306.742337932019 2515.85624242013 117 122 118
-896.167103029574 306.131205959675 2523.57540145145 110 115 111
-899.198326144095 306.02920849366 2530.86902252737 102 107 103
-900.228569047208 305.673059288934 2538.3655789255 96 101 97
-907.267672644995 306.07898380561 2545.27413950284 100 105 101
-907.296115108637 305.595989706968 2552.86744437542 101 106 102
-907.321061196283 305.113400065416 2560.44895226474 101 106 102
-908.346875292009 304.757979698369 2567.92952551902 107 112 108
-909.370639396871 304.402782065148 2575.40355720399 108 113 109
-912.403719938951 304.301017384179 2582.70329249017 100 105 101
-913.425258907561 303.946178190272 2590.16928898018 74 79 75
-912.431454671932 303.338797863926 2597.78591066757 78 83 79
-902.365133664204 301.595070099287 2606.06936696446 84 89 85
-890.264591901174 299.600883477837 2614.43560347386 112 117 113
-872.089626837318 296.852039783243 2623.15202620329 127 132 128
-858.93402482496 294.736900945096 2631.4219173022 130 135 129
-845.756584200283 292.624251747557 2639.61229774257 129 134 128
-844.690981569149 292.025175264302 2646.96758867137 128 133 127
-844.632746365697 291.552538027608 2654.24561513484 131 136 132
-846.596250246526 291.33178163667 2661.39634617951 139 144 140
-846.532747461553 290.859724822635 2668.6561106162 138 143 139
-845.452075373486 290.262470626144 2675.9566021014 149 154 150
-850.455078145159 290.418890163387 2682.94063576255 165 170 166
-854.446688314716 290.449444213851 2689.98642242465 168 172 171
-861.488999547659 290.855799260231 2696.90716413656 154 158 157
-865.487765407273 290.885590706589 2703.97903700506 144 148 147
-878.647005093166 292.04188907533 2710.70442978052 140 143 136
-1164.61276028788 345.294794765285 2282.48850396066 180 184 183
-1164.92028821512 344.783516140742 2291.10014109136 146 150 149
-1158.33981528856 343.387899651852 2300.85668618883 122 126 125
-1141.90370201971 340.730726203162 2312.19068023741 110 115 111
-1107.71075392805 335.804592924279 2326.30293640792 138 143 139
-1057.6932578095 328.866209574207 2342.73708918999 132 137 133
-1025.35412192417 324.205912578209 2356.10738108904 126 130 131
-1009.74541073834 321.693335012983 2366.70739776986 111 115 116
-1000.03726471101 319.939253706229 2376.3150799066 113 117 118
-989.323007459187 318.061468881959 2386.00548871849 134 138 139
-987.493270347331 317.317649471056 2394.32863536378 131 135 136
-974.767262360452 315.19230926903 2404.18708427404 138 142 143
-963.010211358419 313.195128431775 2413.82674426555 132 136 137
-948.258294246212 310.823877477611 2423.80077525407 130 134 135
-945.387311046014 309.960526467435 2432.07976266457 140 144 145
-941.5159549689 308.972801050382 2440.46235854569 141 145 146
-937.635870283225 307.98619336876 2448.8123234711 138 142 141
-934.740778665523 307.125832799879 2457.00368906062 133 138 134
-924.872918211971 305.390757603486 2466.03038229908 133 138 134
-919.966301769826 304.282837107815 2474.38969485426 131 136 132
-914.052855804332 303.051245623884 2482.829087719 136 141 137
-909.124640180984 301.945924272604 2491.1098477114 130 135 131
-904.18600992282 300.841843529861 2499.35272346122 122 127 123
-899.236940249892 299.73901348238 2507.55762933361 115 120 116
-902.272107812376 299.634299711043 2514.86418043875 114 119 115
-900.308137359833 298.906907656444 2522.69931637188 110 115 111
-903.341831861475 298.802501447141 2530.00059246939 104 109 105
-902.370636342753 298.200557501075 2537.70458813737 99 104 100
-908.410232658703 298.469233906348 2544.7118431871 97 102 98
-909.440628925857 298.11634520723 2552.21102750841 98 103 99
-909.46539010223 297.639575253505 2559.79552310464 102 107 103
-907.47828679831 296.915183564695 2567.54666556841 111 116 112
-910.510380390786 296.811316327704 2574.84233808286 111 116 112
-912.537783101943 296.583530757818 2582.2258751051 95 100 96
-916.577953148752 296.603450160328 2589.44524091397 80 85 81
-916.591446913471 296.128228846224 2596.98888054907 91 96 92
-908.53810435448 294.66432149955 2605.13015448767 89 94 90
-895.426801973735 292.58431506061 2613.58577317142 102 107 103
-872.199489725922 289.271983844236 2622.67152448394 134 139 135
-857.016967372496 286.950975005962 2631.07852284993 132 137 131
-844.84222584118 285.002723153636 2639.19827097096 134 139 133
-844.785337290861 284.53567078904 2646.48575231195 135 140 134
-842.700879526793 283.822711929041 2653.88265483575 135 140 134
-844.662167576602 283.602767811583 2661.02567176109 138 143 139
-845.609464731226 283.259901525496 2668.22265299146 138 143 139
-845.540378186183 282.794346569515 2675.46579095419 145 150 146
-849.528750476473 282.820545473285 2682.49680639356 160 165 161
-856.566922091217 283.214721225848 2689.39448914592 168 172 171
-865.645042470233 283.853544932402 2696.22698996057 158 162 161
-869.646656188616 283.87832071086 2703.30626974037 151 156 152
-876.704488629435 284.270359785865 2710.27560030018 131 134 127
-877.65715827127 283.927038223181 2717.49224108478 160 161 155
-1161.27710887921 335.690267733489 2291.3161892204 140 144 143
-1153.70545314676 334.195952580263 2301.2266740407 99 103 102
-1140.21118595508 331.961656204577 2312.06025825837 100 105 101
-1116.83992000786 328.494701202063 2324.41023671949 131 136 132
-1059.90414980395 320.834382065859 2341.97850204077 135 140 136
-1027.55150007247 316.2685508187 2355.35826040617 114 118 119
-1012.92360630743 313.927992070739 2365.81214322708 97 101 102
-1004.20036429845 312.329686636207 2375.277680272 133 137 138
-990.516018071583 310.117633799212 2385.41958169236 135 139 140
-981.756810730801 308.523610688549 2394.75429014442 130 134 135
-966.048405527859 306.070668283715 2405.02274202002 141 145 146
-954.278383051819 304.112413065493 2414.63881706896 130 134 135
-945.463438436052 302.524980665092 2423.77074497264 131 135 136
-945.565157034416 302.044068707894 2431.63835334933 142 146 147
-940.697361473755 300.950367474594 2440.15077752664 141 145 146
-938.801165768398 300.225650415851 2448.23923666493 137 141 140
-931.925146494519 298.889249849861 2456.93586193405 134 139 135
-925.035787143944 297.554464338372 2465.58397777385 134 139 135
-918.133132699732 296.221252574871 2474.18372511883 134 139 135
-912.214204852447 295.011885288145 2482.61679602556 138 143 139
-907.28092754001 293.926096724108 2490.89109493775 130 135 131
-903.335450768009 292.96366710707 2499.01446564988 120 125 121
-903.377069412546 292.490305336096 2506.6637014696 111 116 112
-905.415023126762 292.261248944406 2514.08560996791 108 113 109
-905.451822062413 291.788639474683 2521.71649709429 106 111 107
-907.4875733675 291.559996660197 2529.13048959015 101 106 102
-907.519049794078 291.08807505697 2536.74297858893 98 103 99
-911.557935628895 291.103023438241 2543.95443792781 92 97 93
-912.589266221098 290.753203831498 2551.45902887915 98 103 99
-910.606337548524 290.039312245341 2559.23322916854 110 115 111
-906.607885422772 289.083464402952 2567.16406816304 117 122 118
-908.633441792236 288.856354502867 2574.54117666299 106 111 107
-910.658585742139 288.629357288359 2581.91682507372 89 94 90
-916.711265220644 288.886938475989 2588.9647213797 92 97 93
-917.730717060856 288.53875995957 2596.42717397411 92 97 93
-913.706886483184 287.586099906155 2604.26487133124 94 99 95
-899.583059250034 285.425712855582 2612.80768498404 102 107 103
-877.357454015725 282.30159969157 2621.83508874914 120 125 121
-858.128840128718 279.543613394281 2630.5300681313 131 136 132
-845.948363940019 277.633500732591 2638.65260368179 132 137 133
-840.830991681123 276.56961021586 2646.25721942009 134 139 135
-840.76642239693 276.109287793216 2653.52043263463 138 143 139
-840.69861531897 275.649354279193 2660.77187009203 146 151 147
-841.641843481126 275.310135744145 2667.95604694992 148 152 151
-840.553561199421 274.730694479146 2675.23952943013 150 154 153
-845.553797850283 274.87271072211 2682.20419954087 160 164 163
-855.639277646442 275.61471640683 2688.9447227269 172 176 175
-864.718698687226 276.23550376525 2695.77066543778 167 171 170
-867.701759792278 276.135718804492 2702.88686727203 161 165 164
-871.704437852462 276.155685187696 2709.96706234395 153 155 150
-872.652094449433 275.816098981769 2717.16837800671 130 133 126
-1167.16022795511 328.335154504392 2281.23932310664 159 163 162
-1157.62995383553 326.624390972307 2291.53382832758 138 142 141
-1150.0505607033 325.157759853773 2301.43306394923 109 113 112
-1138.51607565091 323.209169145391 2311.93067397617 89 94 90
-1116.11798397053 319.933659858185 2324.11747714866 118 123 119
-1054.22390704595 311.831391970186 2342.48095807853 140 145 141
-1025.80075082487 307.843448772796 2355.22879339054 104 108 109
-1017.09132604691 306.272948401616 2364.76318576752 97 101 102
-1008.36572129672 304.704384312243 2374.23872754575 139 143 144
-994.676981285201 302.535529004417 2384.39158836338 133 137 138
-979.974830807463 300.249071114803 2394.60392701367 133 137 138
-966.238600156962 298.085802206996 2404.58399135718 141 145 146
-954.462129144463 296.165689314299 2414.20020532168 130 134 135
-948.618439139824 294.968719654815 2422.92137582726 132 136 137
-944.748879657685 294.013294491458 2431.33103480264 142 146 147
-939.876732658054 292.939043901426 2439.83958305782 140 144 145
-936.983057703269 292.105828467977 2448.05241743403 137 141 140
-929.106076069613 290.674553650084 2456.86908739293 134 139 135
-921.214369845468 289.245025129431 2465.63219035394 136 141 137
-915.300890500328 288.056509658158 2474.09958424844 132 137 133
-909.375751422966 286.869472583809 2482.52369220236 136 141 137
-905.434609138865 285.922774018636 2490.67308778115 132 137 133
-904.480636144271 285.33537383224 2498.45020947417 118 123 119
-906.520307078838 285.106552083402 2505.87864181629 109 114 110
-907.559519984269 284.758615297126 2513.41368696604 106 111 107
-909.597714543164 284.530123156096 2520.83684591176 101 106 102
-910.633771833393 284.182645286615 2528.36139363929 96 101 97
-908.661312605477 283.478496725828 2536.1796871384 91 96 92
-907.685654563706 282.894008888227 2543.87813520598 92 97 93
-908.712904799881 282.547809463578 2551.36986218858 101 106 102
-907.729303634448 281.964370262295 2559.03948104889 116 121 117
-904.730806480687 281.144187860494 2566.87135951879 120 125 121
-908.765755653797 281.155042516477 2574.06654726298 103 108 104
-912.803425923675 281.165697913076 2581.27078308169 87 92 88
-917.850829770734 281.294583324431 2588.40228562772 91 96 92
-917.861783661268 280.831302908889 2595.94403406601 88 93 89
-914.843410391002 280.013657565627 2603.70371817689 93 98 94
-903.741515223588 278.251353303931 2612.02781176489 95 100 96
-880.498162079871 275.07386275977 2621.1391377163 112 117 113
-858.22969296037 272.018531580314 2630.04989259853 132 136 135
-845.030952309677 270.028666017514 2638.23870937616 133 137 136
-839.909235555597 268.984283107363 2645.83951093691 134 138 137
-843.894781038676 269.00122694471 2652.85418783071 137 141 140
-843.827501666511 268.547066804788 2660.11122956247 144 148 147
-844.771659733941 268.210946756481 2667.30081519871 143 147 148
-841.652990730874 267.404850653865 2674.69634151957 147 151 152
-843.606554240261 267.186976908394 2681.81198586478 156 160 161
-851.659649587316 267.673531189118 2688.6389550754 171 175 176
-861.755514922344 268.393807085447 2695.40524770342 166 170 171
-868.808474693706 268.761216256182 2702.34000794188 158 162 161
-871.792922869594 268.659220166725 2709.45996370738 169 171 166
-874.778681743566 268.557173495937 2716.58382488107 143 145 140
-1175.31668042855 320.685477369053 2279.41692610684 133 137 136
-1157.91432536655 318.059496762608 2291.0794676676 137 141 140
-1149.34542344589 316.501909029794 2301.14374623589 127 131 130
-1138.78935088391 314.70982330887 2311.47556972526 95 100 96
-1107.50476751557 310.438522779326 2325.10955103115 94 99 95
-1050.51145773485 303.102703614149 2342.66998449762 135 140 136
-1024.04762661868 299.434969208809 2355.10007416149 102 106 107
-1019.28455034848 298.366358308697 2364.01807028523 107 111 112
-1009.56614073516 296.709883287522 2373.64834021528 136 140 141
-998.840176181814 294.937756918426 2383.36198932849 132 136 137
-981.161742629793 292.344146637195 2394.01994249444 143 147 148
-968.410106039751 290.341910171493 2403.86095867878 137 141 142
-958.612551673335 288.694841364341 2413.20331824362 133 137 138
-952.767698739192 287.519581952058 2421.93387773341 138 142 143
-943.931054134309 285.99374706525 2431.02412727601 141 145 146
-936.07226238804 284.587085453783 2439.92387221167 138 142 143
-933.172622651749 283.768163946912 2448.12451398266 136 140 139
-924.292476329182 282.247533550242 2457.05653601621 132 137 133
-917.388477353861 280.962871086031 2465.68194286669 132 137 133
-911.468310330802 279.796762509365 2474.13772424156 128 133 129
-907.531482331491 278.865826215844 2482.31308938735 133 138 134
-904.583991934689 278.05277103366 2490.33977472464 131 136 132
-901.629184432955 277.240677560261 2498.33897123551 122 127 123
-905.665420978404 277.245909959261 2505.53538914215 112 117 113
-907.703191748673 277.017863975469 2512.95725632408 109 114 110
-911.743217447146 277.022910784231 2520.16669641878 107 112 108
-910.775655025192 276.445797787863 2527.89985802472 104 109 105
-908.800744318579 275.753002238307 2535.71621736085 101 106 102
-908.826421612085 275.293398483214 2543.3149521596 104 109 105
-908.849095228226 274.83427922986 2550.90191175952 115 120 116
-907.863469563522 274.259508065725 2558.5694865957 122 127 123
-905.867653351672 273.569339745461 2566.3098865833 120 125 121
-911.915993458924 273.807197427687 2573.33014828804 100 105 101
-913.941667239012 273.581214834781 2580.70840443337 91 96 92
-914.959067623148 273.239562895778 2588.16736091275 95 100 96
-914.96650352781 272.782559779043 2595.69908189434 103 108 104
-913.96134361234 272.210372784561 2603.29576139548 111 116 112
-906.892153387695 270.945710892631 2611.32047282812 73 78 74
-884.650818320315 267.951174482356 2620.37035376236 91 96 92
-857.318030382127 264.383816604289 2629.63847856406 129 133 132
-844.11197975006 262.43493681745 2637.82510206437 132 136 135
-836.960341483751 261.179680478997 2645.54963825177 130 134 135
-838.916680801946 260.961911724536 2652.67565491687 131 135 134
-838.84422109266 260.514149018394 2659.917502077 131 135 134
-839.783585239112 260.18175334193 2667.09164019764 136 140 141
-836.658509097381 259.390110554958 2674.47250313526 140 144 145
-837.591459684695 259.058492742643 2681.62332007054 149 153 154
-842.590703787221 259.185965556007 2688.57512308375 171 175 176
-853.700466590565 260.000803821683 2695.26827061596 168 172 173
-862.785721223936 260.585166318171 2702.09287556181 162 166 165
-868.823037921982 260.825064317472 2709.07349765809 174 176 171
-870.786181905316 260.606804622271 2716.22446875689 163 165 160
-1127.13253392211 306.883241572678 2278.84100959837 186 190 189
-1183.47860790862 312.998665880902 2277.59141204728 132 136 135
-1161.15120161145 309.847678106533 2290.11927255806 140 144 143
-1141.74260527453 307.047864717922 2302.01685435028 131 135 134
-1132.16071550855 305.407408115792 2312.16410890751 107 112 108
-1102.82952651494 301.459551406536 2325.462225399 89 94 90
-1049.75693155062 294.74757776264 2342.38622836091 127 132 128
-1024.26756595228 291.273681621848 2354.66130547335 105 109 110
-1013.56862620441 289.533010107309 2364.49515134109 114 118 119
-1001.86124055775 287.679469121516 2374.40989574551 140 144 145
-991.123459596099 285.94343420336 2384.10245910336 136 140 141
-975.412255127268 283.634740437425 2394.45065986994 142 146 147
-964.632731027892 281.903663296054 2403.99136921957 136 140 141
-956.811167030004 280.519340859295 2413.04343727397 134 138 139
-952.947012845005 279.595784143604 2421.49328512774 140 144 145
-941.123788870089 277.756030362282 2430.98664904219 140 144 145
-936.241243812591 276.720761665763 2439.48213149582 137 141 142
-933.339008980352 275.915852509014 2447.68105582599 140 144 143
-926.445329571001 274.654150109428 2456.35927298517 133 138 134
-917.545167160021 273.165403846894 2465.23710917862 130 135 131
-913.615538324095 272.249867291208 2473.44892599535 129 134 130
-910.674928938481 271.449634713368 2481.50925469966 136 141 137
-906.728255094985 270.536271596593 2489.65822991705 130 135 131
-899.773780322647 269.2818965372 2498.11535190803 127 132 128
-901.808215278794 269.054633500941 2505.52532817802 115 120 116
-902.841396960524 268.713647468091 2513.04236891809 113 118 114
-908.881029879471 268.94185428023 2520.02420948508 114 119 115
-908.911604024711 268.487330844901 2527.64433278249 113 118 114
-907.935886539451 267.919638240832 2535.35316377926 112 117 113
-904.947935079412 267.125501915391 2543.24064047214 114 119 115
-902.95692062258 266.445739421656 2551.00543812911 122 127 123
-903.975361557909 266.106862678268 2558.47001008436 121 126 122
-907.004274830674 265.994907621304 2565.74783944641 117 122 118
-911.04065664447 265.996079571632 2572.94223315122 97 102 98
-911.05009331577 265.544542266964 2580.4848334148 86 91 87
-908.031612882358 264.754218464712 2588.26229806312 91 96 92
-909.041190731139 264.416734958585 2595.69391370969 95 100 96
-914.087175879791 264.531126226724 2602.81099806334 112 117 113
-911.054645276626 263.742550150377 2610.53740060776 68 73 69
-883.750551056067 260.249027942077 2619.95867553574 62 67 63
-855.392918108295 256.647540979005 2629.29652474769 132 136 135
-842.178587400501 254.739701481732 2637.47831664002 131 135 134
-840.086703323485 254.071901199955 2644.87708650407 131 135 136
-837.988988932888 253.404818464124 2652.25373355495 132 136 137
-838.928926597547 253.07551916755 2659.43195592844 136 140 141
-837.836405156898 252.521898746739 2666.71600117163 131 135 136
-835.723260502527 251.856665585185 2674.03652640174 123 127 130
-835.637369400345 251.416334017433 2681.23319706428 127 131 134
-840.63559511661 251.536552176073 2688.17663879969 160 164 167
-851.746756045386 252.328064417096 2694.86025046678 168 172 175
-855.738103256639 252.335094716113 2701.89113817356 168 172 173
-861.77145033313 252.565501476667 2708.85010054926 156 158 155
-863.728796773113 252.348461077069 2715.9803163053 172 174 171
-1191.3248884446 305.759496329412 2267.08301064287 174 178 177
-1187.70970479038 304.822279723701 2276.44861314105 136 140 139
-1165.37425366071 301.738668170435 2288.98914258435 137 141 140
-1145.95884150273 298.998160423881 2300.89886104655 130 134 133
-1131.44277291056 296.825787847329 2311.8741127611 118 123 119
-1094.20142285699 292.062237726228 2326.46078658733 89 94 90
-1045.04964667754 285.952890175055 2342.7362772454 131 136 132
-1023.49840352488 283.005685023425 2354.37821668351 105 109 110
-1011.80337103352 281.187981962936 2364.36238114483 123 127 128
-1000.08808020665 279.372730108394 2374.27194891752 139 143 144
-982.408773318235 276.885648195174 2384.99391599136 138 142 143
-968.665453367366 274.85116620726 2395.02896847121 139 143 144
-957.874829896535 273.156104808736 2404.55120648463 132 136 137
-954.014261438857 272.248307976415 2413.02431740647 136 140 141
-950.144959952842 271.341658273893 2421.46479952092 140 144 145
-940.301314845509 269.764250276721 2430.68094240942 141 145 146
-931.435111098059 268.300864087467 2439.7008714875 139 143 144
-927.530661488877 267.398474486288 2448.01447413695 134 138 137
-921.624465167924 266.27374285148 2456.54917824804 132 137 133
-919.694793911422 265.597088699748 2464.54369362932 129 134 130
-918.756718933186 265.03278324866 2472.394422348 127 132 128
-915.817108632459 264.246176219171 2480.4661338941 130 135 131
-908.872907338089 263.014809879508 2488.97592579634 135 140 136
-898.915586533664 261.451040058902 2497.77862353208 126 131 127
-899.947936545508 261.113161286177 2505.29453820624 115 120 116
-900.978445902945 260.775610927118 2512.80382623455 114 119 115
-907.01746121604 260.993794490904 2519.77704559777 114 119 115
-907.044956417734 260.545411011092 2527.38961382774 116 121 117
-908.072908555107 260.208416356086 2534.8897582416 121 126 122
-906.086277751952 259.539158589984 2542.6774636806 124 129 125
-905.098430326726 258.981432742147 2550.3475510758 124 129 125
-905.11149134801 258.53497859618 2557.90774610332 120 125 121
