ply
format ascii 1.0
comment KinectMotionCapture
element vertex 750
property float x
property float y
property float z
property uchar red
property uchar green
property uchar blue
end_header
-1341.51268005371 86.7733880877495 2470.99995613098 175 174 170
-1265.67280292511 86.1920043826103 2457.00001716614 179 184 180
-1254.78446483612 85.9042480587959 2448.99988174438 105 107 104
-1242.9267168045 85.5467095971107 2438.99989128113 118 118 116
-1233.15691947937 85.3298082947731 2433.00008773804 128 128 126
-1221.91345691681 85.0080326199532 2424.00002479553 148 147 145
-1212.2288942337 84.7918093204498 2417.99998283386 151 150 148
-1204.57649230957 84.7161486744881 2415.99988937378 158 158 156
-1198.42803478241 84.7460031509399 2417.00005531311 160 160 158
-1192.27838516235 84.7761034965515 2417.99998283386 158 158 156
-1183.67648124695 84.6312195062637 2414.00003433228 159 159 157
-1177.53899097443 84.6618935465813 2414.99996185303 159 159 157
-1171.88549041748 84.7278982400894 2417.00005531311 149 149 147
-1165.7429933548 84.7591087222099 2417.99998283386 142 144 141
-1160.07888317108 84.8256275057793 2420.00007629395 136 138 135
-1154.40773963928 84.8924070596695 2421.99993133545 131 133 130
-1149.20365810394 84.9944874644279 2424.99995231628 125 127 124
-1143.0447101593 85.0267335772514 2426.00011825562 122 124 121
-1137.82072067261 85.1292908191681 2428.99990081787 125 127 124
-1132.58445262909 85.2321162819862 2431.99992179871 124 126 123
-1127.33507156372 85.3351652622223 2434.99994277954 122 124 121
-1119.77171897888 85.2632448077202 2433.00008773804 122 124 121
-1112.2225522995 85.191547870636 2430.99999427795 124 126 123
-1105.59713840485 85.1901769638062 2430.99999427795 129 131 128
-1099.42698478699 85.2240696549416 2431.99992179871 134 136 133
-1093.25444698334 85.2582007646561 2433.00008773804 140 142 139
-1088.41943740845 85.3976681828499 2437.00003623962 138 140 137
-1084.00917053223 85.5723917484283 2441.99991226196 131 133 130
-1078.69231700897 85.67725867033 2444.9999332428 133 135 132
-1071.60782814026 85.6421515345573 2444.00000572205 135 137 134
-1066.71023368835 85.7824832201004 2447.99995422363 131 133 130
-1061.36035919189 85.8879685401917 2450.99997520447 127 129 126
-1057.71791934967 86.1338302493095 2457.99994468689 128 130 127
-1052.3294210434 86.2397253513336 2460.99996566772 126 128 125
-1048.20144176483 86.4509344100952 2467.00000762939 124 126 123
-1043.62094402313 86.6273045539856 2471.99988365173 124 126 123
-1039.01553153992 86.8038758635521 2476.99999809265 124 126 123
-1033.96821022034 86.9455933570862 2480.99994659424 124 126 123
-1029.7292470932 87.1575921773911 2486.99998855591 122 124 121
-1023.40304851532 87.1945545077324 2487.99991607666 126 128 125
-1018.7075138092 87.3718708753586 2493.00003051758 128 130 127
-1012.76898384094 87.4442383646965 2494.99988555908 133 135 132
-1008.83722305298 87.6920223236084 2502.00009346008 137 139 136
-1005.67018985748 88.0100876092911 2510.99991798401 140 142 139
-1002.45583057404 88.3283391594887 2519.99998092651 143 145 142
-998.799204826355 88.6117294430733 2528.00011634827 144 146 143
-995.100557804108 88.8952761888504 2536.00001335144 145 147 144
-992.139339447021 89.2491415143013 2546.0000038147 144 146 143
-989.512085914612 89.6382257342339 2556.99992179871 144 146 143
-987.210869789124 90.0625437498093 2569.00000572205 144 144 142
-986.372053623199 90.6272903084755 2585.00003814697 142 142 140
-986.584603786469 91.2974253296852 2604.00009155273 141 141 139
-985.190331935883 91.827504336834 2618.99995803833 142 142 140
-984.836578369141 92.4629643559456 2637.00008392334 142 142 140
-981.790840625763 92.8531736135483 2648.00000190735 140 140 138
-937.849998474121 94.2269861698151 2686.00010871887 107 109 106
-926.786720752716 93.8467755913734 2674.99995231628 117 119 116
-916.814625263214 93.5718938708305 2667.00005531311 118 120 117
-907.567918300629 93.367263674736 2661.00001335144 99 101 98
-901.39901638031 93.4785082936287 2664.00003433228 111 111 109
-893.535315990448 93.4143960475922 2661.99994087219 110 110 108
-887.347519397736 93.5258567333221 2664.99996185303 110 110 108
-880.152583122253 93.5321301221848 2664.99996185303 116 116 114
-875.250518321991 93.7841832637787 2671.99993133545 145 145 143
-870.635151863098 94.0714627504349 2680.0000667572 156 156 154
-866.62083864212 94.429075717926 2690.00005722046 151 152 147
-861.274421215057 94.6463942527771 2696.00009918213 168 169 164
-1373.31879138947 76.9238919019699 2369.99988555908 181 183 180
-1360.83650588989 76.5854194760323 2359.99989509583 169 171 168
-1348.99353981018 76.2798860669136 2351.0000705719 159 161 158
-1342.34929084778 76.2667879462242 2351.0000705719 159 161 158
-1339.12241458893 76.4486715197563 2357.00011253357 154 156 153
-1336.43567562103 76.6632854938507 2364.00008201599 153 154 149
-1333.15515518188 76.8457502126694 2369.99988555908 138 139 134
-1328.72986793518 76.9637003540993 2374.00007247925 134 135 130
-1325.96099376678 77.1792009472847 2381.00004196167 132 133 128
-1323.7144947052 77.4273797869682 2388.99993896484 127 128 123
-1324.18727874756 77.8378620743752 2401.99995040894 128 129 124
-1325.69229602814 78.3133953809738 2417.00005531311 122 121 117
-1329.30338382721 78.9187103509903 2436.00010871887 106 105 101
-1268.7566280365 79.7005519270897 2463.00005912781 195 200 196
-1257.33959674835 79.4027522206306 2453.9999961853 102 104 101
-1242.92027950287 78.9111703634262 2438.99989128113 116 116 114
-1233.65783691406 78.7434726953506 2434.00001525879 122 122 120
-1220.89946269989 78.3496126532555 2421.99993133545 148 147 145
-1213.72747421265 78.3119276165962 2421.0000038147 152 151 149
-1205.07001876831 78.1774595379829 2417.00005531311 154 154 152
-1198.91881942749 78.2049968838692 2417.99998283386 153 153 151
-1191.78080558777 78.1681165099144 2417.00005531311 154 154 152
-1183.67218971252 78.066810965538 2414.00003433228 162 162 160
-1177.53493785858 78.0951306223869 2414.99996185303 165 165 163
-1171.39673233032 78.1236812472343 2415.99988937378 172 172 170
-1165.25745391846 78.1524926424026 2417.00005531311 171 173 170
-1159.59620475769 78.2138779759407 2418.99991035461 165 167 164
-1153.45144271851 78.2431587576866 2420.00007629395 162 164 161
-1147.77910709381 78.3050060272217 2421.99993133545 158 160 157
-1141.15738868713 78.3024355769157 2421.99993133545 152 154 151
-1137.81845569611 78.5263851284981 2428.99990081787 141 143 140
-1132.58218765259 78.6212459206581 2431.99992179871 139 141 138
-1126.87027454376 78.684002161026 2434.00001525879 135 137 134
-1119.30978298187 78.6176547408104 2431.99992179871 131 133 130
-1111.76359653473 78.5515457391739 2430.0000667572 135 137 134
-1106.0506105423 78.6149427294731 2431.99992179871 134 136 133
-1099.42591190338 78.6138996481895 2431.99992179871 137 139 136
-1092.80431270599 78.6130651831627 2431.99992179871 145 147 144
-1087.07880973816 78.6770880222321 2434.00001525879 143 145 142
-1083.56487751007 78.902930021286 2440.99998474121 135 137 134
-1079.57446575165 79.0966525673866 2447.00002670288 135 137 134
-1072.48485088348 79.0642946958542 2446.00009918213 132 134 131
-1067.14630126953 79.1614130139351 2448.99988174438 129 131 128
-1061.7938041687 79.2587324976921 2451.99990272522 129 131 128
-1057.28828907013 79.4208943843842 2457.00001716614 126 128 125
-1051.9026517868 79.5185938477516 2460.00003814697 125 127 124
-1047.77765274048 79.7134414315224 2466.00008010864 127 129 126
-1044.04449462891 79.9407958984375 2473.00004959106 131 133 130
-1039.01708126068 80.071359872818 2476.99999809265 136 138 135
-1033.55300426483 80.1697671413422 2480.00001907349 137 139 136
-1028.0749797821 80.2683606743813 2483.00004005432 133 135 132
-1022.17102050781 80.3347826004028 2484.99989509583 138 140 137
-1017.07518100739 80.4660394787788 2489.00008201599 140 142 139
-1011.55352592468 80.5651322007179 2492.00010299683 141 143 140
-1007.63010978699 80.793708562851 2499.00007247925 142 144 141
-1005.27238845825 81.1517834663391 2509.99999046326 143 145 142
-1001.26516819 81.3806876540184 2516.99995994568 141 143 140
-998.802125453949 81.7391127347946 2528.00011634827 140 142 139
-995.888531208038 82.0653662085533 2538.00010681152 138 140 137
-994.480788707733 82.5211331248283 2552.00004577637 137 139 136
-990.289449691772 82.7507153153419 2559.00001525879 137 139 136
-987.983047962189 83.1421539187431 2571.00009918213 139 139 137
-985.612690448761 83.5337489843369 2582.99994468689 138 138 136
-985.07285118103 84.0872228145599 2599.99990463257 138 138 136
-985.194385051727 84.705576300621 2618.99995803833 138 138 136
-984.840750694275 85.2917730808258 2637.00008392334 139 139 137
-982.536852359772 85.7164263725281 2650.00009536743 138 138 136
-980.531513690948 86.1735939979553 2664.00003433228 138 138 136
-937.506198883057 86.8867412209511 2684.99994277954 146 148 145
-926.79226398468 86.5683928132057 2674.99995231628 104 106 103
-917.507767677307 86.3795801997185 2668.99991035461 101 103 100
-908.255815505981 86.1908420920372 2663.00010681152 90 92 89
-900.727987289429 86.1639901995659 2661.99994087219 98 98 96
-892.534255981445 86.0724970698357 2658.99991989136 109 109 107
-886.021673679352 86.1429497599602 2661.00001335144 137 137 135
-878.837585449219 86.148738861084 2661.00001335144 144 144 142
-873.946309089661 86.3812491297722 2667.99998283386 146 146 144
-869.666874408722 86.6786390542984 2677.00004577637 145 145 143
-865.660786628723 87.0085209608078 2687.00003623962 149 150 145
-860.961377620697 87.2737541794777 2694.9999332428 159 160 155
-1385.27071475983 70.7359239459038 2378.99994850159 199 201 198
-1371.56689167023 70.3660175204277 2367.00010299683 182 184 181
-1359.09330844879 70.0560361146927 2357.00011253357 173 175 172
-1346.68552875519 69.7465017437935 2346.99988365173 158 160 157
-1340.62397480011 69.7642639279366 2348.00004959106 153 155 152
-1339.67852592468 70.0497105717659 2358.00004005432 137 139 136
-1337.55445480347 70.2759772539139 2365.9999370575 136 137 132
-1335.39390563965 70.5025196075439 2374.00007247925 132 133 128
-1329.83815670013 70.5511495471001 2375.99992752075 132 133 128
-1325.39331912994 70.6594660878181 2380.00011444092 133 134 129
-1321.48766517639 70.7977488636971 2384.99999046326 134 135 130
-1321.97201251984 71.1737498641014 2398.00000190735 138 139 134
-1324.03695583344 71.6389939188957 2414.00003433228 123 122 118
-1329.29372787476 72.282463312149 2436.00010871887 113 112 108
-1266.68977737427 72.8801637887955 2459.00011062622 204 209 205
-1256.30867481232 72.666697204113 2451.99990272522 105 107 104
-1244.952917099 72.3942816257477 2443.00007820129 118 118 116
-1235.17274856567 72.2110494971275 2437.00003623962 122 122 120
-1223.91879558563 71.9392076134682 2427.99997329712 146 145 143
-1213.72246742249 71.72691822052 2421.0000038147 147 146 144
-1205.06536960602 71.6037824749947 2417.00005531311 150 150 148
-1198.41873645782 71.5993940830231 2417.00005531311 148 148 146
-1191.77663326263 71.5952515602112 2417.00005531311 148 148 146
-1183.17794799805 71.4728608727455 2413.00010681152 160 160 158
-1174.60572719574 71.3507086038589 2408.99991989136 161 161 159
-1167.02973842621 71.2880417704582 2407.00006484985 166 166 164
-1160.91525554657 71.3144540786743 2407.99999237061 166 168 165
-1155.7582616806 71.4003145694733 2411.00001335144 167 169 166
-1151.54218673706 71.5456083416939 2415.99988937378 167 169 166
-1146.82877063751 71.661502122879 2420.00007629395 172 174 171
-1141.15500450134 71.7183724045753 2421.99993133545 171 173 170
-1136.41107082367 71.8346834182739 2426.00011825562 165 167 164
-1130.71751594543 71.8919709324837 2427.99997329712 165 167 164
-1125.47957897186 71.9790682196617 2430.99999427795 159 161 158
-1117.00701713562 71.85909897089 2427.00004577637 154 156 153
-1110.84723472595 71.887381374836 2427.99997329712 158 160 157
-1105.14008998871 71.9454735517502 2430.0000667572 151 153 150
-1100.3292798996 72.0629617571831 2434.00001525879 148 150 147
-1092.80347824097 72.0029920339584 2431.99992179871 147 149 146
-1086.63177490234 72.0320418477058 2433.00008773804 142 144 141
-1081.34508132935 72.1204802393913 2436.00010871887 139 141 138
-1077.36849784851 72.2979158163071 2441.99991226196 139 141 138
-1071.16949558258 72.3275020718575 2443.00007820129 141 143 140
-1065.8392906189 72.4164843559265 2446.00009918213 140 142 139
-1060.49513816834 72.5056156516075 2448.99988174438 141 143 140
-1055.99784851074 72.6541578769684 2453.9999961853 145 147 144
-1051.90336704254 72.8324726223946 2460.00003814697 143 145 142
-1047.77860641479 73.0109512805939 2466.00008010864 141 143 140
-1043.20120811462 73.1599852442741 2470.99995613098 141 143 140
-1036.92078590393 73.1907561421394 2471.99988365173 140 142 139
-1031.88753128052 73.310524225235 2476.0000705719 139 141 138
-1026.42035484314 73.4008327126503 2479.00009155273 143 145 142
-1022.58408069611 73.6097246408463 2486.00006103516 141 143 140
-1017.07708835602 73.7003535032272 2489.00008201599 139 141 138
-1012.36736774445 73.8503336906433 2493.99995803833 135 137 134
-1008.84199142456 74.0893334150314 2502.00009346008 136 138 135
-1006.47628307343 74.4173005223274 2513.00001144409 137 139 136
-1002.46119499207 74.6269896626472 2519.99998092651 137 139 136
-1000.38516521454 74.9849006533623 2532.00006484985 137 139 136
-997.460901737213 75.2837359905243 2542.00005531311 136 138 135
-996.042430400848 75.7011920213699 2555.99999427795 136 138 135
-991.453588008881 75.8818760514259 2562.00003623962 136 138 135
-987.986385822296 76.1515572667122 2571.00009918213 132 132 130
-985.234558582306 76.4806196093559 2582.00001716614 133 133 131
-983.939826488495 76.9283324480057 2596.99988365173 137 137 135
-984.822154045105 77.5539577007294 2618.00003051758 137 137 135
-985.591650009155 78.1797394156456 2638.99993896484 136 136 134
-983.653247356415 78.598327934742 2653.00011634827 135 135 133
-983.112096786499 79.1355818510056 2671.0000038147 135 135 133
-935.067057609558 79.3739929795265 2677.99997329712 197 199 196
-924.718618392944 79.1120529174805 2668.99991035461 109 111 108
-916.137874126434 78.998401761055 2664.99996185303 115 117 114
-907.919883728027 78.9144486188889 2661.99994087219 119 121 118
-900.733292102814 78.9195224642754 2661.99994087219 121 121 119
-893.21106672287 78.8950324058533 2661.00001335144 125 125 123
-886.360049247742 78.9299234747887 2661.99994087219 133 133 131
-878.512978553772 78.875944018364 2660.00008583069 136 136 134
-872.969329357147 79.0296047925949 2664.99996185303 145 145 143
-868.698060512543 79.3019905686378 2674.00002479553 150 150 148
-865.3444647789 79.6634629368782 2686.00010871887 158 159 154
-860.96727848053 79.9360647797585 2694.9999332428 159 160 155
-1385.25807857513 64.2416402697563 2378.99994850159 189 191 188
-1368.07799339294 63.7437105178833 2361.00006103516 180 182 179
-1358.50465297699 63.5971948504448 2355.99994659424 182 184 181
-1346.10021114349 63.3160993456841 2345.99995613098 176 178 175
-1337.18705177307 63.1973221898079 2342.00000762939 166 168 165
-1336.25876903534 63.4566023945808 2351.99999809265 160 162 159
-1334.71739292145 63.6891201138496 2361.00006103516 144 145 140
-1333.13322067261 63.9218538999558 2369.99988555908 130 131 126
-1328.1489610672 63.9930218458176 2372.99990653992 124 125 120
-1324.82635974884 64.1453340649605 2378.99994850159 113 114 109
-1323.69434833527 64.4057467579842 2388.99993896484 105 106 101
-1324.16784763336 64.7472217679024 2401.99995040894 98 99 94
-1326.77030563354 65.1967003941536 2418.99991035461 109 108 104
-1326.01082324982 65.4846504330635 2430.0000667572 106 105 101
-1267.19892024994 66.2162303924561 2460.00003814697 204 209 205
-1255.27846813202 65.9416243433952 2450.00004768372 101 103 100
-1244.43805217743 65.7211393117905 2441.99991226196 112 112 110
-1235.16762256622 65.5816569924355 2437.00003623962 121 121 119
-1224.41804409027 65.3616935014725 2428.99990081787 139 138 136
-1214.21909332275 65.1689022779465 2421.99993133545 146 145 143
-1205.06107807159 65.0301799178123 2417.00005531311 138 138 136
-1199.40614700317 65.0800094008446 2418.99991035461 136 136 134
-1192.26562976837 65.0493428111076 2417.99998283386 135 135 133
-1183.17437171936 64.9113059043884 2413.00010681152 142 142 140
-1173.13957214355 64.7196844220161 2405.99989891052 145 145 143
-1165.57204723358 64.6627843379974 2404.00004386902 149 149 147
-1159.94799137115 64.713679254055 2405.99989891052 150 152 149
-1154.79671955109 64.7916719317436 2408.99991989136 158 160 157
-1150.58636665344 64.9236440658569 2414.00003433228 161 163 160
-1145.87867259979 65.0289133191109 2417.99998283386 161 163 160
-1139.73927497864 65.053679049015 2418.99991035461 165 167 164
-1134.06705856323 65.1055425405502 2421.0000038147 166 168 165
-1127.45583057404 65.1037991046906 2421.0000038147 168 170 167
-1122.70021438599 65.2098059654236 2424.99995231628 165 167 164
-1114.70437049866 65.1277601718903 2421.99993133545 166 168 165
-1109.01606082916 65.1803463697433 2424.00002479553 171 173 170
-1103.31988334656 65.2331113815308 2426.00011825562 163 165 162
-1098.52015972137 65.3398260474205 2430.0000667572 156 158 155
-1091.90440177917 65.3391629457474 2430.0000667572 142 144 141
-1085.73806285858 65.3655454516411 2430.99999427795 133 135 132
-1080.90090751648 65.4727667570114 2434.99994277954 136 138 135
-1077.36837863922 65.6608119606972 2441.99991226196 136 138 135
-1072.48497009277 65.7683610916138 2446.00009918213 138 140 137
-1067.58260726929 65.8760741353035 2450.00004768372 136 138 135
-1061.36167049408 65.9032687544823 2450.99997520447 135 137 134
-1056.85901641846 66.0381764173508 2456.00008964539 135 137 134
-1052.3316860199 66.1732405424118 2460.99996566772 134 136 133
-1047.35445976257 66.2815570831299 2464.99991416931 133 135 132
-1042.78016090393 66.416934132576 2470.00002861023 133 135 132
-1038.18047046661 66.5524452924728 2474.99990463257 131 133 130
-1033.55586528778 66.6881129145622 2480.00001907349 130 132 129
-1027.66394615173 66.7432546615601 2482.00011253357 134 136 133
-1022.99702167511 66.8792054057121 2486.99998855591 130 132 129
-1017.07887649536 66.9346302747726 2489.00008201599 127 129 126
-1013.18120956421 67.1246498823166 2496.00005149841 127 129 126
-1009.65046882629 67.3417001962662 2503.99994850159 130 132 129
-1007.67993927002 67.6664784550667 2516.00003242493 133 135 132
-1002.46357917786 67.7762404084206 2519.99998092651 134 136 133
-999.992549419403 68.0743977427483 2530.99989891052 135 137 134
-996.67876958847 68.3189257979393 2539.99996185303 138 140 137
-996.045231819153 68.7518641352654 2555.99999427795 138 140 137
-991.456508636475 68.9159706234932 2562.00003623962 137 139 136
-988.373577594757 69.1877976059914 2572.00002670288 136 136 134
-985.237777233124 69.4597736001015 2582.00001716614 136 136 134
-984.701037406921 69.9201971292496 2598.99997711182 133 133 131
-985.95404624939 70.5152973532677 2621.00005149841 133 133 131
-986.342251300812 71.0567533969879 2641.00003242493 135 135 133
-984.769225120544 71.463830769062 2655.99989891052 140 140 138
-983.116030693054 71.8710571527481 2671.0000038147 132 132 130
-931.929051876068 71.8453750014305 2668.99991035461 183 185 182
-924.030244350433 71.7959329485893 2667.00005531311 92 94 91
-916.142582893372 71.7465505003929 2664.99996185303 111 113 110
-907.924652099609 71.6703236103058 2661.99994087219 117 119 116
-900.39986371994 71.6480165719986 2661.00001335144 119 119 117
-893.551588058472 71.6796293854713 2661.99994087219 122 122 120
-885.699152946472 71.6305524110794 2660.00008583069 131 131 129
-878.187716007233 71.6084539890289 2658.99991989136 134 134 132
-872.319459915161 71.7210993170738 2663.00010681152 141 141 139
-868.053555488586 71.9684734940529 2671.99993133545 145 145 143
-864.383280277252 72.2698345780373 2683.00008773804 159 160 155
-859.375476837158 72.4635422229767 2690.00005722046 161 162 157
-1369.22550201416 57.3484674096107 2362.99991607666 174 176 173
-1357.91742801666 57.1439750492573 2355.00001907349 168 170 167
-1345.51608562469 56.891318410635 2345.00002861023 154 156 153
-1337.74781227112 56.8330697715282 2342.99993515015 150 152 149
-1334.54442024231 56.9691359996796 2348.99997711182 149 151 148
-1331.88104629517 57.1296699345112 2355.99994659424 151 152 147
-1328.62401008606 57.266179472208 2361.99998855591 146 147 142
-1325.34158229828 57.4029162526131 2368.00003051758 144 145 140
-1325.37460327148 57.6852895319462 2380.00011444092 135 136 131
-1325.3481388092 57.9678416252136 2391.99995994568 125 126 121
-1324.71072673798 58.2263395190239 2403.00011634827 117 118 113
-1325.66523551941 58.5577078163624 2417.00005531311 108 107 103
-1328.73117923737 58.9861311018467 2434.99994277954 95 94 90
-1275.43544769287 59.9098764359951 2476.0000705719 211 216 212
-1253.7362575531 59.2033267021179 2447.00002670288 112 114 111
-1245.45228481293 59.1261051595211 2444.00000572205 111 111 109
-1234.65633392334 58.928158134222 2436.00010871887 113 113 111
-1225.92604160309 58.8271953165531 2431.99992179871 132 131 129
-1214.71643447876 58.6055293679237 2423.00009727478 141 140 138
-1206.05432987213 58.5050135850906 2418.99991035461 137 137 135
-1198.41086864471 58.4530793130398 2417.00005531311 136 136 134
-1191.76924228668 58.44971165061 2417.00005531311 132 132 130
-1183.66146087646 58.3739951252937 2414.00003433228 140 140 138
-1174.11172389984 58.2259297370911 2407.99999237061 141 141 139
-1166.05389118195 58.1506080925465 2404.99997138977 148 148 146
-1160.42757034302 58.1963732838631 2407.00006484985 153 155 152
-1154.7943353653 58.2423098385334 2408.99991989136 158 160 157
-1151.06070041656 58.3851225674152 2414.99996185303 158 160 157
-1145.87664604187 58.4555864334106 2417.99998283386 146 148 145
-1139.73736763 58.4778562188149 2418.99991035461 142 144 141
-1133.12840461731 58.476135134697 2418.99991035461 138 140 137
-1127.45440006256 58.5229285061359 2421.0000038147 133 135 132
-1122.23589420319 58.5940591990948 2424.00002479553 130 132 129
-1113.78276348114 58.4961473941803 2420.00007629395 134 136 133
-1105.81231117249 58.4225654602051 2417.00005531311 140 142 139
-1100.59034824371 58.494184166193 2420.00007629395 144 146 143
-1096.71127796173 58.6384609341621 2426.00011825562 150 152 149
-1092.80240535736 58.7828867137432 2431.99992179871 142 144 141
-1087.07749843597 58.8307902216911 2434.00001525879 133 135 132
-1081.78853988647 58.9030086994171 2437.00003623962 118 120 117
-1078.25064659119 59.0720549225807 2444.00000572205 119 121 118
-1073.80044460297 59.1929107904434 2448.99988174438 119 121 118
-1068.8898563385 59.2897348105907 2453.00006866455 122 124 121
-1062.22820281982 59.2900291085243 2453.00006866455 124 126 123
-1057.72018432617 59.4113059341908 2457.99994468689 126 128 125
-1051.90479755402 59.460211545229 2460.00003814697 128 130 127
-1047.78039455414 59.6059411764145 2466.00008010864 131 133 130
-1041.51463508606 59.6309527754784 2467.00000762939 130 132 129
-1037.76216506958 59.8011203110218 2473.99997711182 133 135 132
-1033.1404209137 59.9230788648129 2479.00009155273 134 136 133
-1028.07927131653 60.0209943950176 2483.00004005432 134 136 133
-1023.40984344482 60.1432099938393 2487.99991607666 133 135 132
-1017.897605896 60.2172128856182 2490.9999370575 130 132 129
-1014.40072059631 60.4122132062912 2499.00007247925 123 125 122
-1011.26515865326 60.6315135955811 2507.99989700317 122 124 121
-1008.48293304443 60.8751177787781 2517.99988746643 122 124 121
-1004.45473194122 61.0463283956051 2525.00009536743 136 138 135
-1000.38993358612 61.2176544964314 2532.00006484985 138 140 137
-996.681153774261 61.4132881164551 2539.99996185303 136 138 135
-995.26834487915 61.7541149258614 2553.99990081787 135 137 134
-992.233037948608 61.9983561336994 2563.99989128113 137 139 136
-989.913523197174 62.2910931706429 2575.99997520447 141 141 139
-986.385405063629 62.5114068388939 2585.00003814697 140 140 138
-984.325051307678 62.8285631537437 2598.00004959106 138 138 136
-984.452486038208 63.2909759879112 2617.00010299683 136 136 134
-984.478056430817 63.7535080313683 2635.99991798401 134 134 132
-982.918739318848 64.1194432973862 2651.00002288818 132 132 130
-980.542957782745 64.437136054039 2664.00003433228 128 128 126
-934.028208255768 64.7286176681519 2674.99995231628 189 191 188
-922.302186489105 64.4179880619049 2661.99994087219 97 99 96
-915.459394454956 64.4462108612061 2663.00010681152 105 107 104
-908.270180225372 64.4502937793732 2663.00010681152 112 114 111
-900.742590427399 64.4302442669868 2661.99994087219 110 110 108
-893.556118011475 64.4344761967659 2661.99994087219 114 114 112
-885.370850563049 64.3661469221115 2658.99991989136 128 128 126
-878.852903842926 64.4189119338989 2661.00001335144 134 134 132
-871.996521949768 64.4475445151329 2661.99994087219 143 143 141
-867.083609104156 64.6215081214905 2668.99991035461 145 145 143
-862.455129623413 64.8197680711746 2677.00004577637 153 154 149
-857.463538646698 64.9939030408859 2684.00001525879 159 160 155
-852.750539779663 65.1923194527626 2691.99991226196 161 162 157
-1367.4772977829 50.8347637951374 2359.99989509583 184 186 183
-1357.9078912735 50.7178977131844 2355.00001907349 180 182 179
-1348.37555885315 50.6013110280037 2349.99990463257 159 161 158
-1340.59345722198 50.5496114492416 2348.00004959106 156 158 155
-1336.80808544159 50.6488382816315 2352.9999256134 141 143 140
-1331.87258243561 50.7052317261696 2355.99994659424 129 130 125
-1328.05323600769 50.8048832416534 2361.00006103516 123 124 119
-1325.89304447174 50.969272851944 2368.99995803833 123 124 119
-1327.59428024292 51.2844435870647 2384.0000629425 127 128 123
-1330.32703399658 51.642756909132 2401.00002288818 126 127 122
-1329.66482639313 51.8721714615822 2411.99994087219 125 126 121
-1332.23938941956 52.2307567298412 2428.99990081787 117 116 112
-1335.2724313736 52.6109896600246 2447.00002670288 109 108 104
-1255.78129291534 52.6317432522774 2450.99997520447 111 113 110
-1245.44811248779 52.4773150682449 2444.00000572205 113 113 111
-1235.15903949738 52.3231066763401 2437.00003623962 114 114 112
-1224.91419315338 52.1691031754017 2430.0000667572 129 128 126
-1215.7154083252 52.0582273602486 2424.99995231628 136 135 133
-1208.04512500763 52.0119592547417 2423.00009727478 134 134 132
-1199.89502429962 51.9444048404694 2420.00007629395 136 136 134
-1191.27297401428 51.8555641174316 2415.99988937378 137 137 135
-1184.63909626007 51.8527552485466 2415.99988937378 125 125 123
-1175.57168006897 51.7428107559681 2411.00001335144 126 126 124
-1168.47574710846 51.7188869416714 2410.00008583069 137 137 135
-1160.42518615723 51.6522079706192 2407.00006484985 141 143 140
-1155.27141094208 51.7144426703453 2410.00008583069 135 137 134
-1150.10535717011 51.7768338322639 2413.00010681152 129 131 128
-1146.3485956192 51.9037470221519 2418.99991035461 122 124 121
-1140.67816734314 51.9449822604656 2421.0000038147 119 121 118
-1134.53209400177 51.9649088382721 2421.99993133545 116 118 115
-1127.91860103607 51.963534206152 2421.99993133545 111 113 110
-1122.69759178162 52.0266778767109 2424.99995231628 108 110 107
-1115.62263965607 52.0041435956955 2424.00002479553 107 109 106
-1106.72640800476 51.8959313631058 2418.99991035461 118 120 117
-1102.40876674652 52.0024076104164 2424.00002479553 125 127 124
-1097.16272354126 52.0661137998104 2427.00004577637 129 131 128
-1095.04878520966 52.2801205515862 2437.00003623962 124 126 123
-1088.41705322266 52.2797331213951 2437.00003623962 117 119 116
-1084.45167541504 52.408192306757 2443.00007820129 119 121 118
-1079.13303375244 52.4724349379539 2446.00009918213 121 123 120
-1075.55437088013 52.6226051151752 2453.00006866455 123 125 122
-1070.19746303558 52.6870973408222 2456.00008964539 125 127 124
-1064.39363956451 52.7302622795105 2457.99994468689 124 126 123
-1058.58135223389 52.7735576033592 2460.00003814697 120 122 119
-1052.76048183441 52.8169684112072 2461.99989318848 124 126 123
-1046.93126678467 52.8605096042156 2463.99998664856 128 130 127
-1041.93758964539 52.9470704495907 2467.99993515015 127 129 126
-1038.18261623383 53.0981123447418 2474.99990463257 130 132 129
-1033.1414937973 53.1849078834057 2479.00009155273 133 135 132
-1026.83854103088 53.2074607908726 2480.00001907349 144 146 143
-1020.94316482544 53.251575678587 2482.00011253357 144 146 143
-1016.67320728302 53.381621837616 2487.99991607666 141 143 140
-1013.59045505524 53.5761564970016 2496.99997901917 132 134 131
-1010.86366176605 53.7922643125057 2506.99996948242 128 130 127
-1008.08441638947 54.0084801614285 2516.99995994568 127 129 126
-1004.85444068909 54.2033538222313 2526.00002288818 131 133 130
-1001.57737731934 54.3983466923237 2535.00008583069 133 135 132
-998.645305633545 54.6149127185345 2545.00007629395 134 136 133
-995.270550251007 54.8101179301739 2553.99990081787 135 137 134
-993.009507656097 55.0698302686214 2565.99998474121 136 138 135
-990.300238132477 55.3081892430782 2576.99990272522 139 139 137
-987.532675266266 55.5466562509537 2588.00005912781 139 139 137
-985.085546970367 55.8067075908184 2599.99990463257 136 136 134
-984.07906293869 56.1527237296104 2615.9999370575 134 134 132
-983.360528945923 56.5203279256821 2632.99989700317 133 133 131
-980.697154998779 56.780718266964 2644.99998092651 132 132 130
-977.601528167725 57.0197477936745 2655.99989891052 133 133 131
-921.112596988678 56.6556043922901 2638.00001144409 189 191 188
-923.691749572754 57.2604574263096 2665.99988937378 108 110 107
-916.838228702545 57.2855211794376 2667.00005531311 106 108 105
-908.956110477448 57.2461932897568 2664.99996185303 114 116 113
-900.408267974854 57.1639761328697 2661.00001335144 114 114 112
-892.217516899109 57.1032762527466 2657.99999237061 118 118 116
-883.710026741028 57.0211485028267 2654.00004386902 128 128 126
-876.875340938568 57.0464953780174 2654.99997138977 130 130 128
-870.69046497345 57.1148805320263 2657.99999237061 143 143 141
-865.138828754425 57.2263039648533 2663.00010681152 149 149 147
-860.848605632782 57.423759251833 2671.99993133545 154 155 150
-855.870604515076 57.578306645155 2678.99990081787 161 162 157
-850.537717342377 57.7114261686802 2684.99994277954 166 167 162
-1362.25366592407 44.224701821804 2351.0000705719 184 186 183
-1353.86312007904 44.1602915525436 2348.00004959106 174 176 173
-1347.79369831085 44.1713370382786 2348.99997711182 155 157 154
-1342.29850769043 44.2013964056969 2351.0000705719 160 162 159
-1339.64109420776 44.3256460130215 2358.00004005432 158 160 157
-1332.99565315247 44.318500906229 2358.00004005432 152 153 148
-1329.17082309723 44.4055199623108 2362.99991607666 138 139 134
-1326.44557952881 44.5303022861481 2369.99988555908 130 131 126
-1327.03018188477 44.7679609060287 2382.99989700317 123 124 119
-1329.76615428925 45.0808927416801 2400.00009536743 121 122 117
-1331.86304569244 45.3751534223557 2415.99988937378 119 120 115
-1336.07244491577 45.7446500658989 2436.00010871887 107 106 102
-1268.21494102478 46.1735054850578 2461.99989318848 167 172 168
-1255.2649974823 45.9446981549263 2450.00004768372 117 119 116
-1246.97327613831 45.8848513662815 2447.00002670288 120 120 118
-1236.6760969162 45.7501783967018 2440.00005722046 120 120 118
-1226.92692279816 45.6344336271286 2434.00001525879 139 138 136
-1215.71230888367 45.4626269638538 2424.99995231628 147 146 144
-1206.04777336121 45.3472323715687 2418.99991035461 151 151 149
-1197.41308689117 45.269500464201 2414.99996185303 157 157 155
-1189.79120254517 45.2294200658798 2413.00010681152 159 159 157
-1185.61720848084 45.3206896781921 2417.99998283386 165 165 163
-1177.51967906952 45.262161642313 2414.99996185303 158 158 156
-1170.41289806366 45.2412702143192 2414.00003433228 138 138 136
-1161.86928749084 45.1642982661724 2410.00008583069 132 134 131
-1156.70764446259 45.218650251627 2413.00010681152 137 139 136
-1151.0568857193 45.2544018626213 2414.99996185303 140 142 139
-1146.8209028244 45.3465059399605 2420.00007629395 142 144 141
-1141.14761352539 45.3825183212757 2421.99993133545 142 144 141
-1134.99927520752 45.3999303281307 2423.00009727478 139 141 138
-1128.84879112244 45.4174727201462 2424.00002479553 136 138 135
-1124.08542633057 45.4913526773453 2427.99997329712 125 127 124
-1117.92290210724 45.5091446638107 2428.99990081787 125 127 124
-1109.92836952209 45.4521253705025 2426.00011825562 121 123 120
-1106.04631900787 45.5638468265533 2431.99992179871 111 113 110
-1101.23074054718 45.6382185220718 2436.00010871887 108 110 107
-1098.19364547729 45.7876399159431 2444.00000572205 110 112 109
-1090.20328521729 45.7311049103737 2440.99998474121 112 114 111
-1085.33930778503 45.8058267831802 2444.9999332428 114 116 113
-1079.13291454315 45.8244606852531 2446.00009918213 117 119 116
-1075.11603832245 45.9368824958801 2451.99990272522 118 120 117
-1069.32616233826 45.9744744002819 2453.9999961853 119 121 118
-1063.5279417038 46.0121817886829 2456.00008964539 116 118 115
-1057.72113800049 46.049989759922 2457.99994468689 115 117 114
-1052.33347415924 46.106643974781 2460.99996566772 119 121 118
-1047.35672473907 46.1821369826794 2464.99991416931 123 125 122
-1042.36054420471 46.257745474577 2469.00010108948 122 124 121
-1038.18345069885 46.3709123432636 2474.99990463257 123 125 122
-1032.72557258606 46.4279800653458 2477.9999256134 125 127 124
-1026.01134777069 46.4289449155331 2477.9999256134 120 122 119
-1020.5329656601 46.4862138032913 2480.99994659424 131 133 130
-1016.26598834991 46.5997941792011 2486.99998855591 138 140 137
-1013.18597793579 46.7696823179722 2496.00005149841 146 148 145
-1009.65547561646 46.9209291040897 2503.99994850159 146 148 145
-1007.28487968445 47.1285060048103 2515.00010490417 145 147 144
-1005.25403022766 47.3549142479897 2526.99995040894 144 146 143
-1002.36940383911 47.5439466536045 2536.99994087219 143 145 142
-999.039530754089 47.7143377065659 2546.0000038147 140 142 139
-994.493186473846 47.82859608531 2552.00004577637 139 141 138
-992.624521255493 48.0741448700428 2565.00005722046 136 138 135
-989.533960819244 48.2635721564293 2575.00004768372 140 140 138
-986.390233039856 48.4530888497829 2585.00003814697 141 141 139
-982.435703277588 48.6052110791206 2592.99993515015 144 144 142
-980.319678783417 48.8511510193348 2605.99994659424 147 147 145
-978.881478309631 49.1346903145313 2621.00005149841 149 149 147
-977.362751960754 49.4183227419853 2635.99991798401 153 153 151
-976.131975650787 49.7208125889301 2651.99995040894 151 151 149
-923.348724842072 49.9873049557209 2664.99996185303 127 129 126
-915.810286998749 49.9716736376286 2664.00003433228 99 101 98
-908.618569374084 49.9748513102531 2664.00003433228 120 122 119
-899.734914302826 49.8842820525169 2658.99991989136 124 124 122
-890.87837934494 49.7937649488449 2654.00004386902 126 126 124
-882.048726081848 49.7032701969147 2648.9999294281 128 128 126
-875.227689743042 49.7254058718681 2650.00009536743 129 129 127
-869.056344032288 49.7851297259331 2653.00011634827 142 142 140
-863.193273544312 49.8636700212955 2657.00006484985 148 148 146
-859.241545200348 50.0548668205738 2667.00005531311 151 152 147
-855.235517024994 50.2461455762386 2677.00004577637 157 158 153
-849.274575710297 50.3248609602451 2680.99999427795 161 162 157
-1359.01737213135 37.5421792268753 2334.00011062622 177 179 176
-1358.19017887115 37.6960411667824 2344.00010108948 180 182 179
-1351.54950618744 37.6892387866974 2344.00010108948 172 174 171
-1348.36030006409 37.7790704369545 2349.99990463257 155 157 154
-1344.0043926239 37.836916744709 2354.00009155273 154 156 153
-1341.90678596497 37.9592105746269 2361.99998855591 146 148 145
-1336.38107776642 37.985235452652 2364.00008201599 149 150 145
-1332.53943920136 38.0596145987511 2368.99995803833 142 143 138
-1329.23769950867 38.1502211093903 2375 138 139 134
-1327.58116722107 38.2891558110714 2384.0000629425 133 134 129
-1331.42232894897 38.5888032615185 2403.00011634827 131 132 127
-1337.37015724182 38.9527641236782 2426.00011825562 129 130 125
-1348.13296794891 39.4612811505795 2457.99994468689 117 116 112
-1266.15083217621 39.4106544554234 2457.99994468689 151 156 152
-1255.26165962219 39.2791777849197 2450.00004768372 113 115 112
-1246.46031856537 39.2119884490967 2446.00009918213 119 119 117
-1238.19351196289 39.1609780490398 2443.00007820129 122 122 120
-1226.42004489899 38.9979109168053 2433.00008773804 140 139 137
-1216.21096134186 38.8830900192261 2426.00011825562 154 153 151
-1205.04808425903 38.7363620102406 2417.00005531311 166 166 164
-1196.91467285156 38.6859364807606 2414.00003433228 170 170 168
-1189.2956495285 38.6516712605953 2411.99994087219 165 165 163
-1184.63432788849 38.7136824429035 2415.99988937378 163 163 161
-1177.02996730804 38.6796779930592 2414.00003433228 159 159 157
-1170.41087150574 38.677841424942 2414.00003433228 143 143 141
-1161.8674993515 38.6120453476906 2410.00008583069 133 135 132
-1156.22651576996 38.6424958705902 2411.99994087219 126 128 125
-1150.57873725891 38.6730618774891 2414.00003433228 126 128 125
-1145.87152004242 38.7357883155346 2417.99998283386 129 131 128
-1139.73307609558 38.7505628168583 2418.99991035461 132 134 131
-1133.12423229218 38.7494303286076 2418.99991035461 136 138 135
-1127.45070457459 38.7804508209229 2421.0000038147 137 139 136
-1122.69568443298 38.8436205685139 2424.99995231628 131 133 130
-1118.84248256683 38.9389246702194 2430.99999427795 122 124 121
-1113.13021183014 38.970272988081 2433.00008773804 117 119 116
-1109.68410968781 39.0818007290363 2440.00005722046 111 113 110
-1103.4904718399 39.0973314642906 2440.99998474121 109 111 108
-1099.09200668335 39.1770377755165 2446.00009918213 108 110 107
-1091.09628200531 39.1287058591843 2443.00007820129 110 112 109
-1086.67087554932 39.2086058855057 2447.99995422363 113 115 112
-1080.45625686646 39.2245389521122 2448.99988174438 117 119 116
-1075.55449008942 39.2886213958263 2453.00006866455 120 122 119
-1069.32628154755 39.3047481775284 2453.9999961853 122 124 121
-1063.52818012238 39.3369868397713 2456.00008964539 121 123 120
-1057.29115009308 39.3532998859882 2457.00001716614 121 123 120
-1053.18927764893 39.4497886300087 2463.00005912781 123 125 122
-1048.20716381073 39.5143367350101 2467.00000762939 127 129 126
-1043.20549964905 39.5789705216885 2470.99995613098 128 130 127
-1038.18416595459 39.6436937153339 2474.99990463257 128 130 127
-1032.30977058411 39.6764725446701 2476.99999809265 128 130 127
-1026.42643451691 39.7093370556831 2479.00009155273 131 133 130
-1019.29998397827 39.6942272782326 2477.9999256134 135 137 134
-1016.26694202423 39.8393832147121 2486.99998855591 139 141 138
-1011.56342029572 39.9205572903156 2492.00010299683 143 145 142
-1009.25350189209 40.097925812006 2503.00002098084 141 143 140
-1006.48534297943 40.2593649923801 2513.00001144409 142 144 141
-1004.8576593399 40.4689535498619 2526.00002288818 142 144 141
-1000.39541721344 40.5664816498756 2532.00006484985 141 143 140
-996.294438838959 40.680106729269 2539.00003433228 143 145 142
-991.767168045044 40.7777950167656 2545.00007629395 144 146 143
-990.304470062256 41.0037413239479 2559.00001525879 143 145 142
-987.230062484741 41.1656834185123 2569.00000572205 148 148 146
-983.721196651459 41.3116812705994 2578.00006866455 148 148 146
-980.543434619904 41.4737872779369 2588.00005912781 150 150 148
-978.064835071564 41.6680239140987 2599.99990463257 151 151 149
-976.642787456512 41.9104248285294 2615.00000953674 151 151 149
-975.511252880096 42.1689376235008 2631.00004196167 151 151 149
-975.398182868958 42.4756295979023 2650.00009536743 152 152 150
-976.6446352005 42.8465232253075 2673.00009727478 141 141 139
-917.188286781311 42.7863299846649 2667.99998283386 99 101 98
-908.962547779083 42.7409447729588 2664.99996185303 114 116 113
-899.738013744354 42.6474846899509 2658.99991989136 114 114 112
-890.210092067719 42.5380133092403 2651.99995040894 113 113 111
-881.385982036591 42.4606539309025 2647.0000743866 120 120 118
-873.579502105713 42.4314551055431 2644.99998092651 130 130 128
-867.749154567719 42.4985475838184 2648.9999294281 139 139 137
-862.546682357788 42.5977781414986 2654.99997138977 138 138 136
-858.600497245789 42.7612513303757 2664.99996185303 146 147 142
-854.599893093109 42.924776673317 2674.99995231628 149 150 145
-848.961055278778 43.0081188678741 2680.0000667572 154 155 150
-1371.23847007751 31.4518623054028 2355.00001907349 179 181 178
-1362.23995685577 31.3926227390766 2351.0000705719 174 176 173
-1353.84976863861 31.3469059765339 2348.00004959106 169 171 168
-1347.78046607971 31.3547551631927 2348.99997711182 159 161 158
-1341.7147397995 31.3627533614635 2349.99990463257 147 149 146
-1339.62869644165 31.4643047749996 2358.00004005432 133 135 132
-1336.37547492981 31.5392874181271 2364.00008201599 129 130 125
-1333.65917205811 31.6277332603931 2371.00005149841 126 127 122
-1329.79214191437 31.6896215081215 2375.99992752075 125 126 121
-1328.13310623169 31.8049788475037 2384.99999046326 124 125 120
-1329.7553062439 32.0004485547543 2400.00009536743 124 125 120
-1336.81404590607 32.3293171823025 2424.99995231628 124 123 119
-1253.72159481049 32.5737819075584 2447.00002670288 126 128 125
-1244.41909790039 32.5046852231026 2441.99991226196 114 114 112
-1237.68389225006 32.5022675096989 2441.99991226196 114 114 112
-1227.42557525635 32.4068032205105 2434.99994277954 139 138 136
-1215.70706367493 32.2715416550636 2424.99995231628 149 148 146
-1204.04863357544 32.1364142000675 2414.99996185303 156 156 154
-1195.92094421387 32.0945493876934 2411.99994087219 160 160 158
-1188.800573349 32.0794098079205 2411.00001335144 155 155 153
-1184.14223194122 32.1309007704258 2414.99996185303 159 159 157
-1175.07803440094 32.0627577602863 2410.00008583069 155 155 153
-1167.98496246338 32.0479311048985 2408.99991989136 158 158 156
-1160.41970252991 32.0199131965637 2407.00006484985 161 163 160
-1155.26652336121 32.0585072040558 2410.00008583069 161 163 160
-1150.57730674744 32.1104899048805 2414.00003433228 158 160 157
-1144.44875717163 32.1226716041565 2414.99996185303 152 154 151
-1137.84730434418 32.1216434240341 2414.99996185303 148 150 147
-1130.31280040741 32.0941135287285 2413.00010681152 141 143 140
-1125.58710575104 32.1464724838734 2417.00005531311 145 147 144
-1121.3059425354 32.2122201323509 2421.99993133545 143 145 142
-1117.46108531952 32.2913601994514 2427.99997329712 141 143 140
-1112.67197132111 32.3439836502075 2431.99992179871 135 137 134
-1109.22873020172 32.436590641737 2438.99989128113 133 135 132
-1103.03807258606 32.4494950473309 2440.00005722046 133 135 132
-1096.84491157532 32.4624739587307 2440.99998474121 126 128 125
-1089.75613117218 32.448947429657 2440.00005722046 127 129 126
-1085.33906936646 32.5152948498726 2444.9999332428 126 128 125
-1080.45625686646 32.568421214819 2448.99988174438 127 129 126
-1074.67758655548 32.5950384140015 2450.99997520447 127 129 126
-1068.01915168762 32.5951315462589 2450.99997520447 130 132 129
-1062.22939491272 32.6219014823437 2453.00006866455 131 133 130
-1056.43081665039 32.6487421989441 2454.99992370605 134 136 133
-1051.90682411194 32.7155627310276 2460.00003814697 134 136 133
-1047.35791683197 32.7824614942074 2464.99991416931 139 141 138
-1042.7839756012 32.8494347631931 2470.00002861023 144 146 143
-1036.92638874054 32.8765735030174 2471.99988365173 144 146 143
-1031.06021881104 32.903790473938 2473.99997711182 141 143 140
-1026.01313591003 32.9576805233955 2477.9999256134 141 143 140
-1019.71220970154 32.9717360436916 2479.00009155273 139 141 138
-1015.85936546326 33.0656655132771 2486.00006103516 140 142 139
-1011.56449317932 33.1463664770126 2492.00010299683 143 145 142
-1009.65785980225 33.3069376647472 2503.99994850159 142 144 141
-1006.08587265015 33.4143824875355 2512.00008392334 137 139 136
-1004.06324863434 33.575102686882 2523.9999294281 137 139 136
-998.421132564545 33.6161740124226 2526.99995040894 138 140 137
-993.156611919403 33.670611679554 2530.99989891052 145 147 144
-989.430367946625 33.7783247232437 2539.00003433228 148 150 147
-988.371014595032 33.9792370796204 2553.99990081787 149 151 148
-986.463069915771 34.1536141932011 2566.99991226196 150 150 148
-983.722805976868 34.3014523386955 2578.00006866455 150 150 148
-980.545222759247 34.4360508024693 2588.00005912781 148 148 146
-976.938009262085 34.5574058592319 2596.99988365173 146 146 144
-975.150763988495 34.7453691065311 2611.00006103516 139 139 137
-973.659336566925 34.9467098712921 2625.99992752075 137 137 135
-973.927855491638 35.2146625518799 2645.99990844727 143 143 141
-974.819839000702 35.5093143880367 2667.99998283386 136 136 134
-970.153510570526 35.6043949723244 2674.99995231628 132 132 130
-915.815770626068 35.4726389050484 2664.00003433228 152 154 151
-907.25976228714 35.4216396808624 2660.00008583069 107 109 106
-898.04869890213 35.3440344333649 2654.00004386902 115 115 113
-888.534247875214 35.2531373500824 2647.0000743866 111 111 109
-880.056619644165 35.202220082283 2642.99988746643 116 116 114
-873.582184314728 35.2312549948692 2644.99998092651 126 126 124
-867.424249649048 35.2736450731754 2648.00000190735 140 140 138
-862.224578857422 35.3560410439968 2654.00004386902 141 141 139
-856.670200824738 35.4251563549042 2658.99991989136 146 147 142
-853.005349636078 35.5742573738098 2670.00007629395 149 150 145
-847.696959972382 35.6567837297916 2676.00011825562 156 157 152
-1368.32177639008 24.9707084149122 2349.99990463257 178 180 177
-1361.07587814331 24.9554608017206 2348.99997711182 172 172 170
-1354.99775409698 24.961581453681 2349.99990463257 164 164 162
-1348.34945201874 24.9572061002254 2349.99990463257 164 164 162
-1341.70997142792 24.9529499560595 2349.99990463257 162 162 160
-1337.91971206665 25.0019021332264 2355.00001907349 135 135 133
-1335.80565452576 25.0827968120575 2362.99991607666 130 132 127
-1334.2170715332 25.1743942499161 2371.99997901917 134 135 130
-1330.34765720367 25.2236369997263 2377.00009346008 135 136 131
-1329.24258708954 25.3260266035795 2387.00008392334 141 140 136
-1329.75125312805 25.4603289067745 2400.00009536743 137 136 132
-1334.60509777069 25.679562240839 2421.0000038147 124 120 117
-1260.9943151474 25.9292218834162 2447.99995422363 161 163 160
-1251.67000293732 25.8741565048695 2443.00007820129 112 114 111
-1242.37859249115 25.8191842585802 2437.99996376038 118 120 117
-1235.14771461487 25.8066803216934 2437.00003623962 116 118 115
-1224.90322589874 25.7307291030884 2430.0000667572 133 134 129
-1215.70515632629 25.6760567426682 2424.99995231628 145 146 141
-1206.04121685028 25.6108958274126 2418.99991035461 147 148 143
-1197.90256023407 25.5775880068541 2415.99988937378 144 145 140
-1190.77134132385 25.565542280674 2414.99996185303 137 138 133
-1184.14068222046 25.5641657859087 2414.99996185303 146 147 142
-1175.56416988373 25.5205370485783 2411.00001335144 151 152 147
-1167.01412200928 25.4769921302795 2407.00006484985 160 161 156
-1158.97226333618 25.4441164433956 2404.00004386902 166 167 162
-1153.82730960846 25.4748240113258 2407.00006484985 167 168 163
-1149.14655685425 25.5161914974451 2411.00001335144 168 169 164
-1143.02599430084 25.5258791148663 2411.99994087219 165 167 164
-1136.43288612366 25.5250670015812 2411.99994087219 161 163 160
-1129.3751001358 25.5137458443642 2411.00001335144 163 165 162
-1124.65488910675 25.5554057657719 2414.99996185303 163 165 162
-1119.45343017578 25.5865603685379 2417.99998283386 155 157 154
-1114.69912528992 25.6283599883318 2421.99993133545 157 159 156
-1109.46905612946 25.659654289484 2424.99995231628 145 147 144
-1106.04476928711 25.7333368062973 2431.99992179871 148 150 147
-1101.22954845428 25.7753506302834 2436.00010871887 148 150 147
-1095.94595432281 25.8068386465311 2438.99989128113 142 144 141
-1089.30933475494 25.8066598325968 2438.99989128113 145 147 144
-1085.33895015717 25.8700288832188 2444.9999332428 134 136 135
-1079.57398891449 25.8911438286304 2447.00002670288 133 135 134
-1073.80068302155 25.9123146533966 2448.99988174438 137 139 138
-1067.14773178101 25.9123928844929 2448.99988174438 135 137 136
