ply
format ascii 1.0
comment KinectMotionCapture
element vertex 786
property float x
property float y
property float z
property uchar red
property uchar green
property uchar blue
end_header
-346.179604530334 -359.494030475616 1756.00004196167 16 19 12
-343.745231628418 -361.970782279968 1768.00000667572 15 18 9
-338.561177253723 -361.581355333328 1766.00003242493 15 18 9
-332.631349563599 -360.372722148895 1759.99999046326 15 18 9
-326.919853687286 -359.368652105331 1754.99999523163 17 20 11
-322.703331708908 -360.00257730484 1758.00001621246 18 19 11
-318.469911813736 -360.636472702026 1761.0000371933 19 20 12
-312.260150909424 -359.017491340637 1753.00002098084 20 21 13
-306.794881820679 -358.21744799614 1748.99995326996 21 22 14
-302.041500806808 -358.236521482468 1748.99995326996 21 22 14
-296.947568655014 -357.84575343132 1746.99997901917 21 22 14
-290.191292762756 -355.406373739243 1735.00001430511 21 22 14
-284.32235121727 -353.990852832794 1728.00004482269 21 22 14
-280.270874500275 -354.828506708145 1731.99999332428 22 23 15
-276.197016239166 -355.666100978851 1735.99994182587 23 24 16
-272.413551807404 -356.913417577744 1741.99998378754 24 25 17
-268.135815858841 -357.5459420681 1745.00000476837 21 24 15
-264.444977045059 -358.998000621796 1751.99997425079 24 27 18
-260.715365409851 -360.449969768524 1758.99994373322 23 26 17
-256.510585546494 -361.287146806717 1763.00001144409 20 23 12
-252.426207065582 -362.329095602036 1768.00000667572 18 21 10
-248.0338960886 -362.961053848267 1771.00002765656 19 22 11
-243.349939584732 -363.182872533798 1771.99995517731 12 15 6
-241.082936525345 -367.093950510025 1791.00000858307 22 25 18
-241.085737943649 -374.694645404816 1827.99994945526 11 14 7
-238.949060440063 -379.221051931381 1850.00002384186 15 17 12
-191.592186689377 -385.527193546295 1879.99999523163 9 11 8
-184.184685349464 -380.824476480484 1856.99999332428 8 10 7
-178.541868925095 -379.607528448105 1850.99995136261 9 11 8
-173.962309956551 -380.646109580994 1855.99994659424 11 13 8
-169.536978006363 -382.094651460648 1863.00003528595 9 12 5
-163.748890161514 -380.466431379318 1855.00001907349 12 15 8
-158.431649208069 -379.863262176514 1851.99999809265 13 16 9
-153.047546744347 -379.054665565491 1848.00004959106 8 11 4
-147.604689002037 -378.040492534637 1843.00005435944 9 12 5
-142.498150467873 -377.846449613571 1842.00000762939 13 16 9
-137.993708252907 -379.293084144592 1848.99997711182 14 17 10
-132.372111082077 -377.662390470505 1840.99996089935 16 19 12
-126.793771982193 -376.031249761581 1832.99994468689 17 20 13
-122.454710304737 -378.092378377914 1843.00005435944 20 23 16
-118.188112974167 -380.563527345657 1855.00001907349 20 23 16
-113.062843680382 -380.367338657379 1853.99997234344 18 21 12
-107.418425381184 -378.324329853058 1843.99998188019 17 20 11
-101.883798837662 -376.485973596573 1835.00003814697 16 19 10
-96.5035930275917 -375.057548284531 1827.99994945526 16 19 10
-91.7119979858398 -375.885635614395 1832.00001716614 17 20 11
-85.9989896416664 -372.814953327179 1817.00003147125 17 20 11
-81.5718322992325 -375.283777713776 1828.9999961853 17 20 11
-76.7439156770706 -376.110762357712 1832.99994468689 19 22 13
-71.8547776341438 -376.732170581818 1835.99996566772 21 24 15
-67.1310573816299 -378.379225730896 1843.99998188019 24 27 18
-62.0603561401367 -378.17919254303 1843.00005435944 25 28 19
-57.0877455174923 -378.594279289246 1845.00002861023 20 23 16
-51.8219284713268 -376.957029104233 1837.00001239777 17 19 14
-46.8289628624916 -377.166122198105 1838.00005912781 35 37 32
-41.6939035058022 -376.143634319305 1832.99994468689 14 16 13
-367.303073406219 -366.252541542053 1766.00003242493 19 21 16
-362.305611371994 -366.06553196907 1764.99998569489 16 19 12
-358.325809240341 -366.91552400589 1769.00005340576 13 16 9
-352.325230836868 -365.691244602203 1763.00001144409 15 18 11
-345.568150281906 -363.637030124664 1753.00002098084 14 17 10
-343.141883611679 -366.146415472031 1764.99998569489 14 17 8
-339.499682188034 -367.411226034164 1771.00002765656 14 17 8
-332.800537347794 -365.356534719467 1761.0000371933 15 18 9
-326.713889837265 -363.923996686935 1753.99994850159 17 20 11
-322.316616773605 -364.358633756638 1756.00004196167 18 19 11
-317.184537649155 -363.96312713623 1753.99994850159 19 20 12
-311.350226402283 -362.737476825714 1748.00002574921 20 21 13
-304.144740104675 -359.8513007164 1733.99996757507 21 22 14
-299.950301647186 -360.492885112762 1736.99998855591 21 22 14
-294.719189405441 -359.889090061188 1733.99996757507 22 23 15
-289.336502552032 -359.077483415604 1730.00001907349 22 23 15
-284.139484167099 -358.473271131516 1726.99999809265 21 22 14
-279.767245054245 -358.906686306 1728.99997234344 21 22 14
-275.70167183876 -359.755218029022 1733.00004005432 22 23 15
-272.082835435867 -361.226379871368 1740.00000953674 24 25 17
-269.500851631165 -364.150822162628 1753.99994850159 21 24 15
-266.540288925171 -366.66014790535 1766.00003242493 23 26 17
-263.069123029709 -368.546605110168 1774.99997615814 21 24 15
-257.948070764542 -368.149012327194 1773.00000190735 18 21 10
-253.265529870987 -368.374079465866 1774.00004863739 16 19 8
-248.857080936432 -369.014292955399 1776.99995040894 17 20 9
-244.706302881241 -370.069652795792 1781.99994564056 15 18 9
-243.758112192154 -376.109272241592 1810.99998950958 15 18 11
-246.212005615234 -387.756764888763 1866.99998378754 14 17 10
-198.168218135834 -393.525749444962 1894.00005340576 2 4 3
-192.597031593323 -392.709136009216 1889.99998569489 9 11 8
-185.559466481209 -388.775229454041 1871.00005149841 8 10 7
-179.396569728851 -386.503130197525 1860.00001430511 12 14 9
-175.16764998436 -388.38666677475 1868.99995803833 4 6 1
-170.525163412094 -389.438718557358 1873.99995326996 7 10 3
-164.707452058792 -387.78892159462 1866.00005626678 12 15 8
-158.932879567146 -386.138617992401 1858.00004005432 15 18 11
-153.284296393394 -384.695678949356 1850.99995136261 10 13 6
-148.154005408287 -384.499430656433 1850.00002384186 8 11 4
-142.951354384422 -384.09486413002 1848.00004959106 8 11 4
-138.729348778725 -386.392027139664 1858.99996757507 8 11 4
-133.08085501194 -384.739726781845 1850.99995136261 9 12 5
-128.236472606659 -385.373413562775 1853.99997234344 10 13 6
-122.710950672627 -383.928120136261 1847.00000286102 11 14 7
-117.987781763077 -384.976863861084 1851.99999809265 12 15 8
-113.054022192955 -385.401606559753 1853.99997234344 13 16 7
-108.050748705864 -385.6181204319 1855.00001907349 14 17 8
-102.375477552414 -383.339673280716 1843.99998188019 14 17 8
-96.4960157871246 -380.021333694458 1827.99994945526 15 18 9
-91.2042036652565 -378.781408071518 1822.00002670288 16 19 10
-86.8914052844048 -381.698966026306 1835.99996566772 13 16 7
-81.9667428731918 -382.121443748474 1838.00005912781 14 17 8
-76.69597864151 -380.880326032639 1832.00001716614 17 20 11
-71.7316791415215 -381.094068288803 1832.99994468689 18 21 12
-66.9437125325203 -382.347106933594 1838.99998664856 19 22 13
-62.1227622032166 -383.599698543549 1845.00002861023 19 22 13
-56.9903738796711 -382.980674505234 1842.00000762939 24 27 20
-51.7049580812454 -381.113767623901 1832.99994468689 26 28 23
-46.9526052474976 -383.196949958801 1843.00005435944 9 11 6
-42.6913276314735 -390.269845724106 1876.99997425079 68 70 67
-368.946433067322 -372.725129127502 1774.00004863739 11 13 8
-364.953607320786 -373.586058616638 1777.99999713898 23 26 19
-358.507961034775 -371.925532817841 1769.99998092651 10 13 6
-350.906193256378 -369.003981351852 1756.00004196167 13 16 9
-345.548152923584 -368.393659591675 1753.00002098084 13 16 9
-345.260262489319 -373.247414827347 1776.00002288818 13 16 7
-340.05469083786 -372.84728884697 1774.00004863739 13 16 7
-332.21372961998 -369.504451751709 1758.00001621246 14 17 8
-326.507925987244 -368.473321199417 1753.00002098084 17 20 11
-321.195721626282 -367.862343788147 1750 18 19 11
-316.984206438065 -368.512511253357 1753.00002098084 19 20 12
-310.440391302109 -366.429716348648 1743.00003051758 20 21 13
-306.230396032333 -367.079645395279 1746.00005149841 21 22 14
-299.413353204727 -364.575743675232 1733.99996757507 21 22 14
-294.700413942337 -364.594608545303 1733.99996757507 23 24 16
-289.317935705185 -363.772243261337 1730.00001907349 23 24 16
-283.792048692703 -362.739324569702 1725.00002384186 21 22 14
-278.616428375244 -362.126767635345 1722.00000286102 20 21 13
-275.683522224426 -364.458203315735 1733.00004005432 21 22 14
-273.472040891647 -367.841303348541 1748.99995326996 22 23 15
-271.172910928726 -371.224582195282 1764.99998569489 21 24 17
-267.126053571701 -372.294276952744 1769.99998092651 22 25 18
-263.644129037857 -374.205261468887 1779.00004386902 20 23 14
-258.366942405701 -373.591929674149 1776.00002288818 17 20 11
-253.961950540543 -374.240547418594 1779.00004386902 15 18 9
-249.400064349175 -374.678671360016 1781.00001811981 16 19 10
-247.984811663628 -379.955381155014 1805.99999427795 16 19 10
-246.02909386158 -384.601205587387 1827.99994945526 16 19 12
-241.0519272089 -384.618312120438 1827.99994945526 6 8 3
-197.735041379929 -397.824943065643 1889.99998569489 0 1 0
-193.29597055912 -399.312973022461 1896.99995517731 6 8 5
-187.628120183945 -398.274689912796 1891.99995994568 10 12 7
-181.987062096596 -397.23601937294 1886.99996471405 10 12 7
-175.341889262199 -393.881261348724 1871.00005149841 10 12 7
-170.5122590065 -394.525855779648 1873.99995326996 10 13 6
-164.606660604477 -392.643868923187 1865.00000953674 11 14 7
-159.262895584106 -392.024576663971 1861.99998855591 14 17 10
-153.852224349976 -391.194432973862 1858.00004005432 12 15 8
-148.783251643181 -391.206026077271 1858.00004005432 12 15 8
-143.249750137329 -389.953970909119 1851.99999809265 11 14 7
-138.644024729729 -391.228228807449 1858.00004005432 10 13 6
-134.005129337311 -392.502188682556 1863.9999628067 9 12 5
-129.125609993935 -393.144100904465 1866.99998378754 9 12 5
-123.23284894228 -390.627056360245 1855.00001907349 8 11 4
-118.169657886028 -390.636473894119 1855.00001907349 8 11 4
-113.471977412701 -391.909092664719 1860.99994182587 9 12 5
-109.090648591518 -394.444942474365 1873.00002574921 10 13 6
-103.533200919628 -392.76859164238 1865.00000953674 11 14 7
-97.5440666079521 -389.196306467056 1848.00004959106 12 15 8
-92.2481045126915 -388.150781393051 1843.00005435944 12 15 8
-87.3104184865952 -388.579130172729 1845.00002861023 11 14 7
-82.0494145154953 -387.532770633698 1840.0000333786 12 15 8
-76.8573135137558 -386.696606874466 1835.99996566772 14 17 10
-71.6477036476135 -385.649442672729 1830.9999704361 15 18 11
-67.0111700892448 -387.761235237122 1840.99996089935 14 17 10
-62.0841197669506 -388.398289680481 1843.99998188019 13 16 9
-56.831132620573 -386.928617954254 1837.00001239777 10 13 6
-51.8136397004128 -386.932969093323 1837.00001239777 8 10 5
-47.3818965256214 -391.781598329544 1860.00001430511 21 23 18
-373.293161392212 -382.007151842117 1794.99995708466 28 30 25
-365.959316492081 -379.473924636841 1782.99999237061 13 16 9
-358.892649412155 -377.153277397156 1771.99995517731 14 17 10
-351.685285568237 -374.619454145432 1759.99999046326 14 17 10
-346.316456794739 -374.001055955887 1756.99996948242 13 16 9
-343.684822320938 -376.362830400467 1768.00000667572 13 16 7
-338.692724704742 -376.170098781586 1766.99995994568 13 16 7
-332.571715116501 -374.699890613556 1759.99999046326 14 17 8
-327.419370412827 -374.293982982636 1758.00001621246 16 19 10
-322.277307510376 -373.887926340103 1756.00004196167 17 18 10
-317.507117986679 -373.907536268234 1756.00004196167 20 21 13
-313.270598649979 -374.565899372101 1758.99994373322 21 22 14
-306.737303733826 -372.455805540085 1748.99995326996 21 22 14
-299.049079418182 -368.854612112045 1731.99999332428 21 22 14
-292.982161045074 -367.16964840889 1723.99997711182 23 24 16
-289.299309253693 -368.466258049011 1730.00001907349 22 23 15
-283.44464302063 -366.993844509125 1723.00004959106 20 21 13
-278.59815955162 -366.799175739288 1722.00000286102 20 21 13
-276.619762182236 -370.438635349274 1738.9999628067 20 21 13
-274.391978979111 -373.865246772766 1754.99999523163 21 22 14
-271.308422088623 -376.226872205734 1766.00003242493 21 24 17
-266.504406929016 -376.244932413101 1766.00003242493 21 24 15
-263.033509254456 -378.180354833603 1774.99997615814 18 21 12
-258.494734764099 -378.624260425568 1776.99995040894 14 17 8
-254.229962825775 -379.49413061142 1781.00001811981 13 16 7
-250.783026218414 -381.642431020737 1791.00000858307 15 18 9
-248.654052615166 -385.921686887741 1810.99998950958 12 15 8
-245.473548769951 -388.709336519241 1824.00000095367 8 10 5
-197.824969887733 -403.167605400085 1891.00003242493 15 17 16
-193.077728152275 -404.034972190857 1894.99998092651 10 12 9
-187.514901161194 -403.196394443512 1891.00003242493 8 10 5
-179.948225617409 -397.87968993187 1866.00005626678 6 9 2
-174.297824501991 -396.613717079163 1860.00001430511 10 13 6
-168.58871281147 -395.134121179581 1853.00004482269 9 12 5
-164.152830839157 -396.639466285706 1860.00001430511 10 13 6
-158.823058009148 -396.012037992477 1856.99999332428 13 16 9
-153.674811124802 -395.810812711716 1855.99994659424 13 16 9
-148.051142692566 -394.329637289047 1848.99997711182 13 16 9
-142.851948738098 -393.914341926575 1847.00000286102 12 15 8
-138.707861304283 -396.484524011612 1858.99996757507 12 15 8
-133.635252714157 -396.495133638382 1858.99996757507 11 14 7
-129.046395421028 -397.998452186584 1866.00005626678 11 14 7
-123.688198626041 -397.155106067657 1861.99998855591 11 14 7
-118.606276810169 -397.164672613144 1861.99998855591 10 13 6
-113.889828324318 -398.453623056412 1868.00003051758 6 8 3
-109.431475400925 -400.808840990067 1878.99994850159 8 10 5
-104.468673467636 -401.457250118256 1881.99996948242 9 11 6
-98.6974835395813 -398.905485868454 1870.00000476837 9 11 6
-92.6411673426628 -394.860029220581 1850.99995136261 9 11 6
-86.7829695343971 -391.240656375885 1833.99999141693 10 12 7
-81.6861614584923 -390.820741653442 1832.00001716614 10 12 7
-76.8511742353439 -391.680389642715 1835.99996566772 9 11 6
-71.9941109418869 -392.53968000412 1840.0000333786 9 11 6
-67.3333704471588 -394.678682088852 1850.00002384186 10 12 7
-62.2138045728207 -394.257217645645 1848.00004959106 10 12 7
-56.888435035944 -392.341911792755 1838.99998664856 15 17 12
-51.6402535140514 -390.639513731003 1830.9999704361 17 19 14
-47.5309118628502 -398.110687732697 1866.00005626678 0 1 0
-385.515838861465 -394.398778676987 1830.00004291534 35 37 32
-375.351876020432 -389.031738042831 1804.99994754791 25 27 22
-366.554468870163 -384.95734333992 1786.00001335144 19 22 15
-359.277278184891 -382.391333580017 1774.00004863739 22 25 18
-354.262560606003 -382.196217775345 1773.00000190735 15 18 11
-351.026594638824 -383.941233158112 1781.00001811981 14 17 10
-341.915160417557 -379.218697547913 1758.99994373322 13 16 7
-336.947649717331 -379.023194313049 1758.00001621246 14 17 8
-332.551777362823 -379.474401473999 1759.99999046326 14 17 8
-329.820603132248 -381.866157054901 1771.00002765656 16 19 10
-322.257608175278 -378.651648759842 1756.00004196167 17 18 10
-319.114714860916 -380.612075328827 1764.99998569489 20 21 13
-312.538743019104 -378.475189208984 1754.99999523163 21 22 14
-307.068735361099 -377.631962299347 1751.00004673004 21 22 14
-298.512160778046 -372.90632724762 1728.99997234344 21 22 14
-294.492840766907 -373.787999153137 1733.00004005432 22 23 15
-289.447844028473 -373.375356197357 1730.99994659424 21 22 14
-283.919662237167 -372.315406799316 1725.99995136261 20 21 13
-278.579890727997 -371.470928192139 1722.00000286102 20 21 13
-276.601493358612 -375.156581401825 1738.9999628067 21 22 14
-274.217367172241 -378.410905599594 1753.99994850159 22 23 15
-270.675748586655 -380.155116319656 1761.99996471405 21 24 17
-266.486406326294 -381.036221981049 1766.00003242493 21 24 15
-263.460129499435 -383.643448352814 1777.99999713898 18 21 12
-259.058862924576 -384.308636188507 1781.00001811981 14 17 8
-255.068868398666 -385.621041059494 1786.99994087219 13 16 7
-251.605719327927 -387.796610593796 1797.00005054474 15 18 9
-247.126415371895 -388.461381196976 1799.99995231628 7 10 3
-243.168562650681 -389.989346265793 1807.000041008 0 2 0
-198.333233594894 -409.378439188004 1896.00002765656 4 6 5
-192.146360874176 -407.233864068985 1886.0000371933 11 13 8
-187.005013227463 -407.248139381409 1886.0000371933 7 9 4
-179.838180541992 -402.727335691452 1865.00000953674 13 16 9
-173.628702759743 -400.149434804916 1853.00004482269 10 13 6
-168.302908539772 -399.514585733414 1850.00002384186 9 12 5
-163.08131814003 -399.095386266708 1848.00004959106 9 12 5
-158.554300665855 -400.403499603271 1853.99997234344 13 16 9
-153.000608086586 -399.119704961777 1848.00004959106 12 15 8
-148.119747638702 -399.563282728195 1850.00002384186 10 13 6
-143.227532505989 -400.00656247139 1851.99999809265 13 16 9
-138.398632407188 -400.665491819382 1855.00001907349 13 16 9
-132.834136486053 -399.164140224457 1848.00004959106 12 15 8
-128.137305378914 -400.254368782043 1853.00004482269 12 15 8
-123.545631766319 -401.776283979416 1860.00001430511 11 14 7
-119.552321732044 -405.458033084869 1876.99997425079 10 13 6
-113.880835473537 -403.523176908493 1868.00003051758 7 9 4
-109.946921467781 -407.852470874786 1888.00001144409 9 11 6
-104.737900197506 -407.644957304001 1886.99996471405 10 12 7
-99.7979044914246 -408.517211675644 1891.00003242493 10 12 7
-94.3853631615639 -407.444775104523 1886.0000371933 9 11 6
-87.8642797470093 -401.186972856522 1856.99999332428 9 11 6
-81.9471254944801 -397.088944911957 1838.00005912781 9 11 6
-77.5565430521965 -400.336086750031 1853.00004482269 8 10 5
-73.1620565056801 -404.014974832535 1870.00000476837 9 11 6
-68.0922046303749 -404.236704111099 1871.00005149841 10 12 7
-62.9830285906792 -404.241979122162 1871.00005149841 12 14 9
-57.1312978863716 -399.061441421509 1847.00000286102 15 17 12
-51.833488047123 -397.12131023407 1838.00005912781 7 9 4
-47.2468957304955 -400.798410177231 1855.00001907349 18 20 15
-43.0220812559128 -408.796429634094 1891.99995994568 7 9 4
-383.388072252274 -397.180110216141 1820.00005245209 23 25 20
-373.667448759079 -392.181605100632 1797.00005054474 24 26 21
-364.481508731842 -387.619078159332 1776.00002288818 18 21 14
-359.864324331284 -387.857854366302 1776.99995040894 12 15 8
-356.240093708038 -389.188021421433 1782.99999237061 15 18 11
-353.174090385437 -391.173154115677 1792.00005531311 13 16 9
-345.004945993423 -387.482613325119 1774.99997615814 13 16 7
-337.119221687317 -384.00986790657 1758.99994373322 13 16 7
-333.665430545807 -385.558217763901 1766.00003242493 14 17 8
-328.310817480087 -384.923219680786 1763.00001144409 16 19 10
-324.072927236557 -385.5981528759 1766.00003242493 19 22 13
-318.552583456039 -384.744495153427 1761.99996471405 20 23 14
-312.163084745407 -382.798850536346 1753.00002098084 20 23 14
-306.347966194153 -381.508052349091 1746.99997901917 20 23 14
-298.320531845093 -377.377867698669 1728.00004482269 20 23 14
-292.944669723511 -376.523166894913 1723.99997711182 20 23 14
-289.429187774658 -378.070801496506 1730.99994659424 19 22 13
-285.217076539993 -378.744721412659 1733.99996757507 17 20 11
-279.855728149414 -377.889484167099 1730.00001907349 18 21 12
-276.2650847435 -379.436910152435 1736.99998855591 20 23 14
-272.94847369194 -381.421208381653 1746.00005149841 20 23 14
-269.428670406342 -383.187055587769 1753.99994850159 19 22 15
-266.317456960678 -385.608345270157 1764.99998569489 21 24 15
-264.03483748436 -389.340549707413 1781.99994564056 19 22 13
-261.077344417572 -392.198890447617 1794.99995708466 15 18 9
-256.621211767197 -392.872273921967 1797.99997806549 11 14 7
-253.688275814056 -395.949155092239 1812.00003623962 11 14 7
-248.20739030838 -395.092606544495 1807.99996852875 9 11 6
-239.249169826508 -388.553887605667 1777.99999713898 10 12 11
-205.632105469704 -418.879836797714 1916.00000858307 134 135 137
-198.004588484764 -413.866519927979 1893.00000667572 12 14 11
-191.928148269653 -411.913424730301 1883.99994373322 10 12 7
-185.801103711128 -409.741252660751 1873.99995326996 6 9 2
-181.36727809906 -411.285758018494 1881.00004196167 13 16 9
-174.365013837814 -406.926155090332 1860.99994182587 14 17 10
-168.562963604927 -405.189961194992 1853.00004482269 10 13 6
-163.509994745255 -405.202716588974 1853.00004482269 10 13 6
-157.772466540337 -403.465658426285 1845.00002861023 12 15 8
-152.74041891098 -403.477668762207 1845.00002861023 12 15 8
-147.8680819273 -403.926730155945 1847.00000286102 11 14 7
-143.216386437416 -405.031532049179 1851.99999809265 10 13 6
-138.014808297157 -404.605120420456 1850.00002384186 10 13 6
-132.105007767677 -401.991218328476 1838.00005912781 9 12 5
-127.366617321968 -402.876228094101 1842.00000762939 9 12 5
-122.871719300747 -404.63587641716 1850.00002384186 9 12 5
-117.759600281715 -404.426634311676 1848.99997711182 10 13 6
-115.944415330887 -416.028618812561 1901.99995040894 11 13 8
-109.355881810188 -410.78794002533 1878.00002098084 9 11 8
-104.785062372684 -412.983894348145 1888.00001144409 9 11 8
-99.367767572403 -411.898285150528 1883.00001621246 8 10 7
-96.2293297052383 -420.656055212021 1922.99997806549 8 10 7
-89.5131230354309 -413.882166147232 1891.99995994568 8 10 7
-83.5454761981964 -409.951567649841 1873.99995326996 8 10 7
-78.2617703080177 -409.083068370819 1870.00000476837 8 10 7
-72.9996636509895 -408.214062452316 1866.00005626678 9 11 8
-68.4870034456253 -411.72006726265 1881.99996948242 9 11 8
-63.3145347237587 -411.506623029709 1881.00004196167 9 11 8
-57.868979871273 -409.323841333389 1871.00005149841 9 11 6
-52.5624491274357 -407.796889543533 1863.9999628067 8 10 5
-42.2910004854202 -406.929522752762 1860.00001430511 10 13 6
-37.8516688942909 -413.933724164963 1891.99995994568 12 15 8
-384.630799293518 -403.44175696373 1825.99997520447 29 31 26
-373.022854328156 -396.392405033112 1794.0000295639 15 17 12
-365.487068891525 -393.540591001511 1781.00001811981 17 20 13
-362.273842096329 -395.328998565674 1789.00003433228 12 15 8
-358.21744799614 -396.233588457108 1792.99998283386 16 19 12
-352.956414222717 -395.812213420868 1791.00000858307 13 16 9
-347.122520208359 -394.72770690918 1786.00001335144 13 16 7
-339.9738073349 -392.095863819122 1774.00004863739 13 16 7
-333.267480134964 -389.905720949173 1764.00005817413 14 17 8
-326.987355947495 -388.157337903976 1756.00004196167 16 19 10
-321.667581796646 -387.513995170593 1753.00002098084 19 22 13
-315.098106861115 -385.322988033295 1743.00003051758 20 23 14
-308.582335710526 -383.13165307045 1733.00004005432 20 23 14
-305.276602506638 -384.9196434021 1741.00005626678 20 23 14
-299.509972333908 -383.612245321274 1735.00001430511 20 23 14
-295.134693384171 -384.073466062546 1736.99998855591 20 23 14
-290.580749511719 -384.313434362412 1738.00003528595 18 21 12
-286.185294389725 -384.774476289749 1740.00000953674 17 20 11
-280.969619750977 -384.129643440247 1736.99998855591 18 21 12
-275.928735733032 -383.705765008926 1735.00001430511 20 23 14
-271.836012601852 -384.608626365662 1738.9999628067 19 22 13
-267.567366361618 -385.290265083313 1741.99998378754 15 18 11
-264.639735221863 -387.962460517883 1753.99994850159 21 24 17
-263.12780380249 -392.846673727036 1776.00002288818 15 18 11
-261.495679616928 -397.731155157089 1797.99997806549 11 14 7
-258.601427078247 -400.846093893051 1812.00003623962 12 15 8
-255.070507526398 -403.076201677322 1822.00002670288 11 14 7
-208.299621939659 -429.61049079895 1940.99998474121 139 140 142
-199.872374534607 -422.985672950745 1911.00001335144 16 18 15
-192.830473184586 -419.016242027283 1893.00000667572 9 11 8
-186.976730823517 -417.481124401093 1886.0000371933 12 15 8
-180.292919278145 -413.953244686127 1870.00000476837 7 10 1
-177.818119525909 -420.16527056694 1898.00000190735 15 18 9
-171.18789255619 -416.636645793915 1881.99996948242 12 15 8
-163.673862814903 -410.672158002853 1855.00001907349 10 13 6
-157.760262489319 -408.470690250397 1845.00002861023 10 13 6
-152.728572487831 -408.482760190964 1845.00002861023 11 14 7
-149.137392640114 -412.479728460312 1863.00003528595 10 13 6
-143.746465444565 -411.605507135391 1858.99996757507 9 12 5
-138.376966118813 -410.73089838028 1855.00001907349 9 12 5
-132.813289761543 -409.191608428955 1848.00004959106 8 11 4
-127.563998103142 -408.537626266479 1845.00002861023 7 10 3
-122.795581817627 -409.433245658875 1848.99997711182 7 10 3
-117.813959717751 -409.664243459702 1850.00002384186 7 10 3
-113.618925213814 -412.773638963699 1863.9999628067 10 12 7
-109.987653791904 -418.318748474121 1889.00005817413 9 11 6
-103.222779929638 -411.905139684677 1860.00001430511 8 10 5
-99.8874828219414 -419.221371412277 1893.00000667572 7 9 4
-95.8713516592979 -424.322843551636 1916.00000858307 7 9 4
-89.8370817303658 -420.565396547318 1899.00004863739 8 10 5
-84.0290933847427 -417.47185587883 1884.99999046326 8 10 5
-78.5065293312073 -415.485143661499 1876.00004673004 8 10 5
-73.4631791710854 -415.934264659882 1878.00002098084 8 10 5
-68.5178339481354 -417.047381401062 1883.00001621246 8 10 5
-58.5446655750275 -419.272541999817 1893.00000667572 9 11 6
-52.8401359915733 -415.068835020065 1873.99995326996 8 10 5
-48.3851730823517 -420.831680297852 1899.99997615814 8 10 5
-43.8108146190643 -426.815748214722 1927.00004577637 9 12 5
-38.568738847971 -427.040547132492 1927.99997329712 11 14 5
-33.0792590975761 -424.164056777954 1914.99996185303 12 15 6
-393.830209970474 -412.845134735107 1845.99995613098 19 21 18
-385.241508483887 -409.064412117004 1828.9999961853 26 28 23
-374.041616916656 -402.375608682632 1799.00002479553 14 16 11
-366.492450237274 -399.488627910614 1786.00001335144 9 12 5
-361.240714788437 -399.061888456345 1784.00003910065 22 25 18
-355.999261140823 -398.635059595108 1781.99994564056 10 13 6
-350.571095943451 -397.984445095062 1779.00004386902 13 16 9
-344.186902046204 -396.215051412582 1771.00002765656 13 16 7
-338.037222623825 -394.66917514801 1764.00005817413 13 16 7
-332.113921642303 -393.346786499023 1758.00001621246 14 17 8
-325.291663408279 -390.905380249023 1746.99997901917 16 19 10
-317.978143692017 -387.792348861694 1733.00004005432 19 22 13
-312.367051839828 -386.692941188812 1728.00004482269 19 22 13
-306.604444980621 -385.369479656219 1722.00000286102 20 23 14
-304.73130941391 -388.969451189041 1738.00003528595 20 23 14
-300.008744001389 -388.988614082336 1738.00003528595 19 22 13
-296.305030584335 -390.350610017776 1743.99995803833 19 22 13
-290.394753217697 -388.802766799927 1736.99998855591 18 21 12
-285.344272851944 -388.373851776123 1735.00001430511 17 20 11
-281.112849712372 -389.063984155655 1738.00003528595 18 21 12
-276.546448469162 -389.306277036667 1738.9999628067 19 22 13
-272.599339485168 -390.44401049614 1743.99995803833 19 22 13
-267.549306154251 -390.014350414276 1741.99998378754 21 24 17
-264.470934867859 -392.49524474144 1753.00002098084 19 22 15
-262.517213821411 -396.767377853394 1771.99995517731 14 17 10
-261.332213878632 -402.383267879486 1797.00005054474 12 15 8
-259.297043085098 -406.879782676697 1817.00003147125 15 18 11
-256.452530622482 -410.256773233414 1832.00001716614 9 11 6
-201.530635356903 -431.75345659256 1927.00004577637 12 14 11
-195.056766271591 -429.07977104187 1914.99996185303 16 18 15
-185.971200466156 -420.355618000031 1876.00004673004 14 17 10
-179.411515593529 -417.008399963379 1860.99994182587 9 12 3
-175.93090236187 -420.83141207695 1878.00002098084 12 15 6
-170.629009604454 -420.396566390991 1876.00004673004 12 15 8
-163.749441504478 -415.927469730377 1855.99994659424 8 11 4
-158.090025186539 -414.371252059937 1848.99997711182 9 12 5
-153.130546212196 -414.607465267181 1850.00002384186 10 13 6
-149.045705795288 -417.308658361435 1861.99998855591 11 14 7
-143.425941467285 -415.751278400421 1855.00001907349 10 13 6
-138.366088271141 -415.762305259705 1855.00001907349 9 12 5
-133.162140846252 -415.324747562408 1853.00004482269 7 10 3
-128.867477178574 -417.800664901733 1863.9999628067 7 10 3
-122.453823685646 -413.327693939209 1843.99998188019 7 10 3
-118.314012885094 -416.475385427475 1858.00004005432 7 10 3
-113.000370562077 -415.587991476059 1853.99997234344 9 11 6
-107.41713643074 -413.579344749451 1845.00002861023 8 10 5
-102.659597992897 -414.708614349365 1850.00002384186 8 10 5
-98.8769680261612 -420.096784830093 1873.99995326996 7 9 4
-94.1124632954597 -421.673715114594 1881.00004196167 8 10 5
-89.3567949533463 -423.474580049515 1889.00005817413 8 10 5
-83.7548449635506 -421.239733695984 1878.99994850159 8 10 5
-78.1654193997383 -418.780297040939 1868.00003051758 8 10 5
-72.9878395795822 -418.338060379028 1866.00005626678 8 10 5
-67.9665058851242 -418.79215836525 1868.00003051758 8 10 5
-63.2369369268417 -421.263635158539 1878.99994850159 8 10 5
-58.3234280347824 -422.837972640991 1886.0000371933 9 11 6
-53.2023534178734 -423.066735267639 1886.99996471405 9 11 6
-43.8072308897972 -432.0427775383 1927.00004577637 9 12 5
-38.3055470883846 -429.355680942535 1914.99996185303 11 14 5
-32.8347384929657 -426.219671964645 1901.00002288818 11 14 5
-27.963787317276 -431.154757738113 1922.99997806549 19 22 15
-391.035467386246 -414.907932281494 1832.99994468689 20 22 19
-383.3247423172 -411.986440420151 1820.00005245209 15 17 12
-375.060349702835 -408.385455608368 1804.00002002716 18 20 15
-368.113338947296 -406.142383813858 1794.0000295639 12 15 8
-362.232506275177 -405.031144618988 1789.00003433228 22 25 18
-355.379462242126 -402.787655591965 1779.00004386902 13 16 9
-347.594946622849 -399.411767721176 1764.00005817413 13 16 9
-342.806279659271 -399.431973695755 1764.00005817413 13 16 7
-338.591933250427 -400.131434202194 1766.99995994568 13 16 7
-334.549695253372 -401.057451963425 1771.00002765656 14 17 8
-326.575219631195 -397.22752571106 1753.99994850159 16 19 10
-318.875998258591 -393.623650074005 1738.00003528595 18 21 12
-312.347680330276 -391.378253698349 1728.00004482269 18 21 12
-308.1876039505 -392.077058553696 1730.99994659424 19 22 13
-304.186105728149 -393.002390861511 1735.00001430511 19 22 13
-301.025241613388 -395.060241222382 1743.99995803833 19 22 13
-296.625763177872 -395.532488822937 1746.00005149841 19 22 13
-289.874374866486 -392.83287525177 1733.99996757507 18 21 12
-284.17444229126 -391.492307186127 1728.00004482269 16 19 10
-280.609101057053 -393.096804618835 1735.00001430511 17 20 11
-277.005106210709 -394.701242446899 1741.99998378754 19 22 13
-273.362517356873 -396.305739879608 1748.99995326996 19 22 13
-268.606305122375 -396.324008703232 1748.99995326996 19 22 15
-265.961498022079 -399.514585733414 1763.00001144409 19 22 15
-263.388067483902 -402.931898832321 1777.99999713898 17 20 13
-261.459589004517 -407.482475042343 1797.99997806549 15 18 11
-258.850932121277 -411.126732826233 1814.00001049042 11 14 7
-257.134467363358 -416.357576847076 1837.00001239777 4 6 1
-201.515451073647 -436.978965997696 1927.00004577637 2 4 1
-194.227188825607 -432.458490133286 1906.99994564056 13 15 12
-184.668451547623 -422.494679689407 1863.00003528595 12 15 8
-179.205000400543 -421.601414680481 1858.99996757507 13 16 7
-175.261691212654 -424.336522817612 1871.00005149841 9 12 3
-170.161128044128 -424.349814653397 1871.00005149841 9 12 5
-164.266094565392 -422.321438789368 1861.99998855591 6 9 2
-158.847212791443 -421.426773071289 1858.00004005432 7 10 3
-154.029041528702 -422.119379043579 1860.99994182587 11 14 7
-149.274170398712 -423.038572072983 1865.00000953674 13 16 9
-143.801242113113 -421.915888786316 1860.00001430511 11 14 7
-138.429760932922 -421.019613742828 1855.99994659424 11 14 7
-133.798331022263 -422.391444444656 1861.99998855591 10 13 6
-130.03246486187 -426.71212553978 1881.00004196167 9 12 5
-124.436125159264 -425.134241580963 1873.99995326996 9 12 5
-118.495583534241 -422.19465970993 1860.99994182587 10 13 6
-112.808495759964 -419.935256242752 1850.99995136261 10 12 7
-107.466742396355 -418.809741735458 1845.99995613098 10 12 7
-103.70559990406 -424.036383628845 1868.99995803833 9 11 6
-98.1831327080727 -422.229468822479 1860.99994182587 10 12 7
-93.7046334147453 -424.95983839035 1873.00002574921 10 12 7
-88.9238566160202 -426.555424928665 1879.99999523163 10 12 7
-84.2829197645187 -429.058313369751 1891.00003242493 10 12 7
-78.6611661314964 -426.569044589996 1879.99999523163 10 12 7
-73.060117661953 -423.852413892746 1868.00003051758 9 11 6
-68.1064873933792 -424.765765666962 1871.99997901917 8 10 5
-63.0635172128677 -425.224959850311 1873.99995326996 8 10 5
-58.0712892115116 -426.137566566467 1878.00002098084 9 11 8
-53.2825700938702 -428.865015506744 1889.99998569489 9 11 6
-48.4791100025177 -432.045996189117 1904.00004386902 9 12 5
-43.3490052819252 -432.730466127396 1906.99994564056 10 13 6
-37.7623736858368 -428.422421216965 1888.00001144409 10 13 2
-32.8147709369659 -431.148320436478 1899.99997615814 10 13 2
-27.8160870075226 -434.100806713104 1912.99998760223 12 15 8
-387.601166963577 -416.21258854866 1817.00003147125 9 11 8
-380.355179309845 -413.713723421097 1805.99999427795 16 18 13
-372.336834669113 -410.2982878685 1791.00000858307 11 13 8
-365.835636854172 -408.486157655716 1782.99999237061 11 14 7
-362.009406089783 -409.652292728424 1787.99998760223 15 18 11
-356.956958770752 -409.443706274033 1786.99994087219 12 15 8
-348.7568795681 -405.568987131119 1769.99998092651 13 16 9
-344.146341085434 -405.818432569504 1771.00002765656 13 16 7
-339.913070201874 -406.526148319244 1774.00004863739 13 16 7
-334.529578685761 -405.858814716339 1771.00002765656 14 17 8
-327.858656644821 -403.587102890015 1761.0000371933 16 19 10
-322.158694267273 -402.460992336273 1756.00004196167 16 19 10
-316.846936941147 -401.793122291565 1753.00002098084 17 20 11
-311.372876167297 -400.895863771439 1748.99995326996 18 21 12
-306.445956230164 -400.686085224152 1748.00002574921 18 21 12
-301.523834466934 -400.476098060608 1746.99997901917 18 21 12
-296.776562929153 -400.495290756226 1746.99997901917 19 22 13
-288.852661848068 -396.158427000046 1728.00004482269 17 20 11
-284.484714269638 -396.635591983795 1730.00001907349 16 19 10
-280.752301216125 -398.029834032059 1735.99994182587 17 20 11
-277.463734149933 -400.111883878708 1745.00000476837 18 21 12
-273.187965154648 -400.818228721619 1748.00002574921 18 21 12
-269.355922937393 -402.212262153625 1753.99994850159 17 20 13
-266.094237565994 -404.523640871048 1764.00005817413 17 20 13
-263.666242361069 -408.210963010788 1779.99997138977 18 21 14
-261.150717735291 -411.898404359818 1796.0000038147 13 16 9
-256.9779753685 -413.063168525696 1800.99999904633 7 9 4
-201.291084289551 -441.74462556839 1924.99995231628 0 1 0
-193.194031715393 -435.334116220474 1896.99995517731 9 11 8
-184.059664607048 -426.168859004974 1856.99999332428 12 15 8
-178.516551852226 -425.035268068314 1851.99999809265 9 12 3
-174.779891967773 -428.261876106262 1866.00005626678 11 14 5
-169.329509139061 -427.357077598572 1861.99998855591 8 11 4
-164.076954126358 -426.91096663475 1860.00001430511 7 10 3
-159.347772598267 -427.841633558273 1863.9999628067 8 11 4
-154.348060488701 -428.083419799805 1865.00000953674 12 15 8
-149.422526359558 -428.554385900497 1866.99998378754 12 15 8
-144.021853804588 -427.647739648819 1863.00003528595 11 14 7
-139.537543058395 -429.495334625244 1871.00005149841 11 14 7
-133.859574794769 -427.669703960419 1863.00003528595 10 13 6
-128.98525595665 -428.368806838989 1866.00005626678 10 13 6
-124.027825891972 -428.838014602661 1868.00003051758 11 14 7
-118.93180757761 -428.84773015976 1868.00003051758 11 14 7
-113.83543908596 -428.857058286667 1868.00003051758 11 14 7
-109.611935913563 -432.309806346893 1883.00001621246 11 14 7
-103.086948394775 -426.578670740128 1858.00004005432 11 14 7
-97.858689725399 -425.89795589447 1855.00001907349 11 14 7
-93.196801841259 -427.742451429367 1863.00003528595 12 15 8
-88.7274742126465 -430.734664201736 1876.00004673004 11 14 7
-83.9640945196152 -432.578474283218 1883.99994373322 11 14 7
-78.0690312385559 -428.452163934708 1866.00005626678 10 13 6
-73.1323808431625 -429.376751184464 1870.00000476837 9 12 5
-67.6643848419189 -427.086353302002 1860.00001430511 9 12 5
-62.9910603165627 -429.847151041031 1871.99997901917 8 10 5
-57.8500963747501 -429.62247133255 1871.00005149841 9 11 8
-53.0245006084442 -431.923270225525 1881.00004196167 9 11 6
-47.9150116443634 -432.156980037689 1881.99996948242 10 13 6
-42.8908541798592 -433.308869600296 1886.99996471405 10 13 4
-37.6992672681808 -432.852953672409 1884.99999046326 10 13 2
-32.5530283153057 -432.855814695358 1884.99999046326 9 12 1
-27.4357721209526 -433.317542076111 1886.99996471405 15 18 11
-22.5436985492706 -438.371568918228 1909.00003910065 1 3 0
-386.300325393677 -419.747740030289 1810.99998950958 16 18 13
-379.491955041885 -417.682528495789 1802.00004577637 16 19 12
-372.939795255661 -415.848881006241 1794.0000295639 15 18 11
-367.04608798027 -414.710521697998 1789.00003433228 13 16 9
-361.583918333054 -414.035677909851 1786.00001335144 13 16 9
-357.136189937592 -414.519876241684 1787.99998760223 12 15 8
-353.07115316391 -415.467768907547 1792.00005531311 14 17 10
-346.263498067856 -413.169682025909 1781.99994564056 14 17 10
-341.425627470016 -413.1900370121 1781.99994564056 14 17 10
-335.642755031586 -412.050902843475 1776.99995040894 15 18 11
-330.445021390915 -411.60723567009 1774.99997615814 17 20 13
-325.99139213562 -412.091076374054 1776.99995040894 16 17 9
-320.261240005493 -410.951435565948 1771.99995517731 17 18 10
-313.667625188828 -408.651977777481 1761.99996471405 17 18 10
-306.77717924118 -405.888319015503 1750 17 18 10
-302.022367715836 -405.90763092041 1750 17 18 10
-297.77666926384 -406.622707843781 1753.00002098084 17 19 8
-291.842579841614 -405.018001794815 1746.00005149841 17 19 8
-287.754714488983 -405.964761972427 1750 17 19 8
-282.997757196426 -405.983537435532 1750 18 20 9
-278.558194637299 -406.466096639633 1751.99997425079 19 21 10
-272.700786590576 -404.860526323318 1745.00000476837 21 23 12
-267.802178859711 -404.646664857864 1743.99995803833 24 27 16
-263.964384794235 -406.05691075325 1750 23 26 17
-260.982036590576 -408.85928273201 1761.99996471405 14 17 10
-261.42343878746 -417.231023311615 1797.99997806549 8 11 4
-258.386850357056 -420.265793800354 1810.99998950958 0 1 0
-200.648531317711 -445.569902658463 1919.0000295639 6 7 9
-195.521533489227 -445.817083120346 1919.99995708466 2 4 3
-178.984805941582 -431.216835975647 1856.99999332428 11 14 7
-174.298122525215 -432.159274816513 1860.99994182587 11 14 7
-169.771090149879 -433.56591463089 1866.99998378754 10 13 6
-164.946287870407 -434.275567531586 1870.00000476837 11 14 7
-159.93370115757 -434.520453214645 1871.00005149841 11 14 7
-154.749765992165 -434.300512075424 1870.00000476837 12 15 8
-149.490833282471 -433.847904205322 1868.00003051758 13 16 9
-145.324602723122 -436.646580696106 1879.99999523163 11 14 7
-140.79424738884 -438.515990972519 1888.00001144409 11 14 7
-135.214030742645 -437.133312225342 1881.99996948242 12 15 8
-129.251480102539 -434.356570243835 1870.00000476837 12 15 8
-124.283500015736 -434.831261634827 1871.99997901917 13 16 9
-119.304247200489 -435.305505990982 1873.99995326996 13 16 9
-114.862196147442 -437.870144844055 1884.99999046326 14 17 10
-109.253861010075 -436.020731925964 1876.99997425079 12 15 8
-103.633418679237 -433.938682079315 1868.00003051758 11 14 7
-98.1145203113556 -432.088375091553 1860.00001430511 10 13 6
-93.4393480420113 -433.95459651947 1868.00003051758 10 13 6
-88.6729806661606 -435.588210821152 1875 11 14 7
-83.689883351326 -436.292141675949 1878.00002098084 11 14 7
-78.5228461027145 -436.066448688507 1876.99997425079 11 14 7
-73.6738741397858 -437.698930501938 1883.99994373322 11 14 7
-68.6046183109283 -438.16938996315 1886.0000371933 10 13 6
-63.6924728751183 -439.801096916199 1893.00000667572 10 13 6
-58.1235960125923 -436.785787343979 1879.99999523163 9 12 5
-52.681889384985 -434.23467874527 1868.99995803833 10 13 6
-47.452837228775 -433.077096939087 1863.9999628067 10 13 4
-42.8191311657429 -437.727570533752 1883.99994373322 11 14 5
-37.5761687755585 -436.569213867188 1878.99994850159 11 14 5
-32.4467308819294 -436.572104692459 1878.99994850159 11 14 5
-27.3026656359434 -436.342269182205 1878.00002098084 10 13 6
-22.388331592083 -440.526485443115 1896.00002765656 21 23 18
-386.279463768005 -424.656748771667 1810.99998950958 17 19 14
-377.575933933258 -420.456647872925 1792.99998283386 16 19 12
-374.789953231812 -422.82235622406 1802.99997329712 15 18 11
-369.077086448669 -421.905070543289 1799.00002479553 15 18 11
-362.575590610504 -420.049428939819 1791.00000858307 13 16 9
-355.51780462265 -417.489975690842 1779.99997138977 14 17 10
-351.474553346634 -418.448626995087 1784.00003910065 14 17 10
-345.854580402374 -417.530715465546 1779.99997138977 14 17 10
-337.765216827393 -413.563132286072 1763.00001144409 14 17 10
-334.489405155182 -415.459901094437 1771.00002765656 15 18 11
-328.935742378235 -414.541512727737 1766.99995994568 16 19 12
-325.787991285324 -416.672945022583 1776.00002288818 16 17 9
-319.879978895187 -415.28508067131 1769.99998092651 17 18 10
-313.647985458374 -413.427770137787 1761.99996471405 17 18 10
-307.108402252197 -411.100834608078 1751.99997425079 17 18 10
-302.348256111145 -411.120146512985 1751.99997425079 16 17 9
-297.927349805832 -411.608666181564 1753.99994850159 17 19 8
-293.327897787094 -411.86249256134 1754.99999523163 17 19 8
-289.380103349686 -413.05485367775 1759.99999046326 17 19 8
-284.434407949448 -412.838995456696 1758.99994373322 18 20 9
-279.016643762589 -411.918848752975 1754.99999523163 19 21 10
-273.620098829269 -410.998463630676 1751.00004673004 21 23 12
-268.705368041992 -410.78194975853 1750 15 18 7
-263.946413993835 -410.800069570541 1750 19 22 13
-262.593299150467 -416.217237710953 1773.00000190735 15 18 9
-261.841505765915 -422.808527946472 1800.99999904633 14 16 11
-193.979278206825 -447.497516870499 1904.99997138977 17 18 20
-186.509102582932 -442.109078168869 1881.99996948242 14 16 13
-179.356560111046 -437.189817428589 1860.99994182587 3 6 0
-174.191042780876 -436.968475580215 1860.00001430511 8 11 4
-169.212386012077 -437.216699123383 1860.99994182587 10 13 6
-164.757058024406 -438.874214887619 1868.00003051758 11 14 7
-159.579336643219 -438.651919364929 1866.99998378754 11 14 7
-153.910160064697 -437.019497156143 1860.00001430511 11 14 7
-149.078965187073 -437.73627281189 1863.00003528595 13 16 9
-144.61749792099 -439.62761759758 1871.00005149841 15 18 11
-140.559390187263 -442.928463220596 1884.99999046326 15 18 11
-135.059624910355 -441.764533519745 1879.99999523163 14 17 10
-129.310294985771 -439.66019153595 1871.00005149841 14 17 10
-123.941630125046 -438.730329275131 1866.99998378754 13 16 9
-119.676642119884 -441.79505109787 1879.99999523163 13 16 9
-114.79202657938 -442.744433879852 1883.99994373322 15 18 11
-109.24506187439 -441.108405590057 1876.99997425079 13 16 9
-103.236719965935 -437.356859445572 1860.99994182587 12 15 8
-98.2648208737373 -437.835067510605 1863.00003528595 11 14 7
-93.5317948460579 -439.487963914871 1870.00000476837 10 13 6
-88.9967754483223 -442.315608263016 1881.99996948242 10 13 6
-83.9504152536392 -442.79271364212 1883.99994373322 10 13 6
-78.5164311528206 -441.154181957245 1876.99997425079 10 13 6
-74.1761773824692 -445.861101150513 1896.99995517731 10 13 6
-68.8536018133163 -444.926798343658 1893.00000667572 10 13 6
-64.5956173539162 -451.278299093246 1919.99995708466 10 13 6
-58.8607676327229 -447.522759437561 1904.00004386902 12 15 6
-53.2130748033524 -443.76665353775 1888.00001144409 12 15 6
-47.7034822106361 -440.480142831802 1873.99995326996 12 15 6
-42.7019745111465 -441.659092903137 1878.99994850159 13 16 7
-37.5730693340302 -441.662460565567 1878.99994850159 13 16 7
-32.392255961895 -440.960168838501 1876.00004673004 17 20 13
-27.2422563284636 -440.492510795593 1873.99995326996 14 17 10
-22.2565997391939 -443.08015704155 1884.99999046326 22 24 19
-388.17822933197 -431.700140237808 1820.00005245209 19 21 16
-379.450500011444 -427.451252937317 1802.00004577637 18 21 14
-375.18498301506 -428.183615207672 1804.99994754791 17 20 13
-370.287269353867 -428.204298019409 1804.99994754791 16 19 12
-362.757503986359 -425.140857696533 1792.00005531311 15 18 11
-355.297744274139 -422.077000141144 1779.00004386902 14 17 10
-348.499089479446 -419.724673032761 1769.00005340576 14 17 10
-343.697130680084 -419.744879007339 1769.00005340576 13 16 9
-338.128298521042 -418.815791606903 1764.99998569489 14 17 10
-332.958459854126 -418.361186981201 1763.00001144409 14 17 10
-330.963373184204 -421.94077372551 1777.99999713898 15 18 11
-326.318323612213 -422.198116779327 1779.00004386902 15 16 8
-319.318056106567 -419.369995594025 1766.99995994568 16 17 9
-313.450425863266 -417.965650558472 1761.0000371933 16 17 9
-307.439565658569 -416.323632001877 1753.99994850159 16 17 9
-302.50158905983 -416.105568408966 1753.00002098084 16 17 9
-298.417776823044 -417.074233293533 1756.99996948242 15 17 6
-294.144511222839 -417.805552482605 1759.99999046326 15 17 6
-290.676444768906 -419.723719358444 1768.00000667572 15 17 6
-285.224109888077 -418.792992830276 1764.00005817413 17 19 8
-279.792934656143 -417.862057685852 1759.99999046326 18 20 9
-273.914247751236 -416.218549013138 1753.00002098084 19 21 10
-270.069003105164 -417.661428451538 1758.99994373322 17 20 9
-266.944736242294 -420.291602611542 1769.99998092651 13 16 7
-265.685319900513 -426.008820533752 1794.0000295639 20 23 16
-193.760856986046 -452.184796333313 1902.99999713898 0 0 2
-186.098456382751 -446.258783340454 1878.00002098084 15 17 14
-180.884689092636 -446.035206317902 1876.99997425079 10 13 6
-175.114065408707 -444.385498762131 1870.00000476837 7 10 3
-169.562965631485 -443.210601806641 1865.00000953674 9 12 5
-164.391458034515 -442.985892295837 1863.9999628067 9 12 5
-158.968597650528 -442.047923803329 1860.00001430511 9 12 5
-153.649866580963 -441.347122192383 1856.99999332428 11 14 7
-148.587137460709 -441.359013319016 1856.99999332428 14 17 10
-144.296899437904 -443.747311830521 1866.99998378754 14 17 10
-140.100881457329 -446.610748767853 1878.99994850159 14 17 10
-135.192528367043 -447.334736585617 1881.99996948242 15 18 11
-128.539800643921 -442.116051912308 1860.00001430511 15 18 11
-123.666197061539 -442.839205265045 1863.00003528595 16 19 12
-118.903189897537 -444.037407636642 1868.00003051758 17 20 13
-114.234462380409 -445.710778236389 1875 15 18 11
-108.770661056042 -444.293469190598 1868.99995803833 13 16 9
-103.061959147453 -441.687107086182 1858.00004005432 12 15 8
-98.4678044915199 -443.834781646729 1866.99998378754 10 13 6
-94.2243710160255 -447.8839635849 1883.99994373322 10 13 6
-89.3678069114685 -449.317872524261 1889.99998569489 10 13 6
-84.5227986574173 -450.989127159119 1896.99995517731 11 14 7
-79.1792497038841 -450.044870376587 1893.00000667572 12 15 8
-73.7400129437447 -448.386907577515 1886.0000371933 13 16 9
-68.9570680260658 -450.770229101181 1896.00002765656 13 16 9
-64.287543296814 -454.341948032379 1911.00001335144 12 15 8
-58.8868297636509 -452.920496463776 1904.99997138977 12 15 6
-53.434144705534 -450.785338878632 1896.00002765656 11 14 5
-47.8777252137661 -447.22318649292 1881.00004196167 12 15 6
-42.630273848772 -446.038097143173 1876.00004673004 15 18 9
-37.3900085687637 -444.614857435226 1870.00000476837 17 20 11
-32.4068404734135 -446.282088756561 1876.99997425079 18 21 14
-27.2836089134216 -446.284532546997 1876.99997425079 24 27 20
-22.1957247704268 -446.999907493591 1879.99999523163 22 24 19
-398.710012435913 -442.849218845367 1845.99995613098 35 37 36
-388.370662927628 -436.872601509094 1820.99997997284 19 21 16
-381.745964288712 -434.974044561386 1812.99996376038 18 21 14
-377.034932374954 -435.234725475311 1814.00001049042 18 21 14
-369.240969419479 -431.896299123764 1799.99995231628 16 19 12
-362.332165241241 -429.517328739166 1789.99996185303 16 19 12
-354.678303003311 -426.178187131882 1776.00002288818 14 17 10
