ply
format ascii 1.0
comment KinectMotionCapture
element vertex 751
property float x
property float y
property float z
property uchar red
property uchar green
property uchar blue
end_header
-739.117341148668 560.051841075905 2261.61538341906 117 101 85
-729.404776994028 562.326944773414 2252.54927498577 100 85 66
-722.675367193972 563.901578927333 2243.47286026061 112 99 82
-712.965345201456 566.174685409857 2234.30525086934 109 96 79
-773.27704340373 543.157665751796 2394.61826714036 197 199 194
-773.501873220984 543.111914132848 2385.78201446371 206 208 205
-777.706796986481 542.142767573287 2376.84040431734 195 197 194
-783.901193920785 540.711954700984 2367.87323758423 203 205 202
-792.084400204959 538.819295264417 2358.89694027971 202 204 201
-798.276975150703 537.387527000138 2349.99995734494 200 202 199
-802.479094174568 536.4164262854 2341.16586799637 200 202 199
-803.696794118895 536.136465617823 2332.39082226562 200 202 199
-806.903446909357 535.394920278438 2323.60131883222 198 200 197
-810.109432549783 534.652715421969 2314.82785700648 196 195 191
-807.348535959451 535.29311020273 2306.09638106258 197 194 189
-805.582148696405 535.702286889484 2297.34660832198 191 186 180
-797.849931621971 537.493729280992 2288.57868114105 186 177 170
-788.130413965921 539.745176102538 2279.7589386997 187 177 168
-764.493488186393 545.222125993655 2270.79144995547 101 89 77
-747.818792894499 549.084425210272 2261.75797027255 101 88 72
-734.12866334513 552.254221779504 2252.66757660721 103 90 73
-721.434385048247 555.192319822674 2243.51524799708 99 86 70
-775.794953611777 533.72818766022 2403.41877669479 203 205 200
-780.0005500554 532.771165919689 2394.46389465381 216 218 215
-786.196042867436 531.357586855922 2385.47240155894 203 205 204
-792.390700945433 529.943689850667 2376.51319138092 200 202 201
-798.584278319242 528.529243428212 2367.58630415622 197 201 200
-801.79231274671 527.798133686598 2358.75400650354 199 201 198
-808.979489962683 526.154865716169 2349.86559111437 198 200 197
-813.181396258073 525.194681948435 2341.06086249668 199 201 198
-822.356208788111 523.094861556569 2332.21488636522 198 202 201
-821.583046664273 523.273035728068 2323.51588839505 197 201 200
-818.820667940141 523.906145792004 2314.82519281834 197 199 198
-809.09682998356 526.133174685528 2306.14808459758 203 203 201
-808.324820905423 526.309061254824 2297.40156535599 201 201 199
-797.608535148049 528.762084190057 2288.63792357352 208 204 201
-791.865860387951 530.075213448401 2279.83318807365 181 176 172
-773.198137396633 534.348208817384 2270.90946051488 176 169 161
-759.504201235526 537.481146794929 2261.92826650611 82 74 63
-728.911630680882 544.484089608464 2252.66485758698 86 76 64
-712.240512958271 548.297541173046 2243.43910525645 96 88 75
-777.093516687351 524.582289774189 2421.06259618 158 161 154
-773.336214157608 525.439349070284 2412.38926711649 218 220 215
-786.501182813741 522.46626852775 2403.10782441194 194 196 193
-790.706326253702 521.520110799497 2394.18231226302 199 201 198
-802.873113730965 518.771666637433 2385.04628330977 199 201 200
-808.071699533255 517.599493298364 2376.15908586486 198 200 199
-813.269823152746 516.426779660687 2367.29869678208 194 198 197
-813.491882831239 516.379484807638 2358.56905371857 198 200 197
-815.703989693097 515.881174251698 2349.80285539551 198 200 197
-821.895163975404 514.481712153353 2340.98597832466 199 201 198
-828.085735455332 513.081807212382 2332.20151015691 198 202 201
-834.275462722598 511.681406796257 2323.44950474149 197 201 200
-833.501465287956 511.856262227358 2314.77959020338 200 204 203
-835.711280099172 511.355323987148 2306.0908269663 207 209 208
-826.980935324928 513.329432070791 2297.43048328524 203 205 204
-812.284595563919 516.653022548929 2288.71391580783 206 205 203
-801.568211822102 519.075278662877 2279.93039334196 207 206 202
-792.841906655327 521.046393813759 2271.09962943811 168 163 159
-768.208261516234 526.616692496369 2262.07013019281 115 108 100
-720.711375893561 537.360124648087 2252.62611261128 77 70 60
-704.039553945354 541.127188915366 2243.37807674937 98 91 81
-749.742656835212 521.855255665734 2431.10590025042 186 188 183
-766.894426574642 518.02781703045 2421.53108845366 225 227 222
-775.084122688136 516.203108797501 2412.38343169452 193 195 192
-787.254308061405 513.487974012162 2403.14104144947 203 205 204
-794.445929655715 511.885176041903 2394.12237792801 191 195 194
-812.58539991616 507.834327644967 2384.82241463305 197 201 202
-819.774299634702 506.230753839266 2375.90929841336 194 198 199
-823.97661649886 505.294171426166 2367.10453987456 200 204 203
-825.193214709526 505.024467233614 2358.38356632487 201 203 200
-826.40943234538 504.754267305694 2349.66760988651 200 202 199
-836.580437853223 502.48153296277 2340.81878613835 201 203 200
-839.785661858607 501.76533593111 2332.11234163598 200 204 203
-850.949131622674 499.269487215215 2323.34317549253 198 204 204
-853.158240660164 498.774615603599 2314.69783500437 202 208 208
-857.356337687934 497.834655202341 2306.05437526647 191 195 196
-849.618364644088 499.562206097774 2297.45213433042 211 213 212
-837.903036924291 502.178274957854 2288.80141761463 198 200 199
-834.145491836307 503.014752276923 2280.11546922569 205 205 203
-827.405182629884 504.517324370508 2271.38766636861 218 217 213
-807.739149261772 508.908696779949 2262.50030896802 207 204 199
-772.167214902265 516.855055717514 2253.31052052802 57 52 46
-733.337913583558 516.561377540239 2440.79872347664 221 223 220
-746.510297702936 513.659726087562 2431.30415383534 205 207 206
-767.646504815377 508.999022006978 2421.56032738126 205 207 206
-773.845182574383 507.635794403958 2412.48909425791 203 207 208
-789.003256244727 504.293710364872 2403.13964406229 202 206 207
-796.195279457597 502.709891529978 2394.12566223008 201 205 206
-815.331315115896 498.488193854219 2384.80118795053 199 203 206
-824.511319475355 496.464112592586 2375.84294477288 199 203 206
-826.722971584782 495.977990068859 2367.09828153228 198 202 203
-832.915327659302 494.612301028475 2358.28080362454 203 205 204
-833.136020090564 494.564589927908 2349.6041503847 205 207 204
-845.297518540808 491.879613552249 2340.74298175046 205 207 204
-848.502357243218 491.1716816899 2332.06047072528 200 204 205
-860.660892502923 488.486176916085 2323.3052217009 198 203 206
-864.859033777976 487.557668373343 2314.67232874955 195 200 203
-871.046265892673 486.189262181532 2306.05219547413 194 199 202
-870.269694885188 486.357900580302 2297.47618970762 192 198 198
-871.482396283266 486.086716165368 2288.89660295611 194 198 199
-869.711440038258 486.473578642567 2280.31076736704 196 197 199
-866.946081859653 487.079393007035 2271.70721117269 195 197 196
-857.220114782084 489.221341549914 2263.02196364793 205 205 205
-848.489817659143 491.142743357485 2254.29384086069 215 215 213
-855.669522560929 489.5508003882 2245.75257822879 217 218 213
-730.872246957804 508.138676954935 2449.90554584822 211 213 210
-741.058937691563 505.924126550648 2440.50616256675 202 204 201
-755.227517114098 502.840740862883 2430.98985909602 207 209 208
-771.385766501659 499.32288511797 2421.46950880529 210 212 211
-777.584865501186 497.975807395796 2412.40847742962 191 195 196
-789.756676120679 495.325900763512 2403.17260389904 192 196 197
-795.953687027132 493.978058532054 2394.19236156302 196 200 201
-816.086580407163 489.591015524117 2384.83786098316 197 201 204
-822.280941592633 488.242498285657 2375.96045415179 198 202 205
-830.465010586502 486.459564069398 2367.06825365463 199 203 204
-835.662349522143 485.327152061773 2358.28180552136 203 205 204
-841.85412246928 483.97734325739 2349.50416922624 205 207 204
-857.001107103202 480.674286019233 2340.6206961734 203 207 206
-860.205351455367 479.974674980527 2331.97034867434 200 204 205
-866.394181313333 478.623609062561 2323.30638870765 198 203 206
-868.602509701587 478.139868748946 2314.70351062645 196 201 204
-874.789692950443 476.787863902332 2306.09357291045 194 199 202
-884.955612025849 474.567856883326 2297.50948389005 193 198 201
-884.177828104948 474.733340224589 2288.96817053556 194 198 199
-890.362922628007 473.379967711367 2280.44772375261 196 197 199
-886.601383626572 474.194701085149 2271.89452436323 195 196 198
-890.796368858007 473.274054999791 2263.39342263078 195 197 196
-888.029731905092 473.870666781545 2254.82996434181 201 203 202
-888.246628429576 473.81598372584 2246.29418234017 199 201 198
-890.452209824384 473.327212911328 2237.79326491451 216 217 212
-888.680382113663 473.704887542051 2229.22229923425 206 207 202
-888.897236373853 473.648415166827 2220.68624783412 194 193 188
-730.938842774505 499.14347273422 2476.7525549783 133 134 128
-732.162570346598 498.887598628946 2467.75846618091 216 217 212
-734.382443452238 498.416629812021 2458.71809360066 220 222 219
-750.546638909535 494.943105626789 2449.01295012084 205 207 206
-758.740654815753 493.184771907742 2439.75840395027 205 207 206
-769.921301757305 490.782781379103 2430.41867189845 199 201 200
-778.113125021504 489.023767868446 2421.25841665411 188 192 193
-778.337548477249 488.97932481548 2412.43945103033 195 199 200
-786.527461467733 487.219382552147 2403.34353388895 196 200 201
-799.69452216668 484.38739000445 2394.13181632667 197 201 202
-815.846466832576 480.911965690286 2384.90343600179 198 202 203
-824.032367162196 479.151107947562 2375.97268936461 200 204 205
-830.225977345634 477.818458754343 2367.1323473909 200 206 206
-843.386412542561 474.985349189468 2358.17837803255 200 204 203
-849.578094940252 473.651949692362 2349.42189977377 200 204 203
-859.74973109564 471.461033474355 2340.63627813602 200 204 203
-862.954005079836 470.769517118405 2331.99346396146 198 204 204
-866.157854913785 470.077513492829 2323.36670385524 197 202 205
-871.351376242815 468.956441117192 2314.7416366368 196 201 204
-879.52878016256 467.192506800464 2306.13033095425 195 200 203
-887.705058421832 465.428091918948 2297.56250398906 193 197 198
-885.932520044726 465.804932290171 2289.02774263767 195 196 198
-891.123052696388 464.682077901663 2280.50824510768 194 196 195
-891.339729264004 464.629494052409 2271.98331374861 193 195 194
-898.518457781097 463.077363577954 2263.52295920361 183 187 188
-896.745734999713 463.451792261825 2254.99281552608 185 189 190
-897.956397010943 463.183251456429 2246.49577358178 179 183 184
-895.189448595212 463.770283091524 2237.93420191495 197 201 200
-893.417377846236 464.142617576237 2229.37632596235 194 196 195
-888.662597138782 465.156307703544 2220.73859102002 201 203 200
-878.937778904133 467.239191742553 2211.94502381889 206 207 202
-875.178967696916 468.037173813743 2203.26722652322 207 208 202
-722.721531856396 491.932042534058 2477.27718445311 211 212 207
-733.908743979402 489.56119147098 2467.72362231511 204 205 200
-750.075267035612 486.131521728154 2457.97459572923 199 201 198
-761.258839373442 483.760202357569 2448.55346138401 205 207 206
-769.452704264799 482.023635738795 2439.32818923323 188 190 189
-777.645695954624 480.286758284395 2430.14603586007 208 212 211
-786.833414962834 478.337747641976 2420.96688253342 185 189 188
-790.044779665723 477.658448011491 2412.0600558876 203 207 208
-796.242831660979 476.343702339216 2403.0653359427 201 205 206
-810.406055455221 473.335382710229 2393.84827391936 198 202 203
-823.571530017753 470.538563466685 2384.73631444792 196 202 202
-829.766025270588 469.222664033736 2375.87936549867 197 203 203
-838.946429144296 467.271579611995 2366.98388630484 199 205 205
-858.079829860867 463.20453229397 2357.92844631939 199 203 202
-865.266215810957 461.675991326957 2349.19414136235 197 201 200
-871.456410407909 460.358712915643 2340.51312109081 198 202 201
-868.688742922261 460.94461556853 2331.9784409532 197 203 203
-870.897338982984 460.472267631289 2323.37733356101 195 200 203
-874.10041991222 459.788034245511 2314.77964321145 194 200 200
-882.278466320104 458.045712659745 2306.17575774094 193 199 199
-891.45025680548 456.091579671716 2297.61364628586 193 194 196
-890.671864435824 456.251643227775 2289.09029386856 194 194 196
-896.857406780501 454.931041930669 2280.5875318734 193 193 193
-898.06833568627 454.666991518093 2272.08488020388 192 192 192
-902.263356109698 453.768239881312 2263.61523640735 203 209 209
-899.495460773575 454.348561403852 2255.08346886771 190 194 195
-898.716870338597 454.505556699976 2246.56456306811 181 185 186
-900.922015605057 454.027705424102 2238.09241560876 190 194 193
-897.160534823334 454.817335335564 2229.50998662689 186 190 189
-898.371032976059 454.549618401605 2221.02023345027 190 194 193
-891.627535026177 455.971653598696 2212.33058341723 198 200 197
-886.873431295455 456.970155597946 2203.65940682511 207 209 204
-880.131468691531 458.390464758447 2194.89857207992 204 206 203
-703.313314277077 487.016216525107 2487.43762669827 209 209 207
-719.485358420002 483.630271255945 2477.51976488972 203 203 201
-736.651445974323 480.035195769581 2467.63485694075 208 208 206
-757.800189323456 475.604031232305 2457.63820802365 209 211 210
-769.980407259662 473.053555467164 2448.18983342686 193 195 194
-774.189800472072 472.17474806371 2439.17054104026 209 211 210
-780.390847189904 470.877447766746 2430.08683325141 179 183 182
-785.594908059367 469.788803782688 2421.07533860295 201 205 204
-790.798509261979 468.699558811156 2412.09048882154 190 194 193
-796.001178610366 467.609964870525 2403.13235964699 191 195 194
-814.148540057463 463.804114040792 2393.78704095975 192 198 196
-827.314726889791 461.042636447899 2384.68519065976 193 199 197
-840.479103295041 458.280980632674 2375.6539067603 194 200 200
-850.654932204815 456.145666185649 2366.76411865599 195 201 201
-863.815889916545 453.383480066746 2357.86587974302 194 198 197
-866.025126579961 452.918227023073 2349.23802854045 190 196 196
-872.215715181835 451.617168897826 2340.55902528558 191 197 197
-875.419563118993 450.942031130062 2331.95044857172 192 198 198
-880.613527771072 449.848869625201 2323.33802329619 189 195 195
-879.835588775835 450.007912194349 2314.7958551789 190 194 195
-884.033550433466 449.122421974841 2306.22549684923 188 192 193
-890.220595103871 447.819129470674 2297.67327882075 189 189 189
-894.41728569346 446.932717245616 2289.15160825483 191 190 188
-897.618130060674 446.254541029776 2280.64783421956 193 189 186
-900.818785123091 445.575871905537 2272.16025441272 190 189 187
-901.034783675355 445.522748334673 2263.66124273088 201 205 206
-902.24559717731 445.260165967778 2255.17400250486 186 190 191
-899.477688022647 445.83166836897 2246.63330574833 182 186 187
-902.677386539434 445.150733104331 2238.18067785132 172 176 177
-903.887644941525 444.88650108462 2229.70403679257 179 183 184
-907.086617544882 444.20449867876 2221.27863429305 189 193 194
-905.313447668735 444.564704974496 2212.74136893443 197 201 202
-895.586653934951 446.59265734611 2203.96602968922 180 184 183
-882.878674221994 449.245171297939 2195.04256168115 186 190 189
-883.095922972946 449.18601307893 2186.48820836322 177 181 180
-717.784337049501 474.980590856322 2495.5967254312 185 186 181
-721.002477805745 474.320673971979 2486.44587884672 213 213 211
-728.206086200054 472.835143006236 2477.08464193464 212 214 213
-741.387239526316 470.111394145955 2467.43835941223 201 203 202
-758.551909369786 466.562430610073 2457.65837197554 202 204 203
-766.747934104498 464.86963992163 2448.40501367504 200 202 201
-770.957848492822 464.001557214226 2439.37686728086 194 196 195
-777.159567825641 462.720463048449 2430.28427226378 191 195 194
-784.356445661079 461.232702672717 2421.18369513957 180 184 183
-792.548274163003 459.538451457021 2412.08344716306 186 190 189
-801.735077653225 457.637519733776 2402.99169889142 188 192 191
-813.908216580711 455.117797764886 2393.85301753626 193 199 197
-824.088019047169 453.010174568571 2384.8376618039 195 201 199
-838.24923894936 450.077595436633 2375.77091834797 194 200 200
-852.408508429012 447.144875353138 2366.78025281855 193 199 199
-864.574813885734 444.624151753318 2357.90757169917 193 197 196
-867.779816984627 443.958129439355 2349.26363473526 188 194 194
-877.952433795677 441.849118221291 2340.52762895791 189 195 195
-881.156102506776 441.182130740249 2331.93480816947 191 197 197
-884.35934890289 440.514715520032 2323.35803364028 188 194 194
-881.590755519562 441.08303901561 2314.84066564629 188 192 193
-884.793568550187 440.414478769585 2306.27959910109 186 190 191
-891.976264117874 438.921431240691 2297.72763719281 188 188 188
-898.163028044694 437.633995353123 2289.21274199816 189 189 187
-901.364072132212 436.963985440517 2280.71925533723 190 189 187
-902.574835973807 436.70550072525 2272.22903096456 188 188 186
-904.780423173484 436.240375870712 2263.75327587523 194 198 199
-908.975057772779 435.362856791901 2255.3121845196 177 181 182
-908.195888754658 435.514481235515 2246.81944973404 182 186 187
-911.394965922081 434.841937136783 2238.39079132214 178 182 183
-914.593846756186 434.168781962746 2229.97847495902 182 186 187
-918.786922756773 433.289213910967 2221.60542379903 189 193 194
-914.029582795592 434.261752107138 2213.02352758385 207 211 212
-900.324179151099 437.085824056281 2204.15888599808 171 175 174
-889.60325531146 439.291482879116 2195.31091600515 169 173 172
-887.831806682519 439.643965489626 2186.70741003284 188 192 191
-896.995805088153 437.732359814147 2178.49550260022 199 201 198
-681.424700022001 473.408651124036 2506.9730699702 198 200 197
-721.523499431076 465.223574726699 2495.42294612771 205 209 208
-735.704653801601 462.332320137966 2485.63079049251 201 205 206
-748.88714024171 459.644407851524 2475.97088381577 202 206 207
-755.092439694644 458.381206537346 2466.75757726838 198 202 205
-761.296671838287 457.117692316063 2457.57632410163 194 198 199
-763.514968128759 456.667789845142 2448.62019834045 195 199 200
-770.714259245875 455.199793461886 2439.44652286111 194 198 199
-778.908954729991 453.527883172614 2430.26753604316 190 194 195
-784.113861160928 452.466202705328 2421.25194527077 189 193 194
-788.322073610122 451.607455921839 2412.3003407497 189 193 194
-793.525897525188 450.544800115769 2403.33533599216 192 196 197
-802.712696170377 448.667877302099 2394.26955599916 194 198 199
-821.856605590031 444.756305636343 2384.96101248597 195 199 200
-839.006428281892 441.251507597716 2375.80872467695 195 199 200
-857.149768031155 437.54311805145 2366.72523429295 192 196 197
-863.342688021368 436.27547004519 2357.99098551801 189 193 192
-866.547999740723 435.617528158372 2349.34366273767 189 193 192
-869.752890658556 434.959158129451 2340.7123266325 189 193 192
-879.925430005126 432.876755973442 2332.00791919686 187 191 190
-886.11488949544 431.607451566898 2323.39781544251 181 185 184
-889.317812260413 430.947684906702 2314.84190197411 181 185 184
-888.5394223973 431.100602393311 2306.32010348169 180 184 183
-892.736863759669 430.236440550863 2297.78365607365 184 186 185
-895.938718202417 429.575157736969 2289.26786840956 186 188 187
-898.145187999327 429.116460024395 2280.76451933291 187 189 188
-897.366244320767 429.267067306697 2272.25256055897 187 189 188
-900.567160334006 428.604113719868 2263.77165602371 196 200 201
-906.752117548501 427.331023230906 2255.34277638964 174 178 179
-911.941550765291 426.260674980795 2246.93195041891 182 186 187
-914.145983833558 425.799461667115 2238.49617790627 183 187 186
-920.32874302851 424.52509576298 2230.15183504776 189 193 192
-923.527015549002 423.85972495859 2221.77165194457 191 195 194
-915.785776139275 425.428014630244 2213.12606946624 194 198 197
-901.084631743561 428.41713767751 2204.23815838971 158 162 161
-892.35157471571 430.186525770033 2195.45468162764 182 186 185
-890.579783350709 430.533637893156 2186.85880455214 183 188 184
-893.779082709571 429.86493274366 2178.43490888534 190 195 189
-687.155456549563 463.161255083102 2506.66000849366 207 209 206
-720.279494313129 456.49135287978 2495.55882646668 203 207 206
-742.435298805737 452.031127551813 2485.28902281353 200 204 205
-761.598126345563 448.173454915157 2475.30829104255 200 204 205
-760.826834113204 448.332528498352 2466.50637770685 196 200 203
-763.04542503669 447.88848947361 2457.54503238372 192 196 197
-765.263741321112 447.443863356062 2448.59379053158 195 199 200
-777.445081854952 444.990922909 2439.19694205474 195 199 200
-785.639903420806 443.340765968049 2430.03638459573 190 194 195
-794.829519978845 441.489624500824 2420.87882804274 189 193 194
-795.052749744259 441.444839032653 2412.10614831317 190 194 195
-799.260469661402 440.59648349735 2403.19427576117 193 197 198
-807.451370199239 438.944852780854 2394.17605844537 194 198 199
-824.604646175488 435.48637037139 2384.93853447514 195 199 200
-840.759758682346 432.22851200794 2375.81994951301 195 199 200
-854.920955529634 429.37198314924 2366.83576404876 192 196 197
-869.080435777875 426.515187934186 2357.92770801721 191 195 194
-874.276739948631 425.464140281204 2349.25974006965 187 191 190
-880.468097787322 424.212032964539 2340.60323198336 187 191 190
-881.680906916384 423.96260678342 2332.04279704757 185 189 188
-885.879939177214 423.110805456014 2323.45744358552 178 182 181
-890.07864465374 422.258487802117 2314.8936323828 180 184 183
-892.285836345485 421.806923359879 2306.36040352328 179 183 182
-894.492979862989 421.354828436271 2297.83781267817 178 182 181
-893.714300612945 421.503741670568 2289.32302497173 180 184 183
-898.90616305322 420.448954970605 2280.82464053771 182 186 185
-899.122285729959 420.396278506668 2272.32125771038 182 186 185
-907.29822478447 418.738964760599 2263.89100978115 191 195 196
-910.498227357144 418.083819893126 2255.44486528072 167 171 172
-918.672262053346 416.425752741399 2247.08823732228 179 183 184
-918.887011130418 416.370921168715 2238.63622553858 183 187 186
-925.069890649182 415.113028469494 2230.30486766735 184 188 187
-923.294874500346 415.458001304664 2221.82340452455 187 191 190
-918.536700435868 416.403269703044 2213.25415253531 195 199 198
-910.795525600168 417.948978156027 2204.57247551858 159 163 162
-902.061111945299 419.694059592038 2195.81592182425 185 190 186
-894.322434921007 421.237899540277 2187.04394021653 178 183 179
-892.550251168489 421.578937301333 2178.4475520341 176 181 175
-896.74378561583 420.717553007996 2170.07610750625 193 196 189
-666.735256431704 458.138296438488 2517.13971663071 200 202 197
-688.899465836469 453.737773142519 2506.60552333815 203 205 202
-718.038523263961 447.950193326555 2495.75657520032 200 204 203
-739.19919157127 443.747887670354 2485.53958864779 203 207 208
-759.360308761758 439.743754596089 2475.49314297871 199 203 204
-763.572395133151 438.909244483991 2466.41615562922 193 197 200
-769.777162152954 437.678175071902 2457.2581591748 192 196 197
-772.991581631779 437.040975793326 2448.2771454185 195 199 200
-784.176921341698 434.818693349613 2438.94696042327 192 196 197
-793.368157377313 432.992265577715 2429.76196952727 190 194 195
-801.561923442291 431.363516346462 2420.66565064889 190 194 195
-801.784677336289 431.318737530706 2411.91157676568 190 194 195
-802.007432174357 431.273358273118 2403.15682127666 193 197 198
-812.19099356458 429.247380575108 2394.08221842993 194 198 199
-832.333273171816 425.241300391871 2384.76992011564 194 198 199
-848.488810781693 422.027145895113 2375.67232171277 194 198 199
-861.654715710015 419.406668080668 2366.73288390064 192 196 197
-867.848216119693 418.171575932057 2358.0109062949 189 193 192
-875.03654247399 416.738308776786 2349.30306130086 185 189 188
-879.237109683066 415.898159496089 2340.67955260264 187 191 190
-885.427925643039 414.661984588186 2332.05200521904 183 187 186
-888.631541702365 414.018958725185 2323.48697038431 176 180 179
-897.807504018476 412.188194585185 2314.89427329957 178 182 181
-899.018989020101 411.93996119116 2306.38687057396 178 182 181
-898.239840740799 412.086838608621 2297.8882282524 178 182 181
-892.484479137152 413.222211110479 2289.37915224507 179 183 182
-898.67214334623 411.983150972025 2280.88101305462 182 186 185
-902.868653819096 411.139223302246 2272.40267392933 183 187 186
-908.059800762993 410.097107914739 2263.95518384002 190 194 195
-907.280390512519 410.24099410487 2255.46356850986 166 170 171
-910.480411118644 409.593406836582 2247.02483396765 179 183 184
-913.680239345746 408.945327478341 2238.602414684 184 188 187
-917.874560179443 408.099038684129 2230.21644383749 186 190 189
-918.089363746821 408.042932204541 2221.76093348696 191 195 194
-917.309368673323 408.183976274024 2213.27979862807 188 192 191
-916.529733195278 408.32432128319 2204.7931837242 163 167 166
-906.799831959618 410.242605890615 2196.02154361841 184 189 185
-896.076965029526 412.357489910275 2187.16137412744 173 178 174
-889.332686651415 413.681064697924 2178.38718194038 173 178 172
-893.526748206112 412.830583578666 2170.00684321964 186 188 183
-651.294982792408 452.027843054772 2527.37843731911 194 196 191
-675.45740435391 447.296212189045 2516.60799665271 197 199 194
-693.634498636666 443.737349669664 2506.35648798472 196 198 195
-725.766192930754 437.442377876981 2495.33393595736 199 203 202
-739.949955170092 434.665128537703 2485.552941043 196 200 201
-756.125436570117 431.496857550159 2475.73446119864 192 196 197
-762.331565267996 430.282350992497 2466.54102956535 195 199 200
-772.523391595898 428.285983028963 2457.17519697519 192 196 197
-778.72758381237 427.070791636775 2448.05671442103 192 196 197
-788.91691227671 425.073768256523 2438.787803256 185 189 190
-798.108488084616 423.271737799655 2429.61572883975 188 192 193
-805.305989644907 421.860095582181 2420.57250420352 191 195 196
-809.513609559174 421.034036873032 2411.67915593677 190 194 195
-810.731973266587 420.793395162502 2402.91106092482 194 198 199
-824.900248506609 418.013546769655 2393.73256093014 193 197 198
-842.055098349318 414.647851800316 2384.54247760172 191 195 196
-853.231191910498 412.453539040443 2375.60369582196 191 195 196
-859.426133966113 411.235048475588 2366.84319920092 191 195 196
-863.628389886207 410.406696633283 2358.15703221859 188 192 191
-872.809243954337 408.601878818034 2349.40100768421 184 188 187
-881.98883709611 406.796616449624 2340.69378719295 187 191 190
-884.197282240323 406.357442341104 2332.12487285486 178 182 181
-889.392498963879 405.332129139104 2323.53636257071 172 176 175
-893.591319177921 404.501631008012 2314.98217036325 175 179 178
-898.784963282411 403.475539236256 2306.44496272357 176 180 179
-898.005750936881 403.619552795607 2297.94574934189 176 180 179
-895.235933658584 404.153151002109 2289.43893006211 176 180 179
-900.428676558766 403.125555468878 2280.94465477372 179 183 182
-907.610932164988 401.70740880558 2272.49031086442 181 185 184
-910.81180252807 401.069015163255 2264.03756107232 186 190 191
-909.036916004566 401.405310745384 2255.54171475643 163 167 168
-913.232177159677 400.570898594076 2247.12242032781 177 181 182
-916.432035813563 399.930973726053 2238.70756752361 181 185 184
-919.63146298636 399.290563540084 2230.30905739807 188 192 191
-914.872443411175 400.209228522472 2221.74428619711 195 199 198
-913.09797425174 400.542412037948 2213.2287863501 158 162 161
-913.313109240492 400.485016943574 2204.7589392889 178 182 181
-909.550056598617 401.206643612824 2196.16492740289 175 180 176
-903.798477566344 402.317301562095 2187.48147881956 173 178 174
-895.064443415738 404.011685904776 2178.65565814969 178 183 179
-894.286553753889 404.146404489756 2170.09476948012 177 182 176
-890.525929006437 404.8649240034 2161.40253084496 191 194 187
-647.817480430002 443.521258142064 2536.82375029905 193 195 190
-661.014392695429 440.975171522862 2526.75231387355 195 197 194
-679.195069066505 437.465231179537 2516.41333364979 192 194 191
-701.361711772897 433.184458282172 2505.91261725539 195 197 196
-724.522223589718 428.71092675287 2495.46924555349 198 202 201
-741.697927990152 425.393579948273 2485.50668161235 192 196 197
-755.880673580378 422.654113175686 2475.80598887744 191 195 196
-764.080936846107 421.070509082141 2466.50421025806 194 198 199
-773.276502366686 419.293948005259 2457.19422631981 190 194 195
-781.474480032236 417.709631984442 2447.98101246052 191 195 196
-793.657380095602 415.354527529819 2438.62826092096 184 188 189
-803.845736013872 413.384411526863 2429.42625129483 188 192 193
-811.043596563203 411.991756658664 2420.39870806481 191 195 196
-813.258273808691 411.561726816293 2411.59604002842 189 193 194
-816.469141340225 410.938557319898 2402.7689127765 193 197 198
-825.657028070773 409.15959601052 2393.7657901569 192 196 197
-844.805282333672 405.455070570326 2384.51907019744 189 193 194
-854.98598765879 403.483210172885 2375.61419925834 190 194 195
-864.169108528224 401.703540178018 2366.7872572808 190 194 195
-862.395800678566 402.040912813194 2358.24019216707 187 191 190
-869.585552303856 400.645438325531 2349.517221501 185 189 188
-875.778583806967 399.442101052134 2340.84766632766 187 191 190
-880.97486250309 398.43073277276 2332.22329867238 173 177 176
-886.170678146539 397.418944464463 2323.62590251322 168 172 171
-889.374488753436 396.791651817308 2315.07015720089 176 180 179
-895.564264963689 395.586663530721 2306.51673263035 177 181 180
-895.78059553866 395.535552232687 2298.0069049745 177 181 180
-896.99247872018 395.291411030008 2289.49765866736 176 180 179
-901.189978405752 394.469727147115 2281.00454134789 179 183 182
-906.382334636854 393.455258689878 2272.53947326982 181 185 184
-909.583276637366 392.825011701606 2264.08334610027 185 189 190
-909.798653285603 392.771213432603 2255.6079161433 161 165 166
-913.994397887319 391.947652924779 2247.19070339381 177 181 182
-915.20437741008 391.700480541612 2238.74327922919 182 186 185
-915.41936495982 391.644925271176 2230.28117005657 188 192 191
-912.649798602489 392.165492560743 2221.75055232125 183 187 186
-908.885932975155 392.877432526736 2213.17791388738 139 143 142
-910.095993061425 392.627897952351 2204.72480468276 180 184 183
-908.322218933487 392.954231180918 2196.18411007488 164 169 165
-906.548465542012 393.279841795539 2187.63250433876 176 181 177
-896.819139971752 395.141855333426 2178.77794569426 176 181 177
-888.085536863162 396.810796881683 2169.90795989609 172 177 171
-878.358884171241 398.670838423259 2160.94681852902 187 190 183
-661.527427882361 431.726129595402 2535.87837448381 198 200 197
-675.721565428794 429.025463237192 2525.774105533 191 193 190
-689.913763392694 426.324593022457 2515.74542330126 197 199 196
-702.109879930529 424.003478736704 2505.92194696879 196 198 197
-725.272067913542 419.592520965948 2495.48025176824 196 200 199
-747.434127878231 415.371546716882 2485.22285197809 193 197 198
-761.61752259743 412.670199281095 2475.53771864221 190 194 195
-766.827125904309 411.678090849854 2466.41325878113 188 192 193
-772.036278266231 410.685559166271 2457.31529374365 189 193 194
-782.228243355156 408.743051366808 2448.00186878808 184 188 189
-793.415406196299 406.610432165616 2438.69670299311 180 184 185
-804.601279500585 404.47755295006 2429.45098237056 187 191 192
-809.806242194555 403.483619010527 2420.50593364776 190 194 195
-812.021388567269 403.058862852289 2411.69991775834 193 197 198
-823.203480651656 400.92507283078 2402.5916775668 194 198 199
-830.398860219144 399.550247053909 2393.67091841869 193 197 198
-846.559474028515 396.466899939499 2384.52470023563 190 194 195
-853.752277675881 395.091559564885 2375.70406443394 187 191 192
-866.920743846693 392.57729380147 2366.7785667129 189 193 194
-870.12711088025 391.960364065845 2358.13403428706 183 187 186
-874.328945062691 391.153251207432 2349.48715505832 186 190 189
-879.526273251249 390.155884921742 2340.84612865369 183 187 186
-883.726915955143 389.34788888784 2332.24486824829 173 177 176
-888.922912802307 388.349736681181 2323.65503141594 163 167 166
-888.143840350582 388.489274722458 2315.13622024492 170 174 173
-891.347533403252 387.869515752737 2306.59315844162 170 174 173
-892.559861837221 387.628557058892 2298.06992725916 170 174 173
-898.749041997228 386.438912277296 2289.55627307101 171 175 174
-904.93761772825 385.248945124223 2281.07522071199 173 177 176
-910.130085922071 384.248131202548 2272.62043793169 174 178 177
-915.321611005274 383.246971308546 2264.19281891474 189 193 194
-915.536581779822 383.19316105657 2255.73323904114 150 154 155
-916.746830456872 382.949214929299 2247.28808428786 167 171 172
-915.966488542455 383.083869280388 2238.8136443861 188 192 191
-914.191595758267 383.407319317475 2230.31357499073 179 183 182
-911.421886617969 383.919641991139 2221.77968527481 154 158 157
-908.652579578491 384.431257423629 2213.2293206847 127 131 130
-911.852373545529 383.805454253655 2204.83215885839 163 167 166
-911.072721716923 383.936983950851 2196.32739299986 163 168 164
-909.298862965158 384.257217765668 2187.78345670352 170 175 171
-904.541304841497 385.145067145395 2179.11915470518 172 177 173
-892.823204654366 387.357702702422 2170.15294479593 180 185 181
-881.106516316523 389.569305310729 2161.12112103655 180 182 177
-661.275525544655 422.627924235454 2535.95463828189 194 196 193
-682.452203369589 418.654290320106 2525.35747442421 193 195 192
-696.64497844029 415.991498597474 2515.3471226116 195 197 194
-710.836052046588 413.328436489215 2505.41230439104 196 198 197
-727.019340246842 410.290789227121 2495.42896144559 195 199 198
-749.182693544813 406.129672897582 2485.17595974611 192 196 197
-761.373137409695 403.840798592003 2475.60880793152 190 194 195
-774.558786507821 401.364511750248 2466.05252072713 187 191 192
-780.764563870516 400.198294024537 2456.92466931864 186 190 191
-789.959701399675 398.470282263874 2447.68354128435 183 187 188
-797.160509012156 397.116215299888 2438.58224933686 180 184 185
-804.360107673812 395.761813118755 2429.51852265708 187 191 192
-807.572417646956 395.15560510858 2420.65323172769 192 196 197
-811.780764010533 394.361883322631 2411.76621220297 194 198 199
-825.953077831675 391.696676471465 2402.55296372581 194 198 199
-837.1342700626 389.592535350676 2393.51172763095 191 195 196
-848.314168216274 387.488135424305 2384.53011546071 188 192 193
-854.51119981907 386.318844354334 2375.74077872565 186 190 191
-868.676689780683 383.65287338965 2366.79340987177 187 191 192
-874.871490088572 382.482945963371 2358.09059660093 183 187 186
-878.077326335545 381.873719938443 2349.47508080473 185 189 188
-884.270421596231 380.703049198547 2340.82878378401 181 185 184
-887.475205792566 380.092902878453 2332.25339762919 172 176 175
-889.683813618794 379.669287276869 2323.70415542907 161 165 164
-884.921634212308 380.553865544904 2315.21695690476 171 175 174
-886.134545557684 380.316022701637 2306.67428908562 171 175 174
-890.333944040185 379.516850610344 2298.13113163243 172 176 175
-897.519444060891 378.156628850296 2289.61218006572 171 175 174
-904.703959060173 376.796009121442 2281.13129924032 169 173 172
-910.892155584591 375.621987952953 2272.68218915917 168 172 171
-918.074770898571 374.260673593403 2264.27480877533 183 187 188
-915.303719543118 374.767441726589 2255.78741343954 149 153 154
-916.514056955313 374.526172832712 2247.3416652164 156 160 161
-915.733652431561 374.658022956874 2238.86666134144 181 185 184
-913.958622822692 374.975987668057 2230.36604980811 182 186 185
-913.17854010536 375.106641765781 2221.87718442236 137 141 140
-912.398816994032 375.236566790857 2213.3828063544 132 136 135
-915.598574493095 374.619055958488 2204.99597349634 154 158 157
-909.844796265817 375.681413880461 2196.34661622286 165 170 166
-907.075994027077 376.182901748933 2187.76564807294 174 179 175
-904.307591738478 376.683712958329 2179.16832194169 168 173 169
-903.528825585216 376.810442280522 2170.6331113378 171 176 172
-889.821623562246 379.362896649536 2161.54711457447 178 180 177
-876.116110333544 381.91421432967 2152.3845686037 184 186 181
-655.803368988812 414.491715559682 2545.52997998663 192 194 191
-665.013547451675 412.790005959013 2535.73856618044 171 173 170
-683.199454256199 409.427037079859 2525.36229392545 191 193 192
-700.385337007208 406.248565445805 2515.15103824646 193 195 194
-716.57164054334 403.254529511917 2505.09667201461 194 196 195
-733.752881608441 400.075973207661 2495.06673858827 193 197 196
-751.928844760115 396.712713813738 2485.06946201272 190 194 195
-766.114020532409 394.087476517743 2475.39644015829 187 191 192
-777.306422622367 392.015399002937 2465.96083615816 184 188 189
-784.509327813875 390.681003158591 2456.78936010094 187 191 192
-789.717417679025 389.715165858823 2447.75225870314 182 186 187
-790.937877642642 389.486626949343 2438.92455458081 179 183 184
-795.148199492512 388.704383042569 2429.97265027099 183 187 188
-799.357968869456 387.921746048368 2421.04191644997 190 194 195
-806.556998324868 386.585411092329 2412.01983551685 193 197 198
-826.709938476636 382.851890176127 2402.58353934131 193 197 198
-846.860095734131 379.118419926509 2393.25606271631 186 190 191
-857.043819892153 377.228338906292 2384.3303385146 185 189 190
-861.247957403301 376.44417031305 2375.61807300566 186 190 191
-868.440306474136 375.106552893983 2366.85570763389 186 190 191
-873.63922403607 374.137185626958 2358.17330141346 181 185 184
-878.837682016931 373.167427416294 2349.51776223649 182 186 185
-886.027377411567 371.828715909873 2340.8579369767 177 181 180
-892.220196857162 370.673990503044 2332.24886542406 174 178 177
-891.440892104241 370.808485635045 2323.74304348913 164 168 167
-889.665724474547 371.126670283727 2315.23873765148 165 169 168
-891.874067088775 370.707416651144 2306.70454440148 166 170 169
-898.064603585828 369.550841384446 2298.17338736112 166 170 169
-903.258986191953 368.578146878216 2289.67397517869 166 170 169
-905.465979859184 368.15742179271 2281.19092351749 163 167 166
-907.672449049607 367.73626929217 2272.71858651326 163 167 166
-910.874209411669 367.130469126715 2264.2660488431 142 146 147
-910.094213871295 367.260616727778 2255.78255723095 141 145 146
-915.285800406028 366.285668798141 2247.38068086393 133 137 138
-918.486412431171 365.678463809751 2238.97151578795 170 174 173
-918.701164220807 365.622911286314 2230.51862388642 174 178 177
-913.940695817025 366.486984539016 2221.95186153121 118 122 121
-915.150691443522 366.246199897319 2213.51066664161 156 160 159
-917.355625505221 365.82089150871 2205.10319030161 151 155 154
-916.575434809662 365.947072924619 2196.61374265776 170 175 171
-912.811218964362 366.624475137199 2188.01770797564 173 178 174
-914.021009449125 366.381464386198 2179.58214051095 167 172 168
-913.241489573015 366.505753532698 2171.07376793429 167 173 171
-902.516307391217 368.468415429399 2162.14064210854 170 175 171
-893.781510637319 370.062350853229 2153.23677230434 174 179 173
-656.548823670858 405.195198385007 2545.53063110632 191 193 192
-666.757125874768 403.336029011533 2535.66817748552 160 162 161
-683.946583233073 400.203780687983 2525.36684480117 188 190 189
-706.121000742479 396.162454570879 2514.81936168268 194 196 195
-724.302696825906 392.848324984923 2504.65077407825 193 195 194
-738.492747077753 390.261342517192 2494.82831576502 192 196 195
-756.669967703842 386.947080870978 2484.84382752927 189 193 194
-769.858770221012 384.541587234583 2475.24030607624 186 190 191
-782.048514626487 382.317752862971 2465.76100164202 183 187 188
-787.257707692588 381.365723201003 2456.70493369566 187 191 192
-791.469095237718 380.595109357095 2447.72386578911 180 184 185
-793.686310598947 380.187477985231 2438.85537393783 178 182 183
-796.899994158964 379.597739630449 2429.9540823226 183 187 188
-801.10993370122 378.82580074321 2421.02818465504 190 194 195
-811.299403993685 376.963482369783 2411.89836621726 191 195 196
-829.460214378668 373.647770884256 2402.5443655381 191 195 196
-846.622057519367 370.513661327216 2393.32029368953 185 189 190
-856.806548246125 368.650774920557 2384.39380880768 185 189 190
-862.007319327333 367.695768908637 2375.65438064272 189 193 194
-867.207630183878 366.740252086322 2366.9417159713 187 191 192
-870.414403323695 366.147645121968 2358.29810263625 182 186 185
-879.598150634031 364.465126103743 2349.56031520283 182 186 185
-887.784598424727 362.963885056343 2340.88692830276 176 180 179
-893.977504326933 361.825464948972 2332.28266031279 175 179 178
-889.214138643271 362.683197282696 2323.82232530157 163 167 166
-889.430879265536 362.632787075567 2315.29722435439 167 171 170
-892.635149647839 362.037422195401 2306.75779100367 166 170 169
-900.81771173907 360.53424782412 2298.22487005699 163 167 166
-904.020782697137 359.938001883834 2289.73136834594 162 166 165
-905.232316432323 359.704216971132 2281.24689939863 162 166 165
-907.438948147576 359.288422916286 2272.77396384731 163 167 166
-907.654458019624 359.234949293609 2264.29367562251 128 132 133
-906.874609806533 359.362296795693 2255.80141941918 136 140 141
-911.071516596724 358.582213911912 2247.376142454 127 131 132
-920.244374157468 356.895061664249 2239.05898935387 172 176 175
-926.430311502744 355.751651478151 2230.73104353519 168 172 171
-919.6783078582 356.964807253323 2222.14022209068 128 132 131
-918.897976722966 357.089432418187 2213.6639171216 160 164 163
-918.117770271893 357.213484217135 2205.18212342741 161 165 164
-917.337684361503 357.336843715182 2196.69487524634 168 173 169
-911.583293064006 358.365844214902 2188.03366224988 163 168 164
-911.798522379088 358.306773484321 2179.55832941982 167 172 168
-913.008385356157 358.065964138627 2171.12229240416 167 173 171
-901.287570150054 360.179844072159 2162.1468338708 172 177 173
-894.541443541752 361.386930649064 2153.32912564139 168 173 167
-651.307771348351 396.97747684221 2545.9860965442 166 168 167
-665.507747290398 394.428784864855 2535.81682125302 163 165 164
-684.693828550955 390.984514599117 2525.37113314732 186 188 187
-704.874719213838 387.361129778876 2514.96068982895 191 193 192
-723.058088908086 384.095857143749 2504.78847533508 189 191 190
-737.249273354252 381.546864874618 2494.96247972817 189 193 192
-753.433224635344 378.639612523122 2485.09322929889 187 191 192
-766.623224175597 376.269361491784 2475.4807648321 185 189 190
-772.831283521734 375.15205195275 2466.31623944947 183 187 188
-778.041252702968 374.213443126301 2457.23492370641 186 190 191
-785.244680883345 372.916449962725 2448.08316755041 172 176 177
-792.447140700141 371.619144424123 2438.96892299346 174 178 179
-796.658180947388 370.858342991489 2430.021289291 186 190 191
-802.861926236796 369.739364217091 2421.01425510549 193 197 198
-813.052021390155 367.904188155309 2411.88915826315 187 191 192
-833.207749909936 364.279546554319 2402.47011401755 189 193 194
-846.383981557977 361.907412300918 2393.38439962596 183 187 188
-856.569236829027 360.071661027733 2384.45716932108 184 188 189
-862.766794120772 358.951328721949 2375.69053020287 188 192 193
-869.960081259672 357.651693696824 2366.93228445083 183 187 188
-875.159875488116 356.709428577867 2358.25404005373 177 181 180
-884.343964349431 355.051426439233 2349.52922796193 180 184 183
-888.545723463397 354.28724718638 2340.93138146829 172 176 175
-894.739261943064 353.165100753095 2332.3291883659 173 177 176
-889.975222589756 354.009121162234 2323.87113510133 160 164 163
-895.171936237944 353.064885295619 2315.31117441533 170 174 173
-894.392185093177 353.192660233502 2306.80625860504 168 172 171
-900.583682167198 352.068776556623 2298.28198538868 162 166 165
-902.791290724104 351.659381417915 2289.78706693316 160 164 163
-904.99861089789 351.249432854982 2281.3028252647 160 164 163
-904.218483489867 351.375177288605 2272.81043492681 160 164 163
-901.447498491301 351.857590031238 2264.29429519139 123 127 128
-900.668005545951 351.982052065151 2255.78505570051 132 136 137
-903.870292829814 351.39141647567 2247.32820665475 123 127 128
-915.034896240972 349.371397068153 2239.02564252017 172 176 175
-923.212313413643 347.887024819126 2230.72331587278 159 163 162
-921.43620535394 348.188174350862 2222.23747430115 138 142 141
-919.66036109761 348.488683469665 2213.74063475375 152 156 155
-917.885016533972 348.788486239805 2205.23283185038 169 173 172
-919.094743156807 348.552154605131 2196.80693185177 164 169 165
-913.339775103099 349.564833424756 2188.15073552299 155 160 156
-912.560082033709 349.684247118198 2179.64389705369 164 169 165
-911.780511515533 349.803118023102 2171.13168605385 161 167 167
-899.064219337793 352.062709579044 2162.11120815854 173 177 176
-883.365712837922 354.856447705983 2152.88571203214 170 175 171
-647.063891021924 388.554470514493 2546.36569363139 153 155 154
-660.267552083517 386.220074931787 2536.25778840377 170 172 171
-684.443601073307 381.945552288212 2525.44554823562 187 189 188
-708.616320230886 377.671135893092 2514.76356352691 189 191 190
-731.788261304516 373.573161732883 2504.27674145431 188 190 189
-741.990126099214 371.767472610892 2494.72330706114 188 192 191
-752.190847605289 369.96157456767 2485.2236568126 186 190 191
-762.389949453868 368.155540677677 2475.77783773978 185 189 190
-769.595918339522 366.878067516116 2466.54774109479 183 187 188
-778.795121375327 365.247764756912 2457.25263137761 190 194 195
-790.984647238554 363.088385872003 2447.86040045719 171 175 176
-800.18138705374 361.457625404534 2438.67039527123 174 178 179
-808.379746942412 360.002761878075 2429.57191413835 186 190 191
-814.583355003971 358.900081664696 2420.59706822035 191 195 196
-822.779635966135 357.444661255225 2411.57924079915 186 190 191
-834.962012337123 355.284154806623 2402.46522611159 189 193 194
-845.14925554156 353.475846301216 2393.48044162558 183 187 188
-851.348696025724 352.37193487262 2384.66715708539 184 188 189
-857.547302154215 351.267705401805 2375.88614056603 187 191 190
-866.734521885114 349.634677927756 2367.06577911631 180 184 183
-878.909490592329 347.47311578335 2358.23082327749 170 174 173
-886.101224527361 346.191869970539 2349.55302703307 168 172 171
-889.306961816146 345.614600425283 2340.97569127237 162 166 165
-895.500894688836 344.508764203314 2332.37559657311 171 175 174
-893.724824596483 344.810893941373 2323.88932357597 159 163 162
-893.94124081665 344.760420051692 2315.3768330092 156 160 159
-888.181914169405 345.765463326961 2306.8921119436 156 160 159
-891.386513854183 345.185735768001 2298.35659846255 156 160 159
-894.590451147708 344.605617510756 2289.83722923637 155 159 158
-902.773214805895 343.145179923432 2281.35164261018 153 157 156
-906.971829140527 342.388349967172 2272.88459609566 153 157 156
-907.187363908696 342.33474967834 2264.40319883985 116 120 119
-904.416155032097 342.808369213917 2255.88636756502 125 129 130
-901.645352301383 343.281310440933 2247.35293438657 119 123 122
-908.829265679979 341.994884377845 2238.97523042584 157 161 160
-916.012426498799 340.708025332287 2230.63579899313 127 131 130
-922.198906257498 339.596854152637 2222.31194475275 142 146 145
-919.427703499495 340.067681173481 2213.79187595476 126 130 129
-916.657141307162 340.537824360315 2205.25536217128 173 177 176
-914.881756349272 340.831609105388 2196.73335153516 167 172 168
-914.101812232158 340.948958958632 2188.23410888791 161 166 162
-910.336898063052 341.592999571645 2179.62022121483 159 164 160
-906.572758930745 342.236260531559 2170.98453007554 160 164 163
-893.855850635033 344.460334790874 2161.94999646724 166 170 169
-884.124956329656 346.156153090047 2152.9783017781 173 178 174
-872.406246508909 348.202398087294 2143.85726109425 175 178 171
-648.806668309708 379.066225908253 2546.28982210691 169 174 170
-657.022033666698 377.635344090571 2536.55245807385 169 173 172
-680.202445070359 373.599605355852 2525.80140976753 182 186 187
-707.370282410088 368.869533017173 2514.9043929295 183 187 188
-734.534371378388 364.139648344474 2504.15407693327 182 186 187
-747.729391831739 361.84032353845 2494.42153290738 190 194 195
-749.950663722843 361.450308136727 2485.41341248802 185 189 188
-756.161165665904 360.365508833577 2476.18832894342 186 190 189
-762.370841643654 359.28041926398 2466.99521531878 177 181 180
-773.565810394738 357.327339550375 2457.57774319627 186 190 189
-785.756598313703 355.200425080714 2448.17104455441 180 184 183
