ply
format ascii 1.0
comment KinectMotionCapture
element vertex 753
property float x
property float y
property float z
property uchar red
property uchar green
property uchar blue
end_header
-984.386842326912 440.42148827566 2269.58276205581 152 156 155
-977.796713323406 438.688602946018 2279.09052214232 145 150 146
-971.193355734024 436.957235834613 2288.55012560572 143 148 144
-968.473915291623 435.885369724945 2297.25918703393 134 139 135
-961.846950527582 434.156702212816 2306.63284607036 139 144 140
-965.939463928304 434.23710931661 2314.08474126131 130 135 131
-960.270282511652 432.674784604094 2323.22316189743 132 137 133
-959.475039269817 431.934599614345 2331.49315572581 132 137 133
-943.029527452753 428.569807940806 2342.34550170406 136 141 137
-939.278005780698 427.340074614755 2351.01929909727 136 141 137
-930.620740173156 425.291789884783 2360.44662924178 135 140 136
-928.807619263309 424.392130167195 2368.73307917715 140 145 141
-913.25817356131 421.200875979534 2379.12465609347 137 141 140
-903.57103149744 418.994526806526 2388.52478357564 136 140 139
-893.866276473645 416.790206536916 2397.86079853305 141 145 144
-887.092864638621 415.07841038655 2406.70045096985 141 145 144
-877.355054318032 412.877894172535 2415.91613977048 141 145 144
-871.536944619738 411.332669200935 2424.51241476724 141 145 144
-861.767016010738 409.135916284068 2433.61030158432 139 143 142
-854.936633543194 407.430608064485 2442.24345839087 140 144 143
-852.039106527696 406.379127348199 2450.30418954739 138 142 141
-848.146676885038 405.165496757576 2458.46591870964 137 141 140
-838.317590684655 402.975491022408 2467.3493538243 139 144 140
-826.493698222706 400.46190817854 2476.41481538272 133 138 134
-823.55357102589 399.415255183771 2484.32135740855 110 115 111
-823.576450323528 398.85745165238 2491.84677657659 128 133 129
-824.586623336927 398.462527437233 2499.24526591863 137 142 138
-823.612295059535 397.742898292894 2506.86240097188 100 105 101
-822.633061784051 397.023758896232 2514.46256295212 106 111 107
-821.649165637721 396.305151563077 2522.04574852385 84 89 85
-820.660583221775 395.587077194413 2529.61187138086 111 116 112
-817.678426777754 394.545221910035 2537.36539607251 115 120 116
-817.674365835531 393.990470067363 2544.79271808659 121 126 122
-814.679269403988 392.950096012982 2552.49913431181 133 138 134
-811.676840479585 391.910631291082 2560.17797151059 131 136 132
-804.677522970829 390.224745720098 2568.19616806303 115 120 116
-803.652992606997 389.510786488979 2575.63142131756 115 119 118
-799.627606451914 388.312414742578 2583.30914264338 125 129 128
-797.592206240203 387.438221742411 2590.78639144867 138 142 141
-797.550874202452 386.887666844265 2598.07891194356 144 148 147
-799.508138608457 386.660290331972 2605.20229744306 155 159 158
-802.466796183789 386.594289562796 2612.24829430186 149 153 152
-807.430989217281 386.850596133942 2619.1512984557 148 152 153
-814.405026835899 387.428709868151 2625.9269930627 141 145 146
-821.386095626134 388.006066289695 2632.72738588176 134 139 142
-825.360320120501 388.099640600776 2639.74933965529 165 170 173
-830.342385276956 388.353844970229 2646.71737227876 155 161 161
-827.281339924147 387.321089128283 2654.18281380296 170 176 176
-998.983718255761 435.193198409855 2258.13146169224 150 154 155
-981.710705992876 431.70019448903 2269.72776360666 140 144 143
-980.953518102743 430.964005462418 2278.14064331669 134 139 135
-973.374054455802 429.095143355922 2287.78566954227 136 140 139
-967.729066227175 427.551543526858 2297.02573665494 141 145 144
-959.146371451984 425.524197079211 2306.74222399731 127 132 128
-963.236535212591 425.599857558782 2314.18332768749 136 141 137
-959.515127000153 424.382894126242 2322.97699269643 131 135 134
-954.806849560983 423.005430076901 2331.90345242977 136 140 139
-936.392883651969 419.369905229732 2343.06902818687 140 145 141
-933.612043597225 418.318642284207 2351.5631326477 136 140 139
-925.924840412485 416.462125795694 2360.81686648521 135 139 138
-922.145014877819 415.251887929881 2369.39788559695 144 148 147
-906.582231465073 412.110089561925 2379.77209504541 136 140 139
-899.83001485958 410.419987160409 2388.70506653516 137 141 140
-890.116979990945 408.248817443979 2398.0303405528 146 150 149
-886.285965999342 407.044414566958 2406.42591988556 145 149 148
-877.525990762968 405.037507405612 2415.49710391695 142 146 145
-870.719174607029 403.353700760245 2424.23133278795 140 144 143
-861.928296703692 401.3503604259 2433.19003318151 138 142 141
-850.162430265811 398.867463186305 2442.49123630113 139 143 142
-848.245331304378 397.990745544566 2450.40612053576 136 141 137
-845.334603855359 396.954442896914 2458.42742370778 136 140 139
-840.439320993488 395.598532945653 2466.67317708786 130 135 131
-827.621442720134 392.962862062523 2475.86740453212 142 147 143
-821.709843032341 391.449989771111 2484.13699531 112 117 113
-821.729687195491 390.898292696604 2491.65500091576 113 118 114
-822.737455758615 390.506829954335 2499.04581937545 90 95 91
-822.751329272257 389.955747680615 2506.54297430534 82 87 83
-820.776784423409 389.085638290014 2514.24874532291 116 121 117
-822.76960654583 388.85473062455 2521.50192026908 87 92 88
-821.779743381056 388.145225638181 2529.06869821608 113 118 114
-817.800747160092 386.957870852799 2536.92561180754 119 124 120
-812.817286500783 385.612188806338 2544.84950664926 124 129 125
-809.815766525709 384.586274026606 2552.54120234539 131 136 132
-808.80073101177 383.87966680916 2560.01634979318 123 128 124
-803.790313657618 382.537094315714 2567.8421229193 115 120 116
-803.761638721987 381.990964489949 2575.18350149018 119 123 122
-799.733022109675 380.809332755194 2582.85979752846 123 127 126
-796.695202464491 379.787603125937 2590.41936194893 134 138 137
-795.651048836443 379.084349573542 2597.78851687458 139 143 142
-796.604878106048 378.699071926613 2604.98297425465 148 152 151
-802.566755376214 379.107123353747 2611.78966781233 150 154 153
-805.526065594901 379.038948106982 2618.83671495668 151 155 156
-813.503250971865 379.762898214448 2625.53265364599 146 150 151
-819.480761884244 380.16919379982 2632.39535428402 139 144 147
-824.458584572234 380.416544376357 2639.34330832753 152 157 160
-826.423590203409 380.188791547661 2646.49519789237 160 165 168
-825.369307333769 379.486685573756 2653.82746945025 141 147 147
-1018.42732831016 430.678445317647 2245.64309402371 163 167 166
-1001.17624558093 427.236164766715 2257.35191105634 152 156 155
-988.760370123084 424.59400965481 2268.03553138408 136 140 139
-982.164554194564 422.910062145497 2277.55214478795 129 133 132
-972.632234503418 420.750041982058 2287.55634710696 136 140 141
-963.082343892606 418.592054773024 2297.49659554606 133 137 138
-957.418173607656 417.0722159389 2306.67951586897 124 128 127
-958.577643080512 416.666306628528 2314.62444926711 137 141 140
-955.826347725593 415.62514738302 2323.23555537754 129 133 134
-946.221992163782 413.473463266509 2332.97756557106 141 145 146
-932.685687303879 410.689108208985 2343.3068648875 136 140 139
-927.940059905503 409.334830689569 2352.10929030387 135 139 138
-919.263911566414 407.347717258123 2361.50420390009 141 145 146
-911.552352949747 405.520900323733 2370.68533251356 143 147 146
-901.862900962105 403.379061757172 2380.11761232124 137 141 140
-901.978728527489 402.82200753018 2387.98860326163 140 144 143
-892.261260876725 400.683410694554 2397.31891306226 145 149 148
-881.542554407414 398.388757253986 2406.72961378067 143 147 146
-869.820431019189 395.938299116663 2416.21277759872 143 148 144
-863.003430927861 394.279881634669 2424.92522490225 140 145 141
-855.187354335022 392.465157464967 2433.72593349373 137 142 138
-847.356543894429 390.652138015305 2442.47301446724 139 144 140
-846.422126309064 389.944635071334 2450.24691496831 136 141 135
-844.495103372685 389.080077131598 2458.13263042829 133 138 134
-841.573069812306 388.05867747448 2466.12229421532 137 142 138
-830.727843448221 385.778661091916 2475.07249243382 132 137 133
-824.814617647445 384.287642229315 2483.34891386131 121 126 122
-825.825855226871 383.898894278572 2490.75432607586 115 120 116
-826.835074121454 383.51031557231 2498.15327918386 85 90 86
-826.850439112988 382.964891062193 2505.65861467209 105 110 106
-822.890146453306 381.791719426802 2513.59392541919 123 128 124
-824.883627053919 381.561228650254 2520.84980836768 85 90 86
-821.904101915213 380.546483258479 2528.6302183472 98 103 99
-819.912405740917 379.689411758442 2536.28054129651 121 126 122
-811.938912924181 377.89290089499 2544.5082932295 120 125 121
-808.934108897189 376.881145277448 2552.19580621577 130 135 131
-807.916330241512 376.183292483667 2559.66629600074 130 135 131
-806.893903324322 375.485977735849 2567.11986739579 112 117 113
-805.86679656168 374.789204799659 2574.55640551341 114 118 117
-801.83639368465 373.624145935647 2582.23653274387 118 122 121
-796.796836766917 372.303945111898 2589.96824068269 138 142 141
-797.752705160561 371.921609007472 2597.1721260666 136 140 139
-798.706531194358 371.539444885661 2604.36946617202 150 154 153
-802.666011110142 371.625359922951 2611.33091152812 151 155 154
-803.61859632819 371.243405113733 2618.52284785436 150 154 155
-808.584681034202 371.48475852386 2625.42343477446 149 153 154
-816.568118307577 372.192709177379 2632.13248431216 153 157 158
-821.544209441443 372.432906648041 2639.069493338 148 152 151
-825.518320043558 372.517132619647 2646.08419317726 155 159 160
-828.488060607009 372.445598659979 2653.16877465443 143 147 146
-824.40696111951 371.286406609785 2660.6643793056 124 128 127
-1016.74065343894 422.034681268575 2245.61347086761 147 151 150
-996.561531369004 418.176537629877 2257.8783877007 138 142 141
-986.081885668728 415.888901998152 2268.18110487701 142 146 145
-978.505301901473 414.073216553106 2277.87039649163 133 137 138
-967.989809758998 411.789742988282 2288.04265056492 139 143 144
-961.357084078519 410.134123048059 2297.44103886054 126 130 131
-954.711338300967 408.480081071355 2306.79115330865 130 134 135
-954.890404188886 407.921264879521 2314.89675235637 136 140 141
-948.22297483877 406.269684767444 2324.16884326437 134 138 139
-935.672386464989 403.683197640847 2334.38651776741 140 144 145
-925.057894195048 401.411219967889 2344.19846167523 134 138 139
-921.282838973352 400.232842387281 2352.81823596275 136 140 141
-914.557290822157 398.588013790664 2361.87880570673 140 144 145
-906.837303569115 396.78899129868 2371.04618840119 134 138 137
-899.102597112183 394.991679279551 2380.16000147951 137 141 140
-899.214674645381 394.440741418812 2388.02093083884 141 145 144
-884.572330683059 391.557667471626 2398.07957623611 144 148 147
-875.810133023141 389.609995931529 2407.1799071147 144 148 147
-864.077232838793 387.198204397829 2416.64747087024 144 149 145
-857.251493470736 385.565005838118 2425.34339285943 141 146 142
-850.412455675267 383.933351626166 2433.99091541438 137 142 138
-843.560386359577 382.303273991077 2442.59012083444 139 144 140
-842.621081876721 381.604703680986 2450.35151684034 138 143 139
-841.67712795835 380.906679224737 2458.09599502696 136 141 135
-839.739445464485 380.054376892 2465.94987118788 137 142 138
-831.85613119276 378.274248582325 2474.5237104933 136 141 137
-824.949076620662 376.650556442202 2482.92279790038 124 129 125
-826.95036962516 376.419628540631 2490.20741079544 126 131 127
-828.951306261536 376.188749978213 2497.49073171567 89 94 90
-832.937226780099 376.266733974462 2504.54626762606 75 80 76
-828.978268023019 375.109808900409 2512.4958590979 85 90 86
-826.998305057866 374.26237403412 2520.19675824168 89 94 90
-823.022561027517 373.107334383312 2528.08614866373 91 96 92
-820.033629128317 372.107448264984 2535.84008553008 125 130 126
-816.040632530531 370.954412985781 2543.66668600595 122 127 123
-810.044673725901 369.494601651762 2551.65563880517 131 136 132
-807.029951469648 368.497646952602 2559.31660089765 131 136 132
-805.00636611673 367.655344701814 2566.85785010764 112 117 113
-806.973486560297 367.42843130701 2574.01812153102 114 118 117
-802.940571281503 366.280029972068 2581.69943739798 128 132 131
-797.898113629478 364.979172484539 2589.43258784875 137 141 140
-796.850646949666 364.293208251016 2596.80035763337 137 141 140
-796.80053694086 363.761115825611 2604.07194348093 148 152 151
-800.758594889724 363.842460281273 2611.02522372659 150 154 153
-804.719129993634 363.923523657181 2617.98752370439 151 155 156
-811.694661096702 364.463546439626 2624.74471469358 150 154 155
-816.667238022712 364.696791335971 2631.66428666296 152 156 155
-817.621101484369 364.317887505627 2638.86289508554 157 161 160
-821.592107202646 364.397696661624 2645.864207576 158 162 161
-827.580157002465 364.782792066192 2652.75265235322 156 160 159
-826.518622398022 364.098487352022 2660.06923842456 139 143 142
-1038.12329145397 417.669353442019 2232.62510347694 165 169 168
-1019.91285098257 414.177825946311 2244.63724168337 139 143 142
-997.779775880011 410.073596424575 2257.28571791793 134 138 137
-984.373705359364 407.359334311828 2268.14373384922 137 141 140
-973.867577335978 405.109455628953 2278.37196511111 136 140 141
-964.317745883509 403.015619650752 2288.35200589982 137 141 142
-957.677714754925 401.384965702477 2297.73903271878 124 128 129
-951.024435251707 399.755858436506 2307.07784741358 136 140 141
-950.221797663199 399.049636907717 2315.34183023326 137 141 142
-938.656308723013 396.655786979647 2325.4422865172 141 145 146
-925.112749876515 393.957527169765 2335.79993825789 139 143 144
-915.463677016989 391.875190702165 2345.41970436447 132 136 137
-911.678434757016 390.714283148316 2354.0117568133 139 143 144
-908.864856412133 389.707518402916 2362.41333327593 143 147 148
-905.062202122287 388.548590422243 2370.94291709188 133 137 136
-898.30374283222 386.931828160265 2379.89808481953 138 142 141
-894.481015334629 385.775252434736 2388.35462584012 142 146 145
-882.778821581951 383.397245678444 2397.95845552047 143 147 146
-873.025492734674 381.327118489658 2407.19791885513 144 148 147
-861.284002471359 378.953735916169 2416.65783873783 144 149 145
-849.521764488728 376.582702458204 2426.04313853622 141 146 142
-843.659381741382 375.128936900517 2434.53185004261 138 143 139
-838.772473175255 373.828936573221 2442.84306492862 139 144 140
-838.815627168366 373.291677287247 2450.45765965079 139 144 140
-839.844568343258 372.907053579887 2457.93140567686 138 143 137
-837.903029082376 372.066218949198 2465.77820252448 142 147 143
-831.994102015015 370.617829337562 2474.09842720651 138 143 139
-824.09144088072 368.866890139191 2482.61793485739 129 134 130
-825.09958005205 368.48472102785 2490.01599682475 132 137 133
-827.098273553446 368.254578467958 2497.2914540979 115 120 116
-833.069173936453 368.631397518644 2504.11193021763 105 110 106
-831.094597824243 367.794450557233 2511.83852218218 83 88 84
-830.108422169206 367.10977564303 2519.43466753779 79 84 80
-823.145661115006 365.516757517142 2527.64722268429 85 90 86
-820.153913614793 364.530903919589 2535.39956517492 119 124 120
-817.154369451167 363.545896167652 2543.12442322755 112 117 113
-813.149881408108 362.410545944728 2550.91952363809 132 137 133
-811.132847726624 361.578563569285 2558.49161334907 133 138 134
-809.109713233301 360.747290393606 2566.04149969302 109 114 110
-811.078907717585 360.520662438789 2573.20965183494 112 116 115
-806.045379770316 359.237774622509 2580.987301639 128 132 131
-796.99703134373 357.352790572836 2589.0657174272 133 137 136
-793.943444890096 356.374139504743 2596.59301130393 137 141 140
-794.892232678731 355.998977288074 2603.77513700638 142 146 145
-796.84232352549 355.774596673561 2610.8737799394 146 150 149
-801.803618210217 356.001699149232 2617.74851417781 155 159 160
-806.769084244147 356.228394922184 2624.63755002494 152 156 157
-812.744003467259 356.604996402576 2631.47188092531 146 150 149
-814.699802633172 356.379989891235 2638.59132257005 160 164 163
-819.675618391986 356.605515744802 2645.51804629133 165 169 168
-830.700220053467 357.731034544904 2652.09208364255 171 175 174
-828.630638278753 356.905216268526 2659.47296427197 168 172 171
-1037.41619460021 409.139013735062 2232.40775131513 131 135 134
-1025.03176001467 406.613152276995 2243.28059814196 136 140 139
-995.10445535692 401.365290484899 2257.44101923906 136 140 139
-977.792604350874 398.089617755379 2269.02940302656 128 132 131
-967.275384414402 395.875705212357 2279.23915932697 135 139 140
-959.665818991887 394.117355728216 2288.84219544399 138 142 143
-953.993961845541 392.662767920216 2298.03870106158 142 146 147
-944.40261874366 390.605820398945 2307.88790667266 146 150 151
-941.637413395493 389.606940502112 2316.47406067185 131 135 136
-929.080643323674 387.101172971877 2326.71974586908 145 149 150
-919.43917904252 385.050027714698 2336.3874536333 131 135 136
-911.739980171229 383.302172955838 2345.66432414282 125 129 130
-908.928942263069 382.308682278306 2354.08371330063 139 143 144
-910.035848773205 381.917906342629 2361.84304514079 142 146 147
-905.24872730038 380.625157269959 2370.52932800906 132 136 135
-898.485606456392 379.0330516937 2379.48368426371 140 144 143
-888.758988324658 376.991929925349 2388.84063175404 145 149 148
-877.046011576134 374.65257943286 2398.42883182551 142 146 145
-870.237512664898 373.065833895403 2407.21716323573 144 148 147
-860.458527819576 371.030750630806 2416.38442479975 143 147 146
-849.675660602053 368.847857575587 2425.62746889179 142 147 143
-841.834992293998 367.116541373349 2434.38953268871 138 143 139
-835.955298883231 365.686362654951 2442.82886459016 139 144 140
-835.006245627047 365.005645918393 2450.56533712308 139 144 140
-837.020277486944 364.774110297889 2457.89686320957 139 144 140
-835.073936282757 363.944786877555 2465.73402798096 140 145 141
-832.131113681438 362.966860805116 2473.67302405651 138 143 139
-823.232296457979 361.094085022246 2482.31339853264 141 146 142
-825.23055788367 360.864443734029 2489.58756807008 138 143 139
-827.228452701567 360.634868313433 2496.86041805001 131 136 132
-834.193664003394 361.150540151979 2503.56391972863 129 134 130
-832.21739705121 360.324838372933 2511.2913335552 118 123 119
-831.229925140245 359.648732829298 2518.88807641858 68 73 69
-825.259091355221 358.229192514984 2526.99666752736 61 66 62
-819.276646135863 356.811067245306 2535.06211201884 119 124 120
-817.270871565366 355.988834130911 2542.68215977522 115 120 116
-814.260957540795 355.018745224043 2550.37793554437 129 134 130
-812.242229152035 354.198033751036 2557.95084899714 133 138 134
-807.219464124503 352.932888241336 2565.77966097626 107 112 108
-806.186318868083 352.262144477046 2573.21021280648 111 115 114
-801.145582026382 350.999093744227 2580.97362149443 129 133 132
-793.090013572785 349.292852051683 2588.95363390301 131 135 134
-790.030492403964 348.328552809644 2596.46888335956 137 141 140
-789.972374947884 347.809078681196 2603.71777663443 140 144 143
-794.928974805662 348.029398552327 2610.56986869661 144 148 147
-802.902209075874 348.692675691241 2617.21283196487 155 159 160
-809.878996001749 349.207329992875 2623.95774022477 154 158 159
-811.833638477569 348.983002428875 2631.07331595772 149 153 152
-811.774865922211 348.463602344472 2638.32075274741 155 159 158
-814.734691919232 348.387045925363 2645.36442344216 170 174 173
-821.726946699799 348.899907765678 2652.16655817119 171 175 174
-821.665872668465 348.38086042432 2659.40474371264 175 179 178
-1042.54171214884 401.512624906357 2231.03575115706 132 136 135
-1024.31539137563 398.134522559285 2243.06146863875 136 140 139
-999.242274112005 393.719322795914 2256.28677538361 129 133 132
-979.975333751028 390.200351053685 2268.25625911461 129 133 132
-967.50297368288 387.724627630487 2278.83523941041 135 139 138
-959.888580519132 385.993589560496 2288.43759406756 140 144 143
-952.259499934815 384.264282657659 2297.98651017911 148 152 151
-941.683520712452 382.091937679058 2308.0043483516 142 146 145
-931.088750926289 379.921848878476 2317.95291625375 136 140 139
-921.453478038095 377.902037073891 2327.66339374819 143 147 146
-915.718814486044 376.476299720238 2336.64492615766 129 133 132
-912.913411348831 375.495773892018 2345.09249242025 125 129 128
-908.138419516771 374.220444784628 2353.83480832146 141 145 144
-908.261524380257 373.685127409785 2361.7474709764 141 145 144
-906.416704557561 372.85487559791 2369.9600495793 132 136 137
-902.59939135372 371.730160058745 2378.45680766518 141 145 146
-888.934277459806 369.131411442544 2388.42597549716 143 147 148
-873.276722229578 366.240545810367 2398.60581253245 140 144 143
-861.53416118885 363.942101780175 2408.10906910164 143 147 146
-852.729030705913 362.087801771464 2417.10987774232 141 145 144
-842.92128561798 360.088247648954 2426.19186038021 144 148 147
-837.045572306638 358.679094184519 2434.66017287792 137 142 138
-834.122896453359 357.712405922095 2442.68106484522 138 143 139
-833.170376575483 357.040459024153 2450.41020330823 138 143 139
-834.192377317889 356.66274508731 2457.86347235865 139 144 140
-830.261112499866 355.551493759377 2465.94472201059 144 149 145
-827.311638541925 354.587941019359 2473.86902649477 145 150 146
-822.371160636191 353.332097801404 2482.00922740931 129 134 130
-825.360360474169 353.249607928811 2489.15914036902 102 107 103
-827.357448993134 353.020598723075 2496.42935419746 85 90 86
-832.336109060121 353.230714978656 2503.35690946405 71 76 72
-832.345424795401 352.709070477911 2510.85479870245 69 74 70
-834.34216970993 352.480180440537 2518.12381203163 99 104 100
-829.365515359349 351.228577254075 2526.13330285327 88 93 89
-824.378668969731 349.978232172892 2534.10481791086 122 127 123
-821.376584623473 349.021002289724 2541.83685323288 111 116 112
-816.370313247829 347.772927272806 2549.73768032428 123 128 124
-816.348449069053 347.254937709009 2557.12304121124 131 136 132
-809.325426576088 345.717474268271 2565.14693176641 109 114 110
-807.29133096753 344.909642070067 2572.67092104383 115 119 118
-799.244222879157 343.22933922897 2580.69872156318 134 138 137
-791.182404721622 341.550737680853 2588.67298058615 132 136 135
-789.121362538722 340.746050871774 2596.09890834846 134 138 137
-790.063900689305 340.377897246579 2603.26318424998 139 143 142
-795.020887153961 340.590798163311 2610.1120277683 143 147 146
-799.981792462786 340.803267508538 2616.97514871528 155 159 160
-805.952019870661 341.160323440621 2623.78064881177 156 160 161
-808.909326958264 341.081953482945 2630.81382231624 146 150 149
-810.860631328793 340.85857882025 2637.91760593049 151 155 154
-811.803818843929 340.490438547593 2645.08430122541 155 159 158
-816.778647579126 340.701384228602 2651.99815516378 174 178 177
-810.65813540197 339.32100502325 2659.57481499033 174 178 177
-1042.80630632663 393.134058170954 2230.62559847365 131 135 134
-1027.49136106173 390.251084455289 2242.08246170342 138 142 141
-1002.40806741296 385.911349309619 2255.31855895622 128 132 131
-985.083527429039 382.743531771674 2266.92792517752 131 135 134
-968.705444715197 379.724914197902 2278.24917840444 137 141 140
-960.110657096293 377.875386724075 2288.03303297936 141 145 144
-951.499740722465 376.027764335718 2297.75820741963 146 150 149
-942.872456583595 374.182009772093 2307.42471982556 137 141 140
-928.358101835516 371.465293980042 2318.06266489779 145 149 148
-915.777519526866 369.042288716451 2328.27219168924 141 145 144
-910.034483770994 367.639019580192 2337.23682500307 129 133 132
-913.106107991331 367.544292642935 2344.68410867522 128 132 131
-907.345928374785 366.143078487795 2353.58638760197 144 148 147
-905.502602436207 365.323571749446 2361.81129658071 140 144 143
-900.704651716966 364.069838108859 2370.48200488085 133 137 138
-897.863286067809 363.107136971384 2378.80823198415 142 146 147
-883.203097395149 360.407518666769 2388.9155187356 143 147 148
-865.56304181071 357.276571176071 2399.37671518921 140 144 143
-855.779578766566 355.306236653362 2408.5682290447 143 147 146
-847.951511332185 353.627111831451 2417.41002832116 140 144 143
-840.108714178004 351.94971584801 2426.19823053305 144 148 147
-832.25116362902 350.274051441174 2434.93274950844 137 142 138
-830.31061036358 349.466060308829 2442.80394282937 138 143 139
-827.374691925139 348.514572590786 2450.7852645014 138 143 139
-829.381375997359 348.284767716157 2458.09060239471 139 144 140
-823.461429004083 346.902396106583 2466.41159256208 140 145 141
-823.478826905548 346.385431034476 2473.94244364573 139 144 140
-824.484897478476 346.012736653042 2481.33973618362 102 107 103
-830.453950844876 346.359447378563 2488.13434587237 76 81 77
-832.453846896384 346.130590040423 2495.41507940013 78 83 79
-835.447913292915 346.045493756055 2502.58048636347 59 64 60
-835.457538953396 345.529521536576 2510.08403649734 55 60 56
-836.459914458658 345.157474658816 2517.46708975061 41 46 42
-832.477740503798 344.068560291626 2525.37435516556 43 48 44
-827.489425224746 342.837370381655 2533.35251009689 108 113 109
-825.484555412035 342.037175208849 2540.98983064423 108 113 109
-817.481489129203 340.378658138693 2549.19490415086 122 127 123
-815.459837791351 339.580375033641 2556.77205438643 131 136 132
-806.431571253625 337.781790291642 2564.97864926933 110 115 111
-803.392167709721 336.842643014149 2572.58354213544 117 121 120
-796.338816376966 335.332985245199 2580.51238269828 137 141 140
-790.274383433986 333.967616599827 2588.30765963435 133 137 136
-790.216281189674 333.459748147091 2595.56393660362 133 137 136
-792.162197516991 333.23744793847 2602.64839382351 139 143 142
-795.112094665945 333.15771285994 2609.65412283474 143 147 146
-797.057957566064 332.935458544839 2616.73841066468 154 158 159
-801.015278642513 332.997980560259 2623.67707154408 156 160 161
-803.968369864184 332.917941058459 2630.69446732438 146 150 149
-805.915297744074 332.695617729122 2637.7826656435 157 161 160
-807.861858739935 332.473362104554 2644.86954453937 165 169 168
-810.816694729768 332.393167746796 2651.89332053395 182 186 185
-805.697213770007 331.177342764588 2659.39418361161 176 180 179
-1038.91842820995 384.72762355737 2222.57317647254 172 176 175
-1045.98969001892 385.191461865786 2229.63676889896 129 133 132
-1035.53809489863 383.073892061064 2240.15100304107 134 138 137
-1008.49941591854 378.522688840231 2253.78626870016 125 129 128
-991.170340018836 375.408580701553 2265.41270325815 133 137 136
-975.764086820308 372.584109785847 2276.56842265396 143 147 146
-964.238817147235 370.33488749494 2286.90951551268 144 148 147
-952.693081142727 368.088079172694 2297.17614494752 144 148 147
-942.10501445699 365.986531272605 2307.19380230669 138 142 141
-926.603186843391 363.173258431408 2318.00174250943 133 137 136
-912.054923747918 360.505782046122 2328.54487971737 119 123 122
-909.246344984938 359.552719544618 2336.99799441066 129 133 132
-909.373329616071 359.028163746328 2344.93185617852 130 134 133
-903.606479052822 357.649296784351 2353.822547013 140 144 143
-896.845104161678 356.129435560262 2362.82899695029 137 141 140
-894.003385469445 355.180325084049 2371.16249370589 135 139 140
-891.15440657137 354.232158904759 2379.4687018973 141 145 146
-878.450751378783 351.863575077752 2389.25657106088 145 149 150
-863.754463394445 349.213482069462 2399.26109582276 143 147 148
-855.936294228389 347.560016070732 2408.1558450672 141 145 144
-846.129571186339 345.624522292281 2417.28299573129 140 144 143
-839.268234950969 344.116518066018 2425.92486565457 141 145 144
-832.393352774341 342.61005169607 2434.51834209735 139 143 142
-831.43933851269 341.954954067281 2442.25256995277 139 143 142
-826.521749971801 340.734242802382 2450.49993506877 138 143 139
-825.555530928702 340.080636146327 2458.18979028487 136 141 137
-820.620011017755 338.862060110742 2466.3719278103 131 136 132
-823.609116460123 338.775143974245 2473.51869578629 119 124 120
-825.606766300166 338.546939955249 2480.79150204264 93 98 94
-832.570831379191 339.024544442443 2487.46578526535 89 94 90
-834.571388982016 338.79608355495 2494.74922530168 88 93 89
-837.566236162577 338.708680267335 2501.91700366452 87 92 88
-836.580280843112 338.057608938207 2509.53518262738 91 96 92
-838.578303877218 337.829553108638 2516.80946803918 92 97 93
-836.588295643407 337.038665280673 2524.50784288646 88 93 89
-835.589739301679 336.389141582708 2532.08021381669 82 87 83
-834.586514011915 335.740190365503 2539.63561129233 97 102 98
-825.58604297785 333.967934835389 2547.96202831857 112 117 113
-820.568541494744 332.759168924515 2555.84597793371 120 125 121
-812.539050261016 331.130652444875 2563.97188157912 119 124 120
-809.500877636473 330.205028252006 2571.59081139776 117 121 120
-798.439652251247 328.159041131788 2579.88680141009 132 136 135
-790.367416981248 326.535486265457 2587.85713732933 131 135 134
-788.300844255644 325.753605140214 2595.27692958542 132 136 135
-789.240485289215 325.392189541197 2602.43377407377 135 139 138
-791.183073612796 325.170826623986 2609.50646682479 139 143 142
-792.119567161181 324.809764299895 2616.65277737933 158 162 163
-796.073321118193 324.867954805294 2623.57545955473 165 169 170
-799.022408691918 324.786280703153 2630.57695857381 151 155 154
-803.988036677458 324.983534793254 2637.44800777827 147 151 150
-805.932351933042 324.762084070122 2644.52705685328 152 156 155
-810.903702639892 324.958719623713 2651.41896288876 174 178 177
-806.790353126232 323.901584203764 2658.85926272724 184 188 187
-1043.07267972163 376.928660110642 2221.38335070959 165 169 168
-1046.25389506289 376.816026943652 2229.22621967842 128 132 131
-1038.71912113737 375.155844734744 2239.16891964349 131 135 134
-1009.71959313364 370.404315299318 2253.1910315001 124 128 127
-993.35801138263 367.484848004713 2264.63614786358 132 136 135
-975.016018427021 364.287786991175 2276.34576820104 140 144 143
-961.529161162887 361.796013630627 2287.04430653824 143 147 146
-948.996760480585 359.447247500731 2297.48052199002 138 142 141
-939.378534626643 357.521641475293 2307.31283935622 137 141 140
-928.763231844328 355.457990052516 2317.2533002788 120 124 123
-916.168695401705 353.116543818474 2327.46343922983 114 118 117
-913.360204424114 352.177028215017 2335.9254326553 133 137 136
-908.580891227703 350.958698123614 2344.6886193949 132 136 135
-899.862626591906 349.182578899441 2354.0603741328 141 145 144
-893.093923839659 347.687729584271 2363.05540836794 137 141 140
-891.230346678583 346.89249095833 2371.2204501424 136 140 141
-884.438689035651 345.400386750925 2380.1319904848 141 145 146
-873.693413790626 343.352106670278 2389.59959378796 144 148 149
-862.929319256021 341.306093310729 2398.99782682393 142 146 147
-857.078509801513 339.958642420646 2407.59755823631 141 145 146
-849.241495396086 338.334224562537 2416.44067827583 139 143 144
-843.365782885499 336.989790946734 2424.94892544838 141 145 144
-834.511864366842 335.229642466656 2433.82803602091 140 144 143
-830.58899225392 334.16612846652 2441.97151401416 139 143 142
-823.686924302915 332.687143887801 2450.48047654674 135 139 138
-823.707316947323 332.181151145507 2458.03030290112 132 136 135
-819.75824149592 331.120790445948 2466.07848386322 121 126 122
-826.715600983922 331.586313834916 2472.72024316775 113 118 114
-830.70048270988 331.635467080142 2479.75372001791 96 101 97
-836.675711112489 331.961328349023 2486.55716412789 94 99 95
-836.689321575029 331.456347455122 2494.08244839837 96 101 97
-838.690122627831 331.228381919379 2501.3671050559 96 101 97
-838.698692286056 330.724074279669 2508.87409886539 96 101 97
-840.69734309492 330.496433248772 2516.15097696399 102 107 103
-841.698366187727 330.13085376294 2523.53309214758 100 105 101
-840.70138449981 329.489578231691 2531.11651691945 73 78 74
-838.70102483222 328.71101124022 2538.7842376531 79 84 80
-827.699137393908 326.692969253521 2547.31818092675 103 108 104
-823.679567481194 325.641162344916 2555.11003018635 115 120 116
-814.646538840841 323.902252269327 2563.3366197759 122 127 123
-810.605421359643 322.852959107051 2571.05005418476 119 123 122
-801.543665390338 321.117382321755 2579.1720892973 132 136 135
-792.465487440726 319.383647137859 2587.23524452882 131 135 134
-789.394218185052 318.475667651609 2594.74150396437 134 138 137
-786.315133996504 317.568552370728 2602.22022272239 135 139 138
-788.254776983715 317.348057214737 2609.28252787574 137 141 140
-790.194020415279 317.12764076295 2616.343399247 155 159 160
-795.152925838942 317.318238537935 2623.18528644789 163 167 168
-799.108440814428 317.371524632344 2630.11141055138 154 158 157
-803.06620052386 317.424525923002 2637.04661812439 145 149 148
-808.035445451678 317.614021753076 2643.92619816739 135 139 138
-810.989725113884 317.529793849989 2650.94443303465 165 169 168
-812.93464257346 317.308876415706 2658.02605466572 191 195 194
-1049.8821309123 370.058473086424 2211.15468179458 187 191 190
-1048.20265185011 369.251965065291 2219.99612882182 152 156 155
-1046.5169605732 368.446182822364 2228.81589835419 122 126 125
-1041.90141906778 367.227248853142 2238.18582700471 127 131 130
-1011.91499184064 362.424085130889 2252.40749667045 122 126 125
-993.594264974851 359.280352483966 2264.22974257027 135 139 138
-969.381859093838 355.313762303954 2277.03761020558 140 145 141
-958.816145527191 353.278916334585 2287.180372422 141 146 142
-942.361604678362 350.420890235755 2298.3191406293 135 140 136
-932.732455427705 348.528528559976 2308.13281932895 139 144 140
-927.984492989669 347.325314097853 2317.02101948432 112 117 113
-920.284793205661 345.71137103565 2326.38057503801 124 129 125
-920.419663256956 345.197135202589 2334.35022931122 135 140 136
-909.750587301108 343.174561325025 2344.11697519133 131 136 132
-899.062705076655 341.154270714618 2353.81440959489 139 144 140
-889.338807192424 339.273184906778 2363.28342418102 137 142 138
-887.46992476954 338.48950659275 2371.43606713394 141 145 146
-881.655669510564 337.159230476766 2380.18236036316 145 149 152
-871.887848702483 335.283419452318 2389.49069894129 145 149 150
-863.088328977023 333.546313977617 2398.58632971836 144 148 149
-856.24661332429 332.084297219066 2407.33101012157 142 146 147
-850.37944724114 330.760382317239 2415.88394294598 139 143 144
-846.47706038863 329.710702568251 2424.11221291808 139 143 144
-840.587617545772 328.389457955354 2432.58412238046 138 142 141
-833.696348923411 326.933334713256 2441.14854317732 132 136 135
-826.791776763272 325.478789806152 2449.66456702393 125 129 128
-822.847947890086 324.434130405309 2457.74121145817 120 124 123
-821.87088259828 323.798559309892 2465.40218338744 112 117 113
-831.808802234704 324.658772885062 2471.67040391766 107 112 108
-834.803956785188 324.566849932155 2478.83647000472 95 100 96
-837.800419271396 324.474894769397 2486.00644284267 95 100 96
-833.833741361098 323.433047746359 2494.00095789102 101 106 102
-837.822604031188 323.4770759391 2501.04597951666 103 108 104
-838.825300032289 323.114346540013 2508.43610527642 104 109 105
-842.817262756275 323.15818219068 2515.49158621109 98 103 99
-844.816177375288 322.931055819176 2522.76976871407 105 110 106
-845.816083540273 322.568724980706 2530.15071701194 74 79 75
-843.816902561269 321.801091153485 2537.82971661285 63 68 64
-833.812598204275 319.953312998307 2546.2777366095 90 95 91
-827.792816118795 318.647659140794 2554.27649421909 109 114 110
-818.75739569457 316.938580418884 2562.51303753892 128 133 129
-811.709779625863 315.501091931104 2570.50873591911 124 128 127
-798.632261586928 313.256425201465 2578.98676037747 132 136 135
-790.550344787003 311.687821111928 2586.95584371738 130 134 133
-787.474805929749 310.79405494528 2594.45522450502 135 139 138
-782.381804752014 309.632081784845 2602.08840104453 136 140 139
-785.323310313324 309.546991815074 2609.05959293755 137 141 140
-787.259615747715 309.327445886091 2616.11010570366 151 155 156
-793.223723304158 309.645163056113 2622.86804755629 161 165 166
-796.170114093748 309.559663248734 2629.85618957192 162 166 165
-801.134414451941 309.742333234003 2636.71310191594 148 152 151
-802.065579210856 309.388346216092 2643.84409469752 131 135 134
-807.034858263679 309.570498156853 2650.71916489272 150 154 153
-808.976108930265 309.350553586249 2657.78778665529 181 185 184
-778.553390223518 304.848713164899 2666.68351094153 180 185 181
-1054.04093675609 362.214264497779 2209.95319996015 168 172 171
-1053.33552688117 361.553975998252 2218.6071699343 145 149 148
-1045.80503037286 359.94667523381 2228.59913768678 112 116 115
-1042.16016625229 358.882310386019 2237.77426768689 123 127 126
-1018.99023629305 355.114820057172 2250.68202493876 113 117 116
-995.782517238626 351.351750771543 2263.45226990193 131 135 134
-968.628065976004 347.0529059391 2276.81702164203 133 138 134
-955.121631656281 344.648631078891 2287.49811618134 135 140 136
-940.613220362259 342.112238895943 2298.27197502033 140 145 141
-932.935910885841 340.522358253393 2307.7298531498 138 143 139
-927.204018907843 339.203662809173 2316.78925652843 106 111 107
-922.441349900408 338.021053288081 2325.63586295512 131 136 132
-919.631547545178 337.108825116128 2334.11021534817 129 134 130
-908.955688960273 335.12176772859 2343.87420190844 128 133 129
-897.277847719288 333.00257923384 2353.73092297027 137 142 138
-887.546863575132 331.154387778275 2363.19439543415 135 140 136
-886.658512350844 330.516318817151 2371.18316828699 141 145 146
-881.824857784202 329.342280170542 2379.7716304466 144 148 151
-872.051154302438 327.499195498151 2389.07971853826 143 147 148
-862.26006505231 325.658229804967 2398.32366546954 142 146 147
-853.438416324235 323.953187846289 2407.35737882254 140 144 145
-851.517269580454 323.186782505107 2415.32687984631 137 141 142
-846.623653800683 322.019938621096 2423.6972601701 139 143 144
-839.740508098227 320.587047548712 2432.30650735227 137 141 140
-832.844083085469 319.155728398895 2440.86744348757 128 132 131
-827.91633741771 317.992976222905 2449.11368951678 120 124 123
-824.961603620685 317.098289942498 2457.06101490424 117 121 120
-824.976282364237 316.604460774818 2464.59730610888 111 116 112
-831.939667924267 317.043779744589 2471.24489493931 106 111 107
-835.928172388598 317.082867014033 2478.28546717686 96 101 97
-835.941315619158 316.58945363874 2485.81539080976 98 103 99
-833.960583932794 315.830473932964 2493.5683527775 105 110 106
-836.953528767983 315.736795552037 2500.72510633942 106 111 107
-838.950941754682 315.510218333379 2507.99806028229 105 110 106
-841.945313086018 315.416490503838 2515.16007892554 102 107 103
-845.939064923255 315.455389611017 2522.21908581192 110 115 111
-848.936300139258 315.361438870899 2529.39159676357 79 84 80
-848.93584549621 314.869908735728 2536.8731521586 59 64 60
-838.929480528519 313.054555613776 2545.33399298011 89 94 90
-832.909235819164 311.770595996815 2553.34472956569 107 112 108
-821.868628585283 309.826727303657 2561.7817429618 126 131 127
-809.806614776352 307.752887326951 2570.24073725489 123 127 126
-796.721041071947 305.549317888161 2578.71387026171 134 138 137
-788.632860718399 304.008342908437 2586.67714182817 133 137 136
-788.566612605442 303.524580974303 2593.91932340006 132 136 135
-783.470705425988 302.381934609894 2601.553912452 135 139 138
-783.394420373335 301.89937682277 2608.75958906937 138 142 141
-783.31510781125 301.417255748085 2615.95337183246 145 149 150
-789.277182547971 301.725181943902 2622.69758471532 155 159 160
-790.203577456319 301.374862357975 2629.81318340118 169 173 172
-798.190698721891 301.944959134827 2636.44794813638 156 160 159
-802.147603879015 301.988690187772 2643.37320115886 145 149 148
-810.148316015959 302.557308982852 2650.0574930154 130 134 133
-810.06870130766 302.075338469419 2657.25117804782 140 144 143
-769.515403336281 296.348645681215 2666.72673031157 188 193 189
-1056.25531766257 354.088502464753 2209.14826111614 146 150 149
-1051.65320783734 352.905404353894 2218.5906838476 146 150 149
-1045.09114187563 351.45820375251 2228.38300288973 104 108 107
-1043.39340794736 350.675657136799 2237.17180115404 124 128 127
-1030.95115480468 348.436156964421 2248.01170155744 104 108 107
-1008.71789130562 344.8749131322 2260.63008162841 129 133 132
-975.693909979591 339.861986635635 2275.13136521017 141 146 142
-957.293263699958 336.839202918534 2286.73417583521 133 138 134
-942.778619981172 334.348798738055 2297.51392931984 140 145 141
-934.118157867763 332.653976193668 2307.15161996206 127 132 128
-928.38297079083 331.357143722301 2316.21259242067 102 107 103
-917.729994409841 329.402070763739 2326.08080039084 142 147 143
-912.949469533343 328.240379954063 2334.87524747714 121 126 122
-900.297254028498 326.025762220293 2344.95037922795 128 133 129
-894.506839634296 324.73558423362 2353.81050477507 141 146 142
-884.768277156099 322.920416165412 2363.26576058545 136 141 137
-882.890964519853 322.159591869839 2371.40153263927 142 146 147
-878.050554189137 321.005159268858 2379.97821922429 143 147 148
-874.18644479878 319.983423300117 2388.36531912865 142 146 147
-863.403950146989 318.043741445855 2397.76329730425 141 145 146
-855.56569757491 316.499913713973 2406.65270066042 138 142 143
-850.677900773027 315.351199881469 2415.05706109653 135 139 138
-847.758408908804 314.465861161569 2423.1411344336 142 146 145
-839.881706391508 312.926646436305 2431.89069309005 136 140 139
-834.962207544683 311.781815643899 2440.17887257245 124 128 127
-832.014816371232 310.899819235006 2448.16240042518 117 121 120
-829.060131767852 310.018781796767 2456.11852562341 116 120 119
-829.076079719868 309.530539153508 2463.66305618938 112 117 113
-832.069332682769 309.434398947475 2470.8193995016 106 111 107
-836.058070706816 309.468686172429 2477.8568793813 100 105 101
-835.074477484832 308.85079561853 2485.50477695358 103 108 104
-836.07764176312 308.494131688334 2492.90047075429 104 109 105
-839.071628331515 308.39816658594 2500.0596483512 102 107 103
-843.063955639932 308.432305861805 2507.11036113296 99 104 100
-844.065062506877 308.076017160438 2514.49958209094 107 112 108
-846.063061361761 307.849978730348 2521.77505141045 112 117 113
-848.06071992704 307.624037422845 2529.04931861946 80 85 81
-848.05817332308 307.138583555575 2536.52601418859 64 69 65
-843.048785999724 306.004834790438 2544.48745198717 82 87 83
-837.02736841637 304.742651558003 2552.50758239065 102 107 103
-826.985870671853 302.963588144891 2560.86089352002 127 132 128
-808.903860170266 300.15057431691 2569.88192465767 126 130 129
-792.799753141198 297.59970289692 2578.61938595481 134 138 137
-784.703857167115 296.086524965801 2586.57156053575 131 135 134
-784.633141177044 295.609063624289 2593.80113161994 134 138 137
-780.536612202945 294.615356248506 2601.34299894915 137 141 140
-779.450185644889 294.009958209951 2608.61698361959 139 143 142
-779.366144256515 293.53411744611 2615.79810325949 138 142 143
-783.310568815008 293.574417903038 2622.67485236665 145 149 150
-785.240214927094 293.35676860265 2629.70183780624 171 175 174
-795.243825419035 294.169309265591 2636.18385742686 163 167 166
-803.238610673326 294.723298218738 2642.83690741344 146 150 149
-811.241628199353 295.276378393334 2649.51994845628 133 137 136
-808.126763188762 294.414762082195 2656.8945457025 129 133 132
-796.907144929537 292.526487811003 2664.70202565434 192 197 193
-1070.84854299623 348.165036248121 2197.24450885318 205 209 208
-1060.41793952145 346.218038177061 2207.94437092392 148 152 151
-1050.94272937262 344.403382188801 2218.37865464055 138 142 141
-1044.37573206452 342.980883750099 2228.16733118991 93 97 96
-1044.62651989834 342.469351049902 2236.56907208694 111 115 114
-1040.96775095412 341.438979649715 2245.71403788534 99 104 100
-1024.59465328168 338.723019391231 2257.24488157848 133 138 134
-989.610882742345 333.546737270469 2272.15935849868 128 133 129
-960.444514881677 329.15432534867 2285.78875466428 131 136 132
-945.924365876528 326.709817852672 2296.57704486349 144 149 145
-938.240988311754 325.174166800773 2306.0466310948 110 115 111
-931.523775094817 323.769619329987 2315.28984774005 107 112 108
-917.921656153639 321.461905139064 2325.67664738514 140 145 141
-907.243352461657 319.54448631857 2335.47552188767 130 135 131
-896.546014223509 317.629319484017 2345.20514663699 136 141 137
-889.765158380511 316.232471894677 2354.21600296483 139 144 140
-884.939749667353 315.095027814522 2362.8591132783 135 140 136
-884.045450606181 314.474290609311 2370.83581631938 145 149 148
-877.230288681542 313.081569631007 2379.72283523859 145 149 148
-871.388471417681 311.819129015558 2388.40962392948 143 147 146
-860.597772531647 309.915135287861 2397.79967300614 141 145 144
-857.693395689046 309.041544114278 2405.94728224178 137 141 140
-854.781251973114 308.168858522933 2414.06755535873 136 141 137
-847.903484702815 306.783746342613 2422.72600767403 141 146 142
-838.041203682798 305.015380622792 2431.75239836195 135 140 136
-834.107601696522 304.018224755059 2439.89793348935 123 128 124
-833.14028128698 303.406496139641 2447.61013915022 116 121 117
-833.160933899998 302.923428168217 2455.1744751948 113 118 114
-832.185012043519 302.312845989891 2462.8554691694 105 111 109
-833.192114800915 301.958557192017 2470.26821432782 101 107 105
-836.18700884004 301.860169175752 2477.42830246222 100 106 102
-837.19194975159 301.506282042937 2484.83327470102 101 106 102
-839.191332643576 301.280321828422 2492.11393206024 99 104 100
-842.187300577801 301.182011793208 2499.27805658981 100 105 101
-844.186687255806 300.956181115211 2506.55880978835 104 109 105
-844.189130417457 300.475703035098 2514.05810185326 122 124 119
-847.185216830821 300.377531017708 2521.22368243239 121 123 118
-848.183176501764 300.024898906064 2528.60259802526 82 84 79
-850.179619267972 299.799668654949 2535.8728001344 84 86 81
-847.17033278429 298.939279483717 2543.63923548759 78 83 79
-843.151475201789 297.95282146429 2551.47498735722 69 74 70
-833.108415154943 296.2060641595 2559.84382337229 122 127 123
-813.015217443162 293.193267575294 2569.06514799798 130 135 131
-794.898112512984 290.437587651227 2577.99207802607 135 140 136
-783.784719205583 288.571767199629 2586.20812657072 132 137 133
-781.701014955091 287.847247341781 2593.60052773392 135 139 138
-776.5928088211 286.744004817723 2601.21433070017 140 144 143
-777.515274423456 286.400428908195 2608.31866922474 140 144 143
-777.428215014995 285.930735495368 2615.49246466318 138 142 141
-783.387580374223 286.218930105102 2622.21416066795 142 146 145
-788.343404393119 286.380408956807 2629.02622305312 160 164 163
-799.36143209594 287.297979803789 2635.4436361104 165 169 168
-809.381402643561 288.088150157482 2641.97227396912 147 151 150
-814.356899957037 288.247512551982 2648.85604322092 156 161 157
-811.241594589989 287.399760475771 2656.23682963954 138 143 139
-794.955119220729 284.917941414886 2664.34078907738 180 185 181
-1082.5133137899 341.775220199025 2185.86344014947 195 199 200
-1075.01663975406 340.243797530013 2196.02888957042 144 148 147
-1053.86724296173 336.929628962844 2208.93205331742 143 147 146
-1043.40676636144 335.020868374922 2219.54421445072 140 144 143
-1039.75608676572 334.005468822242 2228.72866685533 108 112 111
-1040.97788533537 333.627309747542 2236.92346504225 95 100 96
-1040.24410390313 332.99519265586 2245.48988293688 98 103 99
-1027.7729542489 330.839084207749 2256.27421640305 121 126 122
-996.688993689445 326.273100253313 2270.46702318973 129 134 130
-964.576370782976 321.585919923879 2284.66134065458 131 136 132
-947.111695295982 318.806809135306 2295.99582031127 120 125 121
-941.385297463052 317.551830029979 2305.11584953449 96 101 97
-932.703255948187 315.918396091037 2314.7121776403 127 132 128
-919.094589744877 313.654070723318 2325.10206201586 138 143 139
-905.46254526317 311.392521378269 2335.40690006114 131 136 132
-895.741396826125 309.639358896657 2344.9659578746 143 148 144
-888.955143137131 308.267217044896 2353.97329999006 136 141 137
-883.140728153809 307.022944597294 2362.77236938545 133 138 134
-880.271281158806 306.158556642185 2371.05640575201 144 149 145
