ply
format ascii 1.0
comment KinectMotionCapture
element vertex 778
property float x
property float y
property float z
property uchar red
property uchar green
property uchar blue
end_header
-599.984109401703 -145.137682557106 1832.00001716614 121 102 85
-594.386637210846 -144.988626241684 1830.00004291534 124 107 89
-585.578978061676 -144.04733479023 1817.999958992 106 90 74
-580.349385738373 -143.977701663971 1817.00003147125 92 76 61
-577.025175094604 -144.383624196053 1822.00002670288 135 122 113
-584.303379058838 -148.762494325638 1876.99997425079 175 171 162
-591.268181800842 -151.864066720009 1916.00000858307 187 187 179
-590.986311435699 -153.143033385277 1932.000041008 12 19 12
-584.553897380829 -152.836859226227 1927.99997329712 19 26 19
-572.733938694 -151.103720068932 1906.00001811981 17 19 8
-563.712477684021 -150.084003806114 1893.00000667572 20 21 13
-558.89219045639 -150.174275040627 1894.00005340576 21 22 14
-552.019238471985 -149.709567427635 1888.00001144409 19 21 10
-543.15060377121 -148.689761757851 1875 15 17 6
-535.7865691185 -148.066401481628 1866.99998378754 17 18 10
-531.592428684235 -148.315489292145 1870.00000476837 17 18 10
-530.478656291962 -149.437174201012 1883.99994373322 17 18 10
-525.942325592041 -149.607196450233 1886.0000371933 17 18 10
-518.632888793945 -148.983985185623 1878.00002098084 17 18 10
-511.913239955902 -148.519426584244 1871.99997901917 17 18 10
-507.932722568512 -148.848250508308 1876.00004673004 15 18 7
-501.249551773071 -148.383662104607 1870.00000476837 16 18 7
-495.394229888916 -148.157149553299 1866.99998378754 15 17 6
-487.190723419189 -147.216334939003 1855.00001907349 15 17 6
-482.950419187546 -147.465974092484 1858.00004005432 17 19 8
-478.436022996902 -147.636264562607 1860.00001430511 19 20 12
-475.182592868805 -148.203521966934 1866.99998378754 19 20 12
-470.379680395126 -148.294553160667 1868.00003051758 22 23 15
-462.830454111099 -147.512301802635 1858.00004005432 24 25 17
-457.059413194656 -147.285714745522 1855.00001907349 27 28 20
-450.329124927521 -146.741509437561 1848.00004959106 27 28 20
-447.97345995903 -147.626578807831 1858.99996757507 27 30 23
-443.174839019775 -147.717654705048 1860.00001430511 27 30 23
-439.547687768936 -148.20584654808 1866.00005626678 27 30 23
-434.024393558502 -148.058637976646 1863.9999628067 27 30 23
-430.35227060318 -148.546904325485 1870.00000476837 28 31 24
-426.191806793213 -148.876324295998 1873.99995326996 26 29 22
-420.885294675827 -148.808553814888 1873.00002574921 27 30 23
-416.915327310562 -149.217456579208 1878.00002098084 27 30 23
-410.724520683289 -148.831784725189 1873.00002574921 26 29 22
-407.158821821213 -149.399638175964 1879.99999523163 26 29 22
-401.629477739334 -149.252265691757 1878.00002098084 29 32 25
-399.910688400269 -150.535464286804 1894.00005340576 25 28 19
-397.687315940857 -151.659846305847 1907.99999237061 30 33 24
-397.032648324966 -153.42028439045 1929.99994754791 30 33 24
-392.603635787964 -153.749972581863 1934.00001525879 27 30 21
-386.54962182045 -153.443619608879 1929.99994754791 21 24 17
-383.282393217087 -154.250308871269 1940.00005722046 20 23 16
-382.687747478485 -156.170278787613 1963.99998664856 21 24 17
-378.695398569107 -156.738564372063 1970.99995613098 19 22 15
-373.906403779984 -156.988769769669 1973.99997711182 20 23 16
-369.473516941071 -157.398000359535 1978.99997234344 11 13 8
-363.356649875641 -157.091334462166 1975.00002384186 10 12 7
-348.119586706162 -157.523021101952 1980.00001907349 11 12 4
-343.943655490875 -158.091112971306 1986.99998855591 22 23 15
-341.432392597198 -159.454867243767 2003.99994850159 22 23 15
-345.869034528732 -164.160802960396 2062.99996376038 20 21 13
-345.69525718689 -166.79821908474 2095.99995613098 23 24 16
-339.339077472687 -166.491225361824 2092.00000762939 22 23 15
-331.56830072403 -165.467783808708 2078.9999961853 23 24 16
-327.159225940704 -166.115552186966 2086.99989318848 25 26 18
-323.783934116364 -167.320534586906 2101.99999809265 24 25 17
-319.266647100449 -167.968258261681 2109.99989509583 23 24 16
-315.744876861572 -169.173240661621 2125 25 28 21
-312.432080507278 -170.537441968918 2141.99995994568 26 29 22
-632.577002048492 -148.411825299263 1812.00003623962 159 157 145
-627.336025238037 -148.338198661804 1810.99998950958 133 127 115
-623.475611209869 -148.59239757061 1814.00001049042 102 92 80
-620.622217655182 -149.092569947243 1820.00005245209 71 55 42
-617.398083209991 -149.511009454727 1825.00004768372 72 54 40
-611.462235450745 -149.274259805679 1822.00002670288 76 57 42
-603.545367717743 -148.546025156975 1812.99996376038 85 66 51
-599.309146404266 -148.719176650047 1815.00005722046 82 63 48
-598.992168903351 -149.875834584236 1828.9999961853 108 89 74
-598.924219608307 -151.114732027054 1843.99998188019 128 109 95
-590.400755405426 -150.223106145859 1832.99994468689 123 106 96
-582.894682884216 -149.577364325523 1825.00004768372 107 93 84
-578.915357589722 -149.833291769028 1827.99994945526 63 53 44
-576.489508152008 -150.499224662781 1835.99996566772 121 112 105
-585.849404335022 -154.280513525009 1881.99996948242 146 141 135
-585.163533687592 -156.843692064285 1912.99998760223 27 28 22
-580.601394176483 -157.018795609474 1914.99996185303 14 15 9
-568.816542625427 -155.226036906242 1893.00000667572 19 22 15
-563.105881214142 -155.073225498199 1891.00003242493 19 22 15
-558.585941791534 -155.248537659645 1893.00000667572 19 22 15
-550.838530063629 -154.521763324738 1883.99994373322 18 21 14
-543.4290766716 -153.87699007988 1876.00004673004 17 20 11
-534.627497196198 -152.822047472 1863.00003528595 19 20 12
-532.433867454529 -153.653860092163 1873.00002574921 18 19 11
-530.46715259552 -154.567882418633 1883.99994373322 17 18 10
-525.094091892242 -154.497548937798 1883.00001621246 19 20 12
-515.307545661926 -153.114393353462 1866.00005626678 19 21 10
-509.167015552521 -152.797847986221 1861.99998855591 18 21 10
-505.213618278503 -153.137877583504 1866.00005626678 14 20 10
-498.289406299591 -152.575150132179 1858.99996757507 13 19 9
-493.525147438049 -152.669042348862 1860.00001430511 13 19 9
-487.966954708099 -152.516722679138 1858.00004005432 13 19 9
-486.317694187164 -153.595820069313 1871.00005149841 15 18 9
-480.22472858429 -153.279379010201 1866.99998378754 16 19 10
-474.916249513626 -153.209283947945 1866.00005626678 16 19 10
-468.35333108902 -152.728602290154 1860.00001430511 19 22 13
-463.565945625305 -152.822703123093 1860.99994182587 20 23 14
-457.540363073349 -152.506187558174 1856.99999332428 23 24 16
-451.048374176025 -152.025386691093 1850.99995136261 24 25 17
-447.72070646286 -152.612298727036 1858.00004005432 24 25 17
-444.354295730591 -153.199285268784 1865.00000953674 24 25 17
-440.713554620743 -153.704211115837 1871.00005149841 25 26 18
-435.875296592712 -153.798431158066 1871.99997901917 26 27 19
-429.880172014236 -153.481841087341 1868.00003051758 26 27 19
-425.270318984985 -153.658166527748 1870.00000476837 26 27 19
-420.199394226074 -153.670161962509 1870.00000476837 26 27 19
-416.903525590897 -154.339596629143 1878.00002098084 27 28 20
-411.809176206589 -154.351592063904 1878.00002098084 27 28 20
-409.096121788025 -155.26770055294 1889.00005817413 27 28 20
-404.397875070572 -155.444100499153 1891.00003242493 28 29 21
-400.321215391159 -155.867084860802 1896.00002765656 27 30 23
-395.79963684082 -156.12567961216 1899.00004863739 27 30 23
-395.99221944809 -158.275336027145 1924.99995231628 27 30 23
-391.170829534531 -158.451825380325 1927.00004577637 25 28 21
-387.539207935333 -159.12164747715 1934.99994277954 20 23 16
-383.270591497421 -159.544825553894 1940.00005722046 19 22 15
-380.72744011879 -160.708203911781 1953.9999961853 15 18 11
-375.99378824234 -160.966873168945 1957.00001716614 13 16 9
-372.568756341934 -161.801353096962 1967.00000762939 14 17 10
-368.528366088867 -162.389069795609 1973.99997711182 10 13 6
-364.448845386505 -162.976801395416 1980.99994659424 9 12 5
-362.142860889435 -164.387255907059 1998.00002574921 10 13 6
-357.779532670975 -164.892747998238 2003.99994850159 9 12 3
-345.471024513245 -161.695256829262 1965.0000333786 11 14 5
-342.374533414841 -162.776485085487 1978.00004482269 20 23 14
-340.058147907257 -164.269238710403 1996.00005149841 21 24 15
-344.013392925262 -168.889701366425 2052.00004577637 21 24 15
-344.69410777092 -172.029078006744 2089.99991416931 22 25 16
-339.003205299377 -172.040745615959 2089.99991416931 21 24 15
-331.557005643845 -171.146780252457 2078.9999961853 22 25 16
-326.20757818222 -171.32280766964 2081.00008964539 24 27 18
-321.000248193741 -171.58105969429 2084.00011062622 23 26 17
-317.13730096817 -172.580242156982 2095.99995613098 23 26 17
-314.545303583145 -174.320548772812 2117.00010299683 24 27 20
-311.545997858047 -175.896167755127 2135.99991798401 26 29 22
-624.841809272766 -153.864279389381 1817.999958992 138 130 119
-621.29533290863 -154.211729764938 1822.00002670288 73 59 48
-618.403911590576 -154.728665947914 1827.99994945526 65 49 36
-614.473342895508 -154.991894960403 1830.9999704361 78 60 46
-607.197821140289 -154.408782720566 1824.00000095367 75 57 43
-600.950717926025 -154.079735279083 1820.00005245209 73 55 41
-598.654985427856 -154.766768217087 1827.99994945526 90 72 58
-600.53825378418 -156.554743647575 1848.99997711182 124 106 94
-600.697576999664 -157.919704914093 1865.00000953674 132 116 103
-591.827511787415 -156.913965940475 1853.00004482269 134 120 111
-583.338737487793 -155.992850661278 1842.00000762939 68 57 51
-578.67705821991 -156.088083982468 1843.00005435944 59 50 45
-574.632287025452 -156.35284781456 1845.99995613098 110 105 99
-574.274122714996 -157.634183764458 1860.99994182587 188 187 182
-576.042354106903 -160.960257053375 1899.99997615814 12 13 8
-570.307672023773 -160.802260041237 1898.00000190735 17 20 13
-560.712218284607 -159.542888402939 1883.00001621246 15 18 11
-555.623710155487 -159.554451704025 1883.00001621246 16 19 12
-550.534605979919 -159.566089510918 1883.00001621246 17 20 13
-544.865787029266 -159.40834581852 1881.00004196167 15 18 9
-538.05947303772 -158.911615610123 1875 19 20 12
-534.696221351624 -159.432008862495 1881.00004196167 18 19 11
-528.484344482422 -159.104913473129 1876.99997425079 17 18 10
-522.014856338501 -158.693060278893 1871.99997901917 18 19 11
-513.638734817505 -157.68775343895 1860.00001430511 19 21 10
-507.514476776123 -157.3606133461 1855.99994659424 17 20 9
-504.660129547119 -158.050984144211 1863.9999628067 15 21 11
-500.421702861786 -158.317521214485 1866.99998378754 14 20 10
-494.839817285538 -158.160105347633 1865.00000953674 14 20 10
-488.742738962173 -157.833084464073 1860.99994182587 14 20 10
-486.30553483963 -158.693507313728 1871.00005149841 16 19 10
-481.241464614868 -158.705860376358 1871.00005149841 16 19 10
-474.140554666519 -158.039554953575 1863.00003528595 17 20 11
-468.34123134613 -157.797381281853 1860.00001430511 19 22 13
-464.051932096481 -158.064216375351 1863.00003528595 20 23 14
-458.760172128677 -157.991752028465 1861.99998855591 23 24 16
-453.716635704041 -158.004090189934 1861.99998855591 24 25 17
-450.118184089661 -158.52564573288 1868.00003051758 23 24 16
-446.248084306717 -158.962398767471 1873.00002574921 23 24 16
-441.407918930054 -159.059688448906 1873.99995326996 23 24 16
-435.397386550903 -158.73259305954 1870.00000476837 25 26 18
-429.177612066269 -158.320531249046 1865.00000953674 26 27 19
-423.66623878479 -158.163070678711 1863.00003528595 26 27 19
-419.28842663765 -158.430084586143 1866.00005626678 26 27 19
-415.781408548355 -159.03677046299 1873.00002574921 27 28 20
-411.577731370926 -159.388735890388 1876.99997425079 27 28 20
-410.599857568741 -161.014571785927 1896.00002765656 27 28 20
-406.31029009819 -161.366671323776 1899.99997615814 27 28 20
-402.631491422653 -161.973595619202 1906.99994564056 26 29 22
-395.579069852829 -161.221489310265 1898.00000190735 27 30 23
-393.511563539505 -162.507995963097 1912.99998760223 27 30 23
-389.331728219986 -162.945061922073 1917.99998283386 26 29 22
-386.926263570786 -164.146825671196 1932.000041008 21 24 17
-383.653581142426 -165.008813142776 1942.00003147125 19 22 15
-379.546225070953 -165.530934929848 1947.99995422363 16 19 12
-372.935473918915 -167.340114712715 1968.99998188019 13 16 9
-369.823068380356 -168.372258543968 1980.99994659424 9 12 5
-340.271919965744 -162.032768130302 1906.00001811981 10 13 4
-346.514225006104 -167.570412158966 1970.99995613098 11 14 5
-342.88215637207 -168.43244433403 1980.99994659424 19 22 13
-347.712904214859 -173.545971512794 2040.99988937378 19 22 13
-343.498677015305 -174.238249659538 2049.00002479553 19 22 13
-344.3523645401 -177.566781640053 2088.00005912781 20 23 14
-335.5852663517 -175.962895154953 2069.00000572205 21 24 15
-329.631716012955 -175.804570317268 2066.99991226196 22 25 16
-325.412333011627 -176.581740379334 2075.99997520447 24 27 18
-321.296900510788 -177.443936467171 2085.99996566772 24 27 18
-317.579954862595 -178.561329841614 2098.99997711182 24 27 18
-314.08828496933 -179.848879575729 2114.00008201599 27 30 23
-312.847465276718 -182.497724890709 2144.99998092651 24 27 20
-624.35507774353 -159.953087568283 1830.9999704361 134 125 116
-620.424330234528 -160.224542021751 1833.99999141693 92 83 74
-617.148578166962 -160.670921206474 1838.99998664856 60 50 41
-610.849976539612 -160.331189632416 1835.00003814697 62 50 38
-603.912532329559 -159.816786646843 1828.9999961853 64 50 37
-598.645031452179 -159.739419817925 1827.99994945526 55 41 30
-598.254561424255 -160.973057150841 1842.00000762939 61 47 36
-603.263795375824 -163.692712783813 1873.00002574921 92 79 70
-585.125982761383 -168.754443526268 1929.99994754791 72 74 69
-576.906323432922 -167.891964316368 1919.99995708466 15 18 11
-564.869403839111 -165.892630815506 1896.99995517731 19 22 15
-555.316865444183 -164.592728018761 1881.99996948242 18 21 14
-548.183798789978 -163.992434740067 1875 17 20 13
-544.564187526703 -164.441794157028 1879.99999523163 18 21 12
-540.343165397644 -164.716348052025 1883.00001621246 18 19 11
-535.252690315247 -164.728581905365 1883.00001621246 17 18 10
-527.064561843872 -163.778483867645 1871.99997901917 16 17 9
-518.098831176758 -162.565857172012 1858.00004005432 18 19 11
-508.932113647461 -161.265596747398 1843.00005435944 18 20 9
-505.861699581146 -161.890387535095 1850.00002384186 16 19 8
-503.835618495941 -162.865370512009 1860.99994182587 17 23 13
-501.481473445892 -163.753047585487 1871.00005149841 19 25 15
-495.358049869537 -163.415476679802 1866.99998378754 21 27 17
-490.30613899231 -163.428083062172 1866.99998378754 19 25 15
-487.072825431824 -164.053469896317 1873.99995326996 19 22 13
-482.000559568405 -164.066180586815 1873.99995326996 18 21 12
-474.382609128952 -163.203343749046 1863.9999628067 18 21 12
-465.05543589592 -161.727473139763 1847.00000286102 18 21 12
-460.552275180817 -161.915183067322 1848.99997711182 19 22 13
-455.791115760803 -162.015363574028 1850.00002384186 23 24 16
-452.97309756279 -162.816226482391 1858.99996757507 24 25 17
-450.5874812603 -163.7924015522 1870.00000476837 24 25 17
-447.664946317673 -164.593517780304 1878.99994850159 24 25 17
-441.866457462311 -164.343565702438 1876.00004673004 24 25 17
-435.617685317993 -163.918301463127 1871.00005149841 26 27 19
-429.855436086655 -163.668185472488 1868.00003051758 27 28 20
-424.790799617767 -163.680881261826 1868.00003051758 27 28 20
-421.073466539383 -164.219334721565 1873.99995326996 27 28 20
-417.544722557068 -164.845496416092 1881.00004196167 27 28 20
-415.073484182358 -165.909945964813 1893.00000667572 27 28 20
-411.886602640152 -166.711539030075 1901.99995040894 27 28 20
-406.939268112183 -166.811987757683 1902.99999713898 27 28 20
-402.196675539017 -167.000040411949 1904.99997138977 25 28 21
-396.608710289001 -166.837424039841 1902.99999713898 27 30 23
-392.264813184738 -167.20075905323 1906.99994564056 28 31 24
-388.91327381134 -168.002530932426 1916.00000858307 27 30 23
-387.113988399506 -169.505879282951 1932.99996852875 23 26 19
-383.048415184021 -170.044735074043 1939.00001049042 21 24 17
-378.754407167435 -170.495852828026 1944.00000572205 21 24 17
-374.816566705704 -171.122431755066 1950.99997520447 16 19 12
-373.491227626801 -172.977015376091 1972.00000286102 15 18 11
-373.170852661133 -175.358131527901 1998.99995326996 13 16 9
-363.320708274841 -173.26532304287 1975.00002384186 10 13 6
-341.275811195374 -165.206074714661 1883.00001621246 12 15 6
-340.617299079895 -167.411401867867 1907.99999237061 11 14 5
-342.634648084641 -171.020910143852 1949.00000095367 17 20 11
-345.812559127808 -175.332829356194 1998.00002574921 19 22 13
-349.063575267792 -179.820790886879 2049.00002479553 18 21 12
-352.203577756882 -184.396997094154 2101.0000705719 18 21 12
-341.701507568359 -181.864187121391 2072.00002670288 20 23 14
-333.789169788361 -180.647552013397 2058.00008773804 21 24 15
-328.663021326065 -180.922955274582 2061.00010871887 23 26 17
-326.654523611069 -182.954072952271 2084.00011062622 25 28 19
-323.595523834229 -184.458523988724 2101.0000705719 25 28 19
-322.258442640305 -187.016665935516 2130.00011444092 24 27 18
-318.088054656982 -187.994450330734 2141.00003242493 24 27 20
-315.315186977386 -189.850330352783 2161.99994087219 23 26 19
-623.179316520691 -167.294129729271 1856.99999332428 102 95 89
-617.830634117126 -167.21411049366 1855.99994659424 49 39 29
-610.506117343903 -166.593655943871 1848.99997711182 41 31 19
-602.237045764923 -165.702998638153 1838.99998664856 64 54 44
-599.218428134918 -166.254132986069 1845.00002861023 51 41 31
-600.676417350769 -168.067127466202 1865.00000953674 49 39 30
-585.908234119415 -175.822451710701 1950.00004768372 9 11 6
-573.492407798767 -173.670813441277 1925.99999904633 19 22 15
-554.419577121735 -169.444903731346 1878.99994850159 17 20 13
-549.341142177582 -169.457137584686 1878.99994850159 14 17 10
-544.552028179169 -169.559687376022 1879.99999523163 17 20 11
-541.47869348526 -170.203492045403 1886.99996471405 17 18 10
-536.09299659729 -170.125856995583 1886.0000371933 16 17 9
-527.896761894226 -169.146165251732 1875 16 17 9
-517.80754327774 -167.534872889519 1856.99999332428 18 19 11
-509.195923805237 -166.374519467354 1843.99998188019 17 19 8
-507.763266563416 -167.56010055542 1856.99999332428 16 19 8
-503.552377223969 -167.843520641327 1860.00001430511 13 19 9
-499.32461977005 -168.127030134201 1863.00003528595 16 22 12
-492.426842451096 -167.508095502853 1855.99994659424 19 25 15
-488.717675209045 -167.972236871719 1860.99994182587 18 24 14
-484.200984239578 -168.165683746338 1863.00003528595 17 20 11
-479.930102825165 -168.449446558952 1866.00005626678 18 21 12
-472.079306840897 -167.469367384911 1855.00001907349 18 21 12
-465.546280145645 -166.940614581108 1848.99997711182 18 21 12
-459.792256355286 -166.682660579681 1845.99995613098 19 22 13
-456.517457962036 -167.327702045441 1853.00004482269 23 24 16
-453.934907913208 -168.243750929832 1863.00003528595 24 25 17
-450.574547052383 -168.889001011848 1870.00000476837 25 26 18
-447.413712739944 -169.62468624115 1878.00002098084 25 26 18
-441.85346364975 -169.457197189331 1876.00004673004 26 27 19
-434.906303882599 -168.747648596764 1868.00003051758 27 28 20
-429.842531681061 -168.760702013969 1868.00003051758 28 29 21
-426.142305135727 -169.315844774246 1873.99995326996 27 28 20
-421.509981155396 -169.509634375572 1876.00004673004 27 28 20
-417.30985045433 -169.884145259857 1879.99999523163 27 28 20
-413.744986057281 -170.529767870903 1886.99996471405 27 28 20
-410.574346780777 -171.35626077652 1896.00002765656 26 27 19
-405.21565079689 -171.278953552246 1894.99998092651 26 27 19
-401.128172874451 -171.743929386139 1899.99997615814 25 28 21
-395.762234926224 -171.666547656059 1899.00004863739 27 30 23
-392.252027988434 -172.402739524841 1906.99994564056 28 31 24
-388.291537761688 -172.958180308342 1912.99998760223 28 31 24
-386.300146579742 -174.417823553085 1929.00002002716 28 31 24
-385.01101732254 -176.239296793938 1949.00000095367 27 30 23
-380.300253629684 -176.523640751839 1952.00002193451 29 32 25
-374.995917081833 -176.536604762077 1952.00002193451 23 26 19
-373.2890188694 -178.26797068119 1970.99995613098 22 25 18
-369.984537363052 -179.275885224342 1981.99999332428 13 16 9
-359.629034996033 -176.84642970562 1955.00004291534 9 12 5
-344.354033470154 -174.51936006546 1929.00002002716 13 16 7
-344.55618262291 -177.336484193802 1960.00003814697 16 19 10
-350.819289684296 -183.411285281181 2026.99995040894 19 22 13
-350.243419408798 -186.048209667206 2055.99999427795 18 21 12
-353.364199399948 -190.766781568527 2108.00004005432 18 21 12
-342.843353748322 -188.155144453049 2078.9999961853 21 24 15
-334.587782621384 -186.719641089439 2062.99996376038 20 23 14
-330.404937267303 -187.546715140343 2072.00002670288 22 25 16
-328.993380069733 -190.003097057343 2098.99997711182 24 27 18
-326.817631721497 -192.097559571266 2121.99997901917 25 28 19
-322.548866271973 -193.015247583389 2131.99996948242 25 28 19
-321.79006934166 -196.105793118477 2165.99988937378 25 28 21
-316.907405853271 -196.751907467842 2173.00009727478 29 32 25
-607.002258300781 -173.50073158741 1868.99995803833 139 132 124
-604.852378368378 -174.347326159477 1878.00002098084 81 77 68
-586.797058582306 -181.407958269119 1952.99994945526 23 26 19
-572.884440422058 -178.726866841316 1924.00002479553 20 23 16
-560.89848279953 -176.60291492939 1901.00002288818 20 23 16
-551.667511463165 -175.314903259277 1886.99996471405 20 23 16
-543.960094451904 -174.491390585899 1878.00002098084 18 21 12
-538.596510887146 -174.411192536354 1876.99997425079 17 18 10
-533.522069454193 -174.42399263382 1876.99997425079 15 16 8
-527.602434158325 -174.158081412315 1873.99995326996 15 16 8
-519.746720790863 -173.24161529541 1863.9999628067 16 17 9
-513.049066066742 -172.696903347969 1858.00004005432 17 19 8
-511.578381061554 -173.918277025223 1871.00005149841 15 18 7
-506.517291069031 -173.931390047073 1871.00005149841 11 17 7
-500.383675098419 -173.572674393654 1866.99998378754 12 18 8
-492.148607969284 -172.470182180405 1855.00001907349 15 21 11
-488.704651594162 -173.041239380836 1860.99994182587 16 22 12
-482.628554105759 -172.682508826256 1856.99999332428 18 21 12
-477.602183818817 -172.695755958557 1856.99999332428 19 22 13
-469.521403312683 -171.592965722084 1845.00002861023 18 21 12
-465.029686689377 -171.792209148407 1847.00000286102 18 21 12
-460.028290748596 -171.805456280708 1847.00000286102 19 22 13
-457.489758729935 -172.74896800518 1856.99999332428 23 24 16
-452.703416347504 -172.855347394943 1858.00004005432 24 25 17
-447.670012712479 -172.868713736534 1858.00004005432 25 26 18
-444.54163312912 -173.626437783241 1866.00005626678 26 27 19
-439.955979585648 -173.825964331627 1868.00003051758 27 28 20
-434.893041849136 -173.839390277863 1868.00003051758 28 29 21
-429.829329252243 -173.852786421776 1868.00003051758 28 29 21
-426.583856344223 -174.610793590546 1876.00004673004 28 29 21
-422.170758247375 -174.903437495232 1878.99994850159 27 28 20
-416.852712631226 -174.823790788651 1878.00002098084 27 28 20
-414.170265197754 -175.861209630966 1889.00005817413 27 28 20
-409.694910049438 -176.153942942619 1891.99995994568 26 27 19
-403.064131736755 -175.515577197075 1884.99999046326 26 27 19
-398.581594228745 -175.808221101761 1888.00001144409 25 28 21
-396.374255418777 -177.125245332718 1901.99995040894 26 29 22
-391.621887683868 -177.324861288071 1904.00004386902 26 29 22
-386.857628822327 -177.524402737617 1906.00001811981 27 30 23
-384.084135293961 -178.655356168747 1917.99998283386 29 32 25
-383.615016937256 -180.904299020767 1942.00003147125 30 33 26
-379.89741563797 -181.662932038307 1950.00004768372 29 32 25
-374.21441078186 -181.489884853363 1947.99995422363 26 29 22
-372.518330812454 -183.273389935493 1967.00000762939 25 28 21
-369.411379098892 -184.404820203781 1978.99997234344 15 18 11
-360.903769731522 -182.833880186081 1962.00001239777 11 14 7
-353.393822908401 -181.728601455688 1950.00004768372 12 15 6
-350.232303142548 -182.859838008881 1962.00001239777 13 16 7
-349.992990493774 -185.575678944588 1991.00005626678 15 18 9
-351.152509450912 -189.13072347641 2029.00004386902 18 21 12
-351.593196392059 -192.406445741653 2063.99989128113 17 20 11
-347.819447517395 -193.445101380348 2075.00004768372 18 21 12
-342.00593829155 -193.364948034287 2073.99988174438 21 24 15
-334.737300872803 -192.445486783981 2063.99989128113 19 22 13
-330.711275339127 -193.390712141991 2073.99988174438 21 24 15
-328.667283058167 -195.548161864281 2096.99988365173 24 27 18
-324.648946523666 -196.586683392525 2108.00004005432 24 27 18
-321.628659963608 -198.27800989151 2125.99992752075 24 27 18
-318.360686302185 -199.876099824905 2142.99988746643 28 31 24
-312.228322029114 -199.702069163322 2141.00003242493 28 31 24
-573.564231395721 -182.515874505043 1909.00003910065 31 34 27
-571.382820606232 -183.484837412834 1919.0000295639 24 27 20
-562.655925750732 -182.350382208824 1906.99994564056 22 25 18
-554.578185081482 -181.407153606415 1896.99995517731 14 17 10
-546.264469623566 -180.36824464798 1886.0000371933 16 19 10
-539.731323719025 -179.903090000153 1881.00004196167 14 15 7
-533.224821090698 -179.43799495697 1876.00004673004 15 16 8
-529.278576374054 -179.833829402924 1879.99999523163 15 16 8
-523.916065692902 -179.751455783844 1878.99994850159 15 16 8
-517.177820205688 -179.190784692764 1873.00002574921 17 19 8
-513.205587863922 -179.586887359619 1876.99997425079 18 21 10
-506.774723529816 -179.12195622921 1871.99997901917 14 20 10
-500.370383262634 -178.656995296478 1866.99998378754 14 20 10
-492.40055680275 -177.617818117142 1855.99994659424 11 17 7
-488.69127035141 -178.109839558601 1860.99994182587 11 17 7
-482.875049114227 -177.836254239082 1858.00004005432 17 20 11
-478.103160858154 -177.945554256439 1858.99996757507 17 20 11
-471.543848514557 -177.384793758392 1853.00004482269 18 21 12
-467.03040599823 -177.589878439903 1855.00001907349 19 22 13
-463.501691818237 -178.177937865257 1860.99994182587 20 23 14
-459.447056055069 -178.574651479721 1865.00000953674 21 22 14
-453.66445183754 -178.301081061363 1861.99998855591 21 22 14
-446.692734956741 -177.548691630363 1853.99997234344 22 23 15
-442.145764827728 -177.753895521164 1855.99994659424 23 24 16
-438.764810562134 -178.438037633896 1863.00003528595 26 27 19
-434.413850307465 -178.739115595818 1866.00005626678 27 28 20
-429.355591535568 -178.752839565277 1866.00005626678 28 29 21
-424.97855424881 -179.05393242836 1868.99995803833 28 29 21
-420.359820127487 -179.259270429611 1871.00005149841 28 29 21
-416.173279285431 -179.656222462654 1875 27 28 20
-412.402719259262 -180.244863033295 1881.00004196167 26 27 19
-407.732516527176 -180.450201034546 1883.00001621246 26 27 19
-401.767730712891 -180.080518126488 1878.99994850159 26 27 19
-397.512644529343 -180.477499961853 1883.00001621246 25 28 21
-395.527213811874 -181.928858160973 1898.00000190735 26 29 22
-390.168607234955 -181.846603751183 1896.99995517731 26 29 22
-385.626465082169 -182.147786021233 1899.99997615814 25 28 21
-382.869243621826 -183.31179022789 1911.99994087219 27 30 23
-382.613837718964 -185.722351074219 1937.00003623962 28 31 24
-377.740949392319 -185.927748680115 1939.00001049042 29 32 25
-373.048424720764 -186.229020357132 1942.00003147125 25 28 21
-371.368616819382 -188.064649701118 1960.99996566772 23 26 19
-371.264487504959 -190.763652324677 1988.9999628067 19 22 15
-367.880254983902 -191.832393407822 2000 10 13 6
-361.354410648346 -191.27045571804 1993.99995803833 8 11 4
-356.466770172119 -191.571727395058 1996.99997901917 11 14 5
-354.198634624481 -193.311989307404 2015.00010490417 13 16 7
-352.004498243332 -195.148289203644 2033.99991989136 15 18 9
-351.750195026398 -198.136135935783 2065.00005722046 19 22 13
-346.465140581131 -198.341518640518 2066.99991226196 20 23 14
-340.343803167343 -198.067009449005 2063.99989128113 20 23 14
-335.6973528862 -198.656037449837 2069.9999332428 21 24 15
-330.857813358307 -199.149027466774 2075.00004768372 22 25 16
-326.930433511734 -200.217843055725 2085.99996566772 24 27 18
-324.944108724594 -202.534466981888 2109.99989509583 24 27 18
-320.254415273666 -203.219383955002 2117.00010299683 24 27 18
-314.931273460388 -203.5201638937 2119.99988555908 24 27 20
-307.98676609993 -202.7647793293 2111.99998855591 26 29 22
-570.774257183075 -188.510313630104 1917.00005531311 15 18 11
-557.332098484039 -185.769990086555 1889.00005817413 25 28 21
-550.764560699463 -185.291424393654 1883.99994373322 27 30 23
-544.513463973999 -184.911265969276 1879.99999523163 13 16 7
-539.144217967987 -184.826254844666 1878.99994850159 15 16 8
-535.48538684845 -185.331553220749 1883.99994373322 16 17 9
-530.672788619995 -185.443475842476 1884.99999046326 15 16 8
-522.787272930145 -184.473261237144 1875 15 16 8
-517.164289951324 -184.290125966072 1873.00002574921 18 20 9
-511.551558971405 -184.107005596161 1871.00005149841 19 22 11
-506.761133670807 -184.219166636467 1871.99997901917 15 21 11
-501.428723335266 -184.134557843208 1871.00005149841 15 21 11
-496.897041797638 -184.345290064812 1873.00002574921 11 17 7
-490.778237581253 -183.965474367142 1868.99995803833 10 16 6
-484.160721302032 -183.38879942894 1863.00003528595 15 18 9
-478.346556425095 -183.107390999794 1860.00001430511 15 18 9
-472.547948360443 -182.825982570648 1856.99999332428 17 20 11
-466.513127088547 -182.446092367172 1853.00004482269 18 21 12
-461.246371269226 -182.36155807972 1851.99999809265 19 22 13
-457.216054201126 -182.769387960434 1855.99994659424 21 22 14
-452.188730239868 -182.783365249634 1855.99994659424 21 22 14
-447.4016726017 -182.895869016647 1856.99999332428 21 22 14
-441.655516624451 -182.614400982857 1853.99997234344 22 23 15
-439.692944288254 -183.908924460411 1866.99998378754 24 25 17
-435.563951730728 -184.317067265511 1871.00005149841 26 27 19
-430.261999368668 -184.232622385025 1870.00000476837 27 28 20
-424.737304449081 -184.049636125565 1868.00003051758 29 30 22
-420.570582151413 -184.457793831825 1871.99997901917 29 30 22
-415.937423706055 -184.668898582459 1873.99995326996 28 29 21
-412.608027458191 -185.471311211586 1881.99996948242 28 29 21
-406.635999679565 -185.091108083725 1878.00002098084 28 29 21
-402.823030948639 -185.696467757225 1883.99994373322 29 30 22
-398.132145404816 -185.907572507858 1886.0000371933 26 29 22
-394.054740667343 -186.414390802383 1891.00003242493 27 30 23
-388.920873403549 -186.428278684616 1891.00003242493 26 29 22
-385.612726211548 -187.329471111298 1899.99997615814 25 28 21
-382.855504751205 -188.526540994644 1911.99994087219 27 30 23
-380.427271127701 -189.92093205452 1925.99999904633 28 31 24
-377.142757177353 -190.9209638834 1935.99998950958 27 30 23
-373.418867588043 -191.723823547363 1944.00000572205 22 25 18
-370.407998561859 -192.921236157417 1955.9999704361 20 23 16
-373.863786458969 -197.57105410099 2003.00002098084 23 26 19
-371.177166700363 -199.064776301384 2017.99988746643 11 14 7
-364.964991807938 -198.684245347977 2013.99993896484 9 12 5
-360.558539628983 -199.29014146328 2019.99998092651 11 14 5
-357.700496912003 -200.784012675285 2035.00008583069 13 16 7
-354.759752750397 -202.277958393097 2049.99995231628 15 18 9
-350.714474916458 -203.179910778999 2059.00001525879 19 22 13
-345.613539218903 -203.489720821381 2062.00003623962 20 23 14
-341.319680213928 -204.29290831089 2069.9999332428 20 23 14
-335.197508335114 -204.010382294655 2066.99991226196 21 24 15
-329.887926578522 -204.221248626709 2069.00000572205 22 25 16
-325.350075960159 -204.925507307053 2075.99997520447 23 26 17
-323.852956295013 -207.604065537453 2102.9999256134 23 26 17
-322.056591510773 -210.1841121912 2128.99994850159 23 26 17
-314.324170351028 -208.913788199425 2115.9999370575 21 24 17
-308.994829654694 -209.222972393036 2118.99995803833 20 23 16
-558.553695678711 -189.583301544189 1876.00004673004 50 53 46
-556.43367767334 -190.607205033302 1886.0000371933 20 23 16
-551.628232002258 -190.721750259399 1886.99996471405 10 13 6
-545.658528804779 -190.432101488113 1883.99994373322 20 23 14
-541.713058948517 -190.850093960762 1888.00001144409 18 19 11
-535.75587272644 -190.560609102249 1884.99999046326 17 18 10
-528.688371181488 -189.866781234741 1878.00002098084 15 16 8
-522.215902805328 -189.375132322311 1873.00002574921 14 15 7
-514.941573143005 -188.580125570297 1865.00000953674 18 20 9
-510.170698165894 -188.695207238197 1866.00005626678 19 22 11
-503.228008747101 -188.001289963722 1858.99996757507 17 23 13
-500.610768795013 -188.925564289093 1868.00003051758 17 23 13
-496.882915496826 -189.445450901985 1873.00002574921 15 21 11
-492.339700460434 -189.661994576454 1875 13 19 9
-485.965758562088 -189.170479774475 1870.00000476837 12 15 6
-480.647027492523 -189.083606004715 1868.99995803833 12 15 6
-472.788363695145 -187.985017895699 1858.00004005432 13 16 7
-465.240210294724 -186.987429857254 1848.00004959106 14 17 8
-460.734158754349 -187.204033136368 1850.00002384186 15 18 9
-457.448244094849 -187.926664948463 1856.99999332428 18 19 11
-453.149169683456 -188.244625926018 1860.00001430511 19 20 12
-447.146594524384 -187.854096293449 1855.99994659424 20 21 13
-444.499909877777 -188.880652189255 1866.00005626678 21 22 14
-441.562712192535 -189.806088805199 1875 22 23 15
-436.713606119156 -189.921796321869 1876.00004673004 25 26 18
-431.398212909698 -189.835011959076 1875 26 27 19
-424.950480461121 -189.241901040077 1868.99995803833 27 28 20
-421.005696058273 -189.76254761219 1873.99995326996 27 28 20
-415.701299905777 -189.675658941269 1873.00002574921 29 30 22
-411.278486251831 -189.993813633919 1876.00004673004 29 30 22
-407.48792886734 -190.615803003311 1881.99996948242 30 31 23
-404.305517673492 -191.541746258736 1891.00003242493 30 31 23
-399.806797504425 -191.859990358353 1894.00005340576 29 32 25
-393.207103013992 -191.165149211884 1886.99996471405 29 32 25
-388.701170682907 -191.483274102211 1889.99998569489 28 31 24
-386.613458395004 -193.017244338989 1904.99997138977 26 29 22
-382.240772247314 -193.43675673008 1909.00003910065 26 29 22
-379.42561507225 -194.666966795921 1921.0000038147 27 30 23
-377.51829624176 -196.403965353966 1937.99996376038 25 28 21
-374.941468238831 -197.837099432945 1952.00002193451 18 21 14
-375.50675868988 -200.993448495865 1983.00004005432 16 19 12
-375.342637300491 -203.846007585526 2010.99991798401 21 24 17
-371.898621320724 -204.975605010986 2022.0000743866 11 14 7
-366.400569677353 -204.990044236183 2022.0000743866 9 12 5
-361.079931259155 -205.105736851692 2023.00000190735 11 14 5
-358.037918806076 -206.539481878281 2036.99994087219 13 16 7
-354.74568605423 -207.87188410759 2049.99995231628 15 18 9
-349.678516387939 -208.190277218819 2052.99997329712 19 22 13
-345.767229795456 -209.218487143517 2062.99996376038 20 23 14
-342.789828777313 -210.855215787888 2078.9999961853 20 23 14
-338.264942169189 -211.579173803329 2085.99996566772 21 24 15
-330.671578645706 -210.375800728798 2073.99988174438 21 24 15
-328.000754117966 -212.316825985909 2092.99993515015 21 24 15
-326.919347047806 -215.373858809471 2122.99990653992 21 24 15
-323.404520750046 -216.90933406353 2138.00001144409 21 24 15
-319.064289331436 -217.937499284744 2148.00000190735 27 30 23
-310.87738275528 -216.327488422394 2131.99996948242 25 28 21
-301.632016897202 -213.905349373817 2108.00004005432 28 31 24
-558.485329151154 -196.465641260147 1893.00000667572 20 23 16
-552.783846855164 -196.271851658821 1891.00003242493 21 24 17
-547.672152519226 -196.285754442215 1891.00003242493 13 16 7
-544.855237007141 -197.13020324707 1899.00004863739 17 18 10
-537.162959575653 -196.210011839867 1889.99998569489 17 18 10
-530.363440513611 -195.601284503937 1883.99994373322 14 15 7
-519.971489906311 -193.642750382423 1865.00000953674 14 15 7
-517.964720726013 -194.79912519455 1876.00004673004 16 18 7
-509.883165359497 -193.671151995659 1865.00000953674 17 20 9
-505.108773708344 -193.789303302765 1866.00005626678 15 21 11
-501.668393611908 -194.426834583282 1871.99997901917 17 23 13
-497.929662466049 -194.960668683052 1876.99997425079 19 25 15
-490.487277507782 -194.04037296772 1868.00003051758 17 23 13
-484.132260084152 -193.53549182415 1863.00003528595 14 17 8
-476.518005132675 -192.511141300201 1853.00004482269 13 16 7
-471.501708030701 -192.525655031204 1853.00004482269 13 16 7
-466.232866048813 -192.436277866364 1851.99999809265 13 16 7
-462.463051080704 -192.970409989357 1856.99999332428 14 17 8
-459.897071123123 -194.024235010147 1866.99998378754 17 18 10
-453.378260135651 -193.415388464928 1860.99994182587 18 19 11
-448.818504810333 -193.637922406197 1863.00003528595 19 20 12
-444.723546504974 -194.068402051926 1866.99998378754 20 21 13
-441.783607006073 -195.018708705902 1876.00004673004 21 22 14
-435.767889022827 -194.617629051209 1871.99997901917 24 25 17
-429.312944412231 -194.00854408741 1866.00005626678 25 26 18
-424.7085750103 -194.231182336807 1868.00003051758 26 27 19
-420.317232608795 -194.557800889015 1871.00005149841 26 27 19
-416.35262966156 -195.092424750328 1876.00004673004 29 30 22
-412.579298019409 -195.731103420258 1881.99996948242 30 31 23
-410.288125276566 -197.097897529602 1894.99998092651 30 31 23
-406.642735004425 -197.840735316277 1901.99995040894 30 31 23
-401.05876326561 -197.64743745327 1899.99997615814 29 32 25
-394.234538078308 -196.829840540886 1891.99995994568 29 32 25
-388.892471790314 -196.740359067917 1891.00003242493 27 30 23
-383.757889270782 -196.754842996597 1891.00003242493 25 28 21
-380.424410104752 -197.705745697021 1899.99997615814 25 28 21
-376.84366106987 -198.552668094635 1907.99999237061 26 29 22
-376.919478178024 -201.376959681511 1934.99994277954 27 30 23
-378.576397895813 -205.138295888901 1970.99995613098 20 23 16
-379.279285669327 -208.483725786209 2003.00002098084 16 19 12
-378.127574920654 -210.892707109451 2026.00002288818 20 23 16
-372.619658708572 -210.907608270645 2026.00002288818 10 13 6
-365.842372179031 -210.193634033203 2019.00005340576 9 12 5
-360.708475112915 -210.416480898857 2020.99990844727 11 14 5
-357.320487499237 -211.680501699448 2032.99999237061 13 16 7
-354.558259248734 -213.36105465889 2049.00002479553 15 18 9
-349.323630332947 -213.583827018738 2051.00011825562 19 22 13
-345.920622348785 -214.952036738396 2063.99989128113 20 23 14
-344.918996095657 -217.882558703423 2092.00000762939 20 23 14
-337.277889251709 -216.647028923035 2079.99992370605 21 24 15
-331.454873085022 -216.557011008263 2078.9999961853 20 23 14
-327.360093593597 -217.612683773041 2088.99998664856 20 23 14
-325.211644172668 -220.022648572922 2111.99998855591 21 24 15
-324.147015810013 -223.266243934631 2142.99988746643 21 24 15
-319.050580263138 -223.801106214523 2148.00000190735 26 29 22
-314.509183168411 -224.752649664879 2157.00006484985 23 26 19
-306.340634822845 -223.099038004875 2141.00003242493 38 41 34
-555.108428001404 -202.269405126572 1899.00004863739 13 16 9
-548.237204551697 -201.644510030746 1893.00000667572 17 20 11
-546.562373638153 -202.93715596199 1904.99997138977 17 18 10
-539.990782737732 -202.418968081474 1899.99997615814 17 18 10
-534.290194511414 -202.220439910889 1898.00000190735 17 18 10
-527.484714984894 -201.595723628998 1891.99995994568 15 16 8
-517.950296401978 -199.905455112457 1876.00004673004 14 16 5
-509.048581123352 -198.428124189377 1861.99998855591 14 17 6
-502.658128738403 -197.909832000732 1856.99999332428 12 18 8
-498.974055051804 -198.457345366478 1861.99998855591 12 18 8
-494.466423988342 -198.685213923454 1863.9999628067 16 22 12
-490.735113620758 -199.23298060894 1868.99995803833 18 24 14
-483.597785234451 -198.394984006882 1860.99994182587 20 23 14
-478.817731142044 -198.516458272934 1861.99998855591 21 24 15
-472.759246826172 -198.104843497276 1858.00004005432 18 21 12
-469.490796327591 -198.866158723831 1865.00000953674 16 19 10
-463.693410158157 -198.561176657677 1861.99998855591 15 18 9
-459.882229566574 -199.109390377998 1866.99998378754 16 17 9
-453.607052564621 -198.591127991676 1861.99998855591 16 17 9
-448.562741279602 -198.606103658676 1861.99998855591 16 17 9
-443.755894899368 -198.727786540985 1863.00003528595 17 18 10
-440.355747938156 -199.489519000053 1870.00000476837 19 20 12
-435.520231723785 -199.611261487007 1871.00005149841 21 22 14
-428.607910871506 -198.772743344307 1863.00003528595 22 23 15
-424.239039421082 -199.107795953751 1866.00005626678 25 26 18
-419.853121042252 -199.442893266678 1868.99995803833 26 27 19
-415.893942117691 -199.991449713707 1873.99995326996 28 29 21
-411.906749010086 -200.540035963058 1878.99994850159 29 30 22
-410.056680440903 -202.156037092209 1894.00005340576 29 30 22
-406.627833843231 -203.025013208389 1901.99995040894 28 29 21
-400.832861661911 -202.719837427139 1899.00004863739 25 28 21
-395.470023155212 -202.628046274185 1898.00000190735 26 29 22
-387.438237667084 -201.148211956024 1883.99994373322 24 27 20
-383.946239948273 -202.017158269882 1891.99995994568 22 25 18
-378.207445144653 -201.711550354958 1889.00005817413 23 26 19
-376.434087753296 -203.541591763496 1906.00001811981 24 27 20
-373.203963041306 -204.624265432358 1916.00000858307 29 32 25
-375.872611999512 -209.017962217331 1957.00001716614 24 27 20
-379.074931144714 -213.839456439018 2002.00009346008 20 23 16
-379.232197999954 -217.059195041656 2032.00006484985 19 22 15
-373.340278863907 -216.860815882683 2029.99997138977 8 11 4
-365.646332502365 -215.593919157982 2017.99988746643 10 13 6
-360.693752765656 -215.929374098778 2020.99990844727 11 14 5
-355.899751186371 -216.371670365334 2025.00009536743 13 16 7
-352.640241384506 -217.775568366051 2038.00010681152 15 18 9
-348.287165164948 -218.538329005241 2045.00007629395 19 22 13
-346.744030714035 -221.117869019508 2069.00000572205 20 23 14
-345.234155654907 -223.804518580437 2094.00010108948 20 23 14
-340.830773115158 -224.674299359322 2101.99999809265 20 23 14
-333.672553300858 -223.726823925972 2092.99993515015 20 23 14
-326.562494039536 -222.779139876366 2084.00011062622 21 24 15
-323.349833488464 -224.50378537178 2099.99990463257 22 25 16
-321.107804775238 -226.97688639164 2122.99990653992 23 26 17
-318.145394325256 -229.022458195686 2141.99995994568 24 27 20
-313.62047791481 -229.998841881752 2151.00002288818 28 31 24
-302.893191576004 -226.377055048943 2117.00010299683 26 29 22
-551.878750324249 -206.234708428383 1888.00001144409 15 18 9
-547.064483165741 -206.358358263969 1889.00005817413 15 18 9
-543.678879737854 -207.028388977051 1894.99998092651 17 18 10
-538.839399814606 -207.152336835861 1896.00002765656 18 19 11
-536.527395248413 -208.259791135788 1906.00001811981 19 20 12
-526.354789733887 -206.307843327522 1888.00001144409 17 18 10
-514.070332050323 -203.481435775757 1861.99998855591 15 17 6
-504.933178424835 -201.856896281242 1847.00000286102 18 21 12
-499.936670064926 -201.871648430824 1847.00000286102 13 19 9
-496.011525392532 -202.323660254478 1850.99995136261 12 15 6
-494.451552629471 -203.759640455246 1863.9999628067 15 18 9
-489.407360553741 -203.774705529213 1863.9999628067 19 22 13
-484.362423419952 -203.789800405502 1863.9999628067 22 25 16
-477.516978979111 -203.039616346359 1856.99999332428 23 26 17
-474.779665470123 -204.038873314857 1866.00005626678 22 25 16
-470.2308177948 -204.272821545601 1868.00003051758 17 20 11
-464.674443006516 -204.069405794144 1866.00005626678 15 18 9
-455.67974448204 -202.334761619568 1850.00002384186 16 17 9
-452.130287885666 -203.006222844124 1855.99994659424 16 17 9
-447.584062814713 -203.240245580673 1858.00004005432 14 15 7
-443.50254535675 -203.693062067032 1861.99998855591 15 16 8
-439.163148403168 -204.036563634872 1865.00000953674 18 19 11
-435.039460659027 -204.489499330521 1868.99995803833 19 20 12
-427.902668714523 -203.520074486732 1860.00001430511 20 21 13
-424.905925989151 -204.520165920258 1868.99995803833 23 24 16
-419.613361358643 -204.426020383835 1868.00003051758 24 25 17
-415.656864643097 -204.988494515419 1873.00002574921 27 28 20
-409.699589014053 -204.565957188606 1868.99995803833 27 28 22
-407.443523406982 -206.004112958908 1881.99996948242 27 28 20
-403.619647026062 -206.676170229912 1888.00001144409 25 26 20
-399.551242589951 -207.23882317543 1893.00000667572 24 27 20
-393.371403217316 -206.706643104553 1888.00001144409 24 27 20
-388.862818479538 -207.050263881683 1891.00003242493 23 26 19
-383.728384971619 -207.065343856812 1891.00003242493 21 24 17
-378.392815589905 -206.970885396004 1889.99998569489 22 25 18
-375.629216432571 -208.30000936985 1901.99995040894 23 26 19
-373.968124389648 -210.286408662796 1919.99995708466 28 31 24
-375.665426254272 -214.244574308395 1955.9999704361 25 28 21
-380.763590335846 -220.284461975098 2010.99991798401 20 23 16
-379.589974880219 -222.819596529007 2033.99991989136 19 22 15
-374.060481786728 -222.835198044777 2033.99991989136 8 11 4
-367.261856794357 -222.083762288094 2026.99995040894 10 13 6
-362.641870975494 -222.646951675415 2032.00006484985 11 14 5
-358.169466257095 -223.31964969635 2038.00010681152 13 16 7
-353.144317865372 -223.663538694382 2040.99988937378 15 18 9
-349.975317716599 -225.212901830673 2055.0000667572 19 22 13
-346.538126468658 -230.394318699837 2101.99999809265 20 23 14
-342.437267303467 -231.505498290062 2111.99998855591 20 23 14
-334.933310747147 -230.314671993256 2101.0000705719 20 23 14
-326.548099517822 -228.465721011162 2084.00011062622 21 24 15
-319.794207811356 -227.712720632553 2076.99990272522 22 25 16
-320.034772157669 -232.003018260002 2115.9999370575 23 26 17
-316.348910331726 -233.5524559021 2130.00011444092 25 28 21
-309.961408376694 -233.128055930138 2125.99992752075 22 25 18
-550.987303256989 -211.035385727882 1884.99999046326 20 23 12
-546.760201454163 -211.385920643806 1888.00001144409 15 18 7
-541.368901729584 -211.288750171661 1886.99996471405 17 20 11
-536.550998687744 -211.415633559227 1888.00001144409 16 19 10
-534.541964530945 -212.662503123283 1899.00004863739 15 18 9
-527.454853057861 -211.893707513809 1891.99995994568 15 18 9
-518.196582794189 -210.228905081749 1876.99997425079 14 17 8
-503.278076648712 -206.2117010355 1840.99996089935 15 16 8
-498.29775094986 -206.226676702499 1840.99996089935 15 16 8
-493.316948413849 -206.241726875305 1840.99996089935 14 15 7
-492.844849824905 -208.161428570747 1858.00004005432 12 13 5
-488.079369068146 -208.288758993149 1858.99996757507 14 15 7
-484.607011079788 -208.976432681084 1865.00000953674 21 22 14
-480.587303638458 -209.440127015114 1868.99995803833 23 24 16
-476.290881633759 -209.791868925095 1871.99997901917 23 24 16
-470.718860626221 -209.583312273026 1870.00000476837 24 25 17
-462.915927171707 -208.365976810455 1858.99996757507 23 24 16
-456.157028675079 -207.596838474274 1851.99999809265 20 21 13
-450.409740209579 -207.276046276093 1848.99997711182 19 20 12
-446.845978498459 -207.964166998863 1855.00001907349 19 22 13
-443.248897790909 -208.652406930923 1860.99994182587 21 24 15
-440.560519695282 -209.789276123047 1871.00005149841 20 23 16
-435.955017805099 -210.029199719429 1873.00002574921 20 23 16
-429.727613925934 -209.48414504528 1868.00003051758 21 24 17
-424.890488386154 -209.611892700195 1868.99995803833 22 25 18
-419.822543859482 -209.627494215965 1868.99995803833 23 26 19
-413.644194602966 -209.082216024399 1863.9999628067 25 27 22
-407.930642366409 -208.761185407639 1860.99994182587 25 27 22
-403.964310884476 -209.337517619133 1866.00005626678 26 28 23
-402.962893247604 -211.484625935555 1884.99999046326 27 29 24
-398.691624403 -211.948975920677 1889.00005817413 28 31 24
-395.856201648712 -213.19879591465 1899.99997615814 28 31 24
-390.492618083954 -213.102117180824 1899.00004863739 30 33 26
-387.16271519661 -214.127615094185 1907.99999237061 27 30 23
-380.980283021927 -213.581904768944 1902.99999713898 22 25 18
-377.193927764893 -214.38293159008 1909.9999666214 23 26 19
-374.731987714767 -215.969771146774 1924.00002479553 21 24 17
-375.65004825592 -219.57740187645 1955.9999704361 24 27 20
