ply
format ascii 1.0
comment KinectMotionCapture
element vertex 752
property float x
property float y
property float z
property uchar red
property uchar green
property uchar blue
end_header
-1302.97252969646 522.595032514044 2751.03362903123 115 108 98
-1309.1446748086 520.959179887296 2742.70665990779 115 108 98
-1313.32132915144 519.861793227906 2734.74154717525 113 105 94
-1314.50480624676 519.572160829516 2727.28433939052 98 88 76
-1313.69352280664 519.820683086629 2720.15078887643 103 91 75
-1310.88766060566 520.607614836206 2713.32474008896 110 93 73
-1309.07940818855 521.125168078107 2706.32756899647 108 90 68
-1306.27433953443 521.911768524829 2699.47014992118 125 104 77
-1301.47561935541 523.236408434041 2692.89292045811 138 117 90
-1294.68342840409 525.099222876679 2686.57963640936 144 118 91
-1285.89818199385 527.500041265458 2680.5138827262 148 118 92
-1279.10810548494 529.362352802406 2674.11741896217 148 118 94
-1264.34419482193 533.377346309871 2668.78413173641 145 114 93
-1256.55995050613 535.507939945126 2662.42308865356 142 111 90
-1251.7667027365 536.830886002308 2655.62083495788 124 97 78
-1243.98450146505 538.960875701968 2649.17929416486 122 96 81
-1233.21349160006 541.897816716912 2643.07405404705 120 99 82
-1224.43733062309 544.296033112375 2636.65974112633 114 101 85
-1215.66219349208 546.693860028087 2630.19566977681 122 110 98
-1311.00503198925 512.96870228174 2778.75170755673 162 166 165
-1307.19933894274 514.014620362811 2772.17242954046 154 156 153
-1305.39007624715 514.527397834177 2765.21894056423 162 163 158
-1307.57207022092 513.974207357687 2757.56140760436 163 162 157
-1312.7472925085 512.621291577494 2749.40259472528 166 165 160
-1316.92399660932 511.5349983305 2741.43812374205 171 170 165
-1320.10263088046 510.715145096964 2733.65960011969 177 176 171
-1316.29815025155 511.760800417014 2727.03265449064 187 186 181
-1316.48405032878 511.740297726924 2719.74502126963 187 184 177
-1314.67508310493 512.252699575337 2712.77025613078 188 185 176
-1315.85840886118 511.965508229683 2705.32158421556 188 184 175
-1313.05263416958 512.744074033932 2698.48313255067 188 184 173
-1310.24728903665 513.52240543934 2691.62764056551 189 185 174
-1304.45123740595 515.099844517746 2685.19285360516 194 184 172
-1297.65881861925 516.943513520894 2678.86791725378 137 125 109
-1283.88831966969 520.652014032139 2673.48773217842 127 114 98
-1269.12317702769 524.626339381571 2668.16825341171 130 113 95
-1252.36635826328 529.133079801227 2663.03639485682 133 115 95
-1246.57632228202 530.708980496888 2656.35551889156 117 94 76
-1237.79700498224 533.08361257755 2650.02991819114 114 93 74
-1231.01230900663 534.925045491467 2643.40074668922 107 86 69
-1223.23186942236 537.032542324079 2636.85687716164 111 95 82
-1210.47021008903 540.471492386726 2630.87580920097 103 89 80
-1308.62077821035 506.231209020659 2786.48607967828 212 216 217
-1308.8069662826 506.211169829542 2779.18768828376 186 190 191
-1310.98907839922 505.663469652591 2771.53143295264 194 198 199
-1309.17939210619 506.17095818322 2764.58882077465 207 207 205
-1312.35931362408 505.359344972003 2756.76883459093 208 209 204
-1318.53207843157 503.75651789894 2748.45310592282 207 208 203
-1321.71099447865 502.944932296472 2740.67244666611 203 204 199
-1323.89190625914 502.39724845263 2733.07244695448 199 200 195
-1321.08438706719 503.168296158971 2726.29410405224 192 193 188
-1321.26994674753 503.147944111267 2719.01993646873 192 193 188
-1320.45811988106 503.391089291412 2711.90185144804 189 190 185
-1320.64378207915 503.370529893419 2704.62345447923 188 189 184
-1320.82945838992 503.34984670013 2697.34437301586 187 188 183
-1319.02052976046 503.856416425845 2690.36183739068 185 186 181
-1314.22052836849 505.153968724907 2683.80559757824 188 185 176
-1308.42394802182 506.715106478343 2677.36464677387 192 188 177
-1292.65767162229 510.913116851561 2672.29563247904 179 171 158
-1275.89671719207 515.374323501901 2667.27651941625 132 119 102
-1248.17190265831 522.735765443565 2663.65000984883 116 101 82
-1234.40702603013 526.404773939421 2658.01700628078 117 98 81
-1225.62787282857 528.754994598482 2651.65878094908 110 89 72
-1222.83027053432 529.522681915852 2644.48924320385 111 92 75
-1221.029904132 530.026308788218 2637.17823105963 120 104 91
-1211.25714123407 532.639021170057 2630.82739625754 105 91 82
-1309.41675624421 498.678842064713 2786.37551257398 213 217 218
-1314.59384700786 497.353217662806 2778.17297655708 222 226 227
-1316.77569738777 496.811108920144 2770.53295445494 236 240 241
-1319.95548585975 496.00781375833 2762.72709944759 239 241 240
-1326.12878695052 494.421285995603 2754.41723670318 239 239 237
-1331.30321107084 493.095954531976 2746.30991209212 237 237 235
-1332.48595188476 492.814857665208 2738.89997031964 234 234 232
-1328.6796793413 493.839083090939 2732.3200491488 228 228 226
-1325.87159285909 494.602179254447 2725.555340161 226 226 224
-1325.05902575582 494.842943822856 2718.45430525278 222 222 220
-1323.24937970324 495.344659811604 2711.50392222737 218 218 216
-1325.42964563431 494.802012589528 2703.92524769723 218 218 216
-1323.62031020083 495.303465825485 2696.96244247764 217 217 215
-1320.81376033756 496.065672744907 2690.13672229644 213 213 211
-1316.01301171295 497.34980278967 2683.58595035318 186 183 176
-1311.21321088867 498.633617348684 2677.00712113362 187 183 172
-1298.43693980245 502.005214864338 2671.52481311599 181 175 163
-1283.66827275624 505.898375586411 2666.2466071613 112 100 86
-1250.95596739759 514.488807246551 2663.31797710094 119 103 88
-1234.19904817599 518.902844979721 2658.09050775629 113 96 80
-1225.41922310984 521.228636698073 2651.73231130507 109 90 75
-1227.60543444913 520.683383180016 2643.92779597372 111 92 77
-1221.81753554796 522.225524389919 2637.12714717947 91 77 66
-1296.86088604155 494.530489295401 2803.31299291959 227 231 232
-1301.04153497069 493.476813374182 2795.23869114071 234 238 239
-1308.21637556626 491.647949815269 2786.63315536436 231 235 236
-1314.39208690073 490.077585710863 2778.24644723837 233 237 238
-1320.56675028098 488.50744371792 2769.891610491 237 241 242
-1326.74083397814 486.937212841639 2761.5686591196 241 243 242
-1334.91027610823 484.850391893062 2752.93116174853 240 242 241
-1344.07628363906 482.505277045457 2744.16593719357 237 239 238
-1348.25191923311 481.451915492872 2736.28791146207 236 238 237
-1345.44199829307 482.207217412462 2729.58653058187 236 238 237
-1337.643587688 484.254017859526 2723.67985969841 236 238 237
-1333.83725971784 485.267214536368 2717.09026297434 228 230 229
-1332.02660345504 485.76362083553 2710.16433654013 228 230 229
-1333.20916025779 485.484913700691 2702.76415247157 226 228 227
-1329.40405993355 486.497543467055 2696.1259663872 220 222 221
-1325.59929371333 487.510147439748 2689.4653698764 217 219 218
-1317.80600895972 489.555580104002 2683.36621912931 214 215 210
-1312.00825729887 491.084199274679 2676.93613139102 192 191 186
-1301.22544945128 493.903939919361 2671.17548136086 176 173 166
-1288.44981559454 497.239776490203 2665.62987085921 183 174 165
-1260.71989433155 504.449349355848 2662.03988464383 172 162 152
-1235.98512955504 510.883351412586 2657.89919407811 97 85 73
-1224.21369181199 513.959579664768 2651.93553516174 99 82 72
-1220.41893535397 514.969155504335 2644.889795881 101 87 78
-1215.62779762094 516.236862455883 2637.94576314805 101 90 84
-1314.44583790418 482.624929643276 2807.25174557131 224 228 229
-1302.64904566741 485.673577087065 2802.24941395479 225 229 230
-1306.82933972908 484.630862224855 2794.19142597858 222 226 227
-1316.99948989519 482.054119037721 2785.04961066517 214 218 219
-1325.1717721855 479.988869043982 2776.32427122398 219 223 224
-1331.34636001159 478.43500919277 2767.99919469349 219 223 224
-1340.5144690457 476.114362808713 2759.17810846186 219 221 220
-1345.68918116118 474.816320223744 2751.09815348675 221 223 222
-1350.8632180063 473.518337376863 2743.0446545585 229 231 230
-1356.0363383034 472.220421619281 2735.0177247493 233 235 234
-1357.21720891411 471.94504744639 2727.67769679642 237 239 238
-1351.41337312636 473.458958068122 2721.47892969545 238 240 239
-1348.60347070046 474.205852391832 2714.76779778981 240 242 241
-1345.79400086016 474.952511510846 2708.03950639575 240 242 241
-1345.97787085115 474.932309211286 2700.83153851348 236 238 237
-1344.16654323531 475.423012376909 2693.92572729627 226 228 227
-1337.36819044916 477.191676872769 2687.75217813668 224 226 225
-1331.56816831379 478.704335250788 2681.3936909379 210 212 209
-1319.78485559945 481.750354366899 2675.86171079367 228 229 224
-1308.00345689984 484.795740744436 2670.26356972493 190 189 185
-1294.22922746441 488.352002649231 2664.875047658 167 160 154
-1270.48530460705 494.463333644567 2660.76120015694 185 176 169
-1241.75949144421 501.851799094444 2657.17803857313 109 99 90
-1221.01388194015 507.195181519029 2652.39828960264 98 85 77
-1219.21276438154 507.682926400664 2645.09025760174 85 72 64
-1313.05980125989 475.623237875844 2814.79681990278 230 234 235
-1309.25061944089 476.615410548872 2808.28686273306 233 237 238
-1303.44518443903 478.113541783618 2802.13365576881 220 224 225
-1311.61980503078 476.069819431936 2793.33071734285 202 206 207
-1322.78875717719 473.267374303589 2784.01808109101 212 216 217
-1332.95787607629 470.718034279332 2774.94599467081 224 228 229
-1339.13236540724 469.180585850765 2766.64238899299 227 231 232
-1345.30604036172 467.643294213341 2758.37078031895 235 236 238
-1350.4807842263 466.358927519081 2750.30426859703 235 236 238
-1356.65265975255 464.821697942595 2742.09372965982 236 237 239
-1365.81813277699 462.52569780469 2733.4114558473 238 239 241
-1367.99653730481 462.000168282483 2725.93323586012 241 242 244
-1364.18692878252 462.992154460824 2719.43975548973 242 243 245
-1362.37390943137 463.478083221964 2712.60426154894 238 239 241
-1364.55198575099 462.952284099106 2705.12925481078 235 236 238
-1366.73004263456 462.426366977298 2697.66420579063 236 237 239
-1362.92198752464 463.417636362532 2691.11856783419 240 241 243
-1360.1119992775 464.155850772161 2684.40147029668 238 239 241
-1353.31251218447 465.905311061798 2678.25163378228 237 241 242
-1344.51906784761 468.160244977501 2672.34964395903 233 237 238
-1328.74542359137 472.184721183915 2667.38226340461 237 238 240
-1310.97958947157 476.714497449442 2662.60279262392 241 240 238
-1299.19937920133 479.726740148618 2656.9132917014 208 204 201
-1267.47790857831 487.795116243014 2653.80702652662 64 59 55
-1235.76113655722 495.862718452978 2650.52561756224 75 67 64
-1288.69879034412 474.372226424388 2826.89579514338 224 228 229
-1291.88261947147 473.601286135545 2818.96675749725 242 246 247
-1306.0522219497 470.077508393276 2808.93761039526 224 228 229
-1308.23588824602 469.557180133971 2801.25932698287 220 224 225
-1319.40661882475 466.784451118091 2791.90909030809 211 215 216
-1326.58196697945 465.013007565418 2783.35469533127 214 218 219
-1335.75292478944 462.741118471765 2774.47462089332 231 235 236
-1342.92599072076 460.969865513839 2766.00030296994 234 238 239
-1348.10158097614 459.699137886633 2757.91535594337 238 239 241
-1354.27468786368 458.178202628084 2749.68351151312 240 241 243
-1360.44697859607 456.657304596117 2741.48360522478 241 242 244
-1371.60895941601 453.885344519743 2732.47616506207 239 240 242
-1371.79089635405 453.865836911037 2725.34449349123 241 242 244
-1372.97076132135 453.595892107276 2718.04959920521 243 244 246
-1370.15888581669 454.326746463114 2711.39835957038 237 238 240
-1378.32393309992 452.305255911463 2703.00277478832 234 235 237
-1381.49887697447 451.534760520191 2695.4214812982 234 235 237
-1380.68239578908 451.764803395 2688.46191014973 232 233 235
-1377.87093453689 452.495007293599 2681.79378168244 233 234 236
-1375.06014398844 453.224909458401 2675.1084405997 237 241 244
-1372.24954866418 453.954642746146 2668.40596336354 234 238 241
-1365.44947009376 455.684757448177 2662.24914724402 240 241 243
-1354.66122159187 458.414957671236 2656.60499522233 236 236 236
-1349.85831354924 459.644081839666 2650.08888453053 240 239 237
-1340.06988517236 462.123461176036 2644.20714815885 254 250 247
-1300.36803500106 472.105645442809 2642.16339191459 255 250 247
-1257.3378718118 474.72344611167 2840.52930368885 237 241 242
-1281.50241820828 468.761339197701 2828.35462669791 242 246 247
-1287.68366427805 467.255942676741 2819.82135913022 232 236 237
-1303.85234248109 463.274964376816 2809.39614927183 225 229 230
-1311.02995486377 461.522367329449 2800.76417155948 203 207 208
-1328.19347011761 457.294295540967 2790.30013534683 221 225 226
-1334.36993974841 455.789510434447 2781.95420405027 225 229 230
-1339.54688152009 454.532350549839 2773.82167829332 225 229 230
-1341.72792704124 454.017761615601 2766.25198629878 229 233 234
-1348.90063835042 452.265569087735 2757.81199385897 231 235 236
-1360.06594454758 449.523450319236 2748.71595252123 233 237 238
-1368.23466900202 447.523911212048 2740.19089613194 237 241 242
-1378.39879962988 445.029376180409 2731.37261401233 235 239 240
-1378.58025048062 445.009877943878 2724.25995048029 231 235 236
-1379.75970912904 444.74280219003 2716.98401710852 231 235 236
-1377.94528256223 445.217942048869 2710.19193773824 231 235 236
-1384.11444045173 443.713302964483 2702.13193140847 233 237 238
-1389.28475959993 442.455985601137 2694.25807163095 234 238 239
-1388.46788915535 442.683368096274 2687.32018235733 231 235 236
-1389.64646132725 442.415688081015 2680.07824674973 229 233 234
-1385.83680393839 443.384996933138 2673.5716518756 222 227 231
-1391.00573200229 442.12726966838 2665.75172037077 221 229 232
-1389.19170046549 442.601284035155 2658.94299339304 236 240 243
-1392.36502718649 441.838061347791 2651.43271273521 235 236 238
-1388.55616618716 442.806501104098 2644.88473424322 239 239 239
-1377.76705245718 445.506321960396 2639.24177930866 235 235 235
-1364.98493241683 448.700619867401 2633.79769801595 234 234 232
-1356.19321985888 450.904916809124 2627.77365419078 236 236 236
-1255.94329798591 467.559755047202 2848.23409828317 237 241 242
-1269.12125220727 464.35616531445 2838.19763168987 231 235 236
-1286.29352825839 460.173416277502 2827.43985725031 226 230 231
-1290.47684847647 459.174069786567 2819.31016221534 214 218 219
-1301.65190555543 456.460928211016 2809.85481132769 190 194 195
-1311.82669652993 453.992784368704 2800.64822275844 194 198 199
-1326.99404559141 450.300660642482 2790.56041248845 216 220 221
-1337.16575547232 447.832796903524 2781.47454448391 222 226 227
-1342.34286671837 446.58927624324 2773.35003983028 222 226 227
-1343.52537664796 446.324986159184 2765.96716764597 226 230 231
-1349.70006388291 444.836640644255 2757.70855012112 232 236 237
-1362.86257976413 441.634883448399 2748.26811019051 233 237 238
-1371.03193870445 439.65701922165 2739.75085350058 234 238 239
-1381.19661575828 437.189767421364 2730.94050979372 233 237 238
-1384.37250194865 436.435886511637 2723.34022668765 229 233 234
-1389.54412245526 435.192507223365 2715.4304709469 228 232 233
-1388.72685004589 435.417535951949 2708.50576455642 228 232 233
-1391.90168118002 434.663515794876 2700.94656719055 229 233 234
-1393.08015933715 434.398861761483 2693.71155507177 231 235 236
-1396.25432815904 433.644597797431 2686.17798138133 227 231 232
-1397.43266059952 433.379559289333 2678.95757634307 225 229 230
-1396.61509866896 433.604008022437 2672.03423790108 219 224 227
-1397.79332361453 433.338638018249 2664.81767820155 217 225 228
-1400.96621044146 432.583878226328 2657.32435214503 226 231 234
-1403.1414924712 432.073464535684 2649.98440041543 226 230 231
-1400.32918065513 432.78642933527 2643.3310049144 238 240 239
-1387.54356947223 435.945885330435 2637.98595900495 237 237 237
-1381.74087978201 437.392092571388 2631.66037897779 233 233 231
-1375.93927788757 438.837947055817 2625.30123014836 230 232 231
-1378.11550774695 438.326323856444 2617.91361048755 230 232 231
-1370.32076030446 440.260870612841 2611.75256594123 233 234 236
-1356.54469835157 443.662834393263 2606.26066677406 233 237 238
-1257.54618873231 459.663518815053 2855.32552858198 246 250 251
-1275.72224457885 455.28434918067 2844.24314778446 235 239 240
-1282.9046448305 453.56918975308 2835.46424119934 224 228 229
-1291.0851355889 451.612012560247 2826.52480185172 217 221 222
-1292.27148779839 451.349940580596 2818.99414168813 201 205 206
-1302.44833300726 448.90885860528 2809.73632347219 206 210 211
-1313.62264339683 446.225805306207 2800.3424622665 214 218 219
-1328.79074707189 442.574536845326 2790.25970153281 218 222 223
-1337.96437532693 440.375997174665 2781.3633386005 222 226 227
-1346.13814935874 438.419704744573 2772.69668697406 229 233 234
-1349.31756983797 437.673945783008 2764.96699233853 231 235 236
-1358.4877593176 435.475784576061 2756.19611023907 229 233 232
-1368.65537486685 433.035539284461 2747.29991746072 228 232 231
-1374.82798760732 431.563711126093 2739.14011343204 225 229 228
-1382.99658307119 429.607657016222 2730.67611407009 224 228 227
-1389.16719041965 428.13588573316 2722.58542398805 223 227 226
-1396.33559727833 426.421867790606 2714.36397810335 222 226 225
-1394.51945967465 426.886362787329 2707.61801756039 221 225 224
-1395.69785931056 426.624550553833 2700.38912562883 219 223 222
-1397.87430629324 426.120488834029 2693.01046375986 220 224 223
-1402.04622256328 425.132401008337 2685.33856320735 219 223 222
-1407.21562984931 423.902151788374 2677.53873063819 220 224 223
-1403.4038896828 424.849871241297 2671.08103210765 214 220 220
-1402.58616182273 425.071300042768 2664.1702609841 216 224 226
-1401.76858945165 425.292507391496 2657.25317503298 222 228 228
-1404.94147132046 424.545548260689 2649.77774329471 217 221 222
-1402.12879991764 425.250326163707 2643.12961123032 225 229 228
-1393.33181931096 427.40650989431 2637.25980073873 221 225 224
-1393.51258896272 427.384732231312 2630.17131334975 223 225 222
-1391.69865980042 427.846718668517 2623.3363457693 225 227 224
-1395.86874576687 426.85659418638 2615.74311780505 229 231 228
-1393.05788461589 427.559929844054 2609.02268625579 229 234 230
-1384.26479794266 429.714296651122 2602.99873648331 226 230 229
-1375.47297879587 431.868326006578 2596.92488505674 224 225 227
-1358.70682062685 435.957059382657 2591.70921901804 220 221 223
-1255.1520818197 452.735267361964 2863.24017384714 228 232 233
-1268.33375160688 449.601931051281 2853.13392278386 224 228 229
-1288.50891590293 444.79292396872 2841.6742558465 227 231 232
-1293.69232784455 443.57587481806 2833.33192125172 226 230 231
-1294.87836012253 443.316592005776 2825.80743512457 230 234 235
-1292.06807595836 444.014909374877 2819.06838946876 236 240 241
-1303.24465086755 441.361562816096 2809.61791980134 233 237 238
-1313.42081303883 438.947851314122 2800.41618536672 230 234 235
-1327.59120567424 435.576671708854 2790.52000431211 226 230 231
-1337.76435334436 433.163222581432 2781.43636874337 224 228 229
-1349.9337746809 430.271111835823 2772.04314133268 225 229 230
-1358.10654711813 428.33669605171 2763.42980016124 224 228 229
-1366.27846455436 426.402324700772 2754.8592478885 221 225 224
-1372.45206559975 424.946678646993 2746.67819257709 220 224 223
-1378.62461553141 423.491195526789 2738.52906858945 219 223 222
-1387.79189163953 421.317574350457 2729.907725124 219 223 222
-1394.9611300995 419.622724300151 2721.66503359794 216 220 219
-1401.13119913257 418.167178301878 2713.62212899561 214 218 217
-1400.31294866734 418.38682562614 2706.72987027913 214 218 217
-1401.49100831158 418.127744746268 2699.51719911703 214 218 217
-1401.67094005767 418.107810671936 2692.46343948816 215 219 218
-1407.83899735342 416.651959988698 2684.49883340204 213 217 216
-1410.01428493073 416.153191651965 2677.16184395042 214 218 217
-1410.19371225639 416.132851697263 2670.1273630163 208 214 214
-1408.37769464376 416.590769537305 2663.37897555096 213 222 221
-1409.55495568608 416.330760906055 2656.1965203704 220 226 226
-1405.74389659335 417.266772245026 2649.70895663452 213 217 218
-1403.92845644836 417.724119348686 2642.92806213257 218 222 221
-1398.12349868648 419.138096859655 2636.66584518944 214 219 215
-1401.29607261362 418.398665209065 2629.2012065182 215 220 216
-1399.4816789641 418.855130380077 2622.38778918496 222 224 221
-1401.65655175111 418.354371805602 2615.06487421088 227 229 226
-1399.84246578743 418.810274909494 2608.2388279447 225 230 226
-1395.0368797293 419.983517213722 2601.75805694561 219 224 220
-1387.24089487379 421.873799251108 2595.59784674088 212 213 215
-1377.45186737209 424.242122793342 2589.6202830841 210 211 213
-1362.67928089433 427.805682037452 2584.14136140946 208 209 211
-1247.75898563073 446.979294139886 2872.22255593166 235 239 240
-1256.94488333772 444.82808405045 2862.89747917252 233 237 238
-1271.12679482669 441.493510390099 2852.59040606145 222 226 227
-1288.3052601783 437.448954834639 2841.74843862313 221 225 226
-1292.48978652024 436.482117659134 2833.6065100886 211 215 216
-1295.67458607517 435.752152101669 2825.68354028163 204 208 209
-1295.86137730193 435.732312447952 2818.36178976722 203 207 208
-1311.0349589311 432.162111792477 2808.15197597583 209 213 214
-1322.21054082781 429.538855934063 2798.78195054104 207 211 212
-1334.38329539502 426.679231514244 2789.28400545565 210 214 215
-1340.56108731393 425.23963517875 2780.95638924052 210 214 215
-1351.73219028734 422.61685464387 2771.75260122205 217 221 222
-1364.89944113702 419.520847694147 2762.24997357885 218 222 223
-1377.06626847562 416.661657774044 2752.99347644103 207 211 212
-1381.24218469534 415.695732419966 2745.18904035354 216 220 221
-1386.41630045764 414.493038813255 2737.23477131594 211 215 216
-1390.5910765082 413.527176928457 2729.47496513721 218 222 223
-1394.76531221303 412.561098784776 2721.73604533969 210 214 213
-1399.93754176189 411.358367170317 2713.85545524781 207 211 210
-1400.11750973745 411.338723545914 2706.80059150828 209 213 212
-1403.29219266473 410.609110579706 2699.27339314103 209 213 212
-1402.47366553538 410.825773723599 2692.37941844543 211 215 214
-1407.64409131566 409.622622037928 2684.5688748379 209 213 212
-1410.81771651866 408.892690477533 2677.08267391803 208 212 211
-1410.99707622992 408.872248485608 2670.05072602885 209 215 215
-1413.17206468647 408.378601383468 2662.73092603999 216 222 222
-1413.35132144321 408.357826686672 2655.70264473734 213 219 219
-1411.53525980854 408.80987437981 2648.94967489423 201 205 206
-1409.71925478347 409.261730079996 2642.18496161663 204 208 207
-1405.90848618432 410.186320481007 2635.67378146187 201 205 204
-1408.08351575918 409.691518934785 2628.36045966186 213 217 216
-1408.26326489915 409.669472789626 2621.31156913364 220 222 221
-1411.43499059055 408.937829363732 2613.88844484959 225 227 226
-1409.62006176084 409.388195033822 2607.08939503768 219 223 222
-1403.81622849342 410.784290726219 2600.75470404743 208 212 211
-1395.0216721693 412.889353023419 2594.73525393748 202 203 205
-1387.22566108175 414.757495015354 2588.5522966957 210 211 213
-1376.43962050203 417.33459902262 2582.65746850155 199 200 202
-1358.67609352748 421.566309787751 2577.4584619258 214 216 215
-1249.36198485301 439.078464445345 2879.3141392988 211 215 216
-1253.55047073574 438.121676651509 2871.02824844585 233 237 238
-1259.73775296277 436.697079288296 2862.34582285468 230 234 235
-1269.92236804133 434.336695021435 2852.87097819913 218 222 223
-1286.10253449226 430.572327943153 2842.22934826287 215 219 220
-1294.28508815332 428.680382424875 2833.27932428099 206 210 211
-1300.46801534755 427.256584381032 2824.76796670584 201 205 206
-1302.65309675843 426.768769816934 2817.06928641595 198 202 203
-1317.82732275728 423.239330603487 2806.87805492274 200 204 205
-1327.00488812071 421.113986326421 2797.9064077318 205 209 210
-1339.17843738845 418.286857581252 2788.4216191376 209 213 214
-1347.35417833783 416.395765495908 2779.73877587887 208 212 213
-1354.52997563064 414.73866183204 2771.28027160713 212 216 217
-1368.69702021673 411.444054458569 2761.60648607139 212 216 217
-1378.86681027985 409.085276289788 2752.71277888053 205 209 210
-1383.04288822769 408.130171326993 2744.91364000081 211 215 216
-1388.21700496558 406.941164939053 2736.96470432658 209 213 214
-1391.39343727672 406.219909037314 2729.37810715014 214 218 219
-1398.56345324492 404.5630241075 2721.14579193168 198 202 203
-1403.73578402963 403.37388986535 2713.27584500306 201 205 206
-1405.91230923362 402.886372578393 2705.91189011214 199 203 204
-1406.09188077517 402.866534400758 2698.87231149065 201 205 206
-1403.27675650326 403.548197783839 2692.29522745643 197 201 202
-1408.4472551487 402.358714177892 2684.48718696919 202 206 207
-1409.62475834429 402.104462926326 2677.30144943097 206 210 211
-1412.79828148844 401.382481051398 2669.8277730843 205 209 212
-1413.9756415028 401.127964688224 2662.65667169646 209 213 216
-1417.14850269361 400.405558853621 2655.20841156428 202 206 209
-1414.33403590516 401.085966853008 2648.60428286443 189 193 196
-1417.50651490726 400.36330265362 2641.17068257871 194 198 201
-1412.69705123325 401.510808793589 2634.81382872978 194 198 201
-1413.87397839986 401.255270440149 2627.64922240872 217 221 224
-1411.06068509257 401.934585777817 2620.9980567841 219 223 226
-1413.23527502076 401.444702801988 2613.70719908093 220 224 227
-1409.42517408778 402.357231679518 2607.15697348441 188 192 195
-1405.61564320042 403.269368718481 2600.58404780366 176 180 183
-1398.81488691245 404.882443509794 2594.33737557992 209 211 210
-1394.00934762852 406.027524427315 2587.82453895505 206 208 207
-1385.21609206911 408.107212480402 2581.72700554456 199 201 200
-1374.43014619557 410.653861616232 2575.7957758095 205 207 206
-1249.15544013086 431.62987099418 2879.38889657274 220 224 225
-1259.34284294358 429.2961132396 2869.8336871073 230 234 235
-1264.53053727713 428.119153945874 2861.37635198945 224 228 229
-1268.71776841789 427.173623667016 2853.1515882517 216 220 221
-1281.90052291094 424.146652427234 2843.11714974662 214 218 219
-1289.08454062893 422.507586671839 2834.35673049896 206 210 211
-1298.26653546914 420.406211123626 2825.23769978595 203 207 208
-1308.44657671305 418.073692999565 2815.971536951 197 201 202
-1322.62231236435 414.816387524976 2805.98880159739 196 200 201
-1335.79698849164 411.790426614116 2796.27117842456 207 211 212
-1342.97500675879 410.152237854673 2787.74618014925 212 216 217
-1350.15207719939 408.514121376485 2779.25830382947 208 212 213
-1355.3303383513 407.338413064125 2771.17099333575 209 213 214
-1369.49812815865 404.081782542136 2761.49953380185 208 212 213
-1378.6698139739 401.981410997314 2752.78449351853 202 206 207
-1380.84851596275 401.49955930468 2745.33222082508 204 208 209
-1385.02449821714 400.555283247065 2737.54844922114 207 211 212
-1388.20136476629 399.842074329505 2729.95352075092 209 213 214
-1397.36938146807 397.741779321364 2721.38196431157 192 196 197
-1400.5450363174 397.028472859434 2713.83428853223 197 201 202
-1403.72029361709 396.315152198432 2706.30213512391 195 199 200
-1402.90170195297 396.526367654558 2699.41415815139 196 200 201
-1404.07973583571 396.27515612858 2692.21094334425 191 195 196
-1408.25237682902 395.330269133519 2684.55710382052 196 200 201
-1410.42829336984 394.84759537586 2677.22213820371 202 206 207
-1412.60371094619 394.364817515823 2669.89723728116 200 204 205
-1414.77910655108 393.881802293738 2662.58226500679 209 213 214
-1414.95822821165 393.860883506239 2655.55910901697 191 195 196
-1416.13518537391 393.608638214811 2648.39686619832 190 194 195
-1420.30573964824 392.662863171264 2640.83295415136 194 198 199
-1417.49129071087 393.33456365605 2634.21877831122 201 205 206
-1415.67488399568 393.774942621075 2627.45744164038 221 225 226
-1412.86123034492 394.446071263638 2620.81156924444 219 223 224
-1415.03583585928 393.961525833709 2613.52583342548 217 221 222
-1414.21749942011 394.169915600705 2606.61552258202 173 177 178
-1412.40222391546 394.609029965226 2599.81794124243 167 171 172
-1406.59772087577 395.972053416795 2593.47391684801 214 216 215
-1397.80224958546 398.027663531272 2587.43712884092 202 204 203
-1389.00804252944 400.082817032505 2581.35043990192 198 200 199
-1381.2123918884 401.906448966898 2575.10560369045 205 207 206
-1363.44731627229 406.039537457981 2569.8705551774 192 194 193
-1229.75950210279 428.544721022614 2891.02572556378 220 224 225
-1248.94887552318 424.18050258947 2879.46359895684 223 227 228
-1263.13632789404 420.95957032509 2869.0619883654 225 229 230
-1270.32351374986 419.339047274143 2860.1976570438 217 221 222
-1270.51187871439 419.318668608549 2852.81382065627 208 212 213
-1281.69635676987 416.784153256226 2843.19138523948 213 217 218
-1288.88089971899 415.164153765108 2834.43091002574 208 212 213
-1300.06241021694 412.630131501085 2824.91566168959 202 206 207
-1310.24306421402 410.324758912087 2815.6546971226 198 202 203
-1321.42187262131 407.79097273382 2806.25463412911 197 201 202
-1334.59759765109 404.800383890508 2796.5339960153 211 215 216
-1343.77449720915 402.72413553018 2787.63176143115 216 220 221
-1353.94947826588 400.419372953605 2778.59317000965 206 210 211
-1358.12883413676 399.485659246397 2770.69821161329 203 207 208
-1369.30043391611 396.952654983374 2761.57140154379 201 205 206
-1376.47482840009 395.333676769098 2753.20866007187 199 203 204
-1380.65164765296 394.400161364679 2745.40372962883 195 199 200
-1385.82689676654 393.238159038222 2737.44885645952 206 210 211
-1388.00502583019 392.761561493767 2730.02461716749 199 203 204
-1395.17654653897 391.142564977312 2721.78349792269 185 189 190
-1395.35677518931 391.122671896717 2714.7181782631 189 193 194
-1400.52950442666 389.960563320665 2706.85235171551 183 187 188
-1403.70479966297 389.255155074354 2699.32721135442 187 191 192
-1409.87486270863 387.864371224211 2691.35407736754 187 191 192
-1413.04915447909 387.15887001477 2683.86805611142 191 195 196
-1414.22646742969 386.910011107216 2676.69554389019 189 193 194
-1417.40009889288 386.204145518917 2669.23493848746 194 198 197
-1417.57899896353 386.183345744011 2662.22057078608 209 213 212
-1417.7579143951 386.162301803392 2655.20534056014 172 176 175
-1415.9408248275 386.597941001128 2648.46560293041 191 195 194
-1422.10733001512 385.206183744471 2640.63047719216 195 199 198
-1420.29051231443 385.641267275824 2633.88884221816 204 208 207
-1421.46704073685 385.390996717666 2626.74547635406 197 201 200
-1415.65966418495 386.738940150961 2620.4975670086 216 220 219
-1415.83888695926 386.716493967878 2613.46881914407 216 220 219
-1416.01812509449 386.693803619082 2606.43920875497 160 164 163
-1415.19997082262 386.899080781168 2599.5277608951 187 191 190
-1412.38706015972 387.560708666588 2592.84264877815 202 206 205
-1401.59572411192 390.04841679196 2587.04947462008 186 190 189
-1393.79800232214 391.85069317212 2580.86265612674 199 201 200
-1383.00978260395 394.337388449438 2574.95592228186 194 196 195
-1371.22580958685 397.051858071867 2569.09375674501 199 201 200
-1223.55113741313 422.39842645852 2892.40308616517 222 226 227
-1245.74232122657 417.408116896512 2880.18137246849 222 226 227
-1263.93087562286 413.321693762325 2868.92483369453 223 227 228
-1273.11805855072 411.268455848432 2859.64539624021 214 218 219
-1275.30585815636 410.796362843023 2851.85736008174 205 209 210
-1284.49131143338 408.743462238025 2842.65521033843 211 215 216
-1291.67617200378 407.142464244736 2833.90272372954 206 210 211
-1301.85880429678 404.864053701612 2824.59339027316 199 203 204
-1310.04098476797 403.037568281701 2815.72823785616 199 203 204
-1320.22102534684 400.75954763139 2806.52061620352 198 202 203
-1332.3985110789 398.029982185268 2796.986732903 213 217 218
-1349.570678797 394.17154491261 2786.58141348783 215 219 220
-1356.74831321472 392.571390383919 2778.11225560578 205 209 210
-1361.92684343079 391.422859087374 2770.04360973972 203 207 208
-1368.10370592272 390.048510822103 2761.82237710336 201 205 206
-1375.27869966499 388.448519144922 2753.45660082324 196 200 201
-1381.45386766195 387.074201869088 2745.30162819437 193 197 198
-1388.62702905138 385.474217863985 2737.00747484865 204 208 209
-1391.80406761768 384.777168293852 2729.42317401463 194 198 199
-1395.97937680566 383.854498226244 2721.68890702588 184 188 189
-1396.15953721749 383.834563293634 2714.62620942623 184 188 189
-1402.33133474499 382.460123008851 2706.60283434262 179 183 184
-1407.50362789938 381.31139474037 2698.76841817136 184 188 189
-1412.67548225547 380.162600100056 2690.96040528104 185 189 190
-1415.84979317685 379.465076325642 2683.48220109592 189 193 194
-1416.02872707417 379.444507621311 2676.466759437 186 190 189
-1420.20062498386 378.52106519968 2668.86498772652 191 195 194
-1420.37931984747 378.500260037679 2661.85863444292 205 209 208
-1420.55802993939 378.479150726221 2654.85135941179 170 174 173
-1420.73675779505 378.457856628403 2647.84319170298 192 196 195
-1421.91340132602 378.210676415633 2640.69864517272 197 201 200
-1421.09426350541 378.414594912055 2633.82417897448 200 204 203
-1420.27528255465 378.618231569063 2626.94327914163 192 196 195
-1417.46083592953 379.272826009231 2620.3106457772 219 223 222
-1415.64444359434 379.701557450344 2613.5362408724 208 212 211
-1414.82613454389 379.904294999776 2606.62811545516 157 161 160
-1415.00545864242 379.881101612708 2599.59460519859 199 203 202
-1413.18973972101 380.308933543318 2592.79291512533 189 193 192
-1404.39243430012 382.315456220895 2586.77510498628 187 191 190
-1394.59912190881 384.547116785662 2580.8182714793 194 196 195
-1382.81280336814 387.229257259911 2575.02238936784 202 204 203
-1375.01670550134 389.00871733548 2568.73827915997 182 184 183
-1356.25330709294 393.268712012649 2563.53991919708 195 197 196
-1204.14764011097 419.141290621855 2904.16001738633 213 217 218
-1223.34265552373 414.879826353567 2892.4783868929 212 216 217
-1247.5357046528 409.502936214965 2879.82740986331 220 224 225
-1267.72530640447 405.019109898708 2868.15263120862 210 214 215
-1274.91319258183 403.436572517545 2859.30171498192 202 206 207
-1282.10012817092 401.85422819098 2850.4881583248 204 208 209
-1289.28611619868 400.27207611316 2841.71184206916 207 211 212
-1300.47018932153 397.797567576554 2832.16966351978 197 201 202
-1304.65505236838 396.885078038267 2824.07292969818 195 199 200
-1309.83888392292 395.749603100698 2815.80178328394 200 204 205
-1312.02374657194 395.283393615906 2808.1348508358 196 200 201
-1331.1987018696 391.024685966725 2797.24952376572 210 214 215
-1348.37221958965 387.21246406733 2786.84106410637 208 212 213
-1359.54758384348 384.738956795687 2777.63100862008 198 202 203
-1363.7268873272 383.826987066532 2769.75211991615 200 204 205
-1368.90497945534 382.691956649437 2761.71509224845 198 202 203
-1375.08141160559 381.333928096657 2753.528201706 189 193 192
-1386.25200316518 378.860671128207 2744.50494840082 191 195 194
-1393.42534280455 377.2796657065 2736.22420617091 199 203 202
-1396.60226319435 376.590810189011 2728.65332222668 183 187 186
-1400.77752485452 375.67883616542 2720.9323973777 182 186 185
-1400.9573391745 375.658873334209 2713.88319629087 175 179 178
-1403.13460804738 375.192644881053 2706.51303455365 177 181 180
-1409.30597812752 373.834463519164 2698.52382317285 180 184 183
-1415.47653165466 372.476139432624 2690.56637226505 178 182 181
-1421.64603291349 371.117798529889 2682.64070480415 183 187 186
-1416.832708578 372.21207213203 2676.38690676876 183 187 186
-1422.0030908331 371.07645659966 2668.64125460804 187 192 188
-1419.18709957552 371.724316862807 2662.07108497853 197 202 198
-1424.35668448852 370.588343424627 2654.35621141756 172 177 173
-1420.5427249116 371.458715877063 2647.91153067045 194 199 195
-1423.71563332615 370.768287623393 2640.49575993451 203 208 204
-1422.89604746104 370.969447622927 2633.62651821739 194 199 195
-1426.06843322728 370.278588332142 2626.23071157349 208 213 209
-1419.26204569905 371.816608022581 2620.1235393401 204 209 205
-1418.44330098976 372.016820718629 2613.22972998651 149 154 150
-1415.62922017991 372.662554987174 2606.57328592396 180 185 181
-1416.80603725201 372.416468934756 2599.42313163085 202 207 203
-1414.9902700461 372.838668794166 2592.62660618703 179 184 180
-1406.19214996451 374.820560471224 2586.61418893866 171 176 172
-1397.39529803348 376.802054511462 2580.55178102118 200 204 203
-1386.60515181072 379.228703458453 2574.65586852367 183 187 186
-1383.79470177886 379.872090672445 2567.8550009937 200 204 203
-1373.00708616227 382.29776580481 2561.8591380333 192 194 193
-1209.93914957334 410.247658354603 2902.91676324669 212 216 217
-1230.13578457643 405.817294014771 2891.0338289029 214 218 219
-1255.3299763891 400.285264500784 2878.18698800147 220 224 225
-1269.52009945026 397.178437663811 2867.80351520129 208 212 213
-1275.70844931821 395.835362028294 2859.16689425695 205 209 210
-1284.89578347166 393.831116281779 2849.94347518678 204 208 209
-1297.08148593059 391.165864415676 2840.15750870505 208 212 213
-1307.26587495597 388.941603515197 2830.83765777793 188 192 193
-1309.45102310556 388.480782890786 2823.15602833328 193 197 198
-1313.63530601774 387.57919121067 2815.09366946517 199 203 204
-1320.81805308787 386.016564757029 2806.47431096055 195 199 200
-1333.99671201181 383.131728639971 2796.75255523207 208 212 213
-1350.1716931183 379.586014141414 2786.53903403139 200 204 205
-1360.34844886907 377.362705092976 2777.5185399445 198 202 203
-1365.52744917481 376.241177255428 2769.46051557956 201 205 206
-1371.70494089544 374.899371853399 2761.24963252631 199 203 204
-1377.88161784177 373.55754329128 2753.07056880793 192 196 195
-1387.05454639562 371.554765108164 2744.4024214419 189 193 192
-1394.22858183617 369.99268737628 2736.12413277532 196 200 199
-1399.40342327739 368.871189539216 2728.21935866717 185 189 188
-1405.57664388461 367.529440886237 2720.17546645465 176 180 179
-1405.75611033406 367.509330591865 2713.13970301876 177 181 180
-1403.93800885443 367.929754274678 2706.42317716839 174 178 177
-1406.11510399782 367.46885374959 2699.06552610049 173 177 176
-1410.28900897187 366.567234086145 2691.40874295893 181 185 184
-1415.46108405492 365.445329235136 2683.62097547945 182 186 185
-1411.64595754316 366.305602189076 2677.20173373665 180 184 183
-1414.82041168693 365.62388531378 2669.7349041551 183 188 184
-1415.99795126682 365.382435307408 2662.57081437186 190 195 191
-1424.16292827859 363.59927223424 2654.42454894418 176 181 177
-1425.33950215023 363.357572300249 2647.28860924373 187 192 188
-1426.51619095262 363.115568547418 2640.15717622211 200 205 201
-1428.69050209707 362.65325165158 2632.89748789875 192 197 193
-1429.86687813119 362.410881023692 2625.77788502216 211 216 212
-1425.05537126534 363.489399050951 2619.42681206665 186 191 187
-1418.2490331583 365.007989421636 2613.2968465744 148 153 149
-1414.43702600729 365.865538177644 2606.76208916185 196 201 197
-1415.61399256084 365.621993148125 2599.60882097033 200 205 201
-1412.80034553955 366.258789129574 2592.92582570378 175 180 176
-1407.99214177197 367.33549434753 2586.4530345583 185 190 186
-1401.18932507451 368.852160039744 2580.1740488215 191 195 194
-1393.39037669218 370.588351895778 2573.96421334148 189 193 192
-1391.57650369635 371.00347851195 2567.0767361138 191 195 194
-1382.78217505154 372.958879578966 2560.8970175934 185 189 188
-1367.00837699224 376.454508870367 2555.36781310831 185 187 186
-1208.53697747374 402.931561153176 2910.75488272785 207 211 212
-1219.73335990383 400.514874920798 2900.79369894675 205 209 210
-1239.93056609243 396.138978985201 2888.93759988367 210 214 215
-1261.12516194014 391.54585968013 2876.97498192421 214 218 219
-1274.31585424923 388.694731648774 2866.81911296441 201 205 206
-1279.50406761379 387.585638892274 2858.40503738918 197 201 202
-1289.69196746313 385.388108956958 2848.98599773932 198 202 203
-1300.878126842 382.973187222231 2839.41693600779 198 202 203
-1308.06338141005 381.429162451369 2830.71022406433 184 188 189
-1308.24916637031 381.408990503937 2823.42744513911 190 194 195
-1311.43416415552 380.735810211544 2815.55769945002 195 199 200
-1321.6163198253 378.539092446982 2806.35470949448 195 199 200
-1335.79540159529 375.471936774054 2796.44536444292 202 206 207
-1349.97256431977 372.404961900883 2786.6112164669 193 197 198
-1363.14843076301 369.555740289254 2777.03684067071 193 197 198
-1371.32575176647 367.794825864384 2768.44134295964 195 199 200
-1375.50456709165 366.904532935594 2760.60480806096 193 197 198
-1379.68284776606 366.014202288907 2752.78912866818 190 194 193
-1388.85655449862 364.035761588328 2744.1260238853 185 189 188
-1397.0297669797 362.275043818573 2735.68198782581 188 192 191
-1400.20686076752 361.602287261839 2728.12161271074 177 181 180
-1404.3826853166 360.711797113167 2720.41108073175 169 173 172
-1403.56316387581 360.909218780062 2713.53530715537 169 173 172
-1401.74528900439 361.324027235988 2706.81322026119 172 176 175
-1402.92375319625 361.085935349832 2699.60727434191 170 174 173
-1406.09955937316 360.412651315549 2692.09665715665 173 177 176
-1411.27205061256 359.30420311228 2684.29774876886 173 177 176
-1409.45432184519 359.71831246161 2677.5692009757 172 176 175
-1411.63050176984 359.26219016729 2670.24312553441 179 184 180
-1414.80499523108 358.588325320014 2662.78319019305 184 189 185
-1422.97088356011 356.826703407848 2654.63376135794 166 171 167
-1425.14579864213 356.370077583941 2647.35657969696 183 188 184
-1429.31717849774 355.47818992004 2639.81826119171 190 195 191
-1432.48948941375 354.803708882709 2632.43364087284 203 208 204
-1436.6598615557 353.911519319892 2624.93438315232 207 212 208
-1430.84957777534 355.193855671697 2618.7296545354 177 182 178
-1423.04421154598 356.910752609301 2612.74060856453 159 164 160
-1418.23378092071 357.974786470265 2606.34124520438 192 197 193
-1416.4171876294 358.386255915913 2599.55615975956 189 194 190
-1414.60112300245 358.79722136649 2592.75919591745 179 184 180
-1410.78973952075 359.642903504658 2586.17799709881 187 192 188
-1407.97690048535 360.270598422708 2579.46297571245 188 192 191
-1402.1717285405 361.550253439343 2573.05557984388 187 191 190
-1398.36236204386 362.394615215771 2566.4034573476 189 193 192
-1389.56663548403 364.325513686923 2560.24274040014 186 190 189
-1374.78836987977 367.560150000621 2554.63260655307 193 195 194
-1202.324400585 396.662988831143 2912.16557822221 202 206 207
-1221.52530360105 392.556003508014 2900.42903217843 202 206 207
-1248.72631908737 386.72934296392 2887.0578664773 209 213 214
-1262.92015074388 383.698290022003 2876.62013388438 210 214 215
-1276.11167993783 380.882530484273 2866.46953252969 196 200 201
-1280.30005398223 380.001876619399 2858.26975945518 193 197 198
-1289.48839120275 378.046519429199 2849.0596298156 199 203 204
-1298.67526702806 376.091374382127 2839.89751955833 196 200 201
-1303.86145271563 374.99611253507 2831.58686797798 184 188 189
-1308.04693399908 374.115988729285 2823.50072315903 191 195 196
-1308.2327369883 374.095751962981 2816.21717000207 193 197 198
-1324.41427518807 370.636426618099 2805.84945768904 197 201 202
-1338.59420119133 367.607278320605 2795.94792646921 201 205 206
-1352.77220801647 364.578250839124 2786.12153310195 192 196 197
-1360.95135821327 362.83884641247 2777.47763995754 193 197 198
-1367.13041997964 361.529423429984 2769.24016382571 194 198 199
-1372.3091229696 360.434956444267 2761.21349066207 192 196 197
-1379.4858740021 358.910601080836 2752.86024584061 191 195 194
-1387.66108664442 357.171434686074 2744.37050154609 184 188 187
-1396.83407320049 355.217496567188 2735.75252795212 186 190 189
-1400.01139292604 354.55275242152 2728.1919255177 176 180 179
-1404.18751919869 353.673045393356 2720.4811792205 168 172 171
-1404.36705398032 353.652676830816 2713.44246781779 168 172 171
-1404.5466090611 353.632242845014 2706.40289280724 171 175 174
-1404.72618575559 353.611653057406 2699.36230577032 169 173 172
-1406.90315370266 353.161262854967 2692.01158636203 170 174 173
-1410.07871907351 352.49584540651 2684.51882724594 170 174 173
-1411.25655287586 352.259961995651 2677.33989042275 169 173 172
-1411.43578971971 352.238742457366 2670.31190974863 170 175 171
-1416.60756501898 351.143235770413 2662.56420317296 184 189 185
-1421.77842508477 350.047705794218 2654.84291729782 163 168 164
-1426.94884677747 348.951959285365 2647.14785685416 183 188 184
-1430.12195468415 348.285665598049 2639.75020311306 188 193 189
-1435.29092389086 347.189708727088 2632.1023601945 196 201 197
-1437.46503057248 346.737766406261 2624.87112719489 175 180 176
-1433.65044917842 347.574153565107 2618.41425842492 141 146 142
-1424.84635138584 349.483873267446 2612.55797812208 182 187 183
-1418.03946409321 350.963657484019 2606.40780964578 177 182 178
-1414.22715472919 351.798899592368 2599.86091260406 164 169 165
-1415.40422612437 351.560308232109 2592.70886570707 185 191 187
-1414.58588294516 351.750690943447 2585.78880848622 186 192 188
-1413.76745549075 351.940859150327 2578.86248992592 184 188 187
-1409.95666566079 352.774676391631 2572.25467431675 184 188 187
-1403.15390135361 354.252132561638 2565.94086560947 187 191 192
-1394.35715278846 356.158455233311 2559.79370456953 184 188 189
-1376.58552250464 359.99607443171 2554.49758300669 187 191 190
-1177.90635561784 394.204630318305 2925.20661026843 204 208 209
-1198.11213183367 389.936407695754 2913.13117616376 198 202 203
-1225.31862237346 384.182653138608 2899.62430724031 199 203 204
-1257.52365286871 377.368018425001 2885.17754839919 206 210 211
-1267.7162827438 375.22411977802 2875.62190331593 203 207 208
-1277.90754872222 373.080464201045 2866.11982502894 188 192 193
-1281.09593296304 372.422857566811 2858.13444671825 186 190 191
-1289.28479643769 370.704094561225 2849.13308819501 199 203 204
-1294.47206605096 369.62226163033 2840.78516719128 190 194 195
-1297.65878218876 368.964979054489 2832.86533207384 182 186 187
-1301.84497623399 368.095588958195 2824.76285508612 189 193 194
-1304.03103382952 367.650668202356 2817.07207818636 185 189 190
-1320.21405365632 364.234762312128 2806.69307922264 196 200 201
-1338.39420464506 360.394707022175 2796.02018075541 192 196 197
-1354.57268992198 356.97922811053 2785.81886616654 183 187 188
-1361.75254013601 355.473733904921 2777.36474625297 186 190 191
-1368.93143936394 353.96825280268 2768.94780824008 189 193 194
-1371.11221656422 353.523747524015 2761.46385358659 187 191 192
-1378.28956451849 352.018349310197 2753.10763372154 189 193 192
-1386.46520921487 350.300857940497 2744.61495144175 182 187 183
-1396.6383591379 348.158994411026 2735.82283551968 183 188 184
-1399.81590411076 347.502292869761 2728.26206516942 175 180 176
-1401.99401342058 347.057627583242 2720.88220911264 167 172 168
-1403.1726570506 346.825009678069 2713.67512766751 166 171 167
-1405.35032142925 346.380132740119 2706.31243380736 167 172 168
-1408.52656013812 345.723028725385 2698.80228463364 165 170 166
-1411.70240103213 345.065790544089 2691.307539385 167 172 168
-1412.88022125962 344.83267162351 2684.13210141129 166 171 167
-1414.05792379578 344.599403978565 2676.96110353368 169 174 170
-1414.23695207413 344.578029899678 2669.94110838805 172 176 175
-1418.41041279496 343.708125403222 2662.34506629349 187 191 190
-1418.58920095133 343.686365108768 2655.33404125779 152 156 155
-1423.75997309729 342.604152758737 2647.6304910356 171 175 174
-1428.93030611342 341.521724077513 2639.95319603693 195 199 198
-1435.09792880836 340.227083360777 2632.16934571401 194 198 197
-1436.27405172979 339.992492566518 2625.06798874465 158 162 161
-1433.45730660048 340.605775628028 2618.48083190954 134 138 137
-1427.64676513536 341.854779981955 2612.25038517342 183 187 186
-1422.83500073839 342.891473274966 2605.8644692476 169 173 172
-1417.02632830928 344.139706817316 2599.56947125946 160 164 163
-1417.20548002127 344.115599019665 2592.54171664264 184 190 186
-1414.39124870584 344.727162499023 2585.85446489814 185 191 187
-1413.57274898402 344.914439021656 2578.92786593059 183 189 185
-1410.75924224757 345.525299435551 2572.21154023188 184 188 187
