ply
format ascii 1.0
comment KinectMotionCapture
element vertex 780
property float x
property float y
property float z
property uchar red
property uchar green
property uchar blue
end_header
-825.673277265825 -96.7545444875276 1914.36701846204 91 74 66
-835.555126896042 -97.4517449387476 1915.15103229804 79 52 45
-845.425585654034 -98.1484262498154 1915.93670654916 79 50 44
-854.906864102735 -98.6588116002414 1911.73154156984 91 63 60
-864.695053196254 -99.3182931920768 1911.51945725764 116 92 90
-341.196365375741 -82.2810472020686 2193.47271547253 91 80 52
-351.914643530124 -83.1638616012286 2199.19175280979 111 89 66
-362.368962678712 -84.0004696815983 2203.93568162084 117 94 76
-373.016944242484 -84.8791616137441 2209.6637209694 125 107 93
-380.964225587153 -85.2311277001026 2203.63395810315 153 141 125
-520.039773102084 -95.9402211822928 2251.81082075328 15 21 11
-546.364767456366 -100.454170386672 2345.28243363412 21 24 15
-544.83020733359 -98.6658455817074 2288.02697900995 21 24 15
-553.284341639026 -99.1416224067135 2284.95759150517 15 18 9
-580.973019011102 -102.645059091618 2340.9692980694 15 18 9
-585.262399336068 -102.145710273872 2314.23090704314 18 21 12
-596.629512299643 -103.340541119876 2328.93970000625 20 23 14
-605.149008652591 -103.850947497069 2326.87017426698 22 25 16
-615.910660020063 -104.918776291852 2338.63088923913 24 27 18
-628.643575226784 -106.497197895988 2363.24784011759 21 24 15
-637.532587350117 -107.120503418991 2364.15555960519 19 22 13
-646.10797437614 -107.664774235319 2363.08683531933 18 21 12
-655.2793019259 -108.365624994011 2365.97514218849 17 20 11
-663.552244283668 -108.831782388836 2362.92858130389 17 20 11
-667.101881659832 -108.020254570616 2327.21177902209 17 20 11
-675.205012549755 -108.416720682826 2322.17061161013 22 25 16
-684.848575041064 -109.237116398024 2328.02360273111 18 21 12
-691.883018649966 -109.328989945676 2315.05278144837 10 13 4
-698.982729178925 -109.425212963964 2302.07406696278 11 14 5
-706.92709616825 -109.753020059056 2295.03691707081 14 17 8
-713.504874425668 -109.668300811751 2277.08394411362 13 16 7
-719.925906123941 -109.514528494375 2257.1347358864 13 16 9
-728.642046354951 -110.040089991671 2255.04071006417 10 13 6
-737.958935630013 -110.752095116754 2257.91088106519 8 11 4
-746.788666839174 -111.314853491176 2256.81046481527 11 12 6
-753.686321514649 -111.251393109925 2238.81762915666 16 17 11
-762.229136054617 -111.707397781573 2234.72943571542 16 17 11
-771.220962700688 -112.310607281558 2234.61658453807 17 18 12
-779.785131851703 -112.768345628192 2230.52573073319 20 21 15
-784.664384005472 -111.925713734811 2190.61192981476 19 22 15
-786.551868925497 -109.945377312546 2118.82033809476 14 17 10
-798.270043900426 -111.463155526829 2143.56376285286 11 14 7
-807.953467157299 -112.259372554509 2148.4037885453 22 25 16
-808.211078838307 -106.329682571447 1945.79626137318 27 24 15
-816.03634452533 -106.208970668159 1923.65652591295 163 150 142
-825.483899661963 -106.724613201894 1919.45558324821 103 84 77
-835.109407479071 -107.311018090492 1917.24823395627 84 56 52
-844.190824183304 -107.655747834182 1908.05361708211 95 67 63
-853.087889446272 -107.900135920505 1895.85868063719 122 98 94
-338.751973504229 -91.1415736039229 2185.73887741614 92 83 52
-349.032695153685 -91.9241550361315 2189.49688106208 80 58 35
-359.97035029332 -92.8292114018817 2196.19628712015 77 54 36
-371.31584232344 -93.8140611799918 2204.86062214363 67 49 37
-381.053275923815 -94.5088323361044 2206.67057921585 84 74 62
-513.209677393706 -103.610531528497 2218.41961178193 14 20 10
-532.925064942931 -106.446993661251 2275.42434105595 21 24 15
-543.199486531006 -107.312811710045 2282.20665167629 19 22 13
-548.851181679309 -107.186124112317 2263.36121052708 14 17 8
-560.324902311036 -108.316637408309 2277.04884300729 14 17 8
-574.449842993378 -110.045933929338 2306.53115041938 17 20 11
-594.456550106726 -113.116993556203 2371.56260039872 19 22 13
-597.072729573165 -112.314124867286 2334.95462385082 19 22 13
-605.575958086803 -112.826428742442 2332.88713323872 20 23 14
-615.844012465294 -113.746775320145 2341.6857562445 25 28 19
-626.215532206318 -114.70073986245 2351.47924301461 24 27 18
-634.210688186493 -115.100584639718 2346.45155913064 21 24 15
-642.531478171896 -115.575063190392 2343.39880878972 18 21 12
-651.161618404817 -116.123120711209 2342.32326159949 16 19 10
-660.670205538182 -116.888473916496 2347.18526479649 17 20 11
-668.135619596481 -117.147753619133 2338.1920904692 19 22 13
-675.221924038014 -117.302451460623 2326.22289007362 24 27 18
-684.4413463784 -117.996146173364 2329.10517615205 20 23 14
-690.793681986622 -117.943222724738 2311.18042083778 12 15 6
-698.035140483418 -118.108290012847 2299.19188544093 12 15 6
-706.767286530189 -118.663950750012 2298.10362855098 12 15 6
-713.588932755925 -118.695150036938 2282.1359017768 11 14 5
-718.622065453974 -118.20958940928 2251.27374250059 12 13 7
-725.769112350776 -118.288677084775 2236.2734611257 8 11 4
-746.000760940573 -120.141972879809 2254.91642225297 11 14 7
-753.470217584175 -120.295852219481 2241.89171747405 15 18 11
-760.671271648082 -120.352214844706 2225.87670911145 15 18 11
-769.687838618509 -120.954215898132 2225.76076730548 17 20 13
-778.593124721901 -121.522422101247 2224.6509365981 20 23 16
-787.70413705163 -122.157635690716 2225.5312234006 18 21 14
-786.677463908068 -119.434086228821 2125.88394298548 12 15 8
-796.235100304763 -120.151842915433 2128.72408531553 14 15 9
-804.53776884792 -120.440636509443 2118.61881720392 16 19 12
-808.143397502066 -116.242085671495 1951.8774146912 13 8 2
-816.729441555462 -116.468979286734 1938.71355868524 189 171 167
-825.968025301276 -116.925634430493 1932.52292460834 91 70 65
-835.395720371761 -117.448268357108 1928.32447877402 122 97 93
-844.210465269286 -117.717153815423 1916.139879937 121 97 93
-344.995400233276 -100.54566775475 2174.9069082302 78 56 33
-356.658340094802 -101.547712215607 2184.53936002083 82 59 41
-368.488190396299 -102.584629405532 2195.15900157834 78 60 48
-378.920365026488 -103.388149091385 2199.90584702601 74 66 53
-517.804326353601 -113.690353694606 2246.08993250723 16 22 12
-530.729556745066 -115.040720337124 2266.65129435145 18 21 12
-540.134666024836 -115.708930598832 2268.50265358703 14 17 8
-549.524243186319 -116.376270819846 2270.35594884792 14 17 8
-558.724622096341 -117.007624526516 2271.22483279593 15 18 9
-575.60583626343 -119.213543645621 2316.48862365548 14 17 8
-586.514158088569 -120.219295913702 2328.23087154529 17 20 11
-598.676605399106 -121.498043655769 2347.87954850447 17 20 11
-602.912222070364 -121.114383361953 2320.14048442777 17 20 11
-612.737145909866 -121.9069012585 2325.97076930945 20 23 14
-624.255582832762 -123.07273672122 2342.67597577513 19 22 13
-632.73855332605 -123.587131813347 2340.61101875134 19 22 13
-642.898713922047 -124.473826999914 2349.42301764357 18 21 12
-649.125029471315 -124.482961678049 2332.52183941369 17 20 11
-657.19670596742 -124.89925242611 2327.4846495316 18 21 12
-663.133221788051 -124.81782854526 2307.59609654852 19 22 13
-673.829270775879 -125.835748158425 2320.37255397395 19 22 13
-681.40516424956 -126.124399629915 2311.36591008702 21 24 15
-689.567344821312 -126.547030833131 2306.3174425287 20 23 14
-697.352491077828 -126.873434154414 2298.2924716479 16 19 10
-699.053735794955 -125.678673555898 2243.65783213438 12 15 6
-702.57842038652 -124.88968745973 2200.88991295057 10 13 4
-714.195371918416 -126.136057947038 2220.60657929364 10 11 5
-745.212147344333 -128.980548667435 2253.0227384459 11 14 7
-753.824994043535 -129.481344535072 2249.93361045944 15 18 11
-759.444097249355 -129.140324727406 2220.00639326938 17 20 13
-769.345806347441 -129.988888509779 2227.84285786471 18 21 14
-775.599454853174 -129.785072063748 2201.8678031543 21 24 17
-779.925553580117 -128.976243399843 2155.97675867504 17 20 13
-790.019190306188 -129.861634486785 2164.79705591865 12 15 8
-795.465317021358 -129.317465086836 2126.82867259302 16 17 11
-800.826694148137 -128.695722842065 2085.84759993509 24 26 21
-798.005075356464 -125.358057374917 1954.17431104304 8 9 4
-808.883887889612 -126.39067833333 1966.92823964272 187 176 172
-816.211096122729 -126.232437590858 1939.81164394895 167 147 146
-825.698806819663 -126.790856030647 1936.6134898547 127 103 101
-835.359723036819 -127.408738055299 1935.40949179587 106 81 77
-355.621887833365 -110.690834166475 2182.67740702547 69 51 31
-365.657577734559 -111.410237112564 2185.45789543975 78 65 49
-375.227827246055 -112.057424636862 2186.28090368988 113 107 91
-389.844069208434 -113.517264836213 2209.6545868765 121 128 110
-528.132251056045 -124.644724381531 2304.28778013841 20 23 14
-529.622666833378 -123.881789351239 2263.78940874582 17 20 11
-537.065195835802 -124.181931782951 2254.79919794875 12 15 6
-553.820462869975 -125.115407399578 2246.66433509592 16 19 10
-566.67162229936 -126.42300713015 2268.24251503136 11 14 5
-579.7355394186 -127.787090742721 2291.80966700959 15 18 9
-591.670605815155 -128.951189267379 2309.47080337282 17 20 11
-602.688478579849 -129.950141998395 2322.20704914489 16 19 10
-611.708118123442 -130.565455110143 2323.09868632371 16 19 10
-621.032427152719 -131.243055155883 2325.96784077872 15 18 9
-635.909146470138 -133.044072019928 2364.42642422455 16 19 10
-642.96385855528 -133.278131069122 2353.46906246138 18 21 12
-648.728534509117 -133.237725775032 2333.60206209876 19 22 13
-655.330031962015 -133.357644719401 2318.66996959691 19 22 13
-662.151721254818 -133.513100937408 2304.71817913953 18 21 12
-670.880679430308 -134.068118137708 2303.63031838234 15 18 9
-678.22430395678 -134.321217115883 2292.63695219551 19 22 13
-689.69777327758 -135.478919567294 2311.36336339921 22 25 16
-698.000843476389 -135.943077178337 2307.30511010488 17 20 11
-698.364406116661 -134.597452985923 2242.75965659295 12 15 6
-702.012486986695 -133.952929860314 2200.98440581938 12 15 6
-712.383139597144 -134.848525402084 2210.77808735832 11 12 6
-722.694151153337 -135.74046581049 2220.57896185384 7 10 3
-745.35771646997 -138.061067404652 2259.07484836041 11 14 7
-749.844433114509 -137.534815559151 2220.21879409541 13 16 9
-758.883495663044 -138.132523844832 2220.10003366943 20 23 16
-766.503440405216 -138.362042884713 2207.05674805995 21 24 17
-773.127994583493 -138.314495284178 2184.05911960614 21 24 17
-777.701999782251 -137.687536841824 2140.15299100994 15 18 11
-785.929389075674 -138.020357607731 2130.05723324764 12 15 8
-794.205262548047 -138.356401469039 2119.95543343434 20 21 15
-534.415102353702 -134.608568065266 2340.81702245725 18 21 12
-533.067196609602 -133.495376226588 2285.55542660513 18 21 12
-546.009694025573 -134.745563840088 2307.12205690706 17 20 11
-550.348110857239 -134.553600934228 2281.38628327146 17 20 11
-565.260409754238 -136.153118060231 2314.80122019401 17 20 11
-558.919576730914 -134.107329369684 2226.90417926009 12 15 6
-578.000706804083 -136.438455690928 2284.9946567005 14 17 8
-590.289766250684 -137.610455942033 2304.62701182916 17 20 11
-600.344990368582 -138.398086101437 2311.43647109287 16 19 10
-609.394844322807 -139.010003808058 2312.32408848146 16 19 10
-625.057964997049 -140.82596184429 2354.7158019644 16 19 10
-631.338392257331 -140.944948634934 2338.81584730272 19 22 13
-640.898520293723 -141.664307017679 2343.671297374 20 23 14
-647.883783957534 -141.902979915503 2331.71492741546 20 23 14
-656.544478559768 -142.453469167821 2330.63557362445 18 21 12
-662.610778404677 -142.503388117057 2311.73885734727 16 19 10
-678.366518810964 -143.281647422568 2297.6817176252 20 23 14
-689.42191194474 -144.302016436357 2313.43663903937 22 25 16
-701.985014054871 -145.642224761063 2341.09745582548 19 22 13
-716.075101851631 -144.78695549803 2244.60728882348 10 11 5
-729.847353085915 -146.409723265939 2283.20323394389 8 9 4
-744.001473962817 -148.150125984795 2326.79074980638 7 8 3
-737.780684991182 -145.387120307834 2199.57415926472 11 12 7
-748.254480476958 -146.296950684278 2211.37038086591 14 15 10
-756.98342516676 -146.816203692471 2208.26705341154 20 21 16
-765.287417747345 -147.233974093092 2201.18526128703 13 14 9
-775.886814667975 -146.587602988752 2128.30974713509 2 3 0
-781.222942162602 -146.220395381258 2089.34811025501 15 16 11
-792.158209588896 -147.234970551268 2105.11800738941 22 23 18
-536.155018988852 -142.934208778842 2305.35036530182 20 23 14
-547.970075029236 -143.954470794391 2321.01048499455 19 22 13
-560.224280477955 -145.050498868451 2339.63930252787 18 21 12
-570.281194545186 -145.816037466247 2346.44825244982 16 19 10
-568.981484710721 -144.80959416906 2288.15786185702 11 14 5
-580.650265613192 -145.821022861609 2303.83621255994 13 16 7
-594.219580206769 -147.144319542755 2331.37141544057 16 19 10
-599.630836007482 -147.169442463227 2310.54100529169 16 19 10
-609.80796444015 -147.959110135761 2318.34270381278 16 19 10
-620.252578178447 -148.797702005453 2328.12700532308 17 20 11
-630.482855121355 -149.606887831613 2336.93004999159 19 22 13
-637.457780270442 -149.875071782957 2324.97480766613 19 22 13
-645.990196333649 -150.401500517771 2322.90371181771 18 21 12
-657.17496418476 -151.383087682465 2338.64238590139 16 19 10
-666.24738766902 -152.007737988597 2340.53514764384 14 17 8
-667.79846080709 -151.311001308762 2289.95178911409 12 15 6
-673.232279183764 -151.274943504642 2265.08741351035 15 18 9
-684.652516192253 -152.303778595028 2282.81220105738 21 24 15
-713.199758978688 -155.45651760583 2363.90993978856 20 23 14
-712.53364735167 -154.269416005254 2291.43118340966 20 23 14
-722.53622445327 -155.065372606528 2300.26260883353 13 14 9
-734.446739765151 -156.237317204761 2324.98111991416 9 10 5
-739.208333670112 -154.840170153448 2216.55277343304 13 14 9
-746.661404116921 -155.108635396493 2202.52248794558 16 17 12
-755.638095509565 -155.680912748816 2201.40375700147 17 18 13
-763.742032762199 -156.070547876694 2192.33148230955 24 25 20
-767.847260597798 -155.601607140934 2145.46096892758 18 19 14
-785.58733834494 -156.653962048072 2138.21120768248 19 20 15
-532.578643287361 -151.986057207506 2337.06097602933 21 24 15
-533.594516203169 -151.496426948946 2294.60693005366 20 23 14
-543.824878660675 -152.251079725698 2301.39444624323 18 21 12
-561.093170863694 -153.979986392337 2347.61636295515 16 19 10
-567.46945646019 -154.213283757461 2333.72036123777 15 18 9
-567.567882013516 -153.560343388819 2283.31839987466 11 14 5
-579.759865239925 -154.598127542724 2301.95482899019 12 15 6
-595.666122761914 -156.175038976957 2343.30764354429 15 18 9
-605.291643492711 -156.865514481515 2348.15485693188 16 19 10
-611.670067529366 -157.086277172329 2333.250868242 16 19 10
-624.920809966383 -158.310318775277 2360.82556565968 16 19 10
-630.0927065939 -158.349223426854 2338.0094479491 16 19 10
-633.858045481778 -158.167110149189 2305.29068649796 16 19 10
-645.592790109632 -159.176564364427 2323.98410168153 15 18 9
-659.280326202013 -160.494633483158 2356.54345347988 14 17 8
-664.981243850621 -160.593915400634 2335.67709053992 13 16 7
-665.686731688202 -159.901627266654 2279.15266464508 12 15 6
-668.225890996358 -159.470909437825 2233.48537511369 14 17 8
-682.327067170299 -160.868357520719 2270.02406450971 19 22 13
-693.950410710659 -161.884503039751 2289.73932687865 20 23 14
-700.61532674335 -162.098297052822 2272.78395286449 21 24 15
-717.368725799673 -163.980688296448 2333.17935011167 22 25 16
-724.62342233476 -164.298012115351 2321.18932337932 14 15 10
-729.358977502227 -164.178779678697 2288.34989053554 9 10 5
-727.422793998373 -162.884992301192 2198.89746865211 7 8 3
-736.650797070824 -163.499315730819 2199.76286041934 12 13 8
-745.065226179858 -163.969868602703 2193.67535283666 16 17 12
-755.074040018456 -164.726201354536 2201.49796823769 14 15 10
-763.722981276264 -165.238205350829 2197.39691855046 24 25 20
-765.463137070258 -164.455378679944 2128.64992752827 20 21 16
-775.877766172768 -165.277356101596 2139.44561428848 17 18 13
-785.721500778482 -165.997315444491 2145.27336061738 17 18 13
-535.778186238465 -160.691954447929 2309.47514485394 19 22 13
-541.112202896599 -160.832148476402 2289.66236382728 16 19 10
-557.712546444644 -162.34551827867 2331.9360803123 15 18 9
-562.036372735063 -162.359100420731 2306.20266878555 14 17 8
-595.786158438597 -164.972493050865 2347.34682024518 15 18 9
-607.201983915469 -165.875220198584 2363.05669229685 16 19 10
-614.020189440767 -166.193791881507 2351.12114034822 15 18 9
-620.740326207991 -166.49577924335 2338.19033629715 14 17 8
-636.210614917401 -167.354218591972 2324.16879014183 11 14 5
-641.743905812833 -167.487200442119 2302.31574767905 11 14 5
-649.896705906095 -167.964054066111 2297.26835327306 12 15 6
-661.398825318518 -168.893738500746 2314.98290153918 12 15 6
-669.249387388073 -169.330714070715 2307.95774543793 10 13 4
-671.563090938536 -168.998722517245 2261.31116434615 11 14 5
-681.362523692228 -169.695330074317 2267.14437778818 14 17 8
-687.109624001984 -169.821625099427 2243.24902109988 16 19 10
-699.143667976897 -170.837721052595 2265.93633191541 23 26 17
-710.020488165542 -171.696920886266 2280.70542664592 26 29 20
-724.706844116115 -173.121568734073 2326.24106538493 14 15 10
-720.569344714152 -171.775433458233 2221.94670903863 7 8 3
-729.863885309408 -172.398803177726 2223.81174850639 5 6 1
-739.101979041059 -172.207046756674 2147.07632549457 13 14 9
-755.38980785751 -173.058065826263 2126.9063727682 13 14 9
-520.909865642045 -168.376324421804 2281.11808451416 21 24 15
-522.797002465451 -168.203676734468 2242.5871333775 19 22 13
-538.755798030256 -169.5173284405 2279.90170954784 15 18 9
-557.696455990421 -171.158955801693 2334.9845997432 14 17 8
-565.500869460264 -171.616286659914 2328.97318368621 15 18 9
-563.704529973391 -171.033021293405 2267.72234212995 13 16 7
-579.162201611931 -172.315144188722 2305.09937257367 13 16 7
-589.746599078475 -173.072388425032 2314.86577540624 15 18 9
-593.228238295811 -173.047726601854 2282.1830729083 17 20 11
-604.294313015556 -173.858799562264 2294.91280858666 17 20 11
-614.493096117074 -174.576393426412 2302.71185519803 16 19 10
-624.643528914102 -175.290995453203 2310.51668749392 12 15 6
-635.663422216737 -176.107043146705 2324.26012680783 11 14 5
-644.048029554018 -176.625007608483 2321.19952695727 11 14 5
-651.70613050648 -177.058454336111 2313.19069247434 11 14 5
-653.753970782329 -176.83563664036 2266.57757705294 12 15 6
-669.126822372739 -178.166934770896 2311.01961226327 12 15 6
-674.212863501083 -178.291114701291 2284.18344471932 12 15 6
-680.123617417802 -178.506241607436 2262.28351342911 13 16 7
-685.344484463871 -178.631490856465 2234.42283612553 14 17 8
-697.932177883 -179.647727752735 2261.0718035275 22 25 16
-709.725333702761 -180.575112936033 2282.78101477709 25 28 19
-725.79879724823 -182.0435493559 2339.22918515948 15 16 11
-727.765606261821 -181.754858190656 2284.56379089336 8 9 4
-746.646319498962 -181.854445148676 2137.09057806619 11 12 7
-754.922683117046 -182.320739345186 2127.99674719342 14 15 10
-759.287840661291 -182.254345716119 2082.10278358091 11 12 7
-508.470528203916 -176.210948337141 2218.19429282994 20 23 14
-525.526065345307 -177.512275312041 2260.41088570709 19 22 13
-544.326591757783 -178.978982954812 2313.49518838117 15 18 9
-546.319899708397 -178.917681230278 2274.95152120989 13 16 7
-564.253375173592 -180.314573530897 2325.12078156545 13 16 7
-563.490163767013 -179.994149402926 2269.78830704224 10 13 4
-574.036573903066 -180.713996484235 2278.5516648868 11 14 5
-582.362437316271 -181.228503698754 2274.49069972795 15 18 9
-587.753535685595 -181.467545327081 2252.65568135645 17 20 11
-599.387194780473 -182.291310349899 2268.33792084773 15 18 9
-610.612057172541 -183.079269664222 2282.05546699256 14 17 8
-621.600292740222 -183.847304689817 2294.79504346679 17 20 11
-631.594206928778 -184.522546196516 2301.61161760696 14 17 8
-643.951968361679 -185.42719168543 2324.25799662796 12 15 6
-651.453087443492 -185.865024747423 2315.26107700748 13 16 7
-661.462996153936 -186.546417404167 2323.08359869164 13 16 7
-670.286023430252 -187.112901727143 2322.99171596325 15 18 9
-676.312221872233 -187.40282160283 2303.09294903979 16 19 10
-680.251729197844 -187.481128307287 2267.32983664073 14 17 8
-687.332769829131 -187.867917450412 2253.34653014535 12 15 6
-700.531055534549 -188.870906843542 2284.95818038139 14 17 8
-716.182964396739 -189.793885521113 2267.89083750343 23 24 19
-727.214517887736 -190.585226456669 2284.65581792498 12 13 8
-757.52610802631 -191.493599988577 2071.2614494907 13 14 9
-508.459842896595 -185.334247925627 2221.24295374119 22 25 16
-545.229177384864 -187.79264608147 2272.08770724832 14 17 8
-550.755511719936 -188.102250798638 2252.25137224957 14 17 8
-560.692484622404 -188.747294970584 2257.05959860562 11 14 5
-573.819388210156 -189.636975363813 2280.61764092096 11 14 5
-583.140532979146 -190.236374309747 2282.47929721894 15 18 9
-594.251649960667 -190.973821286504 2295.20345826665 19 22 13
-604.641645055958 -191.656675807364 2303.986238365 20 23 14
-613.708085561207 -192.237848105112 2304.87170488313 18 21 12
-624.48037398221 -192.951712965793 2316.63016026247 16 19 10
-635.182635239042 -193.661176416398 2328.39734302694 14 17 8
-641.899275805172 -194.06015028465 2314.45930332468 13 16 7
-651.644463951996 -194.695677698692 2320.29912532056 13 16 7
-662.658622669555 -195.431722858045 2335.05075669116 11 14 5
-671.16442847088 -195.970983789715 2332.98301543923 9 12 3
-675.902557778837 -196.211441080758 2304.1749569808 11 14 5
-681.615019511342 -196.527099390534 2281.29234903057 13 16 7
-689.596216510985 -197.022201731007 2274.25104353712 14 17 8
-692.345334897434 -197.096878446115 2227.55119619437 15 18 9
-709.394966274329 -198.320188595487 2288.91557683084 16 19 10
-710.707063763813 -198.275094684628 2229.29385243731 21 22 17
-717.031593486705 -198.632192450713 2207.34265824791 19 20 15
-730.233307981134 -199.549520702682 2240.96902920217 12 13 8
-757.047188192097 -200.90129399444 2072.35391804892 10 11 6
-537.235120951116 -196.212856712442 2329.54205462323 18 21 12
-542.140985101335 -196.536353252194 2307.76757275386 14 17 8
-549.668899737318 -197.046437970995 2249.38722763627 15 18 9
-562.546720422475 -197.852987296987 2270.9607609062 14 17 8
-570.88728463871 -198.385246566786 2266.89800792345 12 15 6
-581.750190934622 -199.069746658771 2277.63739029845 12 15 6
-596.328002099418 -199.977961582784 2311.09224879277 16 19 10
-609.585341662102 -200.806069835089 2337.65715288484 17 20 11
-614.269711520549 -201.118013401965 2311.87929310777 15 18 9
-625.962437002723 -201.851622846576 2329.56953850673 16 19 10
-637.552581383534 -202.578745810561 2347.27256833878 17 20 11
-641.6524918935 -202.856403038953 2316.52887958155 21 24 15
-650.653198619836 -203.428240411269 2317.42252470349 21 24 15
-657.608608638929 -203.877732108893 2304.46274838893 20 23 14
-677.032481638898 -205.106615505498 2316.15058054162 19 22 13
-683.394744163803 -205.521266151142 2298.22581774657 19 22 13
-691.328874882369 -206.029894483447 2291.19042146697 20 23 14
-695.73736759009 -206.329176499558 2257.38497886057 17 20 11
-707.811486047134 -207.084158016308 2281.07428808027 17 20 11
-713.623103241753 -207.507835358349 2184.61290622978 23 24 19
-718.789938827312 -207.855046041767 2151.72064023214 17 18 13
-734.88947615105 -208.847484019938 2209.17199033438 8 9 4
-741.196229064729 -209.262333216305 2185.20755220688 10 11 6
-515.888922251938 -203.874228445633 2266.72164321593 21 24 15
-537.237327990253 -205.008492495814 2332.58824375488 16 19 10
-550.807439752639 -205.782964719502 2358.10628737876 13 16 7
-546.477559996309 -205.912843154612 2234.69256978357 15 18 9
-565.786905004051 -206.943847191748 2292.75114352357 15 18 9
-588.169958133944 -208.104547831064 2370.58166178918 9 12 3
-577.850293731486 -207.820427430188 2257.99193544352 10 13 4
-594.133172548867 -208.708376674508 2301.3113097255 13 16 7
-605.966419560599 -209.398907053382 2318.98390542114 16 19 10
-614.515758249085 -209.946420790953 2316.91075325574 15 18 9
-619.943828848756 -210.361280869926 2295.0715839801 13 16 7
-631.93938234439 -211.05563485688 2314.73930905181 15 18 9
-643.519643643273 -211.730184835119 2332.44343378497 21 24 15
-641.508532666584 -211.83988195634 2260.13594044663 23 26 17
-653.857719404626 -212.546942745213 2282.78286920658 22 25 16
-665.220254119017 -213.211027852809 2299.50645027323 23 26 17
-675.784962880727 -213.840854974682 2311.29058905645 20 23 14
-684.630797626558 -214.40089773708 2311.19584312708 15 18 9
-694.144759732346 -214.986999395286 2316.05670350674 15 18 9
-698.875764684386 -215.387482882055 2285.23458135271 12 15 6
-715.672783958612 -216.956736945218 2130.97074103588 9 10 5
-728.997658970261 -217.689913712523 2164.58125732933 10 11 6
-734.149939023574 -218.130656165877 2129.67567989227 12 13 8
-522.18335484919 -213.324833690299 2254.8757441863 16 19 10
-537.675215979373 -214.389584492911 2239.84436213607 16 19 10
-570.244369302918 -215.949318793746 2321.4436821865 15 18 9
-574.533889114047 -216.379565982271 2294.70772181119 14 17 8
-581.308100988243 -216.883405330585 2281.77046080774 11 14 5
-589.62990444956 -217.431393208848 2277.71009047702 11 14 5
-602.017297710967 -218.087134262296 2298.33674194365 17 20 11
-607.916284027255 -218.571576664708 2279.46204970774 20 23 14
-616.887446752888 -219.136787559685 2279.35191746626 14 17 8
-628.468521745179 -219.76542865083 2296.04789238893 11 14 5
-636.174698861812 -220.298495826674 2288.03332063184 16 19 10
-638.428489834056 -220.708099142883 2243.41178370445 19 22 13
-649.95373419762 -221.333243224738 2260.11471675027 19 22 13
-663.669311143027 -222.001143898989 2292.66861675173 20 23 14
-673.694187540711 -222.585201352268 2300.48901422823 18 21 12
-685.871337583122 -223.209588025737 2324.16512179831 14 17 8
-695.485933862507 -223.779651181923 2330.02106848941 13 16 7
-699.381092022469 -224.245526760231 2293.25682415468 14 17 8
-690.398339423834 -224.937655861523 2083.75766054929 20 21 16
-708.64250909665 -225.6642941134 2154.04156659065 12 13 8
-716.186980787302 -226.223579241134 2140.00064063213 7 8 3
-721.667596765696 -226.760306409424 2108.07764314837 8 9 4
-729.054173226277 -227.327724808543 2091.03314143646 13 14 9
-503.021278100414 -221.575549488247 2204.88521264006 21 24 15
-505.264701734307 -222.043667380504 2167.31941381608 17 20 11
-524.550707532712 -222.779672558803 2221.34913462093 15 18 9
-550.847640369288 -223.601782259566 2315.82221418354 17 20 11
-554.485171492575 -224.088385862563 2286.14446499125 13 16 7
-566.755635938133 -224.694069994215 2304.76996219457 17 20 11
-573.300106530261 -225.225173114663 2290.85399651363 17 20 11
-581.088374908541 -225.773966619187 2283.83690876532 12 15 6
-588.909743534632 -226.324875331586 2276.81569587209 9 12 3
-600.492980002656 -226.91319186702 2292.5036077639 14 17 8
-615.236072140811 -228.010493176146 2272.5270776181 18 21 12
-632.690851389282 -228.62993996091 2326.78501771789 13 16 7
-635.168276909794 -229.148217872881 2285.15892000625 8 11 2
-637.868412028195 -229.680687692677 2243.50530709606 9 12 3
-664.120168019326 -230.834139148254 2299.69014435117 16 19 10
-672.723227371224 -231.390947742581 2297.6100723735 18 21 12
-679.403821499015 -231.948395516444 2281.66157419265 22 25 16
-682.250542573004 -232.516620376755 2236.96622054938 20 23 14
-692.612626208412 -233.079987900454 2246.76009653508 21 22 14
-691.58874358914 -234.316137954143 2097.74262376424 21 22 16
-698.508011749817 -234.924003264404 2077.73324431764 15 16 11
-716.461365814332 -235.443411426331 2147.04520959637 10 11 6
-723.223883211445 -236.050101871672 2126.04746125747 13 14 9
-518.506331474315 -230.726260522503 2289.64420502928 21 24 17
-518.302856777928 -231.278675998966 2240.29078039243 23 26 19
-527.972420964359 -231.848638395829 2243.11656558503 21 24 17
-550.476787938823 -232.405632076508 2316.89960636648 12 15 8
-561.491946542865 -232.957480809654 2328.62708605036 14 17 10
-565.338973488165 -233.525658735615 2299.93133520802 15 18 11
-570.872163679047 -234.097426418835 2280.09483503583 16 19 12
-580.198650535001 -234.657044504251 2281.95571991145 14 17 10
-592.149502586083 -235.199262064295 2299.61324861693 11 14 7
-584.198234316742 -235.881038226666 2196.80809587803 11 14 7
-596.593932921166 -236.42851570864 2216.42549841176 13 16 9
-613.739327630232 -236.920939303615 2266.69072470045 19 22 15
-626.749231122316 -237.438315148565 2292.27800195038 17 20 13
-634.463880999224 -238.010586608389 2284.26247608598 13 14 8
-641.919339433472 -238.589416048485 2274.26369858638 11 12 6
-669.501647085798 -240.254380053667 2278.8881918715 13 14 8
-672.783783375227 -240.924961413811 2238.1697591972 18 19 13
-680.473755381374 -241.518705581398 2228.1419953364 20 21 15
-691.127045374816 -242.047423350653 2239.91481343771 24 23 18
-696.649287645095 -242.699184894964 2213.02559993745 23 24 18
-686.812602374197 -243.779949993433 2065.10750363602 23 24 18
-697.921253656908 -244.326127180511 2077.83122841744 15 16 10
-715.643452092041 -244.659108732435 2145.15593513918 9 10 4
-719.791873967809 -245.407916687171 2102.3142269557 13 16 9
-748.632902999457 -246.195401068204 2190.42336431127 12 14 9
-506.180678405488 -239.76107460656 2227.7173142329 21 24 17
-529.156860973921 -240.140004244266 2301.4407660235 26 29 22
-542.106306132797 -240.636907742161 2323.00454554129 19 22 15
-541.170380636904 -241.348676093455 2268.70427032443 14 17 10
-555.664733380607 -241.81545839565 2299.14483960715 13 16 9
-571.719408645809 -242.23882897819 2339.46840759737 16 19 12
-576.458599153599 -242.869450971135 2315.70016022077 16 19 12
-585.520136310823 -243.418440071906 2316.58639416319 14 17 10
-593.084848100876 -244.000569327528 2308.58960564576 12 15 8
-593.214708804652 -244.765892825392 2255.16391447707 11 14 7
-600.342009157825 -245.377245907242 2243.19080061941 12 15 8
-612.711817561157 -245.851341447696 2263.81916821537 16 19 12
-626.351744416017 -246.277819479135 2293.35857155964 18 21 14
-633.001127499237 -246.901514803318 2278.42182989138 16 17 11
-643.747325223931 -247.400639019723 2290.18297572353 14 15 9
-662.31809361261 -247.627115467335 2355.38589098923 14 15 9
-675.503819038374 -248.010297704459 2385.98978933564 13 14 8
-663.176538400856 -249.338484462045 2238.38315618785 14 15 9
-672.637895144264 -249.884205864216 2241.23486060064 16 17 11
-682.077755273542 -250.428540078664 2244.08924401067 19 18 13
-691.230804804022 -250.983144416206 2244.96407253745 24 23 18
-699.333665899817 -251.585068176381 2237.90786539448 25 24 19
-697.927687574654 -252.652188160985 2156.45771199656 23 24 16
-712.183655172555 -255.13113592305 2043.83142980313 11 14 7
-730.444716589119 -255.20916551186 2118.14250842841 9 12 5
-743.633382275956 -255.549508789508 2151.76922859606 6 8 3
-747.534082186927 -256.469075060835 2103.92020857552 16 18 13
-502.249616545538 -248.910217578815 2210.09217207529 22 25 18
-526.577669088354 -249.047986316562 2290.70081389019 25 28 21
-532.841531572312 -249.68594929373 2275.81198021817 19 22 15
-545.801036762374 -250.120651929719 2297.37434049978 14 17 10
-561.80792706899 -250.443067998879 2336.69591881202 16 19 12
-565.450196813546 -251.169257441171 2307.01820920859 17 20 13
-575.568536010927 -251.67818540161 2313.81905813119 16 19 12
-581.610806295168 -252.335939887074 2296.9425557795 14 17 10
-586.582979131784 -253.044653725761 2273.14543923774 13 16 9
-593.469335847821 -253.688047043303 2260.19455073143 11 14 7
-601.8605334664 -254.274083054533 2256.12562061854 11 14 7
-616.085350474433 -254.601896871452 2288.61507486415 15 18 11
-625.182258560676 -255.147716714984 2289.49688637761 19 22 15
-636.393785075936 -255.589902633727 2304.22311354603 18 19 13
-643.344669466694 -256.237266760608 2291.26418282439 16 17 11
-651.092816724974 -256.85027886053 2283.24458397385 15 16 10
-660.028461648463 -257.40273432942 2283.13861028439 15 16 10
-676.778414494778 -258.57229663033 2275.00503233667 15 16 10
-685.313592177423 -259.150219624853 2271.92580009584 18 17 12
-689.875382632036 -259.985674389141 2239.11032592696 23 22 17
-710.602828784156 -260.914731808855 2259.70459496583 28 29 21
-722.290017113268 -265.114835852035 2053.68202645462 8 11 4
-732.815024533884 -265.6150068501 2062.4474767224 12 15 8
-736.507196556876 -266.71825282097 2010.59373453317 15 17 12
-507.672194986056 -257.765722172394 2241.68717682958 22 25 18
-513.110657960355 -258.488620435961 2221.86289605101 19 22 15
-529.013848467707 -258.751636912058 2258.1739574951 19 22 15
-545.070037909294 -258.984814754265 2296.48122119413 12 15 8
-557.030433085687 -259.391810069461 2313.12951577282 21 24 17
-568.02578321271 -259.836102180369 2324.85942445973 16 19 12
-573.823265800364 -260.542148402164 2307.00566997304 15 18 11
-580.218202353157 -261.226925736672 2292.10084258481 15 18 11
-584.372405517303 -262.045627599775 2263.36741771224 15 18 11
-590.958158298591 -262.742496339625 2248.43856916033 13 16 9
-599.541442323981 -263.329397710061 2245.3535974453 11 14 7
-613.959186885844 -263.556640709202 2278.82639772129 13 16 9
-621.691435342315 -264.1880720725 2270.8088314537 16 19 12
-630.221866675974 -264.771477647156 2267.73044623608 21 22 16
-651.859004858995 -265.616977173698 2292.24195970231 15 16 10
-658.181495049974 -266.356088026492 2274.32301471381 16 17 11
-669.112146009768 -266.756228701192 2288.07625539944 15 16 10
-676.916783681593 -267.392019719979 2280.04966686673 14 15 9
-683.266936708523 -268.152542852883 2261.11963901012 17 16 11
-688.783934191454 -268.998317487908 2235.23927805308 21 20 15
-706.398656198495 -271.56362242196 2159.48137644268 21 24 17
-708.544373629643 -272.826975137499 2101.77468142149 12 15 8
-712.432258170991 -273.964073068303 2055.94320774158 10 13 6
-719.365256156329 -274.820734030993 2033.91715562341 7 10 3
-722.991940981708 -276.059695491374 1982.07218351994 12 15 8
-514.761429572308 -267.430695159183 2233.77364440188 22 25 18
-529.182967612499 -267.675422900876 2262.20734155994 19 22 15
-534.122648070315 -268.486347804036 2239.42223614236 15 18 11
-548.714515851721 -268.696786182263 2269.85020132101 19 22 15
-574.129099218532 -269.304963626394 2312.02949636097 14 17 10
-582.36036692662 -269.897746158568 2307.98054232213 15 18 11
-583.152697807758 -271.029414210212 2259.51205957558 16 19 12
-587.465230347077 -271.935152741613 2230.75910534098 14 17 10
-599.943236750586 -272.235633589085 2251.37351325807 12 15 8
-609.781578994192 -272.728036495864 2256.19340589317 11 14 7
-620.82664051557 -273.1171784848 2268.924893023 13 16 9
-636.968640687169 -273.065685697343 2315.28267570328 21 22 16
-649.400742606744 -274.62395289416 2279.47156249681 16 17 11
-657.771495696483 -275.225158598713 2275.4052236891 16 17 11
-660.931141110888 -276.327165145292 2234.70345356346 15 16 10
-673.86969873021 -276.498964701101 2262.31433875878 15 16 10
-679.857901745339 -277.353400921874 2240.40618560854 17 16 11
-679.435621278439 -278.902348757552 2169.91982029631 19 18 13
-689.306683474911 -279.396281178955 2174.73587397139 21 22 16
-708.852077245352 -283.792781893807 2031.22177710542 10 13 6
-711.758247522505 -285.238311341695 1974.42834891893 8 9 3
-728.783086707875 -284.859586549072 2037.80721903745 12 13 7
-737.207027217103 -285.598576387777 2027.68800247721 11 12 6
-532.680677219613 -275.121413708734 2332.333599348 31 34 27
-534.817079223805 -276.167823522161 2295.79060646883 19 22 15
-535.534607426662 -277.351048742855 2250.35489599158 22 25 18
-546.744869380708 -277.738266771747 2262.05783465046 16 19 12
-557.71137713991 -278.135136797433 2272.78329044305 16 19 12
-565.359316553455 -278.800259237182 2264.77633416984 16 19 12
-575.742868115374 -279.235600362379 2272.55157946715 14 17 10
-591.053840527803 -279.227265731277 2309.94351873304 14 17 10
-597.017905841308 -280.037426148452 2292.06949015676 14 17 10
-597.619847142014 -281.364458081099 2240.60197982479 14 17 10
-609.066233399872 -281.690483974 2255.29859198251 12 15 8
-622.906521157009 -281.764922296429 2285.81999175358 12 15 8
-637.182940834068 -281.766064286512 2320.31776047767 17 18 12
-651.114947377977 -281.77043452339 2353.85059105916 21 22 16
-657.954176021196 -282.509713627084 2340.90607663826 25 26 20
-652.027690345371 -284.683104870542 2239.8675453137 14 15 9
-659.663245053026 -285.397248207917 2229.84664920823 15 16 10
-666.237869052094 -286.245759752581 2211.8965275139 16 17 11
-671.136409414844 -287.315707976576 2181.05526094264 17 16 11
-681.79741213746 -287.692090331596 2191.81902827286 22 21 16
-689.781178954816 -288.402910272707 2182.76235570086 23 24 18
-698.831644348547 -288.979585108717 2181.63442977817 22 23 17
-707.179673755167 -293.47597178742 2022.38631908857 10 13 6
-713.846412897294 -294.506575484736 1997.37065100861 8 9 3
-734.268027721644 -295.503969798701 2006.91798706557 15 16 10
-527.51051728591 -284.291277785811 2307.80909391673 35 38 31
-537.181896777651 -284.769111405066 2311.6420970503 16 19 12
-530.126772091824 -286.784414452105 2223.8451305023 14 17 10
-535.929538900814 -287.659467241702 2204.98347455062 17 20 13
-550.53825292927 -287.695877087528 2235.40887911928 16 19 12
-558.116431220348 -288.403982398002 2226.40281444866 16 19 12
-569.113329100369 -288.769946204456 2237.12463661215 15 18 11
-585.524545766211 -288.556997831329 2280.42533618342 14 17 10
-594.179943446328 -289.137533473307 2278.33879517614 14 17 10
-601.717072097566 -289.842700175454 2269.33808578791 14 17 10
-617.350599971 -289.63590853849 2310.72023807124 13 16 9
-618.319482623874 -291.098232228216 2260.21521928081 11 14 7
-631.300172830617 -291.170166968439 2285.80496912275 14 15 9
-651.622940413347 -290.310018954961 2360.86421571679 18 19 13
-655.353009271106 -291.472134321926 2327.14570863699 25 26 20
-659.52676808531 -294.342673033015 2232.91053974816 17 18 12
-668.174064312201 -294.949995699249 2229.81763346757 15 16 10
-682.553028610322 -294.746581653353 2268.33305519965 18 17 12
-693.920396454252 -296.815023975675 2218.54733732082 21 22 16
-701.592457172391 -297.583863250209 2207.51434242267 23 26 19
-701.426241299768 -303.900187017302 1979.79785626021 11 12 6
-724.504925983735 -304.418093742795 2011.18314103504 13 14 8
-522.702417030666 -293.559626011041 2285.25503912895 21 24 17
-525.503750984926 -294.754185744568 2251.65251811557 20 23 16
-555.555086225688 -296.090009299761 2267.05330346107 17 20 13
-560.985777278833 -297.052239505659 2246.22293574626 17 20 13
-565.512017388952 -298.141211864864 2219.4591688064 15 18 11
-581.979562878529 -297.808636384477 2262.75228357102 15 18 11
-589.702595017286 -298.517119465359 2254.73607035835 15 18 11
-605.663574516498 -298.182771094626 2297.08495006547 15 18 11
-612.376870170152 -299.011162125854 2283.14845864333 13 16 9
-619.005723482058 -299.864826279133 2268.21464431515 13 16 9
-653.777696954537 -300.361321396746 2320.31117716515 24 25 19
-660.734964475441 -301.174079683115 2307.35212569497 24 25 19
-667.899329798004 -301.969204545395 2295.37463003596 15 16 10
-673.037266436889 -303.096219790254 2268.53462717021 15 16 10
-682.544070076015 -303.548587406906 2272.38834160215 18 17 12
-691.890220453881 -304.021380537906 2275.25423103425 21 20 15
-692.04804233806 -306.06040706485 2208.72775164443 19 20 14
-688.844791014516 -308.776652332785 2113.39740948568 19 20 14
-694.943957868305 -309.933728306141 2087.44545730264 14 17 10
-705.867410471758 -312.596719777044 2021.59250823066 11 12 6
-725.054005482341 -313.756981737461 2021.21680457702 14 15 9
-513.438904687403 -303.473373976303 2239.07252082908 25 28 21
-520.379424858619 -304.285973497616 2227.12300574048 23 26 19
-522.702682403939 -305.674677882914 2189.5496684481 12 15 8
-526.467530495942 -306.920829059139 2158.85034399411 7 10 3
-557.442145260583 -304.711530832712 2280.94909456944 17 20 13
-564.549233927975 -305.500856675709 2269.98665879379 17 20 13
-577.121493514979 -305.56699376187 2290.58868733484 15 18 11
-577.596849876479 -307.272758353275 2240.14565853209 15 18 11
-590.617869535223 -307.26683424354 2263.71479626195 15 18 11
-601.25063710208 -307.577339846139 2273.47398632167 15 18 11
-608.343160716435 -308.39873945296 2261.50576554546 12 15 8
-615.340218146397 -309.247442190081 2248.54160291956 14 17 10
-622.861209365816 -310.02898966907 2238.53542143528 11 12 6
-637.185899763643 -309.737285822424 2273.02615479095 10 11 5
-647.77841259009 -310.011215009843 2283.79819944854 15 16 10
-659.463584162179 -310.086800492967 2302.49534174633 22 23 17
-669.194988681294 -310.473065213268 2308.33622743303 23 24 18
-671.647280061234 -312.136501334081 2262.68553365416 19 20 14
-682.263463547941 -312.378041004233 2274.46222615483 16 15 10
-691.2032692801 -312.914451783078 2274.35569096793 18 17 12
-690.703880097916 -317.60396316663 2132.33614904589 18 19 13
-693.947696573414 -321.92885322069 2007.98832634997 7 10 3
-714.161896111942 -322.881393992677 2015.54581402305 10 11 3
-728.133323510973 -322.465316133882 2053.10384681003 13 14 6
-524.752054677564 -312.676307567603 2253.80889683705 20 23 16
-553.919631545386 -314.034132194731 2264.28135218211 16 19 12
-569.840593520621 -313.565433067233 2303.61133019965 16 19 12
-573.862159374918 -314.837660591598 2274.89565202289 15 18 11
-584.863940223956 -315.069462092646 2286.62419860725 15 18 11
-596.451108769097 -315.193550038528 2302.31039726961 15 18 11
-601.018728332832 -316.427842288967 2275.54184911334 15 18 11
-606.044591842754 -317.618781942277 2250.73161511929 12 15 8
-611.82373467308 -318.71274353074 2229.85786932388 14 17 10
-619.547549975431 -319.495814929641 2220.83406770451 13 14 8
-634.07734403467 -319.082331949883 2256.30681200173 11 12 6
-638.520286089846 -320.453068020875 2225.52319351987 11 12 6
-660.073698446988 -318.675605534797 2310.50403899468 18 19 13
-679.736438935303 -319.350051929764 2324.17621627202 22 23 17
-686.093829571107 -322.726373126136 2240.7553941566 18 17 12
-694.595408198487 -323.376953512276 2236.6728591217 21 22 16
-678.920775490958 -332.014296124232 1970.58747686336 19 22 15
-713.446916667818 -332.474559779135 2014.65237512448 9 10 2
-508.97563428014 -322.008309911927 2221.5385123035 12 15 8
-518.705375851414 -322.475081685474 2224.3565159654 25 28 21
-536.165068489953 -321.758914684651 2269.54066119059 18 21 14
-542.363170873425 -322.740644319689 2253.6532521894 7 10 3
-564.727891321778 -321.167809478657 2328.45555803357 16 19 12
-567.570302725742 -322.675755638916 2293.84104899112 15 18 11
-575.849428069144 -323.322160476053 2289.78626381477 14 17 10
-586.645946927011 -323.544377023243 2300.5327135423 14 17 10
-599.345878390632 -323.420172970433 2323.13368232771 14 17 10
-603.045637398559 -324.865439744545 2291.43531787226 14 17 10
-605.328141491266 -326.60997377005 2249.83677450427 14 17 10
-613.132725671182 -327.381411009187 2241.81054986653 12 15 8
-624.191877982106 -327.541798941173 2254.53943586472 13 14 8
-636.679965713737 -327.403424848236 2277.16704444792 13 14 8
-640.912991505021 -328.88212878122 2245.40197923737 12 13 7
-649.229977121846 -329.568814535032 2240.33488830289 12 13 7
-667.103661787271 -328.253458586137 2301.58974647388 20 21 15
-679.889648426476 -327.938682918235 2329.218390247 23 24 18
-687.864424052873 -328.642138667312 2323.18636216119 21 22 16
-694.524663043629 -329.651405411728 2307.24135376154 19 18 13
-697.082693317449 -343.063497517156 1964.31908590785 13 14 8
-713.674906238706 -341.821155708529 2021.70306779517 14 15 7
-522.720964749494 -330.785511391248 2249.07137903641 25 28 21
-540.661983979932 -329.846277463391 2297.21793140426 20 23 16
-556.022574624845 -329.284569185632 2332.58660685316 20 23 16
-560.683209223393 -330.543163568716 2308.82981653255 15 16 10
-568.742699860032 -331.225822838774 2303.7948488457 14 15 9
-576.485326244526 -331.971569002685 2296.7839756162 15 16 10
-587.097920535064 -332.191046888791 2306.54568373203 16 17 11
-597.158903502879 -332.500373053032 2313.35292446002 17 18 12
-602.494902506753 -333.717994928005 2291.52735921983 18 19 13
-604.929081531035 -335.543059194846 2250.91802715753 15 18 11
-614.914079536988 -335.888855172204 2256.72715930332 14 17 10
-623.174982939043 -336.583437331858 2251.66684762384 13 16 9
-632.813485919278 -336.990280743361 2255.50400687024 12 15 8
-645.040974199746 -339.356449798618 2215.6893268868 10 13 6
-659.288571360181 -338.721826785416 2251.19694559299 11 14 7
-673.33575964739 -338.074274844629 2286.72929982514 19 22 15
-685.94899858493 -337.710615524932 2313.37144538986 22 25 18
-698.679311404389 -337.270818007458 2342.01463505289 19 20 14
-701.549750365494 -351.343369089403 2006.10916969327 21 24 17
-714.259482536536 -351.026537846877 2031.73194996354 11 12 6
-529.096120572639 -340.711792591376 2237.21665890112 12 14 9
-533.599431920779 -342.11272865694 2211.46426197871 21 24 17
-550.150623941557 -341.258891770712 2252.730191231 17 18 12
-551.810123084356 -343.23396245942 2210.2023152095 17 18 12
-565.750349810712 -342.835664074623 2237.68669668944 18 19 13
-582.373755570526 -341.852520034162 2281.96657513155 18 19 13
-592.17505910634 -342.212426201886 2286.7909813217 16 17 11
-597.257251432191 -343.560547207161 2262.98181885413 15 16 10
-610.092462508485 -343.268922446487 2286.5733920141 16 19 12
-616.700646887965 -344.313948592873 2271.64266099149 15 18 11
-622.003715308974 -345.675730083027 2247.80597046745 13 16 9
-634.820186924396 -345.337995292493 2272.40744787041 12 15 8
-674.32401564881 -346.525404201436 2297.71350595337 14 17 10
-684.304745173032 -346.761877695467 2305.53849734869 25 28 21
-691.234227993956 -353.827856546073 2154.53615713917 30 33 26
-694.925373955609 -355.974531260592 2110.74750842055 14 17 10
-696.128884911277 -358.940526954383 2045.10066145515 22 25 18
-532.059226431966 -353.83418204645 2154.24508938287 15 16 10
-550.037200671615 -352.575917187678 2203.39387692564 16 17 11
-562.641791683073 -352.390717839526 2222.98352171232 18 19 13
-577.64130527463 -351.650079871132 2257.3888588709 18 19 13
-586.524187809425 -352.218374288973 2256.28182422874 16 17 11
-600.261424771511 -351.680047832092 2284.79909623919 15 16 10
-608.586742541854 -352.354053192063 2280.73861920603 16 19 12
-620.994492984038 -352.060979625647 2302.36791864551 15 18 11
-629.897365456272 -352.58268251534 2302.2659537784 13 16 9
-637.587589153784 -353.404503577277 2294.25413333677 12 15 8
-642.796003044478 -354.870320695708 2269.42184201445 11 14 7
-672.87506883865 -349.897634011921 2412.7879451962 12 15 8
-673.170378743944 -352.607505577926 2355.31597945064 11 14 7
-672.654055539068 -355.643097076389 2289.883940899 13 16 9
-684.169216857636 -355.433562832178 2308.60154861869 21 24 17
-693.825161337085 -355.718934772812 2314.45158557469 24 27 20
-691.939761511624 -366.029538832826 2091.99907822926 30 33 26
-698.880321251676 -367.368324506459 2071.98896657219 15 18 11
-706.287280111977 -368.595083824558 2054.94365760814 4 7 0
-511.975664663053 -364.730007828921 2098.32991639575 8 10 5
-539.622041645377 -363.901633452572 2147.28120390346 13 16 9
-568.032974985125 -360.07256582698 2257.60241490596 16 17 11
-571.896324599064 -361.819335096522 2226.89211640429 17 18 12
-582.015746633179 -362.117078017735 2232.68434668005 17 18 12
-596.146846138611 -361.421896411824 2263.16742809752 16 17 11
-607.875408357919 -361.272523242683 2279.84294861333 15 18 11
-634.271704742148 -360.11179630399 2333.98827957908 14 17 10
-632.201975181798 -363.526919568199 2262.70449331372 13 16 9
-645.210293025547 -362.958973875839 2289.29703765449 13 16 9
-654.715940213949 -363.316214989598 2293.15040562364 9 12 5
-669.628417692381 -362.120153881769 2334.61993552753 10 13 6
-672.94536921095 -364.229984958176 2295.91680306522 12 15 8
-683.209372547787 -364.33539790678 2305.72147261653 16 19 12
-693.413899374885 -364.436827763232 2315.53355399531 18 21 14
-701.444585538445 -365.198558327788 2309.49470206965 20 23 16
-699.656765664255 -376.320705824351 2083.00092556369 20 23 16
-707.273614982032 -377.504789258305 2067.94492559111 22 25 18
-521.382238901695 -371.820986861393 2153.60926745011 14 16 11
-527.925088447802 -373.031437098874 2137.67943836871 14 16 11
-543.544469436406 -372.081094721595 2173.01503512734 14 16 11
