ply
format ascii 1.0
comment KinectMotionCapture
element vertex 757
property float x
property float y
property float z
property uchar red
property uchar green
property uchar blue
end_header
-1122.89464028377 65.1586035417118 2636.53560091087 115 119 120
-1119.88664964405 64.7377029546056 2644.58524658574 112 116 117
-1117.89891528522 64.3574192376612 2652.55129782544 112 116 117
-1111.79206145567 63.8190374863939 2660.7102615331 116 120 123
-1108.76019252434 63.4007830102011 2668.67292240711 113 117 120
-1111.89910192258 63.2206506962503 2676.31703129594 112 116 117
-1111.94807265961 62.9220628182171 2684.10297805811 115 119 120
-1109.93127244926 62.5449891591456 2691.96406917287 116 120 119
-1102.74956830922 61.9719940318375 2700.00679165326 114 118 117
-1099.68462824092 61.5573910986477 2707.84897127058 111 115 114
-1096.6125394793 61.1435065518186 2715.66413371972 111 115 114
-1095.60080693256 60.8086331031813 2723.38623767846 112 116 115
-1094.58451047769 60.4742008437231 2731.0916752846 109 113 112
-1093.56364569493 60.1402391678105 2738.78044868646 108 112 111
-1097.71899370249 60.0010497240166 2746.32699469323 106 110 109
-1096.69257508122 59.6676148444806 2753.99548037286 106 110 109
-1097.73660264631 59.4119952243348 2761.60761465861 107 111 110
-1097.74092928058 59.1179063462512 2769.23064705023 103 109 105
-1096.70307342798 58.7854476412783 2776.85728483713 96 102 98
-1080.0651961361 57.875866507128 2784.6491865284 97 103 99
-1033.22996150338 55.8544078340793 2792.62296098739 133 138 134
-1000.90308759973 54.3767887366601 2800.25458564004 132 137 133
-989.36551095025 53.6696907754236 2807.62728129375 130 135 131
-985.106997722775 53.2318369344917 2814.91959868334 131 136 132
-981.88319831196 52.8329278774891 2822.18094396682 138 140 137
-980.739854246551 52.5107631202279 2829.42242375434 139 141 138
-984.815344392831 52.3788095593089 2836.67797055405 138 140 137
-986.802867593278 52.170662737587 2843.92584164669 137 139 136
-991.928622561963 52.0758265259046 2851.2070004301 130 134 133
-996.011772575619 51.942647601748 2858.48928416337 123 127 126
-1003.24022781606 51.9220478564093 2865.83065616524 124 128 127
-1027.24726909057 52.50230814888 2873.50213893242 124 128 129
-1117.36792366441 55.4438552522796 2882.64546720548 164 168 171
-1188.7143471373 57.6983576302782 2891.78840300683 156 160 163
-1217.08941221624 58.4099867716247 2900.17330188232 158 162 165
-1228.68259644502 58.5206965520775 2908.2167485552 166 170 171
-1379.31378280247 71.7116456763803 2482.17566259601 148 150 145
-1380.63456784754 71.4275485583653 2490.7964349381 119 121 116
-1379.92032768607 71.0673957197592 2499.60710973299 106 108 105
-1382.25311005017 70.8225239860375 2508.11367424443 97 99 96
-1382.54973196541 70.5016194324362 2516.8050117123 96 101 97
-1378.76820283567 70.0290493018359 2525.84635952255 80 85 81
-1342.35735222544 68.3420556214757 2537.66625091684 152 157 153
-1279.36936452788 65.6752404028493 2551.50266640652 131 136 132
-1247.93445723658 64.1911907398239 2562.44192834758 126 132 128
-1219.51659423949 62.8255138323195 2572.96772861412 145 151 147
-1193.0997308384 61.5399073897668 2583.18075972665 122 128 126
-1171.75733537662 60.4467454791717 2592.87233516574 132 136 135
-1150.38167243406 59.3572000533278 2602.44267822808 128 132 131
-1139.21662422184 58.645836335001 2611.19580578006 127 131 130
-1132.1330252422 58.086067319918 2619.61205279028 123 127 126
-1126.06216592802 57.5651272549405 2627.91566884635 118 122 123
-1124.08556812372 57.1945311549156 2635.92918418452 114 118 119
-1122.10268676555 56.8245679926324 2643.92069854497 110 114 115
-1118.05820717029 56.3811745564346 2652.00325442857 110 114 115
-1114.00453988734 55.9387499355623 2660.05323891028 112 116 119
-1108.91266673629 55.4603910287936 2668.12220184389 110 114 117
-1112.05121062681 55.2780480982239 2675.76355800662 114 118 119
-1110.03684077543 54.9117338745321 2683.63953648965 110 114 113
-1110.07938329648 54.6194856550607 2691.4065480968 110 114 113
-1103.92549543459 54.1076861252113 2699.40766628379 108 112 111
-1101.89164831833 53.7434223621143 2707.21262405322 104 108 107
-1098.81792493398 53.3432948333739 2715.03133195211 104 108 107
-1098.83996427331 53.0532157269046 2722.72358872842 104 108 107
-1099.89414794183 52.7997790906431 2730.3738798349 105 109 108
-1098.87487146761 52.4739231966199 2738.07366788142 103 107 106
-1097.8510538124 52.1485636296658 2745.75690876787 103 107 106
-1095.78552576025 51.7874729106989 2753.44624472561 105 109 108
-1093.7139975164 51.4269894942816 2761.11368656662 107 112 108
-1093.71371985787 51.1389715625368 2768.72438602171 108 113 109
-1088.51360903027 50.6716578406593 2776.3984570278 105 110 106
-1067.7017908129 49.6679121432582 2784.22009411684 103 108 104
-1022.92013753291 47.844994077374 2792.15019200211 132 137 133
-995.779673954262 46.6352193801759 2799.72451367135 129 134 130
-985.275023328515 45.9992755529734 2807.07993479169 132 137 133
-983.096239876091 45.6492833090954 2814.35671166433 132 137 133
-979.868261463571 45.2643460277867 2821.61136218128 134 136 133
-976.632751985385 44.8799837828073 2828.8393433978 134 136 133
-979.660691867847 44.7081292395163 2836.07574135255 135 137 134
-986.87278450541 44.6769083493234 2843.35058560459 135 137 134
-995.13852784361 44.679987026039 2850.66183394236 133 137 136
-1000.27104135348 44.5767151079485 2857.96276000113 132 136 135
-1010.64717415878 44.6479637277313 2865.35986896992 135 139 138
-1038.86165364628 45.3116762740562 2873.1182929887 129 133 134
-1125.87518727792 47.9238280974168 2882.20648839958 172 176 177
-1187.80234498848 49.6887057309214 2891.13808364567 159 163 166
-1217.23668515596 50.3687585534188 2899.53960729371 156 160 163
-1230.93562332315 50.5250389577241 2907.63743576104 166 170 171
-1376.85965036326 62.5191239369048 2490.6391241824 114 117 110
-1377.15737398131 62.2033704539703 2499.33873319571 113 116 109
-1377.45180393015 61.8881711995171 2508.02646337167 106 108 103
-1370.61477615046 61.3253382276057 2517.35531747618 96 101 97
-1362.74520247034 60.728739782568 2526.7264626806 94 99 95
-1320.18810007639 58.9333323161304 2539.03785939615 148 152 151
-1273.4859047273 57.0038360002913 2551.45996324253 141 147 145
-1247.13864785626 55.784842280589 2561.97348554461 134 140 140
-1222.79485843637 54.6404417675568 2572.17901427853 137 143 143
-1191.2550329414 53.2550027124413 2582.79099306832 128 134 134
-1170.92448555229 52.2589942583794 2592.40437930656 129 133 134
-1153.63458108023 51.370982350926 2601.68444091402 134 138 139
-1140.41600583386 50.625128305493 2610.58501947262 129 133 134
-1131.27783627965 50.0204833071039 2619.13735704629 129 133 134
-1126.22838907779 49.5561938881958 2627.37272195206 128 132 133
-1127.32998973378 49.3004432551494 2635.19853112561 121 125 126
-1126.37466530919 48.9759714791955 2643.13663445783 118 122 123
-1122.32983697082 48.5488218507257 2651.2281510164 116 120 121
-1118.27586387498 48.1226649556831 2659.28727066526 116 120 121
-1111.1235754537 47.5946688556524 2667.46854699668 113 117 118
-1111.17159218025 47.3074775068934 2675.25907589939 113 117 118
-1106.06046054901 46.8500333683971 2683.26974036036 116 118 117
-1106.09881019226 46.5639094367745 2691.02412216627 118 120 119
-1102.00321770688 46.1422483168585 2698.93155557599 121 123 122
-1100.99883804572 45.8232478416737 2706.69098072228 124 126 125
-1102.05813167955 45.5723395977382 2714.36184042295 123 125 124
-1102.08075680999 45.2878538483265 2722.05980347969 104 106 105
-1102.10021390966 45.0037056143003 2729.74621734866 113 115 112
-1099.00813230198 44.6190235969375 2737.5055872272 116 118 115
-1094.87155997179 44.2015243368263 2745.26349808539 120 122 119
-1092.80148867773 43.8518769151669 2752.94319057523 123 125 122
-1091.76382449596 43.5360905307095 2760.58106602867 119 121 118
-1092.79977079531 43.2873915082726 2768.16663643921 119 121 118
-1084.47604051612 42.7396503764489 2775.88243315344 109 111 108
-1057.40882183509 41.5965297378786 2783.77078065516 115 117 114
-1012.6010889965 39.8950707594508 2791.68166218265 133 135 132
-990.651230616448 38.926378731646 2799.19643063361 146 148 145
-982.222606203929 38.3892094376453 2806.52945049441 138 140 139
-981.082865533927 38.0834090675012 2813.79464060018 138 140 139
-977.850768729032 37.7123499025215 2821.04276224954 142 144 143
-975.656037527941 37.3746649500234 2828.26716941404 146 148 147
-980.773757742292 37.2659120342573 2835.50971045097 147 149 148
-985.895619506215 37.1565357116074 2842.76723466326 143 145 144
-993.115234677695 37.1115917798655 2850.06134459934 135 137 134
-996.151486844612 36.9360248385266 2857.32718964583 138 140 139
-1013.86578358587 37.2129050795625 2864.82225835119 136 138 137
-1054.67994495895 38.1972438991976 2872.80462670593 143 145 144
-1127.03939246708 40.1416044285137 2881.61566546889 169 173 172
-1188.98935306167 41.7545186630684 2890.53598161946 166 170 171
-1213.1781493131 42.2051861448316 2898.80046687652 151 155 156
-1232.1374407931 42.4926692292313 2907.02833073043 160 164 165
-1262.69797494686 43.1282650189101 2915.68680369407 173 177 178
-1366.25219710031 53.0985424563737 2499.86119774035 114 116 111
-1367.5553381724 52.8228691386364 2508.42177981537 103 105 100
-1378.02519935901 52.8426967103198 2516.13441933586 89 94 90
-1362.0001594798 52.0111667719145 2526.250014644 86 91 87
-1318.40379945663 50.3015160396367 2538.65331416798 147 151 150
-1274.74285834368 48.5987927892959 2550.82028139006 153 159 159
-1250.42758772675 47.5202114260578 2561.17324961538 139 145 145
-1220.96297641966 46.2836087507514 2571.79141868382 141 147 147
-1190.43091632768 45.0194866923894 2582.32437669221 135 140 143
-1168.04241076638 44.0183547088557 2592.08730264866 139 143 144
-1150.74168962831 43.1819589623846 2601.36072085966 134 138 139
-1135.4639303342 42.4127317063089 2610.393836785 126 130 131
-1127.34281471874 41.8704114908999 2618.86532451709 124 128 129
-1124.34024398089 41.4895876275226 2626.95946654812 124 128 129
-1125.43920687997 41.2371459167883 2634.77757132755 121 125 126
-1122.42451012029 40.8577533716057 2642.82759547554 119 123 124
-1120.4310219204 40.5108886611799 2650.79338284236 119 123 124
-1117.40180712523 40.1330525294743 2658.79141603052 123 127 128
-1111.27476795307 39.6613570781271 2666.91753775595 121 125 126
-1108.22848884765 39.2854078695483 2674.85340580919 121 125 126
-1100.01675037587 38.7530198594034 2682.99469931177 122 123 125
-1097.98447747138 38.4104674946183 2690.81920926129 125 127 126
-1095.94616838876 38.0685554775924 2698.62171234648 128 130 129
-1095.96923284051 37.7897089083998 2706.32486680033 128 130 129
-1101.16162978188 37.6669180981778 2713.83580509676 125 127 126
-1102.21732729507 37.4194007329085 2721.4954539296 127 129 128
-1102.23519650526 37.1410683697611 2729.17964411257 128 130 129
-1094.99372746345 36.6465218952396 2737.05092862128 127 129 126
-1089.81388817129 36.2149894898357 2744.82285431542 124 126 123
-1088.77588925508 35.9076179463872 2752.46479965559 125 127 124
-1088.77230691726 35.6313693342156 2760.06973099395 118 120 117
-1086.68656387291 35.2940479126823 2767.69901933774 115 117 114
-1072.11267406809 34.5906421227396 2775.49070056582 109 111 108
-1040.86151468295 33.4017085901195 2783.40218295985 132 134 131
-1008.52292871068 32.1871258220448 2791.15639036543 139 141 138
-989.687318438668 31.3716042600824 2798.64056530378 136 138 135
-982.296184265803 30.8919411169842 2805.96556907079 132 134 133
-978.023262010654 30.5040175752408 2813.23591194174 133 135 134
-974.786280373707 30.1469829355627 2820.47475151818 131 133 132
-972.587102526487 29.8206145757975 2827.68979386134 129 131 130
-976.657110399094 29.674477986854 2834.91603163199 128 130 129
-981.776599096438 29.5577798402436 2842.16012249684 128 130 129
-990.04216297583 29.5299742508529 2849.45120583041 130 132 131
-994.123871987705 29.3821377683319 2856.71981441399 133 135 134
-1018.13443282276 29.7974794496697 2864.29931461965 124 126 125
-1065.26219874115 30.8606522205893 2872.39285049755 129 131 130
-1134.50414358618 32.5370253605918 2881.15083887587 159 163 164
-1177.5657691604 33.467571014718 2889.65006933879 167 171 172
-1208.06390150232 34.0395911683723 2898.03671827713 154 158 159
-1227.02537424527 34.2850279919128 2906.24613492491 161 165 166
-1260.75149411985 34.9369003782294 2914.97819324776 173 177 178
-1348.21318219505 43.8472090233108 2501.08072476767 103 105 102
-1355.612820466 43.7572186551413 2509.01385620426 96 98 95
-1360.98080587406 43.6064949974754 2517.15908472556 86 90 89
-1357.17382442946 43.1853056765758 2526.13837223269 78 82 81
-1291.10237754634 40.9379500080124 2540.48122308411 187 191 192
-1254.55211446457 39.5673209152618 2551.98323933443 166 170 171
-1229.18934295161 38.530507405728 2562.36973245787 156 160 163
-1215.03756323689 37.8248999562195 2571.72723570657 140 144 147
-1188.58127272506 36.76603014884 2581.93610230357 157 162 165
-1159.01185062247 35.6226822676007 2592.2240056257 147 151 152
-1142.72135579758 34.8677200374392 2601.4023595909 129 133 132
-1133.58359708444 34.3217110436594 2609.9941712631 121 125 124
-1128.53519101024 33.8948493699943 2618.25703159082 123 127 126
-1122.44943819077 33.4399546943173 2626.54704858211 124 128 127
-1121.49045367476 33.1323985320391 2634.48224234518 122 126 127
-1118.4698626874 32.7671401167463 2642.52023495321 120 124 125
-1117.50020863625 32.4608179395042 2650.41659389702 126 130 131
-1116.5261528205 32.1550986349784 2658.29606155133 128 132 133
-1113.48600817558 31.7919861650666 2666.26281009885 127 131 132
-1106.31317038067 31.3144283435243 2674.3996347221 128 132 133
-1099.12741161123 30.8382276183003 2682.48841407642 133 134 136
-1095.02649459814 30.4495026047062 2690.39687269166 131 133 132
-1095.0504175775 30.1761889660366 2698.10670789292 129 131 130
-1095.07143126539 29.9032478217148 2705.80504761606 123 125 124
-1099.22849437618 29.7445011382258 2713.34654307015 118 120 119
-1101.31709526188 29.5286789417601 2720.96484996766 111 113 112
-1101.33298126132 29.2562153074302 2728.64445306342 113 115 114
-1095.12336031324 28.8145130178156 2736.48382997509 114 116 113
-1087.86440297179 28.34581779051 2744.30650497908 116 118 115
-1087.86163433559 28.0751939428044 2751.91800861384 117 119 116
-1088.89459886248 27.8328114620883 2759.49742524392 111 113 110
-1086.80652224326 27.5066777788313 2767.12511283387 106 108 105
-1063.90099211435 26.6233757502116 2775.0418905474 108 110 107
-1029.50668931439 25.4375501695209 2782.97534985498 137 139 136
-999.230499543844 24.3678344580973 2790.68472182357 135 137 134
-986.63603427623 23.7728808785215 2798.1005196587 128 130 127
-979.238431096288 23.3178811960047 2805.41707648819 130 132 131
-978.092763850018 23.0291141538427 2812.67101632943 131 133 132
-973.808003850645 22.6584454650221 2819.90830178705 131 133 132
-973.696992500865 22.3979720056385 2827.12432986512 130 132 131
-980.906643724643 22.3287343571501 2834.36610783531 130 132 131
-983.935383089678 22.1497038292395 2841.60187259364 134 136 135
-992.204073568318 22.1060552391231 2848.89456193616 123 125 124
-996.287567960369 21.9530514955404 2856.16560792577 139 141 140
-1025.55270252907 22.4475742047228 2863.82177034801 128 130 129
-1088.44935558424 23.7995450696128 2872.19590369071 136 138 137
-1140.92327217948 24.8741548264888 2880.66240996254 164 168 169
-1177.69647105406 25.5397484634369 2889.02644810522 159 163 164
-1207.15282198401 26.013282489974 2897.37930824391 156 160 161
-1228.224486196 26.2697234248308 2905.63775888125 158 162 163
-1253.5355438368 26.6293739896458 2914.11426799643 168 172 173
-1365.05509091943 35.3397937249255 2507.58441320088 96 98 95
-1369.41040910952 35.1534747934288 2515.84365421103 87 91 90
-1341.11957501309 34.091688028365 2527.03294821579 83 87 86
-1223.10565614487 30.3500433024585 2554.1009388989 162 166 167
-1211.00051152617 29.740955646005 2563.32456488297 148 152 155
-1203.99049740346 29.2694060033495 2572.06971513814 156 160 163
-1179.56213509778 28.3407022196494 2582.09649192351 160 166 166
-1147.92406003788 27.2276725572568 2592.51567436483 152 156 157
-1135.7184981646 26.6294983241042 2601.37428995055 131 135 134
-1128.62288207254 26.1673939827034 2609.80665111732 124 128 127
-1125.62052000083 25.8135446387263 2617.91952720675 125 129 128
-1121.58334658064 25.4338818996243 2626.07037473468 125 129 128
-1120.62166172555 25.134898639558 2634.00095514967 129 133 132
-1116.56877504648 24.757110983732 2642.09464625652 125 129 128
-1113.53670799852 24.4067043056998 2650.09847808772 121 125 124
-1112.55760276026 24.1097069167699 2657.96563380934 118 122 121
-1112.60474104305 23.8396004845995 2665.76368774444 113 117 116
-1111.61711280334 23.5435888233611 2673.59982156901 108 112 111
-1104.43056071225 23.0915395533355 2681.70090344001 103 107 108
-1098.26366365694 22.6668761454664 2689.70966324981 100 104 105
-1098.28841980314 22.399163273872 2697.42519884488 99 103 104
-1097.27526044131 22.1059599984539 2705.16831368475 101 105 106
-1099.36337771987 21.8905692151383 2712.78509741541 101 105 104
-1098.34322823594 21.598058849467 2720.50269676893 102 106 105
-1097.31854388656 21.3058996644534 2728.20368077288 104 108 107
-1094.21436352527 20.9631040343351 2735.94550424519 105 109 108
-1090.06500521737 20.5954700294245 2743.68649656331 104 109 105
-1091.10063329249 20.3558988813904 2751.27757735418 102 107 103
-1090.05564589672 20.0657123635414 2758.90442556498 91 96 92
-1084.84511250255 19.6747292604643 2766.58799078093 94 99 95
-1054.64101280098 18.679657399113 2774.61214526561 120 125 121
-1019.18397778937 17.5633561276849 2782.54010255471 140 145 141
-993.05708035681 16.6778829684839 2790.18509427771 131 136 132
-984.624440706825 16.2211556308611 2797.55399318884 130 135 131
-977.221090133488 15.7907648338965 2804.86474783516 140 144 143
-976.072036920907 15.5105922237659 2812.11154232158 139 143 142
-970.737570281408 15.1316897301768 2819.34259475229 135 139 138
-968.530908278612 14.8277626989838 2826.54401817269 132 136 135
-973.645087690727 14.6966593349881 2833.75930200194 128 132 131
-979.810741234384 14.5894711152202 2840.99728158411 127 131 130
-992.270555786519 14.6284394330524 2848.31674260461 133 134 136
-1005.79328296903 14.6900288587819 2855.70055129551 113 114 116
-1044.5203109989 15.333738983025 2863.51138825633 129 130 132
-1098.00031645432 16.3115244096147 2871.75585508037 138 139 141
-1148.39711908483 17.2092914842668 2880.19236488377 155 159 160
-1187.29096759613 17.8347984109733 2888.61201007271 160 164 165
-1210.44912370579 18.0944203177044 2896.82563469288 154 158 161
-1224.15819262411 18.1351587246641 2904.88720046267 154 158 161
-1241.04399903916 18.2456971416278 2913.09847685362 162 166 169
-1336.4817811172 27.4366221756085 2466.6460773712 159 158 154
-1379.14679471602 26.3981919602222 2523.08553810158 83 85 84
-1296.69292442399 24.1151749751314 2538.92691827578 166 167 169
-1216.16389575857 21.8938285324573 2554.16115293434 168 172 173
-1198.93313289317 21.2009207832091 2563.78490331007 165 169 172
-1186.79257937476 20.6328988357895 2572.90298972836 179 183 186
-1171.55887814114 19.9942693071821 2582.18213716542 159 163 164
-1149.12580942555 19.1886386841781 2591.90210916604 156 157 159
-1141.01718678421 18.7249595637471 2600.47055975541 134 136 135
-1134.94705060651 18.3111214106538 2608.84447921584 129 131 130
-1134.0005119456 18.0186758952786 2616.83542207097 127 129 128
-1125.85459001938 17.5592311109284 2625.26713204168 124 126 125
-1120.77969893485 17.172980717866 2633.45729855349 119 121 120
-1117.75281314132 16.835456118091 2641.4894294592 115 117 116
-1115.74856967863 16.5224733208025 2649.43667590942 111 113 112
-1113.73827677847 16.2102190543729 2657.36192194024 109 111 110
-1113.78457340835 15.9458133038973 2665.16045009501 106 108 107
-1113.82793801963 15.6817249098796 2672.94736357914 101 105 104
-1111.80237568977 15.3711788628751 2680.8169956905 106 110 111
-1104.60307798152 14.9444829544842 2688.88769139084 104 110 110
-1102.56191919167 14.635654066393 2696.70050102732 105 111 111
-1101.54967135069 14.3505193139507 2704.45209420849 108 114 114
-1100.53285076204 14.0658845394206 2712.18702533369 108 114 112
-1097.43858212658 13.7356620875509 2719.97358714788 103 109 107
-1097.44850059235 13.4750375425664 2727.63850854196 104 110 108
-1097.45501501519 13.2147706718946 2735.29194623117 103 109 107
-1095.38152564867 12.9091033125433 2742.98671479682 99 105 103
-1091.22353687565 12.5584327352411 2750.70730273209 98 104 102
-1087.05670880621 12.2085822843407 2758.3955898771 89 95 91
-1078.71851178975 11.769122185228 2766.12603740668 85 91 87
-1044.33155478068 10.7676532270877 2774.20223429391 117 123 119
-1004.68370125615 9.65880814750668 2782.16235085384 129 135 131
-983.74946485588 8.95886856688986 2789.72035147827 125 131 127
-978.436223982035 8.59692071625078 2797.04091529069 123 129 125
-972.068463497644 8.21356904900393 2804.32999062684 133 139 137
-971.959027781295 7.96437998918396 2811.55899310217 134 140 138
-970.800748139826 7.69327510737293 2818.77725655541 136 142 140
-970.684328726547 7.44442447876841 2825.98147262307 137 143 141
-975.800443922814 7.30550095070141 2833.19900639727 136 142 140
-980.920691829103 7.16601280448369 2840.43152764345 136 140 139
-996.53004644559 7.24390938153645 2847.77930071947 136 137 139
-1021.60055087697 7.51523465210306 2855.30784797085 108 109 111
-1071.90056752096 8.30291496291545 2863.31550735624 120 121 123
-1112.81052122792 8.88926274286449 2871.40133414203 124 125 127
-1147.46470833479 9.34083433531173 2879.5563443825 158 162 165
-1191.63155184861 9.98046242762422 2888.07904193525 159 163 166
-1212.69444563896 10.1440255672697 2896.24536251581 150 154 157
-1225.354983576 10.1343620091006 2904.27936650317 153 157 160
-1235.92125096506 10.080420949537 2912.30336970632 163 167 170
-1209.21547351562 13.4815068534457 2554.22434460158 147 148 150
-1179.69261986345 12.5790312408873 2564.83722159361 146 147 149
-1170.6038776911 12.1154830121996 2573.66215446249 154 155 157
-1158.42509889539 11.5887947355563 2582.66441383398 130 131 133
-1146.22566234647 11.0643729614124 2591.59233499018 123 125 124
-1137.08432947028 10.6067049279436 2600.22572133065 110 112 109
-1137.16786458901 10.3434224013623 2608.16321784076 115 117 114
-1133.13848437947 9.99527242326552 2616.36196651751 125 127 124
-1128.07149677812 9.6269037774611 2624.59369573494 122 124 121
-1124.02352379876 9.28090414606929 2632.72477071778 119 121 118
-1120.99599005102 8.95697182190484 2640.76307734774 122 124 121
-1120.02176161035 8.67601824558188 2648.6584688864 118 120 117
-1114.91871908366 8.31165336986987 2656.75793198093 116 118 115
-1114.96414249395 8.05295195193227 2664.55681945947 119 121 118
-1113.97396594013 7.77378508816549 2672.3941268165 124 126 123
-1111.9460675114 7.47434042175925 2680.26209428113 125 129 128
-1105.77646190687 7.09286007340824 2688.28713227919 120 124 123
-1099.59489958705 6.71261102586034 2696.26948373822 122 126 125
-1097.54324660937 6.41571150931629 2704.05086209277 129 133 132
-1096.52160377083 6.13983728018795 2711.773420099 127 131 130
-1096.53237634444 5.88477506009298 2719.4450243888 129 134 130
-1095.50232730334 5.60972863429347 2727.1368944442 128 133 129
-1095.50587816246 5.35535008850617 2734.78304658221 122 127 123
-1092.38978276126 5.040743236688 2742.49749974302 119 124 120
-1091.34539929881 4.76706582634683 2750.13701322607 118 123 119
-1085.09468199466 4.39363068708264 2757.86690772726 122 127 123
-1073.62705085604 3.92169746816544 2765.64776806111 108 113 109
-1032.97115903128 2.89520777083839 2773.8126222212 126 131 127
-995.383831658743 1.93407439948078 2781.7227561801 133 138 134
-980.69266405405 1.41230369966126 2789.19368281028 125 130 126
-973.286082108583 1.03032652166445 2796.52207680724 124 129 125
-970.04471009235 0.727861860099141 2803.77999741579 120 124 123
-972.022900249151 0.52350947206857 2810.9956123534 116 120 119
-971.908901804115 0.280220389363636 2818.21139924806 103 107 106
-973.885361481241 0.0757215415807394 2825.42049678678 107 111 110
-973.76657322298 -0.167482843518266 2832.61948253986 139 145 143
-980.982322347391 -0.276035442785663 2839.85815039567 139 143 142
-996.595946663725 -0.23251980567203 2847.20099872729 133 134 136
-1038.46861689945 0.285328611224586 2854.92163600096 117 118 120
-1094.04946403472 1.04419882174304 2863.03433483043 114 115 117
-1120.27377816578 1.2657429447268 2870.91807273887 113 114 116
-1139.16831832937 1.35179553713947 2878.77928400078 167 171 174
-1171.76775614052 1.67922743890835 2887.01967829278 153 157 160
-1205.46158999468 2.02061355825676 2895.43584017488 160 164 167
-1218.12044835067 1.98509160780584 2903.4472825718 165 169 172
-1231.84830599591 1.96626609104571 2911.54100165892 175 179 182
-1162.48318640584 4.1033777904556 2565.72929626942 179 180 182
-1158.49862505069 3.76606732556777 2574.10222109195 172 174 173
-1157.58023161618 3.48674344719645 2582.20594597107 138 140 139
-1144.34798877634 2.98144970402468 2591.20765661524 134 136 133
-1136.22644876551 2.57253229530179 2599.76179219891 139 141 138
-1134.25342693517 2.27768760805307 2607.83640990388 140 142 139
-1134.33024194658 2.02093718882933 2615.75215098074 131 133 130
-1125.14596795862 1.59728486914916 2624.24851015287 132 134 131
-1122.12193653615 1.28647195709829 2632.30717411766 135 137 134
-1117.03023310224 0.939627503488236 2640.45979851861 136 138 135
-1119.14349006079 0.722484518507302 2648.16881470538 131 133 130
-1113.00449317213 0.359090497198553 2656.3198446489 129 131 128
-1110.98266926685 0.0698900136951591 2664.21683326934 129 131 128
-1107.92176366131 -0.236838651132124 2672.14209822193 128 130 127
-1105.88720891941 -0.524711165774253 2679.99265815118 127 131 130
-1100.7436086202 -0.865957852440771 2687.95613379979 133 137 136
-1094.55474575894 -1.22395296943513 2695.92450072354 133 137 136
-1093.53286920152 -1.4915684564958 2703.65140511476 129 133 132
-1094.57920455086 -1.72313533105257 2711.28729339549 128 132 131
-1094.58698199406 -1.97230557541973 2718.95149723817 128 133 129
-1092.51573857898 -2.25639699290166 2726.66822650152 126 131 127
-1093.5541254425 -2.48718900135754 2734.27509282218 123 128 124
-1090.43385987914 -2.78788286621508 2741.98284691984 120 125 121
-1086.26600034939 -3.10529372548275 2749.68778511481 116 121 117
-1075.844806155 -3.52589673374239 2757.4899475501 112 117 113
-1052.90886272116 -4.15205795374786 2765.45615186836 117 122 118
-1017.432339152 -4.98114364878756 2773.49308484188 134 139 135
-989.204476869413 -5.68514885393818 2781.24574501193 139 144 140
-977.632721300185 -6.11222824987363 2788.66833009849 124 129 125
-969.175251355812 -6.48653951377283 2795.99707218757 118 123 119
-968.018434891591 -6.74117689753358 2803.23116484735 128 132 131
-969.994450100286 -6.94498890997543 2810.43904579377 138 142 141
-974.063292166501 -7.11544759888068 2817.64467043063 134 138 137
-979.1819266122 -7.2696817534721 2824.86189135615 122 126 125
-983.256680595256 -7.44109127092814 2832.08979450067 108 112 111
-989.431654242995 -7.57993757647153 2839.34146152207 119 123 122
-1004.00623956891 -7.58785679719022 2846.69040883602 109 110 112
-1055.34848941808 -7.02412972576762 2854.5290340821 99 100 102
-1104.65578684924 -6.50022551738445 2862.58163658246 114 115 117
-1123.5356963893 -6.4541521373306 2870.36235740247 151 152 154
-1135.07333117491 -6.52386319145688 2878.08565161043 151 155 156
-1165.57506687301 -6.30555905678161 2886.26236132691 159 163 164
-1200.32940360882 -6.02743170845051 2894.67970389505 151 155 158
-1220.36822508838 -5.97740028084738 2902.86848710308 141 145 148
-1237.2659862103 -5.97782733708198 2911.05409118696 158 162 165
-1267.90788360844 -5.77535812158993 2919.74119648571 175 180 183
-1207.42878809714 -2.75378549122159 2545.13418795652 171 173 170
-1180.97201349878 -3.44255492119779 2555.57584826089 195 195 193
-1148.33091808575 -4.22553672261784 2566.37570804316 189 189 187
-1147.4073071897 -4.49625652976894 2574.46549367031 158 158 156
-1144.42831804676 -4.7988481195675 2582.69658130339 171 171 169
-1137.33699871544 -5.16544879110249 2591.2061205406 168 169 164
-1128.17884875082 -5.56274113557743 2599.8151863771 148 150 145
-1128.25273881858 -5.81375924956863 2607.72461581142 144 146 141
-1127.29520132216 -6.08029532713546 2615.69108000863 144 146 141
-1123.24596466185 -6.39406671205646 2623.83873944193 144 146 141
-1121.24734903913 -6.67506238388162 2631.82707595542 134 136 131
-1116.15134530779 -7.00269317457804 2639.97586469574 136 138 133
-1120.32552413506 -7.18790519066738 2647.56326960251 139 141 136
-1114.18323641018 -7.52951616091925 2655.7158339942 141 143 138
-1112.1597708728 -7.80769558237705 2663.61368567805 143 145 140
-1108.06357373984 -8.11620905324202 2671.59030965207 136 138 133
-1102.92459325205 -8.43918708254977 2679.5824716289 135 137 134
-1098.80994035126 -8.74573935086066 2687.49181115486 138 140 137
-1093.65106781208 -9.06659006424411 2695.4114609195 145 147 144
-1096.77107981736 -9.26492833779648 2702.97391320229 136 138 133
-1094.70800126987 -9.53895956472202 2710.7273084964 116 118 113
-1091.60144932055 -9.8274044259042 2718.49371193489 78 80 75
-1086.41054682595 -10.1451355159564 2726.29733934213 80 82 77
-1086.40483511607 -10.3873156312425 2733.9158738048 99 101 96
-1088.47532554957 -10.59965686996 2741.46913783729 128 130 125
-1087.42421498049 -10.8562372501814 2749.09446906168 114 116 111
-1068.66913336622 -11.361855253984 2757.07328800603 115 117 112
-1032.17369633676 -12.1127938615855 2765.27285336731 126 128 125
-1003.96576849702 -12.742159746266 2773.14664957609 129 131 128
-988.235885186767 -13.1939488475901 2780.70153147624 134 136 133
-980.833455526396 -13.5283517543801 2788.07630702074 136 138 135
-975.507549882027 -13.8328881073258 2795.38609563655 139 141 138
-969.125866258897 -14.1507687441717 2802.66481206857 132 134 133
-965.871300124282 -14.4250988780057 2809.89057914699 131 133 132
-966.796606957339 -14.6425526672968 2817.08602253093 141 143 142
-975.053461740277 -14.761892771235 2824.28698059571 155 157 156
-983.31870189441 -14.8822315684365 2831.51844137761 141 143 142
-991.592412651955 -15.0037233324209 2838.78062392692 135 137 136
-1009.32185925298 -15.0021191294569 2846.15814621275 129 131 130
-1059.63491476655 -14.5776871326341 2853.98580941867 3 5 4
-1113.16705346502 -14.1193877794586 2862.09586044503 48 50 49
-1129.954880312 -14.1434860795426 2869.85742630589 155 157 156
-1148.86744242131 -14.1428387031452 2877.73070011518 130 134 133
-1184.65470295157 -13.9302105077762 2886.04541316402 160 164 163
-1217.32579310474 -13.7625579286063 2894.45096225871 148 152 153
-1249.01914063343 -13.8635237322455 2910.74664321175 139 143 144
-1227.92713347488 -10.4416400576836 2534.55851566413 135 137 132
-1182.05801689791 -11.3232106258112 2546.83896278567 161 162 157
-1162.73744098068 -11.8379548689464 2556.60877077145 0 1 0
-1143.5749711271 -12.8453294517192 2582.24171415868 0 1 0
-1136.47850669317 -13.1873042460468 2590.74769812799 0 1 0
-1134.50535574183 -13.4605582512127 2598.83546765839 6 7 2
-1123.27414220309 -13.8534864130198 2607.54397986111 15 16 11
-1126.42579667784 -14.0579393680223 2615.22005394151 39 40 35
-1124.43157307717 -14.3286406832393 2623.23119648986 62 63 58
-1120.37092797497 -14.6249180342213 2631.34754343163 127 128 123
-1114.23986240133 -14.9464750822495 2639.55350544555 138 139 134
-1118.412634693 -15.1364634522576 2647.1326726215 153 154 149
-1119.49084912973 -15.3655074150344 2654.88851453999 143 144 139
-1115.40249480503 -15.6587244720082 2662.90391467892 118 119 114
-1111.30551509721 -15.9509945896747 2670.88695928624 63 64 59
-1107.19943103815 -16.2423344134904 2678.83771758315 32 33 28
-1107.22494698874 -16.4820967124622 2686.5746497338 3 4 0
-1106.2115502493 -16.7341139774188 2694.34288592805 0 1 0
-1108.30325157962 -16.9480707495778 2701.97388189999 4 5 0
-1103.13385064081 -17.2491319049067 2709.86693587129 3 4 0
-1090.68834821564 -17.6357360081929 2717.96734449658 15 16 10
-1081.3387099804 -17.9834138567384 2725.89677591036 6 7 1
-1084.44588196625 -18.1828954888843 2733.41083386081 4 5 0
-1093.79504530236 -18.3096734616061 2740.76630323164 6 7 1
-1083.37795948274 -18.6668331076788 2748.62377407481 2 3 0
-1051.07117835351 -19.2743879350247 2756.87931229246 4 5 0
-1014.54810258811 -19.9248513752932 2765.03969520498 135 136 131
-995.702620815529 -20.3684865247261 2772.72200880883 121 121 119
-985.177812493163 -20.7150360499011 2780.18622578724 118 118 116
-980.902383908452 -20.9896426329094 2787.51787652078 115 115 113
-975.572721653481 -21.2751797560862 2794.82664171926 114 114 112
-971.279127088284 -21.5482052502643 2802.0918439444 122 122 122
-966.976612523853 -21.8204950710075 2809.32532144887 135 135 135
-972.090665613542 -21.989334164425 2816.51631190364 139 139 139
-979.304618654806 -22.1360719443511 2823.72513215321 127 127 127
-990.720501502085 -22.2386369747005 2830.97564299621 111 111 111
-997.951290314846 -22.3874951948847 2838.24563243066 111 111 111
-1013.59007281578 -22.4483776467404 2845.61504766026 138 140 137
-1132.19919563567 -21.6656091118023 2861.75116435913 4 6 3
-1143.74320959905 -21.7825959180675 2869.46922479137 11 13 10
-1182.67678343741 -21.6197349172875 2877.74334289345 134 136 133
-1159.13969728127 -20.7051119917531 2580.51603506506 10 9 4
-1131.58671651399 -21.4811248048395 2598.52157696268 4 5 0
-1112.12036424037 -21.9243333911452 2607.7953097774 8 9 4
-1124.52579557526 -22.0345536351712 2614.81866672325 16 17 12
-1126.64694923882 -22.2517145344086 2622.55699051792 14 15 10
-1132.88986626732 -22.4267603852177 2630.03899252021 11 12 7
-1123.66938018283 -22.7586218567771 2638.45885521153 15 16 11
-1128.88047561491 -22.9438833574075 2645.99977661562 18 19 14
-1129.9648971688 -23.1705764482878 2653.77921953851 17 18 13
-1123.81390259877 -23.4685128085169 2661.92610196054 16 17 12
-1119.7192151226 -23.7448805806349 2669.92862610567 4 5 0
-1128.03351537347 -23.899603321489 2677.32052918923 0 1 0
-1134.28494782036 -24.0751718918111 2684.83381725331 7 8 3
-1131.21557036661 -24.3405131516546 2692.75375773477 12 13 7
-1117.76945826735 -24.7034523290274 2701.05035993395 16 17 11
-1105.33929604402 -25.0544846288092 2709.23018189659 16 17 11
-1097.04209967228 -25.364675757566 2717.19539946721 11 12 6
-1071.06602438902 -25.8369437757619 2725.66124036467 13 14 6
-1088.72324067873 -25.9043060964167 2732.72704380879 12 13 5
-1102.23929157341 -26.0117199600439 2739.97936492203 20 21 13
-1080.36892864161 -26.4405364474825 2748.13013354502 11 12 4
-1033.45890124408 -27.0899136217581 2756.69247755618 13 14 8
-1006.29198866427 -27.5566996041661 2764.63768344652 140 140 138
-990.562204993336 -27.9183846528158 2772.24982226979 132 132 130
-983.160585232727 -28.2048484709782 2779.65787104429 128 128 126
-977.835686625338 -28.4720397855156 2786.99497629324 120 120 118
-975.637167193775 -28.7114014536272 2794.26739467494 116 116 114
-972.386612771405 -28.9591897722816 2801.52481356727 115 115 115
-971.222536865796 -29.1887545626108 2808.74778286692 110 110 110
-976.339930456542 -29.3655762826264 2815.94613613485 114 114 114
-982.509750469231 -29.5343054550412 2823.16073126414 132 132 132
-993.930665400749 -29.6608478611117 2830.41478718987 138 138 138
-1000.11519927412 -29.8315098305948 2837.68279173315 132 132 132
-1012.60836007784 -29.9522230242919 2845.02524630313 143 145 142
-1107.10997154604 -29.4212822582947 2853.32513865409 2 4 1
-1179.64630122061 -29.0778458607114 2861.7830955683 15 17 14
-1202.80439960345 -29.1313977889801 2869.79878429555 2 4 1
-1214.89029198008 -28.5572388224002 2583.82244058794 12 13 7
-1124.55217293356 -29.5117087387421 2598.50695523374 14 15 10
-1144.16569243868 -29.5923446846567 2605.0341790285 14 15 10
-1112.32785356869 -30.0737594578602 2615.11044617118 9 10 5
-1137.10425598436 -30.1159424533852 2621.34911757383 11 12 7
-1113.45834076745 -30.5288720036566 2630.71027950994 13 14 9
-1142.45261618094 -30.7753865815808 2644.68651261753 14 15 10
-1141.47889912326 -31.0151829789484 2652.60978730915 7 8 3
-1116.72349385754 -31.4277062293444 2661.7491360714 9 10 5
-1113.65531436202 -31.6796615655131 2669.68104648589 13 14 8
-1117.82592396116 -31.879198350366 2677.24708466158 13 12 7
-1141.68204986009 -31.9399848254897 2683.95259582549 12 11 6
-1117.88207994757 -32.3368950759814 2692.75282564048 17 16 11
-1108.56933720109 -32.6298028162437 2700.85382175181 26 26 18
-1101.31658293435 -32.9068533642196 2708.82052197417 24 23 18
-1098.20583211072 -33.1545854474389 2716.59796875448 19 20 12
-1078.45596171215 -33.5126962755271 2724.87278060891 28 29 21
-1044.11283361401 -33.9641063456627 2733.45991306063 11 11 1
-1088.82975479478 -33.8933631742784 2739.76852761417 28 26 14
-1067.9817438335 -34.2526980424258 2747.86263540091 19 17 5
-1020.00143398201 -34.7820274675537 2756.42334267868 47 40 30
-1001.1579272995 -35.1199763604826 2764.17971417449 109 102 96
-991.679521544425 -35.3965042702988 2771.67690639392 122 114 111
-984.274329966778 -35.6586974687749 2779.08701691049 136 131 125
-976.856336737502 -35.9196051376173 2786.44947999723 142 137 133
-971.517053548477 -36.1667342065734 2793.74584436546 136 131 127
-971.400623521685 -36.3819924488828 2800.97122950134 140 135 132
-975.470678049775 -36.5723763554051 2808.16877603221 143 139 136
-984.783545972864 -36.7328513375354 2815.36821312051 118 114 113
-989.911330167837 -36.9186443629833 2822.59948065285 100 99 97
-998.191432094959 -37.087182200439 2829.85661895677 88 88 86
-998.078813964829 -37.3036540169151 2837.09446170814 111 111 109
-1010.57387800477 -37.4506399736088 2844.42739537404 116 117 112
-1157.67536405624 -37.0962983628254 2860.87243253634 6 8 3
-1139.18397485618 -37.6129656974516 2604.85401816267 11 14 7
-1125.86668774596 -37.9100538449355 2613.67142621257 13 16 9
-1090.88481163177 -38.3145473701459 2623.8129535065 13 16 9
-1146.60834175581 -38.2604559279306 2628.11412550524 15 18 11
-1129.13052014434 -38.5742924964044 2637.05992087794 15 18 11
-1139.50991491639 -38.7501053928701 2644.31223015992 11 14 7
-1118.89609868299 -39.0750626067006 2653.29756132159 13 16 9
-1112.72929298048 -39.3285964972393 2661.41377350246 16 19 12
-1091.02718735639 -39.6527327995895 2670.25533812022 12 15 8
-1097.2534393861 -39.8461850311415 2677.66384542304 11 12 6
-1091.0491496377 -40.0959107391463 2685.6442199978 18 17 12
-1096.24072131434 -40.2940778986655 2693.1045055671 22 21 16
-1090.02113614723 -40.5422296604157 2701.02815593474 25 24 19
-1088.98206081328 -40.7670440648738 2708.71822700248 21 22 17
-1079.62512997287 -41.02630463213 2716.67640444525 22 27 20
-1078.57127386438 -41.249669514957 2724.31251254613 18 24 14
-1061.90372959842 -41.5357550296457 2732.38790907095 15 15 3
-1061.87162592468 -41.7531048514987 2739.92413189185 17 13 1
-1034.74337520203 -42.0757871024459 2748.10386123246 23 11 0
-1007.5752260031 -42.3944831885966 2756.13704298378 118 102 89
-997.06205232659 -42.6465727522988 2763.70409419655 118 98 87
-987.57594375352 -42.8931172757122 2771.1906882805 107 89 79
-983.298221537277 -43.1192596690688 2778.54534998442 97 83 70
-976.920512748148 -43.3520768672782 2785.89252879807 114 104 92
-974.716657590468 -43.5693612162068 2793.15907513804 138 128 116
-968.318928488878 -43.800433492167 2800.43209508544 156 146 137
-972.386744493961 -43.9957357317472 2807.61915426361 136 127 118
-978.554475628673 -44.1846077154248 2814.81234765934 133 128 122
-984.72752143747 -44.3742748039524 2822.02570043321 125 124 119
-987.756544593589 -44.5744806543502 2829.24914986214 103 108 102
-984.483589440553 -44.79417435314 2836.44113670415 85 90 83
-996.97269156736 -44.966696728204 2843.73581259737 23 24 18
-1138.84485990666 -44.9877153724298 2860.01189516445 23 24 18
-1105.41523870804 -45.8961512161557 2614.5255027116 16 19 12
-1040.50445390494 -46.2766378961296 2626.56366696166 16 19 12
-1137.48202642234 -46.2582789043569 2628.14648955539 15 18 11
-1135.4762083529 -46.4842566985732 2636.14282020351 16 19 12
-1094.20425423552 -46.7982190459847 2646.36745769022 14 17 10
-1093.19303572926 -47.0177924548249 2654.16426458963 14 17 10
-1106.6616248201 -47.2062440466559 2661.18827732579 15 18 11
-1079.77181836252 -47.6939566200878 2677.94268177355 17 20 11
-1074.5883249229 -47.9187248415502 2685.83158041587 18 19 13
-1084.95627078009 -48.1140095160824 2693.02908865959 19 20 14
-1076.64847615365 -48.3431923749582 2701.00517234595 19 20 15
-1084.9480316928 -48.5429139467408 2708.31392129867 16 18 13
-1094.29544797113 -48.7419289230412 2715.61729752394 14 19 12
-1068.28244284784 -48.9965438940793 2724.08436892567 15 21 11
-1088.03536272602 -49.179749599845 2731.06440180711 22 23 9
-1049.47579890439 -49.4473477476166 2739.69899460107 23 17 3
-1011.9027794683 -49.7079853700488 2748.10450746817 124 106 92
-999.311002433042 -49.9315519874273 2755.76476046874 122 99 85
-995.049779865238 -50.1431392249233 2763.18987149691 134 102 87
-986.601631647745 -50.3587178608728 2770.65343880242 131 102 88
-982.320152755315 -50.5685400171921 2778.00445644723 128 102 87
-973.845987295552 -50.7816872930622 2785.3729618649 109 90 73
-972.684335333816 -50.9868372906751 2792.62034501506 95 76 59
-968.375966067612 -51.1943004040802 2799.87301334862 73 55 41
-972.444083819285 -51.3945983150868 2807.05710982482 71 55 42
-978.61246675431 -51.5938930045198 2814.24707189908 114 101 92
-981.63803455076 -51.7959738608622 2821.45557945169 149 140 133
-983.614406449637 -51.9989606303778 2828.66530573403 153 153 145
-979.284761896762 -52.2052051281003 2835.83975246817 20 21 13
-1239.00143912977 -52.7438047762889 2860.69579707757 12 13 5
-1120.77996676894 -52.9058347421457 2581.4206277691 16 17 9
-1129.26684343321 -53.7709562529705 2612.38454500847 17 20 13
-1156.14159122732 -53.9897695855516 2618.50887659759 17 20 13
-1120.09061464711 -54.2001800130298 2628.69989769097 15 18 11
-1104.64307094083 -54.4104131591137 2637.45648601063 17 20 13
-1117.07715060499 -54.6272041568846 2644.51892539326 15 18 11
-1104.70277262337 -54.8354775841623 2652.99599379056 15 18 11
-1100.58791433141 -55.0455651012273 2660.96547353327 14 17 10
-1097.50003977927 -55.2552393770639 2668.85095411072 11 14 7
-1081.96772242017 -55.4565851519978 2677.29747647103 18 21 12
-1083.00463543788 -55.6666418661442 2684.91196187039 16 19 12
-1092.34299351447 -55.8827696103873 2692.16997363966 18 19 13
-1103.76771878587 -56.1014928738809 2699.3809074654 18 19 14
-1074.67393528023 -56.2857735832934 2708.14301907312 16 18 13
-1065.29675479543 -56.4845214180917 2716.06421812649 16 21 14
-1110.01939141159 -56.7369850698301 2722.19092612592 8 11 2
-1090.23340115994 -56.9250133695641 2730.43901324963 30 28 15
-1031.85871634497 -57.0653702727932 2739.61994035012 19 11 0
-997.386421331859 -57.2267797163476 2747.90966355395 129 111 97
-984.778135103509 -57.4116180232172 2755.53400120659 121 95 80
-983.636598551769 -57.6101695604242 2762.86023485401 135 99 83
-979.355994334766 -57.8039400328183 2770.22370516767 133 100 85
-978.203439757991 -58.0016216451583 2777.50958027263 131 104 87
-970.76805041632 -58.1891252393371 2784.85472751608 126 100 83
-970.649406049485 -58.3874906603516 2792.0825564844 118 92 75
-970.527978029613 -58.5857003001144 2799.29921962419 102 79 65
-976.694586441356 -58.7949566426148 2806.47630397506 115 93 80
-979.718948531385 -58.9991291962593 2813.67994341037 72 55 45
-983.794826085169 -59.2057546082877 2820.88885565803 75 62 54
-988.923972419128 -59.4148406131778 2828.11047457764 117 113 104
-1015.08489412877 -59.6677076924864 2835.45933045255 12 9 2
-660.699765967068 -56.0689000356254 2480.5333971582 112 113 107
-1168.60212067317 -61.8031200647711 2609.18355868878 16 19 12
-1158.36751189006 -61.9879244342223 2617.82734710274 16 19 12
-1195.61198549038 -62.3026411212208 2623.42496990932 15 18 11
-1082.05104188279 -62.1934486805962 2638.28478084975 18 21 14
-1102.74442214342 -62.4590720207388 2644.80820424203 15 18 11
-1112.08168019113 -62.6933627422761 2652.05159368917 14 17 10
-1097.6148201178 -62.8560049383905 2660.58206515683 16 19 12
-1062.40289252841 -62.9517319041381 2670.06439545368 13 18 11
-1133.93095954954 -63.3819734394074 2674.28948198305 12 20 9
-1117.36453691542 -63.5353381880303 2682.82411625126 11 16 9
-1089.35166836856 -63.6481876546107 2691.74823081036 14 17 10
-1085.19323699307 -63.8376894295492 2699.56799997144 18 19 14
-1022.8046060414 -63.8254229227631 2709.52850076909 18 20 15
-1064.364911984 -64.1702713776783 2715.54565802453 11 16 9
-1090.36292470046 -64.4645764515104 2722.26350295662 23 26 15
-1104.93375222214 -64.7204205423581 2729.4410424735 21 21 11
-1009.01458821022 -64.5670123122638 2739.68989784093 31 19 7
-989.117118174102 -64.6883957873519 2747.56615842772 127 105 92
-975.452930534443 -64.8309856933225 2755.19313490408 127 98 84
-973.258543615414 -65.0165537788928 2762.51485894675 141 98 81
-972.103525449602 -65.2056898703457 2769.79698242299 138 96 80
-970.944125203664 -65.3946657507135 2777.06293724348 135 102 85
-966.639854061353 -65.5702825345225 2784.35092721318 129 100 82
-968.611959389463 -65.7715049931227 2791.54592644803 125 96 78
-973.728571968968 -65.9862466733065 2798.7174392966 124 95 81
-983.045269929542 -66.2197409568719 2805.88406697659 118 90 78
-986.073640391697 -66.4267455209773 2813.10080072884 132 110 99
-995.40551508735 -66.6622621556028 2820.32342886754 118 100 90
-1011.05363684493 -66.9273891509419 2827.59856961421 100 86 77
-1062.48065770729 -67.3587948100573 2835.12458732987 24 17 9
-1096.08218245551 -67.7139377743247 2842.7582715941 29 26 19
-1083.38557206278 -67.8551359537199 2850.08130200484 17 18 10
-1210.85319015008 -68.8739928093648 2866.79740233931 23 26 19
-1075.8898909439 -68.9396988797748 2599.46051558629 12 15 8
-1046.02138737248 -68.986876314128 2609.32912364547 16 19 12
-1127.50980709373 -69.6115206978876 2611.44724990526 17 20 13
-1182.27064713125 -70.1051848544331 2615.72463846948 16 19 12
-1195.7867315847 -70.3846598073024 2622.86845381561 15 18 11
-1088.38251358362 -70.009689038737 2637.37406939713 19 22 15
-1093.57115318545 -70.2382776945841 2644.80426220714 15 18 11
-1092.55332740261 -70.4326806369242 2652.59242889843 13 16 9
-1125.71172740794 -70.8188333578758 2658.56129990543 15 18 11
-1124.70832822246 -71.0147026258824 2666.40210396394 16 21 14
-1083.24915787715 -70.9771952481394 2676.15354387451 10 18 7
-1108.15697659871 -71.3203115325297 2682.689215717 11 16 9
-1084.2800679001 -71.3792211377591 2691.41625378915 12 17 10
-1036.41807238737 -71.4861896251645 2708.47739441646 18 20 15
-1045.73809657492 -71.736856878349 2715.6464586338 13 16 9
-1114.43289486644 -72.3535165112742 2720.9243692232 20 22 11
-1072.74514840832 -72.2930680311993 2729.84163463769 16 10 0
-995.5382882031 -72.0040178957834 2739.51190267387 33 19 8
-976.666012052488 -72.0748203292908 2747.33012106246 126 102 90
-967.164144250209 -72.2029407504816 2754.83297099565 129 97 84
-967.051646368712 -72.3904059978001 2762.09050245838 137 94 75
-966.936185011567 -72.5777595699375 2769.33710162273 138 97 79
-966.817946945173 -72.7649003975116 2776.57259670313 133 98 78
-965.64931080255 -72.9449518705494 2783.80989485301 131 96 76
-969.71568956482 -73.1599884089539 2790.97915862713 129 94 75
-973.784964779254 -73.3754105658563 2798.15800387861 134 98 82
-981.005000091265 -73.6129313469801 2805.33116175046 127 94 79
-986.131865016497 -73.8368594078908 2812.53493974942 123 95 84
-999.668794859057 -74.1201605108204 2819.7537343089 129 107 96
-1030.04475907166 -74.5239537167167 2827.07071945666 132 114 104
-1077.29398602284 -75.0518511090069 2834.61069793606 29 21 10
-1080.38294054467 -75.2684908932269 2842.04628525418 32 29 20
-1105.59904567868 -75.6459622972928 2849.70487409953 16 16 8
-1137.17240006053 -76.0732386803941 2857.55545880808 22 23 15
-663.156272079876 -70.2715587281057 2500.16963865675 20 23 12
-568.036970449807 -70.0024184687441 2525.15118359903 161 149 135
-1142.85683467968 -76.8406623177964 2578.13810221673 14 19 12
-1084.29595135557 -76.9879040228774 2606.1058949869 15 18 11
-1092.57625660243 -77.2482490401366 2613.30489690747 14 17 10
