ply
format ascii 1.0
comment KinectMotionCapture
element vertex 783
property float x
property float y
property float z
property uchar red
property uchar green
property uchar blue
end_header
-874.721848965716 -326.108838834772 2457.07146881564 12 15 8
-878.020817032806 -328.562846755794 2394.1850744527 11 14 7
-881.501074349438 -331.100663024729 2329.2609027731 11 14 7
-887.930526225015 -332.558559256725 2299.23729624115 11 14 7
-891.936638033086 -335.165738819976 2233.23975632868 10 13 6
-902.56889835499 -334.899139072946 2258.11399771975 9 11 8
-926.14066732142 -332.955460023993 2350.90450381975 6 8 7
-932.642940715157 -334.562232592583 2316.84121299188 6 8 7
-938.800050253471 -336.472787296188 2273.75189188206 6 8 7
-947.344783708975 -337.122959081646 2269.6639703037 7 9 6
-958.276570431566 -336.295585638196 2310.62355070796 8 10 5
-967.93009921122 -336.147183524141 2330.58132725013 11 14 7
-976.192231895842 -336.887728365231 2323.50560900816 12 15 6
-986.090827632083 -336.42889611546 2352.50213009495 14 17 6
-995.407340592163 -336.29504923672 2371.49431545148 14 17 6
-1003.90955744865 -336.760981109 2372.44989026377 17 20 13
-1011.37890083509 -338.174777219529 2345.31969684626 16 19 12
-1019.66308206737 -338.916231467676 2338.24146973952 15 18 11
-1027.60596985885 -340.070294831435 2319.11347410591 16 19 12
-1036.41059994946 -340.301651818937 2327.08522228338 19 22 15
-1045.08842723871 -340.633463857666 2332.0497576823 23 26 19
-1054.67325091498 -339.538802032564 2378.21540297684 21 24 17
-1062.24214657121 -341.464995908711 2336.96555495623 22 25 18
-1070.16637127174 -343.12407534661 2303.73263785823 21 24 17
-730.119799538098 -331.685791346873 2308.85125177289 24 25 17
-738.455488217086 -332.333567476189 2304.7894114379 12 13 5
-748.340206986803 -332.57331818404 2313.6340801364 9 10 2
-768.171638381083 -332.978460406016 2333.33109970964 16 17 11
-777.119429476536 -333.430937388884 2335.23872115633 15 16 10
-790.440448283543 -332.564267233685 2377.91565050009 13 16 9
-796.217876769266 -333.944528270022 2350.99650974627 13 16 9
-810.978964294139 -332.506978352015 2410.62410564906 14 17 10
-816.010451872452 -334.151203525646 2375.73653145893 14 17 10
-822.669256701453 -335.31447772066 2355.76111894582 13 16 9
-845.193206824634 -334.408641433574 2413.41366864065 13 16 9
-857.531963463878 -333.439752309427 2457.2203561353 13 16 9
-870.067860762609 -336.10503537423 2407.29062471637 11 14 7
-873.571577016783 -338.702925657747 2345.38674499741 11 14 7
-884.898676304376 -338.019835337312 2380.25076956846 11 14 7
-891.781198649635 -339.27423434369 2358.23230420948 10 13 6
-930.0861986605 -344.389607350048 2283.93008239889 6 8 7
-938.48211803219 -345.116281684056 2277.84531894002 7 9 8
-946.348473237082 -346.198627416933 2261.75022708698 7 9 6
-958.207852396356 -344.652686657462 2319.72403913053 8 10 5
-968.743534451879 -343.801473081771 2357.7094464413 11 14 7
-977.833227237021 -343.870830112422 2369.67618252016 13 16 7
-986.762069427316 -344.007760848384 2379.64779555888 14 17 6
-995.882704799064 -343.923131431226 2395.64125332954 14 17 6
-1003.61209803538 -345.035093716747 2378.55540414767 17 20 13
-1010.91411264471 -346.664921163417 2347.41567262163 18 21 14
-1019.15785537736 -347.458825950621 2339.33470276028 16 19 12
-1027.09489703244 -348.661459218484 2320.20756459703 16 19 12
-1035.69862219529 -349.127562022578 2321.15071249168 17 20 13
-1044.47110946925 -349.331728285244 2329.12640029684 19 22 15
-1053.44803798249 -349.120519657601 2348.16076005532 17 20 13
-1062.17274769323 -349.165759199853 2360.17298035156 20 23 16
-1070.47186933032 -349.962564858091 2352.08510716967 20 23 16
-1077.48736614287 -354.103810108225 2255.48327834289 18 21 14
-1086.79865573771 -352.74549996056 2304.70566632852 19 22 15
-727.473265735987 -341.02443760744 2292.07423452482 15 18 11
-742.014728072306 -339.948575847214 2338.62905722543 17 20 13
-768.079704063795 -341.524283463706 2337.39606635129 16 17 9
-776.797154802611 -342.03719736076 2337.31721787481 16 17 9
-787.868174895202 -341.782330052442 2359.11343397407 15 16 8
-801.113819921124 -340.748296682691 2402.80701587323 14 15 7
-808.922701479562 -341.494904308132 2395.78787665834 13 16 9
-821.917174520389 -340.402939732324 2440.52033787474 13 16 9
-827.721692300378 -341.855757032184 2413.59800761148 12 15 8
-833.385746751906 -343.42458273216 2383.67021028188 11 14 7
-843.300308605775 -343.387251398058 2398.55702818084 12 15 8
-851.980342914772 -343.813351570997 2400.49823489787 12 15 8
-859.702571810497 -344.637037511254 2391.47473820962 11 13 8
-876.31727353623 -345.816422306686 2386.38112596392 9 11 6
-882.893999372738 -347.23398371701 2361.37771005171 7 9 4
-894.830046897136 -346.073665667132 2406.24207650877 9 11 6
-922.764724858748 -351.470179097529 2315.09518084335 8 10 7
-940.620684449383 -352.142734857294 2323.95391268778 5 7 2
-950.757196128507 -351.617670634593 2350.90495438677 6 11 5
-958.619367647825 -352.615444043363 2337.83322320932 9 14 7
-968.307497416489 -352.2701196579 2359.80177762995 11 16 9
-977.34628238382 -352.341979494189 2370.76718619637 12 17 10
-984.162705811078 -354.273328971149 2333.64224449997 12 17 10
-992.312962934629 -355.163826491366 2323.55758099835 11 16 9
-1002.48658790476 -354.098667872277 2363.60346221012 18 21 14
-1010.78095200979 -354.789708062491 2358.53896550508 20 23 16
-1018.6185464478 -356.035110040548 2339.42459066522 18 21 14
-1027.05477534256 -356.651556533613 2336.3578080984 16 19 12
-1035.61547873968 -357.109050898924 2337.30630218505 17 20 13
-1043.64450197265 -358.366224973169 2318.16782889595 16 19 12
-1052.49148527153 -358.383256493382 2330.16471588644 15 18 11
-1061.61694690127 -357.709437118859 2359.25691310931 14 17 10
-1078.16360585125 -359.587203590993 2337.04174935008 19 22 15
-1086.04220790721 -362.084312376608 2287.69277796283 20 23 16
-1094.82381404017 -361.888369523019 2304.73593853639 17 20 11
-744.134048473073 -347.818378059891 2360.55610145414 9 12 5
-753.870089541634 -347.993750054367 2369.41915471171 16 19 12
-769.907172300866 -349.414357403808 2358.35165802256 16 17 9
-777.686799485514 -350.220329200142 2350.32863881581 15 16 8
-784.430122697604 -351.40464454738 2332.3583487844 14 15 7
-809.002916521895 -349.767351612003 2401.84625461745 13 16 9
-818.415006343738 -349.921115567163 2410.74967817144 13 16 9
-830.766006183532 -348.884042832057 2450.52366956642 12 15 8
-834.20189687028 -355.50009662974 2304.99504016817 12 15 8
-846.055321621767 -354.653156920648 2339.79271067265 12 15 8
-852.741269666205 -356.054809940737 2316.79147731429 12 14 9
-872.652600352701 -355.851929960244 2347.56220360973 10 12 7
-884.995090281107 -354.457926617322 2395.39853461905 8 10 5
-891.904445501841 -355.784352783159 2374.384597455 9 11 6
-897.333689090216 -357.994060991494 2331.38689752275 10 12 7
-931.317505988838 -360.368635934905 2322.11325541422 6 8 3
-942.716120882507 -358.958268901472 2369.05964625635 12 14 9
-950.666245350969 -359.86108521312 2358.99999056801 7 12 5
-959.302881846073 -360.274275388829 2360.94657907763 9 14 7
-967.215212817083 -361.263254843767 2348.87649250553 11 16 9
-974.851615028189 -362.545553485912 2329.78708216346 12 17 10
-983.666810082687 -362.836390449373 2334.73436697098 12 17 10
-991.939882932698 -363.625745932915 2327.65741200214 12 17 10
-1001.03816354093 -363.578967655392 2340.63069790018 16 19 12
-1010.42941256289 -363.106471193656 2363.64365347791 17 20 13
-1018.69580170298 -363.850619042799 2357.57510064205 19 22 15
-1027.01977561433 -364.553882448262 2352.50718126638 19 22 15
-1035.59520179471 -364.917652269768 2355.46896541285 18 21 14
-1043.41538660241 -366.476978180441 2330.3109867728 17 20 13
-1052.46665973864 -366.026821293482 2352.35874106343 16 19 12
-1060.12651294447 -368.197494099269 2313.11356010132 16 19 12
-1068.38765481591 -369.429060527828 2295.96190707545 17 20 13
-1076.45782216755 -371.447750632885 2260.69610975416 19 22 15
-1085.2922049502 -371.471905213723 2271.68690087472 20 23 16
-1094.57738990092 -369.215330524827 2335.01876146756 22 25 18
-1102.66103797759 -372.122615632749 2279.59867860726 31 32 26
-722.782057322209 -359.782521268236 2263.48398008016 25 28 21
-747.649343475316 -358.487287065831 2321.85051665601 4 7 0
-762.554018249632 -356.887798921456 2374.40547703558 18 19 13
-773.097780472232 -356.709328940074 2391.2287769611 16 17 9
-779.352861263906 -358.050840013386 2370.29652910333 15 16 8
-795.290548268359 -355.808828232302 2437.83715114839 14 15 7
-793.86557581522 -360.105848479544 2344.30466767947 15 16 8
-806.735543663313 -358.942326306207 2385.02148930196 14 17 10
-820.968626232115 -357.110475125315 2441.69039689134 13 16 9
-828.502504816421 -357.966363957259 2432.69049001361 12 15 8
-832.102352725389 -364.940249206554 2288.14978888917 12 15 8
-842.324432833129 -364.787088310574 2304.00585266198 13 16 9
-852.711547637909 -364.502742245919 2322.86403690338 12 14 9
-883.263447301134 -368.892077814534 2266.65932619953 7 9 4
-892.884647869461 -368.935699827601 2277.55173811011 7 9 4
-935.535650482971 -372.39001927327 2256.11428731535 0 1 0
-949.736352317624 -368.71445331517 2352.08506052606 10 15 8
-964.446366933712 -371.766251005297 2304.90809128626 10 15 8
-975.221106048226 -370.325474060202 2348.90895649058 11 16 9
-983.714201228166 -370.862091130119 2347.85048158474 12 17 10
-992.461719740964 -371.131752655418 2352.80615625981 13 18 11
-1001.29530286423 -371.265255382594 2360.77403357426 16 19 12
-1009.74484382793 -371.798709604713 2359.72098564787 17 20 13
-1018.50335472451 -371.927223276396 2367.69797812515 18 21 14
-1026.35511819927 -373.271308062668 2348.58209495093 18 21 14
-1034.70967032166 -373.986948463494 2343.51039218968 19 22 15
-1043.03205715491 -374.794719481467 2336.42733162392 17 20 13
-1050.72415462665 -376.882662686496 2301.2088975641 18 21 14
-1059.49870375996 -377.011531172632 2309.18412976738 19 22 15
-1068.02291672802 -377.643061150271 2306.10664729893 19 22 15
-1075.82738225432 -380.444852929618 2255.75980271718 20 23 16
-1084.92067899134 -379.556278749061 2285.86313547756 20 23 16
-1093.92614727254 -378.284915195446 2324.03863823956 22 25 18
-1102.64543197072 -377.466825903141 2352.17345691431 22 23 17
-720.739093147964 -369.174587959439 2251.6704573513 19 22 15
-744.139853105889 -368.26774342266 2297.12037745394 23 26 19
-750.893819502265 -369.546343872891 2279.14900751252 18 19 13
-767.925085558867 -366.985274441442 2350.58330579159 16 17 9
-780.0315802883 -366.157689834455 2381.31845696842 15 16 8
-788.624229428308 -366.654087980181 2381.25537976875 14 15 7
-795.950762980015 -367.668877638493 2369.25822495289 15 16 8
-806.099487292378 -367.515045112907 2384.11551395964 14 17 10
-820.046211648423 -365.655597741683 2437.79702339289 13 16 9
-832.628485150233 -364.258409163002 2480.56450641319 12 15 8
-837.681629786562 -370.768032479964 2354.98895657854 12 15 8
-843.996336241982 -372.416343389713 2329.01115970844 12 15 8
-855.179620681471 -371.628429678514 2357.84625234701 11 13 8
-880.970473892281 -373.113457028085 2357.65491867024 7 9 4
-934.508646910538 -381.591189409306 2248.2044646519 14 16 11
-946.890661005491 -379.180895752481 2311.14969473112 12 15 8
-954.533229893248 -380.561904906304 2292.05977477488 12 15 8
-965.069311131064 -379.381672672258 2328.02889161475 10 15 8
-984.856303351832 -377.687905754498 2385.01299512087 12 17 10
-992.82084835533 -378.689538005438 2373.94411296508 12 17 10
-1000.95859616297 -379.552313533505 2365.87655201237 18 21 14
-1009.87966747814 -379.466654522822 2377.86392282458 21 24 17
-1017.89859880568 -380.521169273636 2365.78070574306 17 20 13
-1025.7525731636 -381.914347211561 2346.66443568002 15 18 11
-1033.32309384563 -383.937990359058 2314.48454618494 18 21 14
-1041.69621699274 -384.814872279545 2306.38764893008 16 19 12
-1050.08229562325 -385.742350689339 2297.2813407846 16 19 12
-1059.29107000753 -384.875842482412 2325.35494653087 18 21 14
-1068.58092370654 -383.365854709332 2366.51763282892 19 22 15
-1076.74816790997 -384.628300214495 2350.38522582531 19 22 15
-1084.61854165877 -387.318473667488 2305.06877837258 19 22 15
-727.578613859336 -379.197534989242 2238.75011442234 20 23 16
-751.502270104981 -377.928595445692 2289.17274262373 19 20 14
-762.171653025849 -377.711975564523 2304.97257826417 16 17 9
-783.147906100354 -373.200094486943 2414.20442104909 14 15 7
-788.629335636451 -374.970454036709 2386.31531915787 14 15 7
-797.202794504108 -375.46263607706 2386.25462568777 15 16 8
-808.640460176428 -374.662179308783 2414.05001265374 12 15 8
-820.51937197437 -373.573624873285 2447.83641941227 12 15 8
-827.451486235977 -374.750875624637 2432.86585233296 11 14 7
-835.308401619347 -375.512781199738 2426.8484461655 11 14 7
-844.933516707826 -375.386346956355 2439.75577646386 11 14 7
-850.657640438413 -377.276183977179 2409.82132821525 11 14 7
-852.226670061917 -381.534688521499 2330.02369000743 10 12 7
-862.408931864616 -381.17983956464 2347.89932565862 14 16 11
-873.699989489728 -380.105425618054 2380.75144328285 14 16 11
-884.806174908332 -379.019117310367 2413.62636027337 10 12 7
-945.385167154582 -388.693165815571 2294.23049940626 9 12 5
-955.48853891907 -387.910347211009 2320.17731088549 11 14 7
-964.832503899896 -387.7109356047 2334.12698170132 12 15 8
-974.046017267322 -387.555759210618 2347.08536150094 10 15 8
-983.27408094241 -387.296087321279 2362.05726478813 9 14 7
-991.384848988375 -388.22878598336 2352.98556779208 9 14 7
-1001.18610140047 -387.11032397483 2385.01556093331 14 17 10
-1008.82057170395 -388.644149260558 2363.91167987197 21 24 17
-1016.97968581098 -389.579437640006 2354.8337161245 19 22 15
-1032.63131325522 -392.828300999796 2309.55537260106 16 19 12
-1041.1767134262 -393.419101309345 2307.482825933 15 18 11
-1050.32570504003 -392.732244503213 2330.52544929272 15 18 11
-1059.0247404528 -392.806217808478 2338.50996059739 17 20 13
-1068.06381271694 -391.796422184759 2367.61205392087 18 21 14
-1077.30434552442 -389.588920634041 2419.86433718324 19 22 15
-1092.25534371761 -398.36937794822 2267.86547429597 33 38 31
-730.425625145137 -386.814824580071 2266.63228527429 26 29 22
-757.809002430966 -383.902909532768 2347.85929648864 19 20 14
-776.746589803621 -384.220763387315 2361.62078924525 14 15 7
-790.041301721715 -382.628054327842 2404.2990895356 14 15 7
-796.563731880361 -384.039724650634 2385.34903701566 15 16 8
-807.187565828613 -383.551129034322 2405.18506959044 12 15 8
-817.297438898347 -383.251341229923 2421.05450973275 11 14 7
-823.522165731076 -384.865115930486 2398.11115240105 10 13 6
-845.315721374299 -388.407631350451 2356.09809453284 11 14 7
-858.077538462781 -386.502640261695 2403.88075032358 10 12 7
-865.30037313552 -387.735663289201 2388.87404992999 15 17 12
-876.242990519052 -386.711933171958 2418.74624247841 15 17 12
-946.364547566638 -396.018780081378 2321.33728433516 8 11 4
-956.561010941571 -395.001449941014 2350.29492224855 11 14 7
-963.829462303798 -396.788944914104 2325.20615728704 12 15 8
-973.166621628929 -396.492148065937 2340.16434831483 10 15 8
-982.324655074067 -396.294615353538 2353.12978040564 9 14 7
-989.33820085009 -398.619166718129 2317.99664868505 8 13 6
-998.028571569728 -399.000835124605 2319.93644846966 10 13 6
-1007.26663371933 -398.586390287206 2336.92231088243 12 15 8
-1015.53222546116 -399.494564428925 2328.83867504943 26 29 22
-1023.6410998205 -400.724855873839 2314.72932231457 28 31 24
-1032.20342832564 -401.263875345213 2313.66221382568 14 17 10
-1041.16731205366 -400.99762366696 2327.65914051389 15 18 11
-1050.07305561206 -400.672163645101 2342.67109419541 15 18 11
-1059.10561331688 -399.800979433229 2367.74337686409 15 18 11
-1067.43420594998 -400.546088793029 2362.67499129908 17 20 13
-1092.21294231722 -404.483617640684 2316.25945211701 29 34 27
-744.398569386134 -393.82304202023 2313.27958507573 23 26 19
-764.601430683495 -389.351411937631 2410.51484232849 18 19 13
-773.240282109308 -389.784556223111 2411.45327960935 15 16 8
-784.198548981254 -389.14389704977 2433.26255067481 14 15 7
-787.886749490013 -391.878498410167 2389.4758178152 16 17 9
-794.657682258456 -393.238904058961 2372.51023310012 16 17 9
-802.749174811099 -393.985317455151 2367.47143965756 11 14 7
-811.262565389671 -394.525773116888 2366.41044211475 13 16 9
-818.996296358213 -395.481617954508 2357.38585807156 13 16 9
-825.162971444465 -397.326106993785 2331.42705126931 10 13 6
-827.600802643056 -401.375348157732 2263.61364692683 12 15 8
-843.169601395763 -397.944562931863 2338.25146367714 10 13 6
-855.642093003119 -396.119241943842 2382.03944672432 7 9 4
-870.050826541231 -392.905192751409 2451.78368749336 8 10 5
-955.372296360786 -404.22536008895 2338.37435138643 14 17 10
-964.723773373059 -403.885504895588 2353.33064225888 15 18 11
-970.532650282015 -407.447442368122 2297.18823402877 9 12 5
-981.555649161342 -405.120896258245 2348.2100754654 15 18 11
-988.4902490089 -407.649501038759 2311.07195890098 9 12 5
-997.037695546897 -408.245970946961 2308.9991717891 11 14 7
-1006.00579884461 -408.229684858491 2317.95755441574 12 15 8
-1015.41064171109 -407.427305436746 2340.96794482701 15 18 11
-1023.84139585304 -408.074023206821 2337.90216546404 19 22 15
-1031.80629523452 -409.620840895704 2318.77245721866 29 32 25
-1041.5697130811 -407.620442959223 2362.89805559639 25 28 21
-1049.79989039134 -408.60264629852 2353.81134713016 22 25 18
-1059.21772240196 -406.580217630295 2397.98001455998 21 24 17
-1066.72685640652 -409.550112165975 2353.71707142542 20 23 16
-1073.6892979468 -415.274116170379 2261.15702038331 20 23 16
-1082.35783630927 -415.876508657024 2259.06913732453 21 24 17
-721.005902388437 -403.791430108205 2271.88350693342 33 36 29
-730.049084892791 -404.245403019245 2272.77178120625 18 21 14
-739.67772512262 -404.431986960071 2278.6249654165 24 27 20
-773.280139359426 -397.983696697358 2416.50881383322 14 15 7
-777.893480935313 -400.347124168591 2381.67531578579 14 15 7
-785.727065352225 -401.210223432434 2374.65364084553 15 16 8
-795.178722818121 -401.26265881527 2382.54393237934 15 16 8
-799.73987931939 -403.865657543378 2343.68682923031 11 14 7
-808.017227088535 -404.573664559244 2339.63242811186 13 16 9
-818.945414845508 -403.806025773001 2362.45280557494 11 14 7
-821.203998607602 -407.96678084913 2295.66975101895 10 13 6
-829.626572445262 -408.683337863307 2291.59724906183 12 15 8
-839.406906770965 -408.572717237278 2302.46963609651 10 13 6
-852.938720488306 -406.021512394806 2357.20878930405 11 13 8
-858.098681096736 -408.782742612858 2316.26176117442 7 9 4
-962.277224288564 -414.572232937979 2316.37703464945 9 12 5
-973.499649741807 -411.993961179117 2369.3887001145 12 15 8
-980.969200040077 -413.742109436764 2347.29827740854 4 7 0
-988.855422510362 -415.090481611048 2332.20885363885 20 23 16
-996.531399219802 -416.851287707757 2310.09270347113 11 14 7
-1006.18253269489 -415.755122344114 2337.10281352593 11 14 7
-1015.71650710404 -414.590603874364 2365.1348111635 8 11 4
-1022.64735727001 -417.824900111808 2317.92142916237 8 11 4
-1030.90227757318 -418.952172548795 2306.81664075481 11 14 7
-1039.88997282446 -418.604451311225 2320.81062162724 17 20 13
-1049.35870868627 -416.887575374324 2357.9194509948 22 25 18
-1057.35720813172 -418.606575425496 2336.77038863107 25 28 21
-1065.67251490076 -419.67608375167 2326.66583959678 27 30 23
-1074.00256764652 -420.868051549253 2314.54391811057 28 31 24
-1082.04880932979 -423.562865566387 2277.26751292312 28 31 24
-1090.5847815532 -424.645729812724 2267.13546131703 19 21 16
-704.678667032545 -410.758253568881 2288.04797671149 29 31 26
-717.394582047104 -409.595507324827 2317.6987463739 22 24 19
-717.83043676754 -413.823730118649 2251.14333530027 13 16 9
-734.382115136122 -410.868257298252 2312.55885285209 11 14 7
-743.425527047582 -411.252887298016 2314.45460298237 25 28 21
-752.219110920451 -411.748688476466 2314.36620847512 18 19 13
-770.357059004837 -407.620770863696 2395.73586492899 14 15 7
-775.577906467464 -409.797803703068 2365.86521917198 13 14 6
-777.589058992013 -413.74306662457 2305.15883793861 14 15 7
-793.585306291181 -410.369085866807 2372.68917100509 13 14 6
-801.881386500147 -411.022990793162 2369.6402170799 11 14 7
-808.781411309373 -412.478710232701 2352.65877344679 13 16 9
-818.407378736386 -412.389572542512 2362.54255376543 11 14 7
-827.498111688511 -412.584296589076 2367.45519996235 10 13 6
-832.492923798773 -415.318004676089 2328.54408310677 12 15 8
-840.920003282042 -415.979090425321 2325.47880015705 10 13 6
-848.922846341379 -416.93109669755 2317.42830950537 4 6 1
-854.520966963133 -419.575137063487 2280.45728164265 13 15 10
-862.025169155676 -421.003960069899 2264.40805651136 13 15 10
-965.092469493416 -419.307345510257 2381.54240493043 4 7 0
-971.98249427402 -421.712232088981 2349.44844129181 18 21 14
-979.780179973128 -423.156825291752 2333.3626326842 21 24 17
-988.52999712841 -423.389543437193 2337.310236115 6 9 2
-996.924656872462 -424.108368341923 2333.24122364415 11 14 7
-1006.09821465404 -423.604478827318 2349.22697290439 12 15 8
-1014.75308251108 -423.830685310523 2353.18640829805 11 14 7
-1022.29824128173 -426.084897251907 2324.03335230886 10 13 6
-1030.17419455559 -427.978220990137 2300.88490813044 11 14 7
-1037.78487457938 -430.744754540897 2263.66304733392 9 12 5
-1046.97019056635 -430.049932751866 2282.67012798961 11 14 7
-1055.93637283883 -429.659008122294 2296.66643951128 16 19 12
-1064.43519343284 -430.510014979246 2290.56940228222 18 21 14
-1073.83714129954 -428.048257840759 2337.76195629799 21 24 17
-1082.36898598185 -428.328817904415 2340.72920029658 21 24 17
-1090.220080733 -432.317182961908 2284.33305833509 26 28 23
-709.346600478541 -417.259211852591 2327.79317367753 24 26 21
-713.144557435945 -420.023964315543 2289.03149902356 5 7 2
-723.150302996594 -419.997442102395 2297.86036307379 24 27 20
-737.994849130093 -417.623531104244 2346.38955880698 31 34 27
-743.716776520637 -419.580743346847 2321.49447810731 13 16 9
-754.011082775167 -419.306354479363 2334.31766740239 18 19 13
-772.253457748517 -419.868714527957 2341.11251249865 13 14 6
-778.999156067953 -421.425452003249 2323.1429068283 13 14 6
-796.549105204091 -416.965520500499 2405.59275482613 13 14 6
-802.998202939172 -418.635687593349 2385.64508767171 11 14 7
-810.958960441146 -419.472545625869 2379.61492000637 13 16 9
-819.240309100358 -420.130441652702 2376.56757473318 11 14 7
-827.246469526447 -420.969681969551 2370.53198759374 10 13 6
-836.019440210356 -421.326527413479 2372.46141402075 12 15 8
-845.853338966738 -420.954182016943 2386.34948858286 10 13 6
-849.421926937539 -424.895287733285 2329.47996659566 14 16 11
-854.559234287747 -427.940342990112 2287.52882580367 12 14 9
-865.145312547272 -427.084175445637 2309.38397627398 13 15 10
-964.245944912808 -428.163687861762 2375.62500619796 7 8 2
-969.818817557106 -432.360848700868 2316.49042117964 14 17 10
-978.864843632361 -432.266841365391 2325.43887482818 10 13 6
-987.461969579709 -432.741243370345 2325.37494075462 22 25 18
-996.95600673486 -431.812893693985 2347.3661814096 16 19 12
-1006.4013179899 -430.74866470072 2371.37875940063 17 20 13
-1014.60517346046 -431.661901374144 2364.31076858824 14 17 10
-1022.31327874064 -433.604809358246 2341.18316115673 13 16 9
-1029.62516971282 -436.649889544663 2300.97625971551 12 15 8
-1037.94548663673 -437.835107955843 2289.86346279497 14 17 10
-1046.84025124342 -437.663659647846 2299.83827614068 13 16 9
-1055.40885384917 -438.267270371634 2297.76286768171 10 13 6
-1064.27308235997 -437.894595750514 2310.76426339264 10 13 6
-1072.07349192336 -441.36721185706 2264.45068022458 12 15 8
-1080.25614522932 -444.200529558899 2228.16554378453 13 16 9
-707.627413650065 -426.520454041153 2318.96220249172 21 23 18
-715.024747195933 -427.683139415051 2307.96452910019 20 22 17
-724.104004315672 -428.054077273885 2309.85576990262 18 21 14
-738.31180654018 -425.848197518274 2353.42595398712 22 25 18
-747.124857031119 -426.270772554872 2354.34286468951 17 20 13
-757.683090384004 -425.767422643107 2370.1558160456 19 20 14
-768.835247391885 -424.886908566381 2391.94025911901 15 16 8
-770.036978348287 -429.455271656866 2326.29785406451 14 15 7
-779.979583770877 -429.25759666604 2337.14976137106 14 15 7
-795.593516164937 -425.688248720666 2401.70398902163 13 14 6
-806.087367398267 -424.972259370018 2420.54771647053 11 14 7
-809.213964515724 -428.763530602437 2367.76394640653 13 16 9
-817.036749602815 -429.743184184335 2359.73599873351 11 14 7
-825.75566035328 -430.157552258049 2360.66463590622 10 13 6
-836.687731081361 -429.053822549673 2385.49925817911 12 15 8
-845.409090444653 -429.398794991126 2387.43509412668 10 13 6
-853.502879114409 -430.187354294851 2382.39612513203 7 9 4
-856.967335098038 -434.482192877549 2322.5172281808 11 13 8
-861.569425389461 -438.157953079569 2272.57232266085 8 10 5
-962.303861863851 -438.433490605496 2348.68469777114 9 10 4
-969.025372230601 -441.342283707102 2311.57417472656 7 8 2
-976.687106109174 -443.205123452541 2290.4677577801 9 12 5
-987.356184717892 -440.699325484866 2335.48669119412 14 17 10
-997.445481765167 -438.709292389062 2372.5173588448 18 21 14
-1006.98142428043 -437.305739276235 2400.54872165388 17 20 13
-1014.10255603388 -440.100484183048 2365.4034020773 15 18 11
-1022.10201081816 -441.500107388427 2351.30790991895 13 16 9
-1029.62329186936 -444.112385961242 2319.13571538914 13 16 9
-1038.66895638412 -443.436747262438 2336.14490004455 14 17 10
-1046.89095101554 -444.711653315089 2324.03668198712 13 16 9
-1054.99282320954 -446.531159247523 2303.8829113611 12 15 8
-1063.45101351889 -447.475198082014 2296.78350244957 12 15 8
-1072.14324405582 -447.605180816776 2301.7454686293 12 15 8
-693.199373038482 -437.176233522979 2281.48811822396 20 22 19
-707.867205148836 -434.877092938455 2325.00088796804 18 21 14
-714.34970645123 -436.511961816654 2307.06433348569 19 22 15
-722.554260010838 -437.322047684542 2302.01135810832 21 24 17
-735.93252744632 -435.442999261876 2338.63187397292 23 26 19
-749.584573197366 -433.293702195517 2379.24850089363 19 22 15
-757.498277919438 -434.156333862018 2373.224273011 18 21 14
-767.844235433404 -433.664444697973 2388.05605822011 15 18 11
-777.767832907618 -433.360980103039 2399.91774611128 14 17 10
-794.530124372586 -434.497191453431 2396.82121630806 13 16 9
-800.16703714045 -436.7944711957 2368.91409865429 12 14 9
-807.363819106299 -438.184750139733 2354.91875071055 12 14 9
-815.613510354784 -438.923183034234 2350.86812135658 12 15 8
-824.739156094534 -439.070444865686 2355.7760453852 12 15 8
-835.039011893388 -438.358062778409 2373.63630471885 12 15 8
-844.874910679966 -437.903336082802 2387.52415300954 11 14 5
-847.896498892832 -442.547363873649 2324.67814135193 8 11 4
-852.100828483447 -446.547744515724 2271.76042732895 10 12 7
-863.475843520612 -444.968694241524 2302.58512415757 12 14 9
-976.557011974778 -451.304293582589 2299.57522632518 11 14 7
-987.29772187667 -448.533116796958 2346.60013617675 3 6 0
-997.15660817166 -446.783151021929 2378.62127390744 16 19 12
-1005.90704946733 -446.686279125482 2386.59892014707 20 23 16
-1012.41203082319 -450.827267200615 2333.39446866978 20 23 16
-1021.46111447972 -450.246190287468 2348.38786119649 18 21 14
-1029.90261300503 -450.847155905765 2346.32806734079 18 21 14
-1038.40415683819 -451.308090586835 2346.27626615303 18 21 14
-1046.4963024106 -452.891693207634 2330.15407677042 18 21 14
-1054.82574039748 -453.987478575109 2321.05552054153 18 21 14
-1063.33568092574 -454.591893578377 2318.98719461232 18 21 14
-1072.00348120983 -454.559920750607 2325.96763777283 14 17 10
-1080.23881371355 -456.43881217854 2305.79736847875 14 17 10
-1088.30714416356 -459.957996182646 2262.47377456619 24 25 20
-694.385892331143 -445.1605457965 2294.46196738452 19 21 16
-731.705593258173 -446.120645098028 2308.95471420606 24 27 20
-746.887350809446 -443.058424984621 2361.47100397184 18 21 14
-757.197088622856 -442.595184573985 2375.29969753272 15 18 11
-763.984186122446 -444.145501242369 2359.34028277686 14 17 10
-772.980377418583 -444.418722108914 2362.24931946697 13 16 9
-785.123987972481 -442.728649827826 2393.98549484468 12 15 8
-789.947955047731 -445.570549559348 2359.12721228854 12 15 8
-795.371414738608 -448.151901911921 2328.2244191174 11 13 8
-805.913819423197 -447.403491051027 2346.05431490355 11 13 8
-816.845136191576 -446.306638918895 2368.87343491288 11 14 7
-824.869698063893 -447.187782048592 2362.83566173131 11 14 7
-834.874493399689 -446.628205172697 2377.70960344139 10 13 4
-841.089209962973 -448.88553604799 2351.74612881985 10 13 4
-848.92825634364 -449.977839048346 2342.70852112482 11 14 7
-852.14074924555 -454.877909265671 2278.83167287106 8 10 5
-861.529532027886 -454.874786614041 2285.7222176541 19 21 16
-951.159380528241 -469.243398673688 2156.66674151276 13 15 12
-976.523723679915 -459.210461959468 2310.68548000694 17 20 13
-987.331316322608 -456.162629893016 2359.71692919115 11 14 7
-996.536805339877 -455.39884284667 2376.70569628925 14 17 10
-1005.02193239176 -455.782028329078 2377.66342616718 18 21 14
-1012.8441866714 -457.464811147192 2360.56749171165 21 24 17
-1020.04912341671 -460.673648986944 2322.38974297197 20 23 16
-1029.36037404199 -459.393944669898 2346.4182432217 18 21 14
-1037.16046025679 -461.670851282354 2321.26466249045 17 20 13
-1045.57091553774 -462.569861794226 2315.17853887723 18 21 14
-1054.59626133395 -461.569634555679 2335.21270595955 18 21 14
-1063.10789599107 -462.027467016474 2335.15939705829 19 22 15
-1071.45771956359 -463.145588204974 2326.05835564942 19 22 15
-1079.76233387548 -464.707813552465 2310.91728222613 19 22 15
-1088.23604509119 -465.684240100345 2303.81602168914 18 20 15
-733.932537962942 -442.9096532506 2466.8865156867 17 20 13
-722.056093433834 -460.01975727158 2235.62114610683 25 28 21
-747.552348843704 -450.969472594463 2371.48644139904 14 17 10
-754.897581841861 -452.209911740419 2360.49547460964 11 14 7
-763.330798390671 -452.823277100014 2358.43698721866 12 15 8
-772.105766914164 -453.226109164855 2359.3583580643 13 16 9
-783.058870962784 -452.220492375367 2380.1596252185 12 15 8
-785.246029526745 -456.921068912049 2320.4411959304 11 14 7
-800.029034084013 -453.297169721983 2378.04468457902 12 14 9
-806.385857319616 -455.323716120731 2356.0938567837 12 14 9
-817.589767199696 -453.946317545276 2381.90152153849 11 14 7
-827.016600544385 -453.770294177356 2390.8022367048 11 14 7
-833.592914295416 -455.732626971396 2369.83153578472 11 14 7
-845.254041521876 -453.76489849586 2403.64280549671 11 14 7
-846.718284297378 -459.963880011409 2323.86335424506 14 17 10
-855.926089860704 -460.004807206086 2329.76867255188 11 13 8
-871.684293023336 -454.275969789598 2415.46207979927 7 9 6
-953.055421552338 -474.855993860673 2203.80956474929 4 6 3
-978.286203269417 -464.232289169716 2359.85902961958 15 18 11
-987.191314801887 -464.018385727557 2368.82475282785 10 13 6
-1004.28960690609 -464.626890423802 2372.7391926594 15 18 11
-1012.30410847136 -465.978875428047 2360.65731176335 23 26 19
-1020.00703487322 -468.160984270424 2337.53098055219 23 26 19
-1027.8588267807 -470.274915285466 2315.39381962906 19 22 15
-1036.38768045852 -470.885847936133 2313.32339088333 18 21 14
-1044.58896661282 -472.480384764647 2298.19529729437 18 21 14
-1053.86910893969 -470.742942893795 2327.26539026872 18 21 14
-1062.80482269362 -469.679015331054 2347.31057514748 19 22 15
-1071.1729020693 -470.588032150949 2341.22976614797 19 22 15
-1079.59624682019 -471.345771936632 2337.15727643879 19 22 15
-1087.84233007476 -473.328262012995 2316.98617860667 17 19 14
-688.463236740552 -465.349907559413 2258.97486926239 29 31 26
-712.40715155109 -457.665746257685 2371.85899998173 19 22 15
-718.36694930591 -459.64736105385 2350.96528739164 17 20 13
-714.993539700347 -467.040622416512 2255.66849673594 22 25 18
-744.606746073506 -460.997464192193 2351.7252599932 14 17 10
-750.944366062551 -462.921846468864 2331.79193380033 11 14 7
-762.216860946453 -461.796702204366 2353.56071519335 13 16 9
-775.723652227992 -459.131799154178 2396.20972564823 13 16 9
-780.221556234859 -462.29956716469 2359.37737753275 13 16 9
-786.304288537731 -464.526845260784 2335.44566882009 12 15 8
-797.617608671893 -463.162961456592 2360.23202831447 13 15 10
-806.962755544498 -463.114897583232 2367.12765998123 13 15 10
-813.596955909353 -465.056083455298 2347.15736656249 13 16 9
-837.163665850461 -461.024974772758 2413.74122012437 12 15 8
-838.376102336962 -467.424586895952 2333.9937211625 12 15 8
-844.589592847169 -469.978283529886 2306.01556554868 17 20 13
-854.358562131303 -469.555124189689 2317.89623491197 10 12 7
-872.227285768948 -461.720381465169 2428.5148154594 12 14 11
-952.962978743846 -483.125561123061 2212.91278336628 18 20 17
-976.846452379244 -474.224069190532 2340.91775880665 14 17 10
-985.135010496353 -475.143831500251 2334.84690188795 19 22 15
-992.485363965393 -477.844446463897 2305.71957230394 10 13 6
-1000.26068237083 -480.011453638864 2283.5918543272 10 13 6
-1010.01094396354 -478.22212672951 2312.60314255908 16 19 12
-1019.29357986316 -477.123205682777 2332.60494145094 21 24 17
-1028.18161016526 -476.71933237507 2343.58767021328 23 26 19
-1035.64025760159 -480.065474378866 2306.3863085631 21 24 17
-1043.36953456212 -483.188293082649 2272.1738873976 20 23 16
-1052.8628772321 -480.901695013692 2307.26253117289 19 22 15
-1061.73432299474 -480.255840384648 2321.27023417057 18 21 14
-1070.64665968206 -479.052385521687 2342.32565602705 16 19 12
-1079.18574431545 -479.185233426626 2346.29905435728 16 19 12
-1087.57466255727 -480.108370777697 2340.21592224513 20 22 17
-704.508597170328 -470.424892454767 2316.44373156271 21 24 17
-709.843841694817 -472.918483956391 2289.58270466924 20 23 16
-731.051748003969 -471.784227937689 2317.16587168328 22 25 18
-749.221908821228 -472.360245423858 2321.95415018055 14 17 10
-760.87079117198 -470.947535421795 2346.69850491207 13 16 9
-769.678418226672 -471.341337190867 2347.61601665387 12 15 8
-780.012189452724 -470.672521084314 2362.44885670885 11 14 7
-789.402315635885 -470.60591224527 2369.33882638606 11 14 7
-799.792635897554 -469.774508872869 2386.17979575306 12 15 8
-809.271761543304 -469.547335254776 2395.07385044699 12 15 8
-820.75148322799 -474.910072007996 2337.22080955717 11 14 7
-831.582460146541 -473.608669417673 2360.0519127102 11 14 7
-836.469815619183 -477.228702475871 2319.14116571661 11 14 7
-842.454661078836 -480.090067159647 2288.1690523229 7 9 4
-853.470104781972 -478.551102907115 2313.99981106491 16 18 15
-948.74555401355 -497.539830247038 2143.94159708534 28 30 27
-974.734751410099 -485.435325147329 2307.95473411913 8 11 4
-983.51473493001 -485.654624093896 2310.89061026005 15 18 11
-992.819340393527 -484.830939483472 2326.85916337533 11 14 7
-1000.21887531553 -487.693481600542 2296.71819529921 9 12 5
-1009.60875268598 -486.543700813292 2316.7064771522 12 15 8
-1018.68007691712 -485.870135239058 2330.68892325415 17 20 13
-1026.88717779135 -487.210495917702 2319.59066358893 23 26 19
-1035.60450382978 -487.25885200116 2324.54952330629 22 25 18
-1044.02952242151 -488.115961833704 2319.46939930097 21 24 17
-1052.8689674665 -487.592363221395 2331.46580329076 20 23 16
-1061.61649818713 -487.145512564938 2342.46595239093 18 21 14
-1070.13817579955 -487.428866587913 2344.42654517059 17 20 13
-1078.41632948741 -488.937641694267 2331.3044878513 17 20 13
-1086.62220613423 -491.351716522486 2307.10831519895 21 23 18
-713.033159785484 -479.488025514868 2318.42708554668 19 22 15
-733.621148248808 -484.648765643194 2270.52213374582 15 18 11
-746.551271679168 -482.476601527278 2304.1745018598 15 18 11
-760.791612572651 -479.275311653173 2350.76130549698 13 16 9
-773.194179344337 -477.154528959904 2383.47195777603 11 14 7
-779.583891702532 -479.185310323282 2363.53241096166 10 13 6
-787.256239239438 -480.356260893514 2354.51605368114 11 14 7
-800.826463871669 -477.111175906967 2401.18636853316 10 13 6
-806.600114626025 -479.70067518693 2374.27088370376 10 13 6
-810.829137488622 -483.645973542057 2330.41984773913 10 13 6
-817.026398602559 -486.176123170322 2304.45926991295 9 12 5
-825.232974852735 -487.122793304021 2298.39871470737 9 12 5
-838.653399413352 -483.524572823616 2349.11802268321 9 12 5
-846.140815641339 -485.023751246085 2336.09437918286 9 11 6
-853.26485398072 -486.927180573491 2318.0784719154 1 3 0
-952.149610571824 -500.500540297241 2219.10664642143 19 21 16
-961.098991113053 -500.890696541678 2220.00645856579 24 26 21
-983.460092341409 -493.40251201958 2322.00311200549 9 12 3
-992.103557673136 -493.772642209681 2322.94104782154 12 15 8
-1001.05176509152 -493.477843292559 2331.90117988267 12 15 8
-1009.57626734169 -494.010944335598 2330.83877630081 9 12 5
-1018.0655380245 -494.627017197344 2328.77306054667 11 14 7
-1026.27612134901 -495.994668811693 2317.67443816194 17 20 13
-1034.85590710293 -496.444940737805 2317.61284476505 23 26 19
-1043.89806203967 -495.385492618416 2335.62914374479 23 26 19
-1052.6029038953 -495.159405843217 2343.61189997344 23 26 19
-1061.31988501326 -494.677400958959 2354.61600917474 24 27 20
-1069.46852433572 -496.5526627497 2337.47985068196 24 27 20
-1077.87000643599 -497.50334110224 2331.3952232028 24 27 20
-1085.88358242817 -501.249840181939 2292.11004961054 18 20 15
-700.924100257161 -483.686123077619 2363.28294884419 21 23 18
-698.804609914103 -490.70431038008 2281.93726918309 21 24 17
-706.549197403411 -491.904364079261 2272.91197342564 20 23 16
-735.971116002404 -491.569720663383 2294.43351025829 15 18 11
-742.691787075613 -493.497965728839 2276.46776592359 15 18 11
-764.989542502533 -484.585442912446 2391.56970722081 15 18 11
-781.358727445428 -486.066018408336 2384.49191272799 13 16 9
-781.559773778786 -492.875664296821 2306.8873235524 12 15 8
-793.59244848891 -490.81383632892 2337.62867696401 11 14 7
-805.859474558506 -488.413434138083 2372.37088174977 11 14 7
-812.171574475458 -490.754816309817 2349.41853690208 12 15 8
-816.477504569528 -494.910508360036 2304.55077033576 11 14 7
-824.401272979799 -496.117649557217 2295.50289225461 11 14 7
-840.208975162114 -490.233290034447 2372.12004833383 11 14 7
-846.393212254426 -492.918253624744 2345.15357615867 8 10 5
-854.604482583778 -493.78957700778 2340.10016410371 3 5 4
-954.034614600924 -505.512602726022 2265.24157842985 17 19 14
-959.269712555374 -511.927145003113 2195.06970620468 22 24 19
-969.997821407532 -509.247109367428 2232.01859655285 21 24 15
-984.989246214221 -498.10119204975 2368.18162672825 13 16 9
-993.932841639035 -497.602269646533 2379.15741125211 14 17 10
-1001.4593579237 -500.013417461911 2356.05369814663 14 17 10
-1009.91873809819 -500.542101105104 2354.99940978175 11 14 7
-1017.45004524211 -503.393958795075 2326.85758363943 11 14 7
-1034.24917003012 -505.236346435823 2315.69609935361 14 17 10
-1051.65858796819 -505.175332102662 2326.62423959075 22 25 18
-1060.17355958586 -505.705885018463 2325.56301866508 21 24 17
-1068.77797906854 -505.80080340941 2329.52840397509 20 23 16
-1077.03049517859 -507.725652865029 2312.37941286068 20 23 16
-1085.66059459842 -507.645284891218 2318.35650605234 15 17 12
-693.652254244068 -496.423674409451 2313.83601718327 20 22 17
-697.593679638664 -499.952890297636 2277.07406616885 20 23 16
-705.996500713658 -500.761579525585 2273.00427186664 20 23 16
-731.645042490896 -496.477119044594 2335.29666926858 14 17 10
-736.875457225507 -499.358749019542 2306.43413193352 13 16 9
-752.56187300031 -494.985421116882 2363.92290660926 16 19 12
-751.26320395018 -502.639796483396 2278.44548002056 15 18 11
-762.744356368145 -501.184340564878 2301.19527968985 15 18 11
-778.617969634913 -496.275760068222 2364.70564651453 14 17 10
-780.366144937686 -502.120217940479 2301.01402345146 13 16 9
-793.364258431947 -499.212779625924 2340.70257361562 12 15 8
-800.622046431171 -500.85552369909 2326.70027733751 13 16 9
-812.326786975096 -498.775499575288 2356.47457970846 13 16 9
-819.508819712795 -500.503737618812 2341.47427528626 13 16 9
-835.104081368705 -503.0361918211 2322.40286594488 10 13 6
-845.319027220982 -502.043551657606 2339.26505612127 7 9 4
-950.751582141897 -518.769931250141 2214.2903078668 15 17 12
-963.215277010933 -513.093412615025 2284.27103340591 19 22 15
-974.141163629441 -509.502961186278 2330.26274940045 19 22 13
-984.494522461755 -506.512999619693 2369.27320462182 16 19 12
-992.371762630917 -508.187741077318 2355.19368863903 16 19 12
-1008.9669000544 -510.042960896445 2344.05793483217 13 16 9
-1016.59202755478 -512.792389442504 2317.9195049169 12 15 8
-1025.24179521881 -513.059268132621 2319.86406942818 13 16 9
-1034.07792871791 -512.70093678358 2328.83802034146 10 13 6
-1043.49237370618 -510.19598264228 2361.92032058292 14 17 10
-1051.60843601735 -511.883728719926 2347.81103525592 15 18 11
-1059.52065416756 -514.740569655669 2320.62961416206 19 22 15
-1068.06605905904 -515.181472233791 2320.57204635096 22 25 18
-1076.24632285412 -517.69079457264 2297.38700796021 24 27 20
-1084.7375410444 -518.85522971933 2289.27613040332 29 31 26
-1093.15332538471 -521.014956417989 2270.09200872348 25 27 24
-690.544431126925 -506.792074945011 2295.1036634707 18 20 15
-697.702688857897 -508.374111113276 2282.12131520773 19 22 15
-709.84515710714 -506.709553146904 2306.80341010452 19 22 15
-717.284099907475 -508.121123867748 2295.80119955473 18 21 14
-751.31256210783 -504.096904989857 2358.05620486464 13 16 9
-755.578581810255 -507.837064502443 2320.24661481392 13 16 9
-763.440728048265 -508.992479695266 2312.21421796391 13 16 9
-772.003516159994 -509.629552624321 2310.13962324094 12 15 8
-798.915540410782 -502.804732940156 2398.46920198845 11 14 7
-803.864204417442 -506.305175213659 2363.59709224081 13 16 9
-810.690742825056 -508.330671114388 2345.61863266401 15 18 11
-820.517119983704 -507.733674629931 2357.49168007003 14 17 10
-830.461112875724 -506.956364249052 2371.36494907401 12 15 8
-834.649367307203 -511.625832872226 2323.48991918368 11 13 8
-845.574851961588 -509.87884884638 2348.32366937229 9 11 8
-959.911685296597 -526.714035839936 2230.30022394547 23 25 20
-974.606616112748 -516.204576586799 2351.38542309111 20 23 14
-983.362983821724 -516.189996691029 2356.3390046304 15 18 11
-992.085896802795 -516.173044144427 2361.2969951424 16 19 12
-999.17192135982 -519.800511056675 2326.15848994889 17 20 13
-1008.42215460566 -518.598100395449 2344.14844549904 15 18 11
-1016.04272539948 -521.415321952306 2318.01076276429 14 17 10
-1025.68396527672 -518.831679188287 2351.06455312072 15 18 11
-1034.08655917114 -519.542655733596 2348.00245721336 16 19 12
-1041.88771195596 -522.370246678054 2321.84226622114 15 18 11
-1051.18335435411 -519.951617676283 2352.92424546128 15 18 11
-1059.50060929445 -521.031073953077 2345.84254079888 15 18 11
-1067.95997293905 -521.557173558407 2344.78824769187 18 21 14
-1075.85064532688 -525.419589521948 2307.53433147094 20 23 16
-1092.29476665976 -532.435469555463 2241.00413902523 18 20 17
-688.105442937731 -516.823563705916 2281.32587189652 17 19 14
-701.386402346013 -514.388598951919 2313.92583831151 18 21 14
-726.253549695421 -510.278233725963 2370.26960446551 17 20 13
-729.442774263596 -514.631231349056 2326.54940284232 14 17 10
-745.135603655615 -510.031984982645 2383.02909509012 12 15 8
-755.525185308944 -509.148397420214 2397.854164472 12 15 8
-761.997603243878 -511.200007401085 2379.91996580716 13 16 9
-763.46067904101 -517.275443723958 2317.27221684862 13 16 9
-771.456151379665 -518.361571695778 2310.23092659096 12 15 8
-784.773153586934 -515.057099482891 2351.89400995073 12 15 8
-797.751651684376 -511.827237909439 2392.59160573973 9 12 5
-807.324052227203 -511.372126698828 2402.48134737934 9 12 5
-812.744077358076 -514.609159226546 2371.58070953138 10 13 6
-819.782909739696 -516.501282479863 2355.59077988596 10 13 6
-826.619440577394 -518.669603695007 2336.60376234015 11 13 8
-843.431159984544 -520.116762604756 2330.47834125923 9 11 8
-982.409378593752 -525.56270168892 2347.413027189 11 14 7
-992.317474584806 -522.999991055158 2379.42588350588 13 16 9
-999.79149541391 -525.683850641911 2355.32175260146 17 20 13
-1007.53915586374 -527.998926062658 2335.21349057164 18 21 14
-1016.12050859979 -528.341105933192 2336.15910406625 18 21 14
-1024.56137350758 -529.059898062894 2333.09201247601 20 23 16
-1032.89416508136 -530.157245492814 2326.00841604932 18 21 14
-1041.5792658623 -530.119429934641 2330.97107035835 18 21 14
-1050.51927014815 -528.940368034368 2347.99187476985 17 20 13
-1058.99818822708 -529.371179742209 2347.94281781468 15 18 11
-1067.35868619903 -530.372715967048 2341.8631985761 16 19 12
-1075.47410827618 -532.997528563493 2318.68679645663 18 21 14
-1083.62772413643 -536.202893575117 2289.46031344758 18 20 15
-672.291215447149 -529.353002486918 2235.96749217952 16 18 15
-711.866653749765 -522.049612463444 2330.77794928124 16 19 12
-725.844614289511 -518.77114466243 2371.35069006343 16 19 12
-732.754575462212 -520.501200948826 2357.39203045054 14 17 10
-740.708257624184 -521.503275098979 2351.36342110532 14 17 10
-756.539777206395 -516.455959002211 2410.8476869562 13 16 9
-762.043784206561 -519.286421969456 2384.97441400942 13 16 9
-763.822972521837 -525.253949130263 2325.31023346584 13 16 9
-772.017020719955 -526.170594438618 2320.25908998471 13 16 9
-782.61104957883 -525.056202722688 2337.07365221462 12 15 8
-795.426228128606 -521.899408780524 2375.77644754225 11 14 7
-804.121945365124 -522.251442380386 2376.70781497276 10 13 6
-812.606547899362 -522.788227621062 2375.65040034177 8 11 4
-819.33978058637 -524.999540074592 2356.67614674163 9 12 5
-829.385549700468 -524.047045810961 2371.54418070121 10 12 7
-835.761645551265 -526.7310452678 2347.57706471155 11 13 8
-970.606785421975 -539.06508666381 2291.47898965658 17 20 11
-989.880402627964 -535.707812822497 2335.42188519177 14 17 10
-998.6821623863 -535.562829520393 2341.3776262946 16 19 12
-1006.95465638055 -536.673416195409 2334.30158951444 18 21 14
-1015.36362847873 -537.494800050441 2330.23106103175 18 21 14
-1023.65844671151 -538.705281002123 2322.14481428844 19 22 15
-1032.43436514852 -538.458360342017 2329.11095861644 13 16 9
-1040.97755232927 -538.890641087938 2329.05364485724 17 20 13
-1049.80481059894 -538.150654063545 2341.05099983337 18 21 14
-1058.32398063179 -538.48167601483 2342.00434397773 16 19 12
-1066.62431836177 -539.889335838757 2331.90231323222 15 18 11
-1075.02042981315 -541.005259462107 2324.8108637789 15 18 11
-1083.05888426222 -544.973548628178 2288.54671141065 15 17 12
-1090.95321063701 -552.005740968247 2221.06791132259 21 23 20
-663.585785440682 -543.816429681902 2177.63434393716 18 20 17
-683.484205159582 -536.925551261873 2255.75372621658 18 21 14
-694.989050673755 -535.619263516898 2274.46973302636 17 20 13
-714.962971065904 -528.120409442382 2358.6246953125 14 17 10
-726.326859847752 -526.600311922201 2379.37334409384 14 17 10
-733.212563368459 -528.364387422423 2365.4178012809 17 20 13
-746.38210203342 -525.326721941214 2402.06107381655 18 21 14
-761.043968353888 -528.19577148157 2381.09165891031 13 16 9
-765.325027029104 -532.240220581336 2343.28075315175 11 14 7
-771.693335315945 -534.683368999381 2322.33727629472 11 14 7
-782.176371889248 -533.614541749832 2338.1581225999 14 17 10
-792.25035796834 -532.82528441462 2351.00769093131 14 17 8
-801.939580382686 -532.317149211948 2360.88247398646 20 23 14
-800.952061139016 -541.939214858387 2265.29380779559 8 11 4
-818.312273494743 -534.065946865663 2351.78957385199 17 19 14
-828.184466757243 -533.26243320224 2364.66404692166 13 15 12
-838.072494152046 -532.357601584091 2378.54420453493 7 9 6
-961.509743187296 -547.03653372266 2294.65085373354 19 22 15
-966.836941557849 -554.297244370207 2225.47740337341 14 17 8
-979.203567367785 -547.224382482857 2301.5131684636 19 22 13
-997.689576700059 -545.219016363776 2330.44140518942 17 20 13
-1006.55902167036 -544.85479457241 2338.40349641757 18 21 14
-1013.58351352181 -549.570888113205 2295.21331940966 18 21 14
-1023.75885876267 -545.314266609144 2342.30487156273 18 21 14
-1032.54142894898 -544.841798025236 2351.28520628445 16 19 12
-1040.7541022012 -546.269135606109 2341.19416736816 21 24 17
