ply
format ascii 1.0
comment KinectMotionCapture
element vertex 778
property float x
property float y
property float z
property uchar red
property uchar green
property uchar blue
end_header
-152.681201221229 -192.333937590749 1763.03563198358 13 16 9
-155.217161235711 -192.605792871077 1768.38319890621 13 16 9
-165.227583815508 -193.376056915397 1769.99396103587 13 16 9
-161.2288130024 -193.212477915268 1778.63036431231 12 15 8
-128.220264896373 -191.111382977932 1801.57668950898 17 20 13
-65.1987934568723 -187.001452527048 1839.05072884223 22 25 18
-51.7375411006746 -186.199011361395 1851.92412778169 27 30 23
-49.5057390600857 -186.146471600021 1859.25726564064 29 32 25
-41.6379152421964 -185.716099269716 1869.2832833255 29 32 25
-52.538230291979 -186.542367680057 1870.26636317294 30 33 26
-37.1377443127392 -185.605779696388 1883.81710179625 30 33 26
-30.1763797913699 -185.233703249917 1893.27549983442 29 32 25
-35.4388068386788 -185.681692187484 1896.94481273117 31 34 25
-35.9972658816938 -185.813732862298 1902.83121851745 29 32 23
-37.4970777162618 -186.008855991087 1908.27653537535 27 30 21
-33.3364285342199 -185.822915666072 1916.32603376514 24 27 18
-38.6087555137207 -186.27155856589 1920.03169029226 22 25 16
-38.217972610181 -186.338795637014 1926.33098076446 18 21 12
-40.6609999785712 -186.596754524063 1931.34228044168 19 22 13
-36.481516526256 -186.407625009694 1939.32386436457 18 21 12
-42.7109144945885 -186.920843399286 1942.64491890197 17 20 11
-42.3132750866686 -186.986370356164 1948.92076121636 14 17 8
-56.1398455021451 -188.013496401498 1948.95175253518 13 16 7
-47.2050773501251 -187.501212731519 1958.96444993884 13 16 7
-58.2023427868357 -188.337567493694 1960.30111957666 16 17 9
-68.2633450282197 -189.111117861008 1962.09852828666 18 19 11
-76.4348873555578 -189.757057834718 1964.75394995044 17 18 10
-74.1441073420179 -189.693393379722 1971.87513770435 16 17 9
-87.0920987541335 -190.66394611012 1972.57617519415 17 18 10
-78.1271496783713 -190.146294457707 1982.48020580635 17 18 10
-79.6427435373976 -190.340036821527 1987.98498997058 16 17 9
-78.2936360712658 -190.338538656347 1994.66685440502 14 15 7
-116.12185855508 -193.003975147874 1985.36241944455 15 16 8
-121.488401590835 -193.460712935065 1989.41277103459 15 16 8
-123.032498247922 -193.65691417713 1995.02182809462 14 15 7
-132.23929099042 -194.37554721947 1997.57778764155 15 16 10
-140.499016050523 -195.029837442074 2000.55534259872 15 18 11
-144.93196915001 -195.423033077996 2005.07589530614 15 18 11
-157.048985609594 -196.341369948885 2006.62190143078 18 20 15
-155.73236021594 -196.341462257824 2013.42336129191 17 19 16
-185.763990560104 -199.915267325357 1705.73166643512 21 24 17
-193.904282521059 -200.578793305117 1708.25995872984 16 19 12
-225.309743720525 -202.8531533046 1698.73482649962 18 21 14
-224.179248717443 -202.877025412388 1706.21233870028 15 18 11
-184.847735101921 -200.25339037305 1733.28966645014 16 19 12
-156.641693741551 -198.397402595553 1754.4285501322 14 17 10
-150.78313359168 -198.089520300637 1764.04459544702 12 15 8
-156.11868849378 -198.558213315677 1767.9723462653 13 16 9
-169.87068665799 -199.612067741486 1767.70959053074 13 16 9
-161.196364359808 -199.107608106961 1778.6843326573 11 14 7
-111.325247999498 -195.735536664673 1809.9650159798 20 23 16
-77.2985716336771 -193.461879629767 1833.1364975545 22 25 18
-67.5888881945932 -192.87916854669 1844.21379996503 26 29 22
-65.3669310100122 -192.817427207356 1851.5892992394 29 32 25
-60.3229533743863 -192.558334095104 1860.30167743323 29 32 25
-39.2970243441431 -191.182814221718 1876.62407655488 30 33 26
-20.1175606392179 -189.934048226118 1891.92751495576 30 33 26
-11.2568810754561 -189.40466324587 1902.2270146612 30 33 26
-18.3892258644027 -189.993043436066 1904.95676016038 30 33 24
-21.7608114045826 -190.318518933846 1909.47573847677 28 31 22
-29.8508533018096 -190.974558017265 1911.82218896802 24 27 18
-32.2880506673455 -191.23484648791 1916.81037221017 23 26 17
-46.0615128900066 -192.290143544185 1916.62639751645 22 25 16
-41.8936590011105 -192.087282017779 1924.6598294025 18 21 12
-45.2853281971015 -192.414560393121 1929.25223615411 19 22 13
-49.6266582593321 -192.808654879742 1933.43204299455 18 21 12
-61.5517171576054 -193.736013636378 1934.25965237034 17 20 11
-61.1670912431621 -193.798041738542 1940.58509120663 16 19 10
-57.9328749601733 -193.658987825416 1948.1483313645 14 17 8
-49.9438400269747 -193.184356116276 1957.75225898974 14 17 8
-59.0460535199522 -193.913567356113 1959.91325776006 18 19 11
-66.2575464589337 -194.509779935195 1962.9328488899 19 20 12
-72.5263344534572 -195.039742687459 1966.3895793603 18 19 11
-80.7072296305074 -195.704874129842 1969.06760983332 17 18 10
-88.8983041114031 -196.371125093168 1971.7827272595 17 18 10
-76.1140394785067 -195.554451090028 1983.28138539133 17 18 10
-78.5819398083159 -195.8154310753 1988.38312613607 16 17 9
-95.3814965858366 -197.090931130862 1987.60553260488 14 15 7
-111.247966366053 -198.301336880553 1987.30191647653 15 16 8
-114.698305649845 -198.632483541665 1992.10971153199 15 16 8
-125.811460925168 -199.507052209298 1993.85253116741 14 15 7
-123.524221394062 -199.431117505042 2000.99461083171 15 16 10
-123.14903680176 -199.490287682264 2007.35783681336 15 17 12
-122.7713046672 -199.548809488068 2013.71108459518 15 17 12
-147.36020391011 -201.381845071329 2010.32937310443 18 20 15
-201.77764054859 -205.338238522091 1995.55937559361 16 18 15
-203.40803782975 -207.188214734921 1696.51038552809 25 28 21
-199.475622851074 -207.001693929069 1705.4076392675 23 26 19
-214.146894352549 -208.154917973362 1704.59797907972 27 30 23
-224.181513611712 -208.975125000034 1706.26797637545 17 20 13
-195.084011555719 -206.973594007122 1728.0861789899 13 16 9
-155.679173314054 -204.225418783549 1754.9689659042 12 15 8
-159.150802907138 -204.570003390362 1759.84732368984 13 16 9
-163.559592688751 -204.982586713614 1764.26592236306 13 16 9
-168.907645942726 -205.463180943006 1768.23256330853 11 14 7
-165.840986061953 -205.335360703063 1776.41081519451 8 11 4
-137.486489752683 -203.376304739544 1797.06358660465 10 13 6
-101.589425551882 -200.868107762697 1821.23325978866 20 23 16
-81.5774005599192 -199.50802071701 1837.4130929984 25 28 21
-84.0564069910981 -199.777210008745 1842.54995657195 28 31 24
-66.8135119620523 -198.615058588662 1857.19617023206 28 31 24
-45.7821761813686 -197.176092442835 1873.53855180399 29 32 25
-23.7761618453274 -195.664261359418 1890.2035374005 30 33 26
-15.8546896536134 -195.174250411164 1900.0680218894 31 34 27
-17.3397721637911 -195.367698903208 1905.45970893067 29 32 23
-19.7677255864903 -195.629633286261 1910.4125320819 28 31 22
-26.9149407245566 -196.235272466914 1913.18659184981 24 27 18
-40.680519688344 -197.323595542081 1912.95249726157 23 26 17
-46.9051635980029 -197.862959312664 1916.24032310857 22 25 16
-48.4089146314064 -198.058133664709 1921.70023309999 18 21 12
-49.9127802483061 -198.253090203327 1927.16070603347 18 21 12
-48.5754482201706 -198.240274202633 1933.89343585011 17 20 11
-62.3991922490452 -199.335295474929 1933.87106785749 17 20 11
-59.1680407887136 -199.183822513462 1941.45259881567 17 20 11
-61.6252261951933 -199.448011276755 1946.5125312957 16 19 10
-57.4341373953238 -199.225277014269 1954.47224311643 16 19 10
-62.7415469278945 -199.697704610545 1958.29313787491 19 20 12
-62.3464988645717 -199.752201918859 1964.58463586409 20 21 13
-73.3742332480256 -200.644214738563 1965.99929114563 18 19 11
-87.2750615028277 -201.747573522691 1966.25785790728 17 18 10
-99.2874560245305 -202.713078665292 1967.38564370444 17 18 10
-106.544424667661 -203.329736161592 1970.56024033786 17 18 10
-93.7546511545793 -202.472919951705 1982.06471778765 16 17 9
-91.4566635024636 -202.386384017549 1989.17358484679 14 15 7
-107.325724450086 -203.636247927558 1988.8537483759 15 16 8
-110.772962495045 -203.972299793925 1993.6478612721 15 16 8
-132.423446226503 -205.649335106064 1991.14384045836 14 15 7
-114.800976008492 -204.432597136199 2004.41522892646 15 16 10
-110.580422343567 -204.202527000014 2012.27017496481 15 17 12
-119.792010165874 -204.962851427704 2014.81854496763 16 18 13
-144.387813416449 -206.859412662031 2011.42143091122 18 20 15
-211.771058111871 -213.861446498945 1692.17416139889 26 29 22
-205.051092386319 -213.450713258628 1702.55323172897 24 27 20
-199.249517233923 -213.108053687327 1712.40187869985 26 29 22
-196.23155822537 -212.973446171568 1720.76523250989 20 23 16
-173.62554237625 -211.370229886998 1739.15747532413 14 17 10
-160.313874395774 -210.462075363102 1752.65299361313 13 16 9
-161.921345665801 -210.672133798379 1758.48859948356 13 16 9
-171.940308417965 -211.513687259211 1760.08606119386 13 16 9
-178.231180594612 -212.075982734161 1763.60437271564 13 16 9
-163.000628637652 -211.020907272049 1777.861778871 10 13 6
-141.187251604392 -209.469379450015 1795.26798048196 12 15 8
-158.71162837339 -210.875944501944 1793.20150453414 20 23 16
-121.846110303822 -208.18868404321 1817.78487000785 21 24 17
-99.9444061187171 -206.625316148725 1834.86967639507 29 32 25
-86.4632881988072 -205.694675573131 1847.75025678612 30 33 26
-67.3173311949169 -204.335443352707 1863.24877061469 33 36 29
-30.2602364153377 -201.622784035299 1887.13595579936 35 38 31
-24.2223850860801 -201.248934732467 1896.12797622061 30 33 26
-32.3105351206199 -201.941436673446 1898.44438185709 25 28 21
-29.0906044881523 -201.779650411344 1906.07408482802 24 27 20
-43.7979017945542 -202.973094387577 1905.3737176561 23 26 19
-45.3006000838498 -203.168435816483 1910.8296135314 23 26 17
-45.8581350413394 -203.291906839299 1916.71799879888 23 26 17
-39.7916722934011 -202.913535388677 1925.60664567763 21 24 13
-46.9690972874262 -203.538092117587 1928.48092517012 20 23 12
-43.7327320800087 -203.373192020498 1936.05157569775 19 22 13
-53.7642455045368 -204.214413408091 1937.69677427083 19 22 13
-55.2684567676873 -204.408832258473 1943.15886998931 18 21 14
-69.1184752008251 -205.540743404436 1943.21076337505 18 21 14
-70.6322947240814 -205.736042432514 1948.707976982 18 21 14
-75.9506024956842 -206.220301714889 1952.5618648588 17 20 11
-60.334818842968 -205.112057952897 1965.42161988983 16 19 10
-66.6015210994742 -205.667810377221 1968.85525319744 14 17 8
-92.8941762125146 -207.748817000041 1963.84912760147 14 17 8
-104.914761040244 -208.744087686577 1964.98760097095 16 19 10
-107.404046930543 -209.013259891867 1970.16356997148 16 19 10
-100.340713958733 -208.553629657485 1979.29865601663 15 18 9
-110.475152601125 -209.405476862908 1981.31835814323 14 17 8
-103.399094777588 -208.943681739118 1990.40756610576 14 17 8
-125.995199446464 -210.747460690734 1987.43811081288 15 18 9
-110.291252393454 -209.625554407389 1999.97915821891 14 17 8
-113.741569048564 -209.966583642013 2004.78155894147 12 15 6
-90.3223866244662 -208.251932896132 2020.22502752435 13 16 9
-139.860439345716 -212.119019950762 2006.87867721167 18 21 14
-204.849350701406 -217.172459102833 1987.80356485403 13 15 12
-184.801483443118 -217.834042287662 1706.43130026406 27 30 23
-192.016563430947 -218.480464359495 1709.432509758 26 29 22
-181.543864713752 -217.753194343257 1721.66447331473 24 27 20
-174.781337801821 -217.313442965289 1731.90291381204 23 26 19
-170.804344510537 -217.089648339192 1740.65818975263 17 20 13
-168.686108643268 -217.010153194808 1748.42999477245 14 17 10
-170.299300424718 -217.220815469412 1754.28645854806 12 15 8
-169.107660403601 -217.213065132484 1761.55691603699 13 16 9
-172.590272938296 -217.569325059545 1766.46960916876 16 19 12
-172.330483876349 -217.633920173085 1773.2569220944 13 16 9
-172.067744068443 -217.698181155174 1780.03441945424 14 17 10
-147.418131278344 -215.858574570692 1798.78107258943 20 23 16
-143.377024797668 -215.626325138868 1807.30364674538 22 25 18
-121.480778550167 -213.998435125442 1824.45038229583 28 31 24
-104.248964041964 -212.733239113274 1839.20279271909 29 32 25
-76.6406217831195 -210.654879162023 1858.8048897842 35 38 31
-53.6950370720679 -208.938911187687 1876.00756548207 33 36 29
-42.01833073744 -208.103248761687 1887.73403841172 28 31 24
-45.4076482595862 -208.446812363475 1892.30836124233 25 28 21
-44.0820638612696 -208.420740136875 1899.09307699308 24 27 20
-42.7523098186036 -208.394012370892 1905.86272554484 23 26 19
-41.4183694003714 -208.366569364082 1912.61728247024 24 27 18
-41.0261779887475 -208.412732099161 1918.92464866051 24 27 18
-36.845161338481 -208.161008672812 1926.94005863909 22 25 14
-38.3388586954669 -208.354558135797 1932.36366717033 21 24 13
-36.0410942588216 -208.249909369543 1939.48479847874 20 23 14
-40.3781079309689 -208.666611202156 1943.63430631404 20 23 14
-51.36497564144 -209.606580539382 1944.86695441384 19 22 15
-67.1165770556787 -210.922180065237 1944.0704407129 19 22 15
-78.1360373550086 -211.865918898173 1945.42171884491 19 22 15
-73.9460865766666 -211.611710898347 1953.4045977641 16 19 10
-63.0818533546162 -210.830666300721 1964.21682089854 14 17 8
-72.2107988793583 -211.625392960601 1966.43663647953 15 18 9
-88.9808080153212 -213.023406425282 1965.47198979355 16 19 10
-94.3212612179845 -213.519931691769 1969.40035521525 17 20 11
-92.9818815006955 -213.488855750304 1976.13701073408 16 19 10
-110.75472473514 -214.967720189128 1974.94832504889 15 18 9
-107.508390213054 -214.785665799538 1982.49279178734 14 17 8
-139.673528742752 -217.403849174021 1975.57112051195 14 17 8
-129.733575603205 -216.692144197596 1985.87491664764 15 18 9
-125.528689589118 -216.433269914056 1993.8062190335 14 17 8
-112.680667444968 -215.489183467099 2005.14859956908 12 15 6
-151.658270950811 -218.650314746422 1995.90231494753 14 17 10
-196.457506776982 -222.275378840279 1984.59699785746 15 18 11
-183.85794776638 -223.742007724811 1706.99172692419 26 29 20
-196.660802131858 -224.853679071956 1707.06480409895 25 28 19
-183.39029455805 -223.866928046473 1720.76276462722 21 24 15
-183.15226695749 -223.92896367601 1727.63341854058 22 25 16
-180.111986642568 -223.76513714444 1735.93141604938 19 22 13
-190.139814767547 -224.654513847066 1737.53252908259 16 19 10
-177.748753090612 -223.736184721441 1750.55525244683 13 16 7
-174.690033837702 -223.569943939667 1758.78724304651 14 17 8
-173.496589975398 -223.554013216962 1766.05616789398 15 18 11
-179.793751259918 -224.142973170084 1769.58099508505 15 18 11
-181.410389804524 -224.353918547273 1775.45007728056 15 18 11
-166.138312024364 -223.199303528203 1789.61615025853 20 23 16
-128.305277334332 -220.218067955195 1814.68830800767 26 29 22
-127.060157551412 -220.195120859024 1821.769800061 29 32 25
-91.01553886088 -217.354157981726 1845.60079429106 30 33 26
-81.2652691705371 -216.640302256933 1856.61020576662 31 34 27
-51.7190980618527 -214.3211550291 1876.96311438849 31 34 27
-53.2304838211202 -214.51790557207 1882.45037549625 30 33 26
-52.8553599155628 -214.561543607717 1888.82363297696 29 32 25
-50.5896042608462 -214.451469726548 1896.06703175266 27 30 23
-46.4287183962018 -214.187113029767 1904.16515937832 26 29 22
-45.0956749830012 -214.151917536327 1910.92794122181 25 28 19
-42.8123736152879 -214.039178975458 1918.10787854329 24 27 18
-43.3641119002393 -214.156434010203 1923.97866635121 21 24 13
-42.0192530728942 -214.119294341145 1930.69880732844 21 24 13
-47.3084134533279 -214.621613914739 1934.43307433216 21 24 15
-47.8583843132665 -214.738202406791 1940.29772085758 21 24 15
-57.9045717982742 -215.628020098596 1941.96579115625 19 22 15
-63.2113328027404 -216.132028673908 1945.7643394801 18 21 14
-62.8167918889691 -216.171283678941 1952.06827263102 17 20 13
-57.6600682864004 -215.821859495685 1960.41907745654 15 18 9
-68.6880481920062 -216.792347475889 1961.7850992056 14 17 8
-76.8704742081434 -217.530990406123 1964.42240207905 17 20 11
-79.3388398932682 -217.803108222875 1969.51790973065 19 22 13
-77.0345098199199 -217.685171937245 1976.62398218343 19 22 13
-78.5467165772409 -217.878666981822 1982.11634684731 16 19 10
-94.4025118494221 -219.24484009634 1981.67382598064 15 18 9
-129.418830409256 -222.179164952265 1973.44854198461 14 17 8
-130.009498986309 -222.298041287058 1979.4637757555 14 17 8
-134.432545815359 -222.730354390751 1983.92285170104 15 18 9
-137.900974697635 -223.084389106549 1988.78335957068 14 17 8
-134.653427272116 -222.887875509675 1996.33338084544 5 8 0
-155.412377250924 -224.658743098559 1994.35727856338 14 17 10
-192.541803369782 -227.773138603321 1986.0702918043 0 2 0
-210.836149962479 -231.963875638215 1692.86031515234 24 27 18
-204.102430185012 -231.480441240639 1703.23421908812 23 26 17
-196.423796655374 -230.917771203524 1714.04618907917 20 23 14
-192.462607686286 -230.664379507265 1722.8788294112 21 24 15
-195.028447054551 -230.955171878017 1728.3253766307 20 23 14
-197.596076145698 -231.246106335707 1733.77755001173 17 20 11
-198.294810755443 -231.381178096288 1740.18378683764 15 18 9
-169.046927041632 -229.015136444902 1761.673784778 14 17 8
-180.958600302433 -230.085904717311 1762.36022562219 13 16 9
-186.325377331631 -230.610314015752 1766.36872173446 15 18 11
-184.194542879668 -230.507988215904 1774.10816475922 14 17 10
-138.879229713038 -226.792511137638 1803.03792982395 18 21 14
-121.674006644828 -225.426295514246 1817.95284754621 26 29 22
-93.1591310363982 -223.111739500639 1838.23460617302 31 34 27
-98.4677688688853 -223.628384915449 1842.03214455256 29 32 25
-42.5822989563884 -219.016810555442 1875.14504952106 29 32 25
-43.1448626920603 -219.133757914969 1881.0562243558 32 35 28
-44.6490414626777 -219.329559400911 1886.51732651215 32 35 28
-49.9280713219332 -219.841914009789 1890.20764528033 28 31 24
-56.1575402588508 -220.434251685432 1893.47901153491 27 30 23
-47.2720259379205 -219.757491803953 1903.77934945192 25 28 21
-43.1001675688898 -219.475807024373 1911.84767836369 24 27 18
-37.9733436670322 -219.113377468239 1920.31770582936 24 27 18
-44.2040430648978 -219.70533755528 1923.59387893396 21 24 13
-52.3379353004425 -220.457603520941 1926.04238452104 22 25 14
-62.3795396657962 -221.370575374082 1927.67882026937 23 26 17
-58.1925210718888 -221.086155210048 1935.69258921604 23 26 17
-58.747899576133 -221.200596336209 1941.5786689993 20 23 16
-52.6456269308064 -220.753789294255 1950.37756739732 19 22 15
-49.3870075509457 -220.545936680737 1957.89271051465 18 21 14
-48.9780661507488 -220.577865090855 1964.14780311037 16 19 10
-70.4860834802075 -222.458289489008 1960.98735226981 15 18 9
-75.8109180250499 -222.974143743272 1964.8445963427 17 20 11
-78.2779627920083 -223.248773180476 1969.93454300088 18 21 12
-76.9258415801986 -223.200568928432 1976.63470576644 18 21 12
-54.5394808247215 -221.374929186919 1992.0865910346 16 19 10
-113.052828938347 -226.451173527676 1980.12700465185 14 17 8
-115.546284891714 -226.72775998901 1985.31377530612 14 17 8
-122.83531358939 -227.409935433594 1988.56604003583 15 18 9
-132.052170124308 -228.255374313286 1991.07930590423 14 17 8
-132.638329031988 -228.370147565789 1997.08038662797 17 20 11
-138.989072647977 -228.972871980969 2000.79546435316 14 17 10
-161.6953069077 -230.961647360277 1998.11810158653 21 24 17
-182.897024474035 -235.60478493101 1707.62436074706 23 26 15
-201.298819649944 -237.261335376102 1704.76141930017 23 26 15
-198.276235000591 -237.073221097512 1713.14138038146 23 26 15
-197.113358169895 -237.045113145217 1720.5314826916 22 25 14
-196.880505972273 -237.097111182187 1727.42676004968 20 23 12
-201.318407553799 -237.551945351525 1731.92769918036 20 23 12
-199.2126359374 -237.442351308256 1739.76478438978 18 21 10
-194.29264643784 -237.089517117935 1748.99668944109 11 14 3
-190.299611502494 -236.816383218743 1757.72355613545 11 14 7
-190.986373669961 -236.947174849753 1764.08711485696 13 16 9
-178.534757803337 -235.942362906917 1776.94054212904 11 14 7
-150.097825048903 -233.554388727816 1797.55803968256 14 17 10
-106.578268667652 -229.859929871207 1825.34825813678 31 34 27
-90.2646137488565 -228.516407905337 1839.66274568362 32 35 28
-64.5116135113275 -226.354533266705 1858.41345006978 28 31 24
-61.3238551601039 -226.144882498754 1866.19282155862 31 34 27
-16.6519240306937 -222.341128630607 1893.66982196512 36 39 32
-30.3991397745882 -223.596901160676 1893.26182952078 32 35 28
-47.9414829913853 -225.182316428307 1891.15007183155 24 27 20
-63.6188845278827 -226.607055143945 1890.00823473392 23 26 19
-57.5705334680134 -226.147594791482 1899.01532204824 23 26 19
-49.6184515924609 -225.522394065805 1908.85151052857 24 27 18
-37.864296936901 -224.566227445549 1920.36651306184 25 28 19
-49.7821820966704 -225.665160329866 1921.05916483038 24 27 16
-64.5614525927696 -227.013243506909 1920.52745988701 21 24 13
-74.6150145646007 -227.951231909652 1922.19342676728 22 25 16
-65.6850522212991 -227.23893913144 1932.35024247713 21 24 15
-58.64039300963 -226.689735575174 1941.61121243994 19 22 15
-50.631711429868 -226.05602475354 1951.24263014086 17 20 13
-55.9366623983737 -226.580331059436 1955.02164323146 16 19 12
-59.3421904540454 -226.939337456208 1959.64547380106 17 20 11
-69.4247245142496 -227.879860759103 1961.41647894133 18 21 12
-80.4743776286676 -228.904960642608 1962.8284899701 16 19 10
-83.8994218779288 -229.265711424158 1967.5246080507 16 19 10
-81.5941077608136 -229.126684990448 1974.63941313476 19 22 13
-92.6713987530849 -230.154576967819 1976.15227540522 16 19 10
-94.1929217787951 -230.348918419791 1981.67869517037 15 18 9
-111.996223829525 -231.964341580935 1980.51688107195 14 17 8
-117.364211734276 -232.49442936006 1984.52535880988 14 17 8
-117.941781950125 -232.606129697224 1990.49649148207 15 18 9
-111.798935077305 -232.130187720969 1999.16221097552 14 17 8
-99.8808669063074 -231.148593847605 2010.08468818863 19 22 13
-118.705606825057 -232.85418263477 2008.76202645749 7 10 3
-203.375134566314 -243.387144547125 1696.91389326482 22 25 14
-193.830280025371 -242.605883601829 1708.72759803484 28 31 20
-190.799221730785 -242.403445266556 1717.08514159169 22 25 14
-191.496228187165 -242.532591147388 1723.48777439061 20 23 12
-191.257312686048 -242.578407262539 1730.36537185551 18 21 10
-201.302669803257 -243.540163612932 1731.9849408583 19 22 11
-201.066408008359 -243.586452804591 1738.87116331603 20 23 12
-199.890647434596 -243.54888302052 1746.21940451855 18 21 10
-198.71074278725 -243.510776187243 1753.55259865283 13 16 9
-195.650489421192 -243.304730230537 1761.8040242947 15 18 11
-186.012170681788 -242.511504355909 1773.27826884432 12 15 8
-163.203996007131 -240.542121604414 1791.15111389955 12 15 8
-134.71745410121 -238.06407807925 1811.64221648915 23 26 19
-54.4351379880474 -230.957926008128 1857.0611211112 29 32 25
-53.1249376591478 -230.902605334741 1863.92049181212 32 35 28
-37.675086811283 -229.583302816431 1877.53050329779 33 36 29
-8.05373160949552 -226.995742459998 1897.77373011544 34 37 30
-19.9113024476014 -228.116178524547 1898.22887064664 29 32 25
-44.0635225062138 -230.337265313867 1892.97993069213 23 26 19
-58.7979437370279 -231.716619181755 1892.26289556232 23 26 19
-57.4717925499431 -231.658825418652 1899.06553425496 23 26 19
-50.4614945869717 -231.091529149487 1908.46550359132 23 26 17
-40.5964964576253 -230.26781195785 1919.11738261537 22 25 16
-46.8316153759218 -230.886227432994 1922.39419100854 22 25 14
-58.7669229353967 -232.015885203264 1923.13213064796 24 27 16
-62.1725899769081 -232.380973145934 1927.75263767504 23 26 17
-56.078840543722 -231.893841746437 1936.60771075507 22 25 16
-52.8263975291654 -231.661004551629 1944.16248848541 18 21 14
-55.2769832083877 -231.939680351821 1949.18877111495 17 20 13
-58.6816988189542 -232.303907293613 1953.80628925628 16 19 12
-62.0894104197196 -232.668307437451 1958.43482157131 18 21 12
-79.8075137574021 -234.318588131702 1956.93467412826 18 21 12
-79.4135707810408 -234.341448868561 1963.25117778626 17 20 11
-77.1064553137202 -234.191989447757 1970.36588165193 18 21 12
-81.4856201035954 -234.643489260387 1974.64991870307 18 21 12
-104.046779800443 -236.730787766568 1971.37172017377 15 18 9
-113.235462098339 -237.615433592517 1973.75655643126 15 18 9
-115.728747675352 -237.897488156515 1978.93924223776 15 18 9
-127.812483810406 -239.043034435236 1980.21730789213 15 18 9
-128.396749908207 -239.152851930418 1986.21448978951 15 18 9
-104.011882029824 -237.012159945906 2002.23785806862 16 19 10
-82.4713669639259 -235.126165126087 2016.97105823099 11 14 5
-104.174848365142 -237.138085575419 2014.45330745614 21 24 17
-221.281564385766 -250.98044894427 1680.6700318951 24 27 18
-204.298442495024 -249.485864592653 1696.49154207597 22 25 16
-205.008401030321 -249.613735659143 1702.94306825641 26 29 20
-197.316215039133 -248.970473783564 1713.75560208171 22 25 16
-190.543893499468 -248.41117563494 1724.03408164108 23 26 17
-188.433178216339 -248.279636265706 1731.86666711483 22 25 16
-192.865803237197 -248.74898783292 1736.33792086239 20 23 14
-200.111752729186 -249.477246445502 1739.40114644489 19 22 13
-202.681304135155 -249.775862230539 1744.85653643863 18 21 12
-200.563945015447 -249.643612234812 1752.66490330169 19 22 15
-191.871930813849 -248.906329694593 1763.72095105261 15 18 11
-186.920827686359 -248.512579966504 1772.8631692301 15 18 11
-172.560864390181 -247.252482838107 1786.58602001502 18 21 14
-113.028525146216 -241.831960998063 1822.25482254972 32 35 28
-84.4660331675162 -239.260447932278 1842.52294917966 29 32 25
-62.4519075374415 -237.290349323714 1859.44807427847 31 34 27
-45.1158776498883 -235.750147651545 1873.98717760086 34 37 30
-13.5994204896308 -232.901375012412 1895.15181880578 33 36 29
-27.3532168137989 -234.225617971654 1894.72595914424 28 31 24
-42.0710849292809 -235.639385314569 1893.92480965245 26 29 22
-48.2983338483722 -236.270234622276 1897.16454821008 25 28 21
-53.5866157399654 -236.814622062719 1900.86899410807 25 28 21
-51.3044255109887 -236.660073607704 1908.07945344829 23 26 17
-43.3299469061703 -235.979368570438 1917.86752977915 23 26 17
-41.9806414330417 -235.910231939218 1924.59136243895 22 25 14
-41.5765180402814 -235.928095540927 1930.8722941132 23 26 15
-50.6686587415093 -236.823527079135 1932.89188080981 21 24 15
-54.068740135274 -237.192879157331 1937.48895726962 20 23 14
-66.0339026238248 -238.354410865703 1938.3176188734 17 20 13
-67.5421793524991 -238.548895542715 1943.79476730907 17 20 13
-63.3337028952572 -238.213874262425 1951.7608143106 16 19 12
-71.5125001757375 -239.02528753393 1954.33870101587 18 21 12
-80.6558819959457 -239.926233861686 1956.54412517236 17 20 11
-85.0359547683799 -240.386041515148 1960.826288249 17 20 11
-86.5533993888734 -240.580488943136 1966.33749878721 17 20 11
-86.1580752825324 -240.597413305898 1972.65262249613 18 21 12
-99.1597444379826 -241.85616079345 1973.3710038439 15 18 9
-163.901674960292 -247.913898523984 1952.7448385121 15 18 9
-137.676116332798 -245.535450941354 1969.87775903436 15 18 9
-132.512995542597 -245.109959512096 1978.25283723296 15 18 9
-143.659697699942 -246.197580161107 1979.98569999869 15 18 9
-129.842410797279 -244.967649054 1991.80710721766 16 19 10
-90.0436434840648 -241.323525031793 2013.89664748101 13 16 7
-99.2525737296241 -242.229864376414 2016.34296424766 22 25 18
-187.740806788984 -253.874158793175 1698.48783832466 25 28 19
-198.694963400702 -254.967122924911 1699.50244362212 23 26 17
-194.734088391593 -254.65021736795 1708.37541993016 25 28 19
-207.573206831053 -255.922463605174 1708.48268894716 21 24 15
-179.310003254582 -253.306020411983 1729.89038128596 22 25 16
-171.576753035509 -252.631321178756 1740.57029958334 21 24 15
-164.765412720517 -252.043356823618 1750.72107939699 19 22 13
-184.168295387016 -253.937630204442 1747.52950241642 18 21 12
-207.348383603558 -256.190775812047 1742.54823661217 21 24 15
-214.613491464037 -256.936962645131 1745.67127452206 21 24 17
-189.02777001315 -254.56978112297 1765.17267227556 18 21 14
-185.01066907389 -254.246026157954 1773.84121708261 19 22 15
-161.238898304258 -252.048354254803 1792.17779792293 18 21 14
-123.313909092175 -248.506720899185 1817.26235237704 34 37 30
-76.853066855505 -244.152964936182 1846.23828878007 29 32 25
-69.9013161642084 -243.546688966472 1855.88024240351 30 33 26
-48.7896537381047 -241.59556903587 1872.2468049502 34 37 30
-35.1945185027502 -240.357017640061 1884.89846016835 33 36 29
-34.800875179041 -240.371760834469 1891.22027234676 27 30 23
-41.9665894533574 -241.10461091523 1893.98363050158 27 30 23
-40.6272484131836 -241.029283251211 1900.74743881947 26 29 22
-47.8039617769368 -241.763289898819 1903.55090424184 23 26 19
-52.1472699352783 -242.228145930635 1907.69338023022 23 26 17
-44.1687159897717 -241.520801382851 1917.4831444122 23 26 17
-38.0737799634312 -240.991998709803 1926.36012096501 25 28 17
-36.7154292501499 -240.913555356867 1933.05624619783 22 25 14
-47.7071779767175 -242.010636138887 1934.20782461239 19 22 13
-55.8602379704485 -242.837673543859 1936.68028955639 17 20 11
-61.1681598428209 -243.393806134993 1940.4502395804 17 20 13
-68.3870133365832 -244.132159464522 1943.40648975634 18 21 14
-68.9421763852516 -244.235368991507 1949.29886063901 19 22 15
-75.2193854262551 -244.88389631428 1952.71293036413 17 20 11
-77.6855848923796 -245.168992101477 1957.79220165801 17 20 11
-78.2423026982588 -245.271868683402 1963.69148427607 17 20 11
-86.446464703203 -246.1040653281 1966.35042369812 17 20 11
-89.8769047705796 -246.48074112063 1971.05559215308 17 20 11
-110.545502927826 -248.502783073728 1968.58545292162 16 19 10
-112.078270632562 -248.698367262605 1974.15283737707 16 19 10
-129.913336468441 -250.450673371423 1973.02253526013 15 18 9
-130.49892502751 -250.555668768814 1979.0267425946 15 18 9
-141.647413941821 -251.669664242204 1980.74958755537 15 18 9
-137.432540847095 -251.315360145989 1988.70405925614 15 18 9
-127.438329021871 -250.407956734721 1998.92902825064 15 18 9
-120.314393068548 -249.774257047978 2007.94900564286 20 23 16
-183.757830600582 -259.502688736676 1707.42236996494 25 28 21
-196.585386214454 -260.804322260531 1707.46722585995 25 28 21
-194.482629193901 -260.652271971512 1715.34230832386 20 23 16
-187.699459675603 -260.044292989539 1725.61124599442 21 24 17
-163.125904772656 -257.702084120285 1744.9585329512 19 22 15
-149.748907277489 -256.450057959019 1758.42859810632 18 21 14
-170.084721410844 -258.484612367289 1754.7140682864 23 26 19
-196.075810782998 -261.071673067177 1748.26972117032 26 29 22
-222.10454236504 -263.663542270773 1741.96116734186 27 30 23
-219.054192966423 -263.419237938812 1750.27258978648 25 28 21
-195.317519058351 -261.155605155017 1768.78019361942 24 27 20
-173.423466349476 -259.070574518363 1786.22368800674 15 18 11
-138.31414000111 -255.693966567834 1809.96909726456 22 25 18
-105.03327172226 -252.494026758716 1832.59810415964 29 32 25
-76.4134811445389 -249.747728847404 1852.76384232299 30 33 26
-48.691591525847 -247.087641949167 1872.3116322362 35 38 31
-44.5319394302741 -246.729326486216 1880.47366125077 32 35 28
-40.3637763250686 -246.369795616906 1888.60485789863 26 29 22
-37.1329987289419 -246.101677776466 1896.26142041147 24 27 20
-29.1629228821604 -245.36949218451 1906.09834544719 23 26 19
-36.3326861330007 -246.118234177142 1908.86670333707 22 25 18
-41.6158181273121 -246.68246817307 1912.53856957714 23 26 17
-47.8531166883909 -247.340185817922 1915.7986572243 23 26 17
-42.7062818987365 -246.883246735969 1924.25405655257 25 28 17
-46.099716457797 -247.262285792054 1928.82033876714 22 25 14
-51.3974500322929 -247.827811305961 1932.54653143827 19 22 13
-68.1185494928223 -249.51275491388 1931.21914004199 18 21 12
-67.7235974192605 -249.520652980049 1937.54134376683 18 21 14
-69.2317194668379 -249.714830935443 1943.01811154987 19 22 15
-71.693509220343 -250.00236994056 1948.08039694769 20 23 16
-79.8830525608816 -250.851469505881 1950.67345949227 17 20 11
-77.5769124529511 -250.671109473117 1957.81222272742 17 20 11
-81.9556441926617 -251.146185656956 1962.07976706163 18 21 12
-78.6870705107781 -250.870634891453 1969.60069287566 17 20 11
-106.041635527218 -253.600987560556 1964.23094713814 17 20 11
-120.02429966874 -255.019164238623 1964.59459497048 16 19 10
-126.356524238584 -255.686243091503 1968.2012141065 16 19 10
-118.305827045408 -254.940400758476 1977.7474300358 15 18 9
-130.402567435494 -256.173465206653 1979.01852354978 14 17 8
-129.063914788655 -256.086266652021 1985.79331141859 15 18 9
-136.374725679087 -256.848945949479 1989.07562324253 15 18 9
-129.260656956407 -256.193223132788 1998.14613997953 15 18 9
-141.39274438041 -257.429631815926 1999.54728775023 20 23 16
-183.978306281336 -265.419541597431 1700.60904142618 30 33 26
-190.270361126117 -266.097333345006 1704.05882566271 28 31 24
-200.305298550678 -267.150541903742 1705.58197025214 22 25 18
-216.895623592873 -268.861143871917 1703.75283972624 19 22 15
-185.80629645331 -265.793453184809 1726.64247340027 19 22 15
-180.876748734534 -265.347087306424 1735.89794166838 22 25 18
-158.138423813087 -263.114569802499 1754.1962546745 24 27 20
-173.800190617777 -264.732642303235 1752.87523707374 28 31 24
-189.483838075587 -266.353584872116 1751.63271701624 28 31 24
-222.089771828435 -269.67330372791 1742.00839884959 28 31 24
-226.553748594207 -270.169734437471 1746.57895912838 20 23 16
-199.049783046135 -267.457155745087 1766.96899897468 19 22 15
-168.67795376427 -264.455280819446 1788.58468855804 7 10 3
-142.966578202064 -261.919965926891 1807.72570783193 14 17 10
-92.7084156397231 -256.917551506361 1838.59774864971 29 32 25
-75.3845785141114 -255.221981991536 1853.28021242972 28 31 24
-50.4803880513545 -252.763722133894 1871.47318287447 36 39 32
-47.2638162073395 -252.484307587129 1879.18962070964 31 34 27
-40.2584500534708 -251.823769080572 1888.66676915398 25 28 21
-35.1325882094933 -251.351752406816 1897.20955612111 22 25 18
-29.9967939077608 -250.87829816273 1905.71637342595 23 26 19
-38.1166084418227 -251.738172225153 1908.04467314764 24 27 20
-42.4536019208357 -252.21760602748 1912.15450032818 23 26 17
-50.5909053390763 -253.079560533114 1914.54641936617 22 25 16
-53.0401382363241 -253.368939959604 1919.56092167207 20 23 12
-54.5405646510957 -253.562632241389 1925.0094237077 20 23 12
-59.8456126994684 -254.139517194658 1928.75560183139 19 22 13
-62.3011594497467 -254.429215347966 1933.79241598619 19 22 13
-59.9950564416358 -254.239097085198 1940.93747780128 17 20 13
-66.2632074020122 -254.912680069257 1944.301168793 17 20 13
-64.9064679119089 -254.817670807731 1951.01373502913 17 20 13
-81.6853953105046 -256.551009842862 1949.87049309371 16 19 10
-82.2448759613734 -256.648999848987 1955.78218971936 17 20 11
-78.9781740923852 -256.360733032538 1963.31902247918 18 21 12
-83.3595947966019 -256.84368760632 1967.59157640861 17 20 11
-112.643113137113 -259.839449332569 1961.42252112343 16 19 10
-121.843520887164 -260.809039239437 1963.79726244083 17 20 11
-130.096565382102 -261.683051151657 1966.61129299665 16 19 10
-140.279376859713 -262.751917923418 1968.67357918654 15 18 9
-146.633361370812 -263.434214892079 1972.35045177548 14 17 8
-149.149662358128 -263.728751590425 1977.61070872335 14 17 8
-139.162569710662 -262.759906510696 1987.90182990501 14 17 8
-138.784861957459 -262.761242405111 1994.29127240076 16 19 10
-152.854545339189 -264.222294605445 1994.95093625648 21 24 17
-198.885217958197 -272.896603614125 1692.7854064025 31 34 27
-194.920330201442 -272.531352758319 1701.67493587829 28 31 24
-213.3706419588 -274.474778966474 1698.81100865066 20 23 16
-224.366498076817 -275.650954852654 1699.92790049656 19 22 15
-212.91872194878 -274.515223053792 1712.69472352988 20 23 16
-184.594911149376 -271.639843946142 1734.03994268703 25 28 21
-178.717422926181 -271.077044546142 1743.74665309047 28 31 24
-177.518191915221 -270.996323812152 1751.03499641056 28 31 24
-197.902969867311 -273.141105442955 1747.43359697762 26 29 22
-211.74125131235 -274.611556616775 1747.22817677614 20 23 16
-206.797305752615 -274.145040309709 1756.44291060845 9 12 5
-194.317364875438 -272.900738511018 1769.34144500294 11 14 7
-171.459531576927 -270.584848526531 1787.24868384765 6 9 2
-127.835946469064 -266.124680070305 1815.13609298483 25 28 21
-97.3446655186638 -263.018405117828 1836.37326562384 29 32 25
-62.0864120459452 -259.418520269881 1859.7067030022 28 31 24
-51.3255948395968 -258.347144705155 1871.08618930755 36 39 32
-38.6562232674792 -257.078103746977 1883.29702366932 31 34 27
-40.1522082603056 -257.27186002008 1888.728995175 24 27 20
-31.2365424804566 -256.389777187051 1899.04701679739 23 26 19
-31.7777043434848 -256.484550972347 1904.89272990762 24 27 20
-31.3694357195982 -256.481088625774 1911.17266426096 25 28 21
-39.4964452061137 -257.35993346847 1913.51570027341 24 27 18
-51.4313299533546 -258.632622562162 1914.16083858156 22 25 16
-53.8809202240844 -258.924585042068 1919.17503694046 18 21 10
-55.3812895014179 -259.118155182832 1924.62340394942 19 22 11
-53.0756897201659 -258.917921098156 1931.77579172508 19 22 13
-63.1437687111374 -259.997838137084 1933.40512211884 19 22 13
-63.69493761643 -260.092794395147 1939.28880323443 17 20 11
-63.2913685145164 -260.088713106803 1945.5856477367 16 19 10
-64.7937378447387 -260.281763600537 1951.04176862797 15 18 9
-73.93713682404 -261.265960425321 1953.1956255097 16 19 10
-77.35723115688 -261.657325440642 1957.85310827376 17 20 11
-84.6065402499838 -262.445471994896 1960.89099728553 18 21 12
-88.0352315515376 -262.837491831281 1965.58091451222 17 20 11
-125.955300740617 -266.804160516817 1955.79502945751 16 19 10
-101.612797358335 -264.31784884909 1972.19482400449 17 20 11
-115.60944877487 -265.805172141331 1972.5667482952 17 20 11
-133.465707870922 -267.692958227564 1971.42866861174 15 18 9
-160.955050207977 -270.580021870434 1966.46038554511 14 17 8
-159.635390359426 -270.479480767497 1973.31411373798 14 17 8
-163.123196129607 -270.877290555299 1978.21892690584 14 17 8
-148.315960670828 -269.376452522077 1990.43313501836 14 17 8
-170.107440459808 -271.673106963695 1988.06140985084 20 23 16
-211.004241243697 -280.15721260943 1686.43743547449 30 33 26
-209.847570505429 -280.073269121857 1693.88583142339 23 26 19
-211.490855399342 -280.285621056989 1699.85295826429 20 23 16
-225.294920334868 -281.784926233018 1699.50228196278 28 31 24
-213.841471112164 -280.611567819513 1712.2717973822 28 31 24
-216.421408030771 -280.923450780495 1717.75644152601 27 30 23
-175.87375274432 -276.669492913926 1745.2440944779 23 26 19
-183.115198848065 -277.474348824709 1748.24224033833 16 19 12
-190.365375032384 -278.28032994571 1751.27208887805 13 16 9
-200.443284053755 -279.386172797341 1752.92247706963 13 16 9
-185.142237588231 -277.803675029968 1767.25020874137 16 19 12
-186.756468204195 -278.012839991907 1773.11147483076 14 17 10
-178.951944188911 -277.223838486593 1783.5989319629 12 15 8
-133.428933702006 -272.436623929547 1812.43326750045 25 28 21
-87.8342962098904 -267.640027790046 1841.00758904619 28 31 24
-65.7689404557038 -265.336642000313 1857.95292681339 31 34 27
-30.4412261100728 -261.625899472044 1881.09845932047 35 38 31
-27.2040461895207 -261.317471190114 1888.75670116002 30 33 26
-30.5829048699873 -261.710659602363 1893.26086185392 24 27 20
-33.9649658819079 -262.104153476788 1897.77579030154 22 25 18
-35.4546703635041 -262.296779012628 1903.18515738827 23 26 19
-41.6861189494808 -262.992639096189 1906.39944408542 24 27 20
-46.9760811819335 -263.588683597482 1910.07658617323 24 27 18
-47.522640691831 -263.681142698506 1915.94473008137 20 23 14
-48.0680977825965 -263.773178330216 1921.80811925718 19 22 13
-41.0023406842235 -263.056842705344 1931.09627534037 19 22 11
-45.3471143115847 -263.55202228425 1935.22504762782 20 23 12
-51.6017166222329 -264.250090943508 1938.52297616509 19 22 11
-58.8166840520337 -265.050274141376 1941.42669102766 16 20 6
-66.0405901080474 -265.851368466167 1944.36208899709 16 20 6
-70.4087795708794 -266.348851838646 1948.57634519761 17 21 7
-76.6925280158506 -267.049944795561 1951.98057823591 17 20 9
-85.8521225933151 -268.056810624433 1954.18025417693 18 21 10
-88.3245387421971 -268.352568359071 1959.2768044225 18 21 10
-79.3064009440028 -267.426046741316 1969.24149482452 18 21 10
-66.4389673972188 -266.089561035726 1980.75954497619 16 19 8
-82.3235440060102 -267.811098404796 1980.2004542071 16 19 8
-96.3102530665729 -269.331007388681 1980.51489157891 16 19 8
-113.197440261239 -271.159704220681 1979.71339312706 15 18 7
-142.604389753676 -274.321089331555 1973.89804758257 15 18 7
-164.356992660544 -276.668363745605 1971.35095039333 16 19 8
-166.885512551012 -276.969281531122 1976.65254504939 17 20 11
-180.013503170698 -278.398434694784 1977.73234801248 15 18 11
-201.836090491622 -280.753629856723 1975.4400884905 18 21 14
-178.315844972786 -282.616012676517 1703.79722231039 22 25 18
-190.213705506155 -283.940864640065 1704.27289308621 24 27 20
-190.906182784704 -284.049326226943 1710.67176891591 23 26 19
-192.533077940674 -284.259378242245 1716.5794959211 29 32 25
-197.906256830505 -284.876492048952 1720.5532321138 28 31 24
-182.665479585403 -283.254347237081 1735.12976265686 19 22 15
-184.282677777157 -283.463393282823 1741.00212185099 15 18 11
-170.880676284205 -282.040432840773 1754.48727101935 14 17 10
-197.851000235305 -285.005068967968 1747.54299920489 15 18 11
-193.835557968879 -284.602199713245 1756.26857998242 16 19 12
-189.81162426768 -284.198348381675 1764.96325375882 17 20 13
-178.246715915837 -282.974312803621 1777.35000916336 17 20 13
-177.969190319426 -282.977422114785 1784.11121775211 15 18 11
-139.968796360979 -278.877362807182 1809.26837007402 16 19 12
-96.2455994053744 -274.153465661882 1836.95244443184 28 31 24
-37.3427255535361 -267.776626478394 1871.66577691819 31 34 27
-30.331870767796 -267.044516050879 1881.16773391219 33 36 29
-27.0916966532435 -266.722520108022 1888.82435382961 28 31 24
-25.7377252211726 -266.605590924096 1895.56103641417 24 27 20
-28.1690036373135 -266.900569618658 1900.50441314347 23 26 19
-31.5495518400526 -267.298805809791 1905.0116597991 24 27 20
-37.7796021132144 -268.00743670695 1908.21176298918 23 26 19
-45.9157298704107 -268.923613419363 1910.56508396534 23 26 17
-47.4107397572883 -269.116505953454 1915.99398041334 21 24 15
-43.2003902869471 -268.687802022465 1924.01221960564 20 23 14
-39.9333086161282 -268.361473854958 1931.57074315772 19 22 11
-56.6580263700054 -270.213441357295 1930.15226465485 20 23 12
-61.9694897603846 -270.821850628478 1933.90142985952 19 22 11
-68.2402699786131 -271.534737153137 1937.25099759487 16 19 8
-75.472995370149 -272.352506171226 1940.20861250013 17 21 7
-82.7144549424039 -273.171169808154 1943.19809089105 17 21 7
-89.964624072493 -273.990667449767 1946.21937961628 17 20 11
-93.3967361033341 -274.393885226477 1950.91492754707 18 21 12
-90.1304770397298 -274.066323570515 1958.47728403855 19 22 13
-83.0245932568419 -273.319525515496 1967.63568999042 18 21 12
-78.7823058534261 -272.884701614412 1975.53921372561 17 20 11
-92.76256541468 -274.437889088239 1975.80869507416 16 19 10
-94.2783862253065 -274.630820087415 1981.31483411836 15 18 9
-122.701418343478 -277.760217285091 1975.76291208385 15 18 9
-140.586118887714 -279.739740254936 1974.6734410798 15 18 9
-145.021782839325 -280.251323926168 1979.12931464204 15 18 9
-161.019136872149 -282.02495465081 1978.95605532702 16 19 10
-177.038364922926 -283.801050311442 1978.86152469942 13 16 9
-209.47671155078 -287.370299279082 1972.35376851854 20 23 16
-178.291284812087 -288.523846692219 1703.87338753563 21 24 17
-188.323377597402 -289.669325785668 1705.32771575188 24 27 20
-178.722613987606 -288.628350800871 1717.09781095547 22 25 18
-169.104508381673 -287.585088432675 1728.80589188297 18 21 14
-168.838884280415 -287.583855338082 1735.61402995826 14 17 10
-169.508303008896 -287.686819535099 1741.93076467508 11 14 7
-187.06734064594 -289.672118292126 1739.62852459516 14 17 10
-202.772785373145 -291.451435558254 1738.36694403395 16 19 12
-210.041369820449 -292.290624007422 1741.44417347763 17 20 13
-198.507637844751 -291.033866207502 1753.96826877675 15 18 11
-193.542944870324 -290.509148020558 1763.14271714474 16 19 12
-184.80047172163 -289.563096304832 1774.14322664299 18 21 14
-174.156844883031 -288.404703097546 1786.01275619919 20 23 16
-151.230304543954 -285.875853864164 1803.7993505897 17 20 13
-59.3451619807677 -275.653621504633 1854.86519633882 29 32 25
-63.6924539316994 -276.165497996466 1858.99277711139 33 36 29
-45.3504623492138 -274.145675937598 1873.99699843411 34 37 30
-41.172989866209 -273.705921293806 1882.14335125572 26 29 22
-34.1457857050507 -272.948004691757 1891.60089889082 24 27 20
-24.2625784040633 -271.870904836545 1902.346072401 24 27 18
-30.4858707639477 -272.591578287003 1905.51348174588 23 26 17
-40.5127870443063 -273.736927960015 1906.94960134559 21 24 15
-43.9038497599153 -274.141398746406 1911.49102110715 21 24 15
-38.7425557165946 -273.590823278434 1919.9518531727 21 24 15
-33.5713124843025 -273.038750538688 1928.3766911486 21 24 15
-41.7184351864073 -273.974106453904 1930.75872545566 19 22 11
-63.2140835736403 -276.40072574828 1927.20751229306 19 22 11
-69.4847852833726 -277.126651261288 1930.5476273846 18 21 10
-70.0374146543878 -277.213631367789 1936.44176664771 17 20 9
-82.0478018757331 -278.580835796586 1937.30755880948 17 21 7
-91.2070173438235 -279.629480649666 1939.47945010297 17 20 9
-90.8146879393144 -279.61046693143 1945.82745295329 18 21 12
-90.4193556994328 -279.590824225367 1952.16563299691 19 22 13
-82.359157799849 -278.714081998246 1961.75921800583 19 22 13
-80.9941094640254 -278.585473763939 1968.46214775878 18 21 12
-92.0945736521306 -279.850461868749 1969.91135748082 17 20 11
-110.889063423221 -281.975972614741 1968.21033711617 15 18 9
-133.551828194101 -284.534272233907 1965.01294188968 15 18 9
-147.594185284333 -286.128666003906 1965.48696369431 15 18 9
-135.679046228219 -284.819008940789 1976.62743806057 14 17 8
-142.999938811401 -285.661012169034 1979.8971002565 14 17 8
-157.074169709443 -287.258572406567 1980.48746412059 14 17 8
-170.202759576236 -288.750247486384 1981.53094792845 11 14 7
-165.014614220781 -288.192002984816 1989.8969281611 13 15 10
-195.086987570065 -296.346704935725 1695.05057617718 27 30 23
-194.847455130913 -296.342828365463 1701.9572564322 25 28 21
-200.22078142707 -296.980004159571 1705.9188738271 19 22 15
-184.05713797714 -295.157907266917 1721.09247171144 16 19 12
-169.741179080181 -293.546589204658 1735.19951569452 12 15 8
-190.109706827903 -295.896699477613 1731.40814868215 12 15 8
-198.302701877992 -296.856481435817 1733.94507670171 16 19 12
-204.626958562762 -297.603157980791 1737.47092980382 18 21 14
-203.43654236915 -297.491223075957 1744.81170780645 13 16 9
-204.12393196878 -297.593955038184 1751.19531146654 16 19 12
-196.334972594621 -296.728018064753 1761.78913008753 17 20 13
-184.762085381296 -295.429414674734 1774.19426877849 19 22 15
-177.885045654401 -294.667369103556 1784.21102531903 20 23 16
-156.837663439008 -292.285185931769 1801.08932747604 18 21 14
-100.808521276432 -285.903258030448 1834.78558506329 30 33 26
-61.7063610576651 -281.455354354838 1859.96895533179 33 36 29
-54.7054102278808 -280.677251990847 1869.53672067412 34 37 30
-45.7984117394543 -279.680920477952 1879.95812386379 26 29 22
-43.5075201322901 -279.440911195351 1887.19023218483 24 27 20
-39.3146723320275 -278.983326398517 1895.29168551466 23 26 17
-38.9086089447424 -278.958687765966 1901.59317707766 22 25 16
-43.2476838836182 -279.476719185914 1905.68636379555 21 24 15
-39.0386259580136 -279.016739709554 1913.72914398237 20 23 14
-41.4779998250787 -279.317340898521 1918.69995680817 20 23 14
-41.0639714197607 -279.291196270837 1924.9718976043 20 23 14
-52.0761790721602 -280.572665140996 1926.08302301462 18 21 10
-63.1028609915614 -281.855865798831 1927.24679518136 17 20 9
-71.2823865294885 -282.813223444743 1929.73524412608 17 20 9
-68.0172019235201 -282.4603688413 1937.3175585111 18 21 10
-79.0743358939894 -283.746975898167 1938.592242553 17 20 9
-83.45383731303 -284.26904741214 1942.8329741645 16 19 8
-76.3568034854885 -283.476828716951 1952.05291448043 18 21 12
-70.2043160943795 -282.79239754501 1960.81539880508 19 22 13
-75.5388405034454 -283.423287811742 1964.6359917286 19 22 13
