ply
format ascii 1.0
comment KinectMotionCapture
element vertex 749
property float x
property float y
property float z
property uchar red
property uchar green
property uchar blue
end_header
-898.143810714808 62.1741266906928 2121.49155241314 113 118 114
-889.387818523097 62.8812066765177 2112.46383667751 123 127 126
-886.613980828172 63.0762574423028 2103.75064303917 123 127 128
-881.846965055781 63.4414130222667 2094.89475037055 119 123 124
-882.064108515046 63.3801371538915 2086.34223844771 126 128 127
-887.264364266958 62.8927085621351 2078.13432454735 141 143 138
-633.509626338972 77.5917397885744 2585.78350902312 122 127 121
-763.818498888344 66.6942544868773 2565.58518227348 182 187 183
-804.063252174029 63.3072561910387 2553.48248205187 163 167 166
-815.289811240731 62.3396785562977 2543.89783198008 154 158 157
-818.511740241315 62.0392425479092 2534.98491056201 149 153 152
-821.73327761351 61.7387307449949 2526.08721395572 133 137 136
-827.954905545068 61.1881130033983 2516.99152646955 143 147 146
-832.175776662833 60.8040747234134 2508.0642075473 173 177 176
-834.395590691226 60.5866002194492 2499.28900179216 173 177 176
-838.615292260864 60.2024112941071 2490.39790632263 186 190 189
-852.834243241893 58.9853337266173 2480.92613055926 180 184 183
-871.050518343302 57.4354710980328 2471.30040912369 158 162 161
-881.265877220379 56.5519532920593 2462.20973578113 162 166 165
-890.480186263818 55.7517554898146 2453.22485851418 161 165 166
-900.692865214827 54.8684559992693 2444.23916037645 160 164 165
-911.903701743714 53.9020813391046 2435.26096842152 160 164 165
-917.11599106651 53.4349165165768 2426.6044985592 163 167 168
-926.325420092338 52.6350576091074 2417.81071316492 170 174 175
-933.534718905845 52.0015726003793 2409.1419362843 172 176 177
-943.741062457971 51.1187443875615 2400.40435350371 172 176 177
-944.952632226486 50.9840294625479 2392.01552518348 166 170 169
-946.164073988328 50.8491235451191 2383.63149473456 171 175 176
-940.381582007375 51.2956029878227 2375.44308754685 156 160 161
-942.592470234732 51.0771255793037 2367.02498096341 154 158 157
-939.808075521119 51.2737715381463 2358.7261049824 150 154 153
-939.022020154643 51.3039802060805 2350.37214563737 146 150 149
-933.241795723853 51.7490006909495 2342.09354821747 145 149 148
-932.456383819718 51.7786329223147 2333.71382120189 143 147 146
-928.674992706695 52.0569195548507 2325.36051590971 136 140 139
-927.889841568029 52.0859753363888 2316.96065354056 143 148 144
-926.106583539991 52.1976845289606 2308.5601758425 140 145 141
-922.326292923382 52.4749760894855 2300.15346611825 138 143 139
-920.543737817734 52.5860329964821 2291.72481540412 134 139 135
-920.758024549515 52.5310544275504 2283.29071584276 141 146 142
-914.982573395647 52.9730485730758 2274.82231277508 150 155 151
-901.222358055827 54.0773724994281 2266.25336914417 137 139 134
-886.465785541581 55.2638152596513 2257.59620169866 144 146 141
-879.696027188287 55.7869742135025 2248.96775512095 155 157 152
-876.919205618597 55.9784379810712 2240.36733020272 142 144 141
-871.148976093186 56.4179016185703 2231.69213074163 149 151 148
-870.369014988234 56.4431117491385 2223.09461950008 154 155 150
-872.329775018144 55.9144245110252 2145.8936614442 79 82 75
-883.516340012405 54.9462440000623 2137.86214616025 93 94 89
-890.713019488818 54.3084661892114 2129.68196740879 98 100 97
-888.935632991752 54.4134955892012 2121.04483769342 112 114 111
-879.182708947519 55.1783264876719 2111.93451894514 128 130 129
-876.409350801881 55.3651019978579 2103.19369752733 120 121 123
-873.636392971526 55.5515158517641 2094.43684208279 125 126 128
-878.837963759598 55.0779616746252 2086.19242929163 119 121 120
-882.045128732621 54.7692755388129 2077.83835407642 139 141 138
-642.261893581709 67.6766318077338 2585.06061259558 109 114 108
-778.584212106587 56.6509779457505 2564.37531335602 185 190 186
-800.820229059269 54.8254539083647 2553.79014343217 152 156 155
-810.046692264507 54.0488638421341 2544.35558758652 136 140 139
-815.270183288452 53.5948919417505 2535.27548198215 135 139 138
-819.492456723561 53.2215419700815 2526.29550713425 145 149 148
-824.714436567941 52.7675253811141 2517.26509089092 154 158 157
-833.93689129847 51.9911172039471 2507.98739542145 171 175 174
-840.157582555646 51.45651570163 2498.95483820737 178 182 181
-843.377136223312 51.1635842555972 2490.14281084944 181 185 184
-855.596639509816 50.1457243630241 2480.80463355719 171 175 174
-869.814270192066 48.9669934900813 2471.4163085829 156 160 159
-880.030452884302 48.110535018941 2462.32249191981 155 159 158
-891.245010860701 47.1737493091243 2453.23062324035 164 168 169
-904.457654147458 46.0761757117968 2444.0996657285 166 170 171
-917.66850300376 44.9788097572004 2435.03906372585 169 173 174
-922.880751097837 44.525190206531 2426.39874909439 167 171 172
-931.090732025802 43.8302550014904 2417.66202999244 161 165 166
-939.299613024033 43.1354325718992 2408.9684210445 164 168 169
-947.507630597734 42.4406118037739 2400.31788429039 161 165 166
-949.718497177197 42.2280970491761 2391.90702602025 153 157 158
-948.931041841842 42.2565058734115 2383.59652498695 154 158 159
-944.147247048872 42.6060339941395 2375.38895979437 154 158 159
-941.362265662546 42.7945235036363 2367.10425524821 159 163 164
-936.579507129529 43.1432837205992 2358.84604012271 153 157 156
-934.794672710152 43.2508211361408 2350.50269392626 150 154 153
-929.014273210012 43.6791579194816 2342.21302514926 150 154 153
-929.227839280928 43.6255415824403 2333.80855417069 151 155 154
-928.442707249299 43.6519633084579 2325.41444157466 149 153 152
-927.657481951397 43.6781279094078 2317.01437327833 153 158 154
-924.875271151127 43.864424348108 2308.61902988075 147 152 148
-919.097996373063 44.2909207871548 2300.21458490866 144 149 145
-918.313689713064 44.3162256252977 2291.77768991363 146 151 147
-919.526712513799 44.1809406693295 2283.34078479359 138 143 139
-909.757258634738 44.9268730196534 2274.84689265923 134 139 135
-897.993005744273 45.8324269901412 2266.28104673814 146 148 143
-885.232040564764 46.8174034503283 2257.63796098522 154 156 151
-881.456294548606 47.0810730351763 2249.04833109183 154 156 151
-878.679110927924 47.2643055479424 2240.45321829312 162 164 161
-865.922252967201 48.2475283400649 2231.64772524817 162 164 161
-864.144463825168 48.3498921898569 2223.0141454422 144 145 140
-855.916988913193 48.6788806842595 2153.81601615086 113 114 106
-864.114569611142 47.9801913997688 2145.56923494161 97 98 92
-877.297113433061 46.8824685458513 2137.6145085257 87 88 83
-885.491850975013 46.1840741780454 2129.46983957259 90 92 89
-883.714431630257 46.2836387200636 2120.81880112691 97 99 96
-873.961108590223 47.0210871180265 2111.69467529662 123 125 124
-867.200074701303 47.5186359800833 2102.69774828382 118 120 119
-868.41505378337 47.3778967748346 2094.16920377137 117 118 120
-869.630113374614 47.236952943324 2085.64661775769 117 119 118
-872.838380500306 46.9364629432913 2077.2675917657 132 134 131
-796.354177614757 46.4555039212886 2562.90992526984 185 190 186
-804.581602392712 45.7810545085497 2553.52276093573 150 154 153
-810.806418595007 45.2625384165757 2544.33693306335 140 144 143
-817.030665084329 44.74399080598 2535.1826624935 139 143 142
-821.253334940919 44.3812155511133 2526.20787322556 149 153 152
-830.477039653051 43.629130553021 2516.89811571303 162 166 165
-836.698783816302 43.110648942344 2507.84171558022 182 186 185
-844.920302196229 42.4365265855718 2498.68574490945 185 189 188
-850.13993909984 41.9959328163587 2489.76131129777 173 177 176
-860.359551685607 41.1663050154572 2480.56225122098 167 171 170
-873.577924932409 40.1035024597218 2471.24468148736 165 169 168
-877.794733171756 39.7408204027483 2462.48975980755 163 167 166
-889.01050006642 38.833809262392 2453.39193684214 163 167 168
-903.224020465148 37.6938046077556 2444.20583721728 165 169 170
-917.435608084041 36.554104447442 2435.09560426649 164 168 169
-923.647849089501 36.0362172334704 2426.41125867831 166 170 171
-929.859270056683 35.5183232655903 2417.75895577497 172 176 177
-940.068018109735 34.6898173505261 2408.9857238681 167 171 172
-946.277517562286 34.1720148111781 2400.40861858194 167 171 172
-946.489688634217 34.1199852483123 2392.06037275217 162 166 167
-944.703098057683 34.2230117570598 2383.77149500853 158 162 163
-942.916797190654 34.3257360654579 2375.47096993436 153 157 158
-941.131025518431 34.4281963137605 2367.15880335479 154 158 159
-937.347184886621 34.685483205898 2358.87868583854 154 158 157
-933.563673978424 34.9424753848343 2350.57604035266 152 156 155
-931.779045192327 35.0440461785959 2342.21825079629 154 158 157
-929.994464303668 35.1453372702554 2333.84896413135 156 160 159
-931.206748329252 35.0138982897767 2325.4357376275 157 161 160
-927.42510826707 35.2696540276307 2317.06797019146 150 155 151
-923.644030716353 35.52503493749 2308.67781539724 142 147 143
-919.863515365042 35.7800711119585 2300.26531775236 133 138 134
-919.079302988004 35.802496809176 2291.83097124108 136 141 137
-918.29499495162 35.8246960279547 2283.39079546508 134 139 135
-907.526732435024 36.6204731423321 2274.88848735266 131 136 132
-895.761474186857 37.4929873306115 2266.31713393161 137 139 134
-886.992794964189 38.13283255371 2257.71307980613 137 139 134
-884.215000369075 38.3081370230938 2249.1426582706 132 134 129
-880.439063798313 38.5604868644521 2240.53899685423 146 148 145
-866.683072642355 39.5853463288494 2231.7196346655 149 151 148
-858.917167195586 40.1458208505672 2222.9559720737 136 137 132
-851.689159542327 40.3697186242712 2153.6905234979 127 128 120
-858.890079455242 39.7701093610295 2145.38559624504 90 91 85
-867.087257423357 39.0934823972152 2137.16891914534 86 87 82
-878.275312442759 38.1857313702653 2129.1533778312 97 99 96
-875.501131018225 38.3568210126775 2120.42789072787 97 99 96
-871.730315810293 38.6046382613811 2111.62852675007 119 121 120
-858.986619425838 39.5451496234457 2102.26277346624 114 116 115
-862.196274472882 39.2531429290126 2093.83861141998 115 116 118
-863.411599418147 39.1149824928283 2085.2993182592 121 123 122
-869.611036535681 38.5919513236789 2077.10986978341 122 124 121
-876.806305918803 37.9920008065062 2069.02541839721 158 161 154
-804.119017952416 37.1100665107394 2562.29192424659 184 189 185
-806.341763082541 36.9083769216671 2553.41910950775 141 145 144
-811.56652943923 36.4810590588026 2544.31777853444 131 135 134
-818.791680629111 35.9034477693957 2535.08942876602 142 146 145
-823.014270126789 35.5513054105889 2526.1198721994 184 188 187
-832.238750203295 34.8234836204761 2516.81518751341 192 196 195
-836.459926776691 34.4713272985016 2507.90083792975 187 191 190
-845.682295465088 33.7436774961688 2498.67885827254 188 192 191
-850.902236422469 33.3164620509784 2489.75690580027 189 193 192
-863.122991275782 32.3638247622194 2480.43984395023 193 197 196
-871.34145571182 31.7115702690145 2471.41738722552 183 187 186
-878.5590926341 31.1343958609227 2462.49251494359 171 175 174
-887.775339527776 30.407313651714 2453.50108088069 144 148 149
-895.990757327923 29.7552819386737 2444.60726123315 147 151 152
-911.203652419983 28.5785879087067 2435.43090419627 162 166 167
-922.415703693793 27.7019903112425 2426.51095628547 169 173 174
-934.625622763295 26.7506954612594 2417.60951102315 172 176 177
-940.83632676674 26.2491074842459 2409.00273766348 173 177 178
-946.04672558786 25.8224336586093 2400.46363126967 171 175 176
-942.260763071993 26.0697252392834 2392.24638734905 169 173 174
-940.474536085882 26.1669350001947 2383.94637844456 163 167 168
-936.689812527008 26.4135784999708 2375.68934072158 156 160 161
-936.902715905219 26.3605737286935 2367.31142672187 154 158 159
-935.117121263508 26.4570330910803 2358.97657309922 144 148 147
-933.331814061106 26.5531908575087 2350.63016152215 140 144 143
-932.546029799449 26.5743394970038 2342.25587850088 135 139 138
-930.761228055219 26.6700025817871 2333.88918071638 134 138 137
-931.973757202134 26.5411510506828 2325.47847701391 133 137 136
-927.192720481894 26.8605386951216 2317.12142947419 138 143 139
-924.410057761428 27.0301050997691 2308.72578526136 134 139 135
-919.630524253751 27.3487593061947 2300.31852424626 132 137 133
-918.846238384485 27.3683386595343 2291.883993881 137 142 138
-915.066096011533 27.6116499810423 2283.43500491744 145 150 146
-904.297211220766 28.3770880807447 2274.92444173798 145 150 146
-892.53125523438 29.2165524782859 2266.34487202371 131 133 128
-885.758941175665 29.6823684178126 2257.75474075496 132 134 129
-881.982526262914 29.9239790242314 2249.16756842548 134 136 131
-875.211952786354 30.388926442673 2240.50847662534 137 139 136
-860.456925778102 31.4497880180616 2231.65606604726 132 134 131
-856.683153594714 31.6901098689878 2222.96422293297 137 138 133
-857.899920678213 31.5575223852013 2214.37454982126 148 149 144
-857.654855184373 31.2344979461513 2145.3893958012 81 82 76
-862.86051196854 30.8029077589094 2137.0210210401 90 91 85
-868.065696724497 30.3712900561071 2128.68039002085 96 98 95
-865.291993680998 30.5340897491797 2119.92730502035 94 96 93
-865.51027091798 30.473712417896 2111.33144591665 117 119 116
-857.751472005566 31.0072851744483 2102.25182551211 113 115 114
-856.973300314928 31.0206002878882 2093.57160580699 108 110 109
-859.186201114765 30.8110250707921 2085.08439940664 121 123 122
-865.386380472438 30.3045266061663 2076.88369315976 123 125 122
-872.582469806526 29.7238939952351 2068.78793732928 160 162 157
-825.677317854419 26.8447791080436 2569.13231651017 183 187 186
-807.881337865225 28.0977985168961 2562.01272159021 160 164 163
-810.103948563305 27.9012313318814 2553.15066096432 135 139 138
-816.329479904001 27.4148419724409 2543.98070300518 137 141 140
-821.553600018781 27.0008853436302 2534.91897566845 157 161 160
-823.774969305568 26.8041384957116 2526.10524078825 198 202 201
-831.999590644434 26.173018953662 2516.87416884333 194 198 197
-836.221063180136 25.8314372193367 2507.95960620529 192 196 195
-843.443219298706 25.2728090750611 2498.86869683846 188 192 191
-851.664916877969 24.6418977400546 2489.75211910405 184 188 187
-862.88608237025 23.794161742951 2480.49762053739 188 192 191
-875.10609196134 22.8743132079327 2471.24489215517 187 191 190
-881.323452364377 22.3883917770014 2462.38546038282 182 186 185
-889.54042882611 21.7579420854316 2453.45389595348 165 169 170
-889.756332424928 21.7055790272301 2444.95941196114 147 151 152
-899.97135043912 20.930741433466 2435.99875316261 137 141 142
-916.184079122171 19.7227994880877 2426.8293708123 148 152 153
-932.394595067623 18.5152515745183 2417.74689299376 172 176 177
-938.605651987141 18.0298529435853 2409.13438453616 165 169 170
-941.817209928677 17.7609271308314 2400.66063325427 146 150 151
-938.031459564161 17.9969205285312 2392.43229139347 151 155 156
-937.244777371849 18.016222560759 2384.09111986811 151 155 156
-934.459309097228 18.1795286597654 2375.79840459656 158 162 163
-937.670430359548 17.9100138796172 2367.34108786335 152 156 157
-937.883273127086 17.8566501255681 2358.96515729063 150 154 153
-939.095266968247 17.7310352244042 2350.56952564713 149 153 152
-938.308987671633 17.7493447133557 2342.21154184567 146 150 149
-936.523616818987 17.8394875108433 2333.86115953022 144 148 147
-934.738769986899 17.9293376162428 2325.4993071941 144 148 147
-930.956007656778 18.1629181351046 2317.14226704628 142 147 143
-926.175254509879 18.4681226724026 2308.76823253822 143 148 144
-922.393926184478 18.7010031831111 2300.3637196917 139 144 140
-919.611813576733 18.8616753556728 2291.93702522662 137 142 138
-913.83413336788 19.2377318230041 2283.4849425491 126 131 127
-904.063000298364 19.9009967079196 2274.97724182542 118 123 119
-894.293263347147 20.5636948445033 2266.41436743147 131 133 128
-888.518655824165 20.9384081087337 2257.84075131776 129 131 126
-882.744884849167 21.3127186029365 2249.23400754742 131 133 128
-874.975480393375 21.8302657402097 2240.5610062302 135 137 134
-862.215888406238 22.7063321669872 2231.74731215643 133 135 132
-857.443344054621 23.0074638246063 2223.03875155913 138 139 134
-851.431646187767 23.0508924901268 2145.1594158139 99 100 92
-847.661049704601 23.2773447455985 2136.32856323026 84 85 79
-851.870100285595 22.9308474793743 2127.89421569468 82 84 79
-852.089307140731 22.8705527620539 2119.26211259767 86 88 83
-855.300304385786 22.5954592177285 2110.80365284148 112 114 111
-854.522152140477 22.6063533875373 2102.12007372275 111 113 112
-854.741172303251 22.5455231873067 2093.49469224969 110 112 111
-859.945313855657 22.1271504648894 2085.19972989065 114 116 115
-862.158008093926 21.9231219833652 2076.72655228943 119 121 118
-869.354846591364 21.3618111195906 2068.62226276395 160 162 157
-818.430634632974 18.670683345653 2569.80530366263 177 181 180
-807.640466557975 19.3857898883675 2562.07252281089 158 162 161
-806.860763972041 19.4033537888516 2553.45669781758 142 146 145
-813.086712498422 18.9329416031817 2544.27826506708 149 153 152
-818.311412807919 18.5322597722899 2535.20811516648 167 171 170
-821.533983912184 18.2708752662969 2526.31202860787 199 203 202
-832.760965572505 17.4523806119977 2516.86161114769 199 203 202
-835.982194672715 17.1910382856659 2508.01802004574 191 195 194
-845.205915985838 16.511988915543 2498.79535852953 187 191 190
-854.428407622805 15.8331018678214 2489.62093130662 188 192 191
-869.651479741818 14.7369748544626 2480.13332745869 191 195 194
-880.871474296848 13.9193950664042 2470.95697259086 188 192 191
-889.089590124217 13.3106090152943 2462.00413855414 186 190 189
-899.306717401624 12.5628936620918 2452.9901642153 175 179 180
-896.521731488514 12.7188540520678 2444.67070932829 169 173 174
-902.737120764241 12.2492242612237 2435.91513353617 135 139 140
-912.951308078606 11.5017514384047 2427.01632354802 136 140 141
-928.16323017005 10.4072424510823 2417.96623871502 175 179 180
-936.374904542885 9.79907595083068 2409.26582426192 163 167 168
-941.586096731399 9.39927763945889 2400.71524239106 142 146 147
-942.798344639961 9.2770430583729 2392.32263522898 151 155 156
-943.010732484619 9.22408550822429 2383.96492076881 154 158 159
-939.224951660736 9.44841644528055 2375.71592232532 160 164 165
-938.438286323864 9.46438293287871 2367.37051058006 149 153 154
-937.651772001902 9.48015916838707 2359.01899237092 149 153 152
-940.86251308682 9.21848805963238 2350.58495621785 149 153 152
-942.074312866695 9.09534058983658 2342.19955849942 147 151 150
-940.288510909802 9.17988134510445 2333.8600101899 146 150 149
-936.504980035298 9.40269485582654 2325.53077142314 146 150 149
-932.722013062847 9.6251631778646 2317.17912277363 143 148 144
-926.9416359101 9.98577751940641 2308.81586544091 143 148 144
-924.158734714754 10.1384070171604 2300.41135610628 140 145 141
-917.381102598538 10.5674816643897 2291.98962297746 142 147 143
-914.599324733212 10.7194519854295 2283.54050224103 137 142 138
-905.826192823814 11.2860258746062 2275.0411262109 128 133 129
-902.046917047854 11.5064793017762 2266.53372458837 138 140 135
-894.274399730727 12.0030232421667 2257.95983306046 136 138 133
-883.507619128713 12.7063816214877 2249.30037447271 132 134 129
-870.745513143634 13.5473309879603 2240.54723015276 131 133 130
-856.986739161277 14.456677556871 2231.70327682099 125 127 124
-853.212578025148 14.6749409241596 2223.00295062638 131 132 127
-855.183659116337 14.1450964306236 2145.39736716984 120 121 113
-843.431983664966 14.9115569795957 2136.18127876664 82 83 77
-844.649411199719 14.7825417201867 2127.57895329964 85 87 82
-844.869113979676 14.7222350116644 2118.92745486741 89 91 86
-851.072866098041 14.2489662250027 2110.62279222492 108 110 107
-853.286510514831 14.0508698762663 2102.10952303454 106 108 107
-850.513996269439 14.196472719858 2093.29151103328 108 110 109
-854.721985199189 13.8605782365935 2084.91936574604 113 115 114
-849.95557472976 14.1431665130985 2075.95116132942 114 116 113
-849.17798229525 14.1505805881098 2067.24196620762 158 160 155
-813.185195289998 10.3237277304487 2570.30279225249 172 176 175
-802.394293108302 11.0081455453299 2562.55642685287 152 156 155
-805.618671972156 10.7546374148937 2553.59814383252 151 155 156
-811.845376460447 10.3002259786608 2544.41667063244 170 174 175
-819.072028774559 9.77896305830667 2535.19015426784 192 196 197
-821.29406322327 9.59233675939747 2526.37061400966 197 201 202
-833.522488130725 8.73669955283393 2516.84860630252 188 192 193
-837.744653528039 8.4163120100362 2507.93904571128 184 188 189
-847.969389061117 7.69477257341417 2498.65582006759 184 188 189
-861.194216278848 6.77289455981422 2489.23732071203 189 193 194
-874.417255903026 5.85131989972251 2479.88901242271 193 197 198
-886.638000259582 4.99682718864181 2470.66841612274 194 198 199
-889.854827723251 4.74371644388294 2462.00569466321 192 196 197
-905.073761372923 3.68926095082983 2452.73390499088 189 193 194
-908.288958517568 3.4362691433823 2444.13502975232 183 187 188
-913.503735165556 3.04973355917765 2435.45859528292 183 187 188
-914.718152292256 2.93010998248228 2426.98401105686 162 166 167
-924.931577629973 2.21000614168643 2418.14436846079 109 113 114
-935.143626485485 1.49010370723962 2409.35873981228 138 142 143
-940.355264090396 1.10375111847211 2400.805186507 194 198 199
-943.566937626759 0.850722086273403 2392.34398611746 183 187 188
-942.779681640396 0.864182476265407 2384.01896814585 163 167 168
-940.992837934255 0.944071510411426 2375.71514034588 145 149 150
-938.206853271957 1.09034213605341 2367.42431591434 147 151 152
-938.419623600014 1.03657753411096 2359.05078612788 147 151 150
-939.631697708477 0.916102901740379 2350.6575365849 147 151 150
-941.843103615988 0.728945156207195 2342.25282590971 147 151 150
-940.057149649579 0.807832073438874 2333.91314800282 152 156 155
-936.273314914968 1.01949541578267 2325.58381294962 151 155 154
-931.491031634169 1.29735601038386 2317.24022155531 153 158 154
-926.709213910415 1.57488572905881 2308.86875452156 144 149 145
-924.925198281535 1.65266828466948 2300.46145867907 141 146 142
-918.146966589192 2.06244137941558 2292.04243454184 136 141 137
-916.363628276604 2.13969413752035 2283.59877318831 149 154 150
-912.583240527581 2.34948699180024 2275.13270961125 142 147 143
-909.802008885015 2.49260162827838 2266.6527320451 142 144 139
-898.033750172559 3.23276236483422 2258.05653621968 138 140 135
-885.268709394267 4.03866168439115 2249.38045974427 127 129 126
-869.510084439746 5.04292702079695 2240.58320302508 126 128 125
-856.74887677393 5.84747575196032 2231.7558650777 125 127 124
-846.9844588247 6.45250496496252 2222.9231852114 123 124 119
-830.224108086227 7.11819668529534 2135.58882246286 114 115 109
-832.439767496455 6.92573084527165 2127.00284595527 86 88 83
-838.645251630428 6.4688888067409 2118.64812791974 88 90 85
-846.8445655667 5.88001121835169 2110.44218830618 103 105 102
-848.06161582809 5.75347465467363 2101.85726942172 104 106 105
-842.297388898806 6.08891772276177 2092.83577843375 105 107 106
-846.506011225989 5.76405129903607 2084.44139407337 102 104 103
-842.737086938873 5.96694353200011 2075.5198893377 105 107 104
-847.942106591186 5.57595329942301 2067.22000900105 151 153 148
-833.206771734555 6.50365352971563 2057.46430731185 156 158 153
-811.943434982507 1.69190093908558 2570.44940931263 160 164 165
-807.158717806993 1.96028129116665 2562.19076380098 151 155 156
-805.377636617135 2.03572525560233 2553.65694412872 166 170 171
-813.606827793541 1.46894489926752 2544.31634956437 184 188 189
-823.83659624419 0.773929400364443 2534.86489942852 193 197 198
-828.059950985567 0.464136817807853 2525.91090641528 188 192 193
-840.289028732577 -0.358869415721497 2516.40774489071 186 190 191
-842.509281623106 -0.540261768212119 2507.65412911829 184 188 189
-853.735210422333 -1.298797814134 2498.31856484104 185 189 190
-859.956499896981 -1.73656466013936 2489.35727602363 189 193 194
-875.181654287541 -2.75105308080872 2479.8852718117 190 194 195
-885.402544021821 -3.44480766277508 2470.78218654462 192 196 197
-890.620451747312 -3.81815051143838 2462.00686885139 192 196 197
-903.83956093808 -4.70366953256474 2452.84156449548 194 198 199
-910.055693642757 -5.14081687304907 2444.09181007811 190 194 195
-917.271075516829 -5.64189132631107 2435.32745837432 200 204 205
-918.485285644648 -5.75899151061443 2426.86367380599 198 202 203
-924.699243641465 -6.19601002484813 2418.19905282911 147 151 152
-933.911951689819 -6.8247916925015 2409.45147665134 106 110 111
-942.12387265694 -7.3894875253385 2400.78809989398 165 169 170
-945.335631106778 -7.634504113706 2392.33218393674 182 186 187
-946.547452239881 -7.75176039675246 2383.9522771628 182 186 187
-942.761020210074 -7.54976636888649 2375.71407123822 145 149 150
-939.974666761314 -7.41190526202112 2367.42863076556 140 144 145
-936.189304499306 -7.2104811272703 2359.14800270218 136 140 139
-933.403879515182 -7.07314479221563 2350.82571115563 138 142 141
-936.615152868625 -7.31890251033168 2342.38795867794 148 152 151
-934.829395178699 -7.24576215478043 2334.03443939082 151 155 154
-934.043322021075 -7.23661543661414 2325.65856068594 147 151 150
-931.258978405433 -7.10016718311499 2317.29305195948 152 157 153
-928.47505979149 -6.9639596176424 2308.91067426205 146 151 147
-925.691565356208 -6.82802253060474 2300.51142777421 140 145 141
-915.915853915616 -6.24648507904643 2292.09491302899 140 145 141
-914.132504494892 -6.17485614950442 2283.64564738593 148 153 149
-910.351954782787 -5.97616121205508 2275.17399779884 152 157 153
-908.569308459954 -5.90501956242639 2266.69672945089 146 148 143
-894.803008381478 -5.07064689846307 2258.07574561065 141 143 138
-884.03449541578 -4.42775415197394 2249.41907045725 128 130 127
-868.274729501792 -3.46747161563496 2240.61918104328 132 134 131
-858.508024403371 -2.88935973488141 2231.8469891322 132 134 131
-846.745828404782 -2.18467131143202 2222.97575400863 132 133 128
-846.965290644479 -2.24296336219196 2214.33581990739 144 145 140
-828.98622710853 -1.50732556528843 2135.59059120626 136 137 129
-825.216542476024 -1.31417156177166 2126.68834724162 86 88 83
-828.430280151048 -1.56459912633847 2118.14926641822 82 84 79
-836.63090605026 -2.13157393409791 2109.91556826705 105 107 102
-839.843429831309 -2.38197842079008 2101.42395540458 97 99 96
-840.063452005934 -2.44260273507785 2092.75963290169 104 106 103
-843.27531733445 -2.69313201821345 2084.29362064845 101 103 102
-839.506307304498 -2.50111041550077 2075.36379499427 102 104 101
-840.723414783556 -2.62542336728655 2066.76970260008 149 151 148
-836.95513567798 -2.43388895030827 2057.8107867867 159 161 156
-820.714334510922 -7.56096135863454 2569.71869181347 154 158 159
-805.916725776347 -6.6916533447178 2562.3341719382 140 144 145
-808.139978491762 -6.8680449953302 2553.4686819858 174 178 179
-820.373704019657 -7.65909806617548 2543.81817792864 193 197 198
-833.606695995495 -8.51131447119458 2534.15536881209 192 196 197
-836.828811515449 -8.74896019180943 2525.30257694601 188 192 193
-844.053848260057 -9.23226609105876 2516.17995796016 184 188 189
-849.276300101363 -9.59265858415193 2507.23162078532 183 187 188
-858.501071584771 -10.1985167208583 2498.04650208589 185 189 190
-867.724615867978 -10.8042056919523 2488.90952825852 185 189 190
-883.950834448127 -11.8390954675829 2479.39872408992 182 186 187
-890.169930714034 -12.2603314919563 2470.55022777915 189 193 194
-891.385984453512 -12.3749409175506 2462.00773807718 194 198 199
-896.603281815488 -12.7348164130122 2453.26141092293 199 203 204
-908.822095660526 -13.5235650981433 2444.19618136063 199 203 204
-920.038876107267 -14.2507632848096 2435.24248978168 201 205 206
-927.253617560176 -14.7327612392277 2426.52365083069 201 205 206
-931.467394857286 -15.0310118138453 2417.96569522491 190 194 195
-932.680358310291 -15.1456462863077 2409.5439577303 187 191 192
-934.893299107553 -15.3215464604793 2401.09134575957 158 162 163
-940.10535597532 -15.6810246039432 2392.55026191901 162 166 167
-944.317006743808 -15.9792985889561 2384.06606849396 174 178 179
-945.529152163586 -16.0942060677494 2375.68533422673 174 178 179
-942.742359930635 -15.9647358442731 2367.40803347594 181 185 186
-938.956244980463 -15.7744067732495 2359.1355852603 156 160 159
-935.170937390489 -15.5843858083404 2350.84057657887 155 159 158
-934.384560212274 -15.5778139941692 2342.47381531828 157 161 160
-933.598332362898 -15.5714244808266 2334.10102202875 154 158 157
-934.810723062499 -15.6872343914979 2325.70040762624 154 158 157
-934.024651087328 -15.6811489596447 2317.32119573353 152 157 153
-933.238487730874 -15.6752386285043 2308.93604254004 148 153 149
-927.457338841223 -15.3646804152612 2300.5585257318 146 151 147
-917.680730306377 -14.8106404348059 2292.14754787105 142 147 143
-913.899079126629 -14.6227001274829 2283.69807517336 121 126 122
-910.118227344815 -14.4350733088742 2275.22634742337 125 130 126
-906.33793609778 -14.2477307634361 2266.73240680175 138 140 135
-893.569393417501 -13.5127494422161 2258.11705050256 137 139 134
-882.800117948128 -12.9001358701743 2249.45766518872 138 140 135
-869.036286800733 -12.1055122788334 2240.68818268793 130 132 129
-858.270288584035 -11.4940337880574 2231.89949222369 134 136 133
-844.510389005523 -10.7006926013326 2222.9842982322 150 151 146
-817.992240741873 -9.59294974660041 2126.37418841402 109 112 105
-823.201824400911 -9.95631589449697 2117.92559149859 78 81 74
-829.408428028432 -10.3801904160358 2109.56251775778 104 106 101
-833.61909734339 -10.6828996007908 2101.11192076074 102 104 101
-837.829432348556 -10.9855904394763 2092.68373423526 104 106 103
-843.036238347035 -11.3487647689101 2084.34390387673 111 113 110
-839.266934333437 -11.1675358496754 2075.41397976955 114 116 115
-836.49531426813 -11.0470414557913 2066.53406059342 139 141 138
-825.747025659327 -10.4432562119313 2057.04495688712 150 152 149
-818.472005201603 -16.1184220928961 2569.95202310635 154 158 159
-806.676965210251 -15.4669668346106 2562.30728732494 152 156 157
-805.896923911899 -15.4621043191078 2553.6910626173 183 187 188
-825.139296469375 -16.6317285977838 2543.47833051004 195 199 200
-840.375122431908 -17.5660292423812 2533.67534375517 195 199 200
-845.598797258266 -17.9130854928192 2524.69352751807 193 197 198
-851.822885870769 -18.3187852690959 2515.6665946345 190 194 195
-856.044377445932 -18.6070601517939 2506.80852466015 184 188 189
-865.269337873007 -19.1885033257416 2497.64223629428 184 188 189
-874.493069652723 -19.7697469392776 2488.52418199602 189 193 194
-891.72057141646 -20.8195671173939 2478.97189311407 195 199 200
-899.940790094425 -21.3417128310333 2470.02990011297 195 199 200
-905.158160281645 -21.6879983952357 2461.29531851745 192 196 197
-905.372834141156 -21.7415120309249 2452.84766159581 188 192 193
-908.588628049714 -21.970737620412 2444.25098109061 192 196 197
-918.806021090349 -22.6095441387198 2435.34355772324 198 202 203
-933.022867682944 -23.4821041565005 2426.31462037273 194 198 199
-936.236209501294 -23.7110595512317 2417.81406616172 192 196 197
-936.448887255428 -23.7646569621192 2409.44433400177 197 201 202
-939.661636161463 -23.9937170900595 2400.96684040355 185 189 190
-946.873695835984 -24.456470197305 2392.37347827688 162 166 167
-949.085560627416 -24.6270873222561 2383.96859287284 160 164 165
-952.296889453368 -24.8561445035234 2375.54660408762 165 169 170
-950.509038566089 -24.7933553414655 2367.26377988993 169 173 174
-946.722298681991 -24.6140790903507 2359.01321337845 173 177 176
-939.93732862337 -24.2600703189483 2350.79767250277 176 180 179
-935.152247019578 -24.0230698017265 2342.51025207258 162 166 165
-934.36587233152 -24.0195671243978 2334.14009808523 157 161 160
-933.579645853781 -24.0162389477342 2325.76396415986 167 171 170
-935.791291411443 -24.1878374021168 2317.35726870682 166 171 167
-934.00597864222 -24.1265373517593 2308.98297195777 154 159 155
-930.222270760871 -23.9489654565187 2300.60274948109 150 155 151
-923.442029713103 -23.5970709538341 2292.20011234017 146 151 147
-914.664844709203 -23.1291846801316 2283.75318212304 144 149 145
-905.88868069208 -22.6617396416506 2275.25654965313 145 150 146
-900.110482153183 -22.3692267394918 2266.73502246333 136 138 133
-893.334369421006 -22.0189189666751 2258.16933273952 135 137 132
-883.562945530781 -21.4946482964446 2249.5237570138 133 135 132
-863.80606414232 -20.3899128686252 2240.65811730002 122 124 121
-850.043712526499 -19.6345186308216 2231.79801290969 123 125 122
-843.272870656535 -19.286181157211 2223.0148792875 140 141 136
-822.961258918202 -18.6651048945141 2117.97689702591 95 98 91
-825.177814984907 -18.8411197872239 2109.38286462541 94 96 91
-832.381806577432 -19.3061738534658 2101.1023605 98 100 97
-838.58737863559 -19.7133135176343 2092.7975726644 98 100 97
-839.804829519791 -19.8315359315715 2084.19659835809 113 115 112
-833.043334293577 -19.4879481525191 2075.05239045164 110 112 111
-824.288120596409 -19.0292917045438 2065.72751039033 127 129 126
-812.542693326366 -18.3980251142925 2056.13138534355 123 125 122
-822.237637649376 -25.0233726368256 2569.65858432071 167 169 168
-806.43609057611 -24.1811652727231 2562.36486732313 173 177 176
-809.660994077001 -24.40346062563 2553.41959354652 183 187 188
-831.908145042897 -25.6892641134784 2542.97877817431 190 194 197
-844.141195106401 -26.414844133306 2533.42497352508 188 192 195
-851.367179571355 -26.8604252892848 2524.30582026889 180 184 185
-852.586459199811 -26.9703299067912 2515.6516280994 174 178 181
-858.809877441205 -27.3598229897782 2506.65897235192 177 181 184
-865.032723002162 -27.7492342656465 2497.69811156617 185 189 190
-878.260211211134 -28.5296280808475 2488.32752629024 190 194 195
-896.489597527533 -29.5889676290942 2478.72538384633 182 186 189
-905.710400515193 -30.1452482051014 2469.73927548643 187 191 194
-916.931453010683 -30.8129751306628 2460.69179789125 196 200 201
-918.145717823656 -30.9224043001293 2452.22478779438 190 194 193
-923.36179154295 -31.2550461211714 2443.5648510454 184 188 187
-927.576656848337 -31.5318563234553 2434.97806853938 182 186 185
-937.792800643087 -32.1431341252782 2426.14902824437 189 193 192
-939.005471745928 -32.2525816442423 2417.74428615808 187 191 190
-942.218426529451 -32.4735414943153 2409.26744360894 192 196 195
-942.430698569872 -32.5274210164869 2400.91326523697 155 159 158
-947.64318743136 -32.8598061678108 2392.3937127419 148 152 151
-947.855142076296 -32.9138337640875 2384.05178029444 138 142 141
-953.066375520023 -33.2461666426806 2375.57202521267 138 142 141
-950.278565139107 -33.1334482620778 2367.31653037275 152 156 155
-948.491089166921 -33.0765763937608 2359.0220244484 150 154 153
-939.706016195532 -32.6307521530522 2350.85037002605 143 147 146
-936.919844372969 -32.5187926057024 2342.5300198727 154 158 157
-936.133252626165 -32.5181730745702 2334.16525359278 164 168 167
-937.345583318703 -32.6287603571334 2325.77259213001 138 142 141
-933.560958689494 -32.4618634973814 2317.42606209282 144 149 145
-928.777414070879 -32.2397142530728 2309.06262480442 136 141 137
-923.994811955468 -32.017879084268 2300.67133878395 144 149 145
-921.211128651768 -31.9072647681423 2292.25228428702 138 143 139
-914.431477757197 -31.5750935910805 2283.8054045267 155 160 156
-905.654631682097 -31.1324498985957 2275.30879947012 139 144 140
-900.874877977941 -30.9118800845646 2266.79550424164 132 134 131
-894.098165941701 -30.5808364247571 2258.23255307577 129 131 128
-884.32591506612 -30.084074388232 2249.58976215039 134 136 133
-862.569832010571 -28.9235422840727 2240.69411088087 133 135 132
-844.811772724401 -27.9853051488918 2231.75445456033 126 128 125
-843.033978299767 -27.9328832440567 2223.06745740261 119 120 115
-818.729587959303 -27.1539240597536 2117.80864497829 130 133 126
-820.946581446444 -27.3243911084607 2109.20347351949 88 90 85
-829.148963530761 -27.8252198204146 2100.97216015394 102 104 101
-834.357703059899 -28.1607631119279 2092.5957535878 102 104 101
-835.575515488968 -28.2761633531295 2083.98367908727 103 108 104
-830.808744092935 -28.0616787676525 2074.96578122262 107 109 108
-822.052996263282 -27.627570454784 2065.63541901232 111 113 112
-813.298483467428 -27.1939409906821 2056.25627325187 132 134 131
-820.214980217842 -33.6414438173 2561.23197402693 161 163 160
-813.425673464203 -33.3232072143063 2553.14751681631 184 188 187
-830.667942419882 -34.2828864818817 2543.11486128422 187 191 192
-843.903098149094 -35.029220151063 2533.48117391714 196 200 201
-852.130908554639 -35.509205476018 2524.28773848128 178 182 181
-854.350941590301 -35.6699152510968 2515.5649227574 178 182 181
-859.573980363909 -35.9901568436162 2506.64608196796 177 181 182
-867.798916502582 -36.469748940712 2497.55608026804 169 173 172
-880.026387126966 -37.1616733446831 2488.25647623613 187 191 190
-894.253644883023 -37.9594980107644 2478.90087961599 172 176 177
-908.478977798091 -38.7569377698773 2469.62092573318 185 189 190
-919.700648184441 -39.3947671542892 2460.58140049978 178 182 181
-923.916536405509 -39.6608887069727 2451.96611555411 184 186 183
-926.130773286081 -39.8208956473098 2443.47058829995 173 175 172
-931.346334034113 -40.1400016480644 2434.84523396627 180 182 179
-943.563789409288 -40.8300699648487 2425.93905349165 190 192 189
-945.776342070242 -40.9899361156215 2417.50950254362 185 187 184
-949.989191986234 -41.2557739517112 2409.01326971858 184 186 183
-948.200722410966 -41.2038667176413 2400.75226660285 171 173 170
-950.41262929465 -41.3638610393737 2392.3478172475 156 158 155
-950.624371178905 -41.4180570641371 2384.01401937896 146 148 145
-952.836128023932 -41.5781646242124 2375.62463725572 145 147 144
-949.048275367177 -41.4210242409969 2367.39379396442 162 164 161
-945.260993120742 -41.2641107410524 2359.14041345206 151 155 154
-938.474788098671 -40.9489174768115 2350.9221373358 145 149 148
-937.687898554845 -40.9510545637133 2342.56605015098 142 146 145
-937.900692278449 -41.0061383109179 2334.19018958891 141 145 144
-938.113495056527 -41.0613219996362 2325.81386783713 131 135 134
-933.329103153905 -40.8527622031957 2317.47827882865 128 132 131
-927.545854797643 -40.5917203111109 2309.12032484821 141 145 144
-921.763450344088 -40.3310081232783 2300.72903421554 141 145 144
-917.980495193979 -40.1760568766802 2292.30442887231 141 145 144
-910.201169962136 -39.8105570082128 2283.8465844154 120 124 123
-899.425831745135 -39.287430774561 2275.32806766951 131 135 134
-894.646356012895 -39.0807949978346 2266.79827182771 139 141 140
-891.865390410152 -38.9797270112793 2258.2627500493 132 134 133
-886.088101336735 -38.7209918784662 2249.6694098308 127 129 128
-866.327980688056 -37.7260917013077 2240.81243899477 135 137 134
-850.565670673009 -36.9423981147511 2231.92237424953 127 129 126
-844.792566301697 -36.6850996711157 2223.16393876993 132 134 129
-806.51450606483 -35.2463204988386 2117.20145213888 122 123 117
-809.729976023539 -35.4637004771098 2108.62082683281 83 85 80
-817.933976633197 -35.942643637919 2100.35907969754 101 106 100
-826.136609937921 -36.4213696955875 2092.14167989606 99 104 98
-827.355300829239 -36.5340284984009 2083.50754038136 98 104 100
-826.578479383699 -36.5422264382023 2074.7421245724 110 114 113
-819.817315388768 -36.2371840481343 2065.54358392988 138 142 141
-818.044092530846 -36.1935822718424 2056.67776852184 132 137 133
-810.287024914763 -35.8369864594111 2047.34045884676 172 177 171
-825.422232782362 -42.6803511907202 2543.56868114652 66 71 67
-832.650971287442 -43.0886884971579 2534.3818800389 0 2 0
-842.882425821427 -43.6482322400778 2525.00999106329 35 40 36
-849.107991953675 -44.0057774657163 2515.97701623743 102 107 103
-857.334753309959 -44.4640310609076 2506.83859035029 185 190 186
-865.560665088125 -44.9220991214128 2497.74289292018 191 196 192
-876.788076534921 -45.5311216772114 2488.50059292214 165 170 166
-896.021039541445 -46.5427946634383 2478.83453938368 196 201 197
-906.244154662319 -47.1007334125215 2469.7903068805 193 198 194
-915.46500756021 -47.6080667366476 2460.8548036452 204 209 205
-919.68170901591 -47.8636195067153 2452.22840740591 195 197 192
-930.901714505087 -48.4711880501379 2443.2771190938 179 181 176
-938.118190426277 -48.877341050664 2434.57192758399 186 188 183
-951.336437195402 -49.5849096987523 2425.64072384708 198 200 195
-955.549427684162 -49.8399065066412 2417.15063721246 191 193 188
-957.761407983592 -49.9944092588672 2408.75853972805 174 176 171
-952.971249319661 -49.7974777301003 2400.62652540219 169 171 166
-950.182235231412 -49.7011917054654 2392.40043181645 166 168 163
-950.393972801556 -49.7556266578866 2384.06654601619 161 163 158
-949.605768753888 -49.7600096103367 2375.75942275776 168 170 165
-946.817705108661 -49.6642392040222 2367.49562893492 174 176 171
-940.030564985585 -49.3681937798438 2359.30266511757 166 170 169
-935.244146909554 -49.1727188825554 2351.032216428 171 175 174
-933.457472299304 -49.1277384317658 2342.68429762658 146 150 149
-933.670542260423 -49.183053271262 2334.29739261642 132 136 135
-936.882476712685 -49.3886166797124 2325.8769596608 129 133 132
-932.097535151881 -49.1939293637168 2317.53863320886 143 147 146
-927.313537657474 -48.9995340322482 2309.1724206494 122 126 125
-918.532450622109 -48.6054420434477 2300.78943593138 148 152 151
-916.748158371747 -48.5615941370931 2292.35651500186 135 139 138
-909.967485709343 -48.2681301735479 2283.89868385505 121 125 124
-902.18891221599 -47.9251006418017 2275.39665672507 116 120 119
-896.409559866387 -47.6822764304017 2266.86687256544 140 141 143
-889.632066432093 -47.3898870745678 2258.29295712791 145 147 146
-884.853373649064 -47.1976060967764 2249.70782305293 135 137 136
-867.089728061119 -46.3574008150842 2240.8812397036 133 135 132
-848.329583808893 -45.4681020246364 2231.93650240278 136 138 133
-837.562418171199 -44.9782264269056 2223.0628709742 143 146 139
-796.293323172794 -43.5040964879101 2116.70453092101 117 116 111
-800.507757342412 -43.7628912281521 2108.15394231001 75 76 71
-809.710485670877 -44.2694580643158 2099.92763303053 87 89 84
-816.916871831649 -44.6766942141048 2091.62494609676 84 89 83
-818.136035487919 -44.7865948307596 2082.9659660296 84 90 86
-821.350315146431 -44.9955659832611 2074.45021531637 100 106 104
-822.569027943441 -45.105534127879 2065.80878388465 160 164 163
-820.795214947445 -45.0671438096636 2056.95111266629 168 173 169
-816.029738852712 -44.8805903257538 2047.85259967398 181 186 180
-827.624804624049 -51.550656830921 2526.17661612053 2 7 3
-843.864047515587 -52.3693480799164 2516.38891407106 0 2 0
-857.097619250259 -53.0445200927821 2506.89354260377 0 4 0
-854.31208768887 -52.9567611280104 2498.52218410404 11 16 12
-862.53827525598 -53.3932582417543 2489.43886910792 0 2 0
-892.783917154552 -54.8772643778575 2479.06977424235 8 13 9
-906.010627904565 -55.5509849204162 2469.8441123003 0 2 0
-910.228270440119 -55.796030434059 2461.18289249473 10 15 11
-916.446936221619 -56.1361523931142 2452.43831504199 51 53 48
-926.667387605189 -56.6663433978472 2443.52798401123 88 90 85
-940.888786443601 -57.3864103191389 2434.48486446673 197 199 194
-955.108255415966 -58.1060534837425 2425.51762577013 217 219 214
-961.32226594774 -58.4452886947568 2416.9559437251 207 209 204
-961.533113292169 -58.4994978973303 2408.65709342253 205 207 202
-954.741807883432 -58.2215421489448 2400.60750009748 175 177 172
-951.952421709727 -58.1337022767059 2392.3868800724 161 163 158
-952.164015829914 -58.1883353636725 2384.0583880518 156 158 153
-951.37559226754 -58.1956420715692 2375.75670488511 147 149 144
-950.587084731754 -58.2030695845064 2367.44884919086 151 153 148
-946.79904958224 -58.0684965445109 2359.20090727367 164 168 167
-947.011117683066 -58.1235634162393 2350.85342468309 167 171 170
-939.224690032926 -57.8000347374027 2342.63742669469 150 154 153
-939.437339058859 -57.8554100667401 2334.26690834043 147 151 150
-939.649998360668 -57.9108894139538 2325.89587668297 174 178 177
-937.863339258153 -57.8718662312093 2317.54095532995 165 169 168
-931.079354425748 -57.5966959440694 2309.20225770822 162 166 165
-923.296948253951 -57.2746167674585 2300.82753005114 153 157 156
-920.51258054801 -57.1890507517969 2292.40832942886 152 156 155
-915.729867578786 -57.0092487863975 2283.96691915462 75 79 78
-908.949464798805 -56.7353472435583 2275.48686023538 114 118 117
-903.169169017755 -56.5089571595434 2266.97630294466 128 129 131
-895.391600212786 -56.1885709562253 2258.41069645003 129 131 130
-886.615924808032 -55.8214127886545 2249.78728699794 107 109 106
-866.852702733132 -54.9363995622514 2240.93354249803 103 105 102
-847.092271320849 -54.0522043134645 2231.96985095429 121 123 118
-836.324343050749 -53.5925590904316 2223.09356679396 143 146 139
-802.261220819342 -52.6269961714294 2108.32124580704 115 116 111
-805.477452261265 -52.8277616749375 2099.73802323065 54 55 50
-807.695519241228 -52.9817016818193 2091.10864141821 53 54 49
-805.922168720689 -52.9485211021532 2082.22730124089 87 89 84
-812.130534410131 -53.2895920551117 2073.88426811075 87 89 86
-818.33804795622 -53.6305074158807 2065.57470675769 85 87 84
-821.552110156595 -53.8311117877106 2057.07643866649 88 90 85
-819.778343941951 -53.7981468920243 2048.21111366998 131 134 127
-850.634978405672 -61.2999987700823 2515.94421674385 16 21 15
-842.843387255098 -60.9961733603376 2507.90887038693 15 20 14
-834.0516145933 -60.6477844621325 2499.8944445082 22 27 21
-848.286115364318 -61.3324396444575 2490.37727844786 23 28 22
-875.532164360916 -62.6001167607181 2480.1504572334 23 28 22
-882.755309653625 -62.9696406486156 2471.22393310076 5 10 4
-913.99850012037 -64.4152463153792 2461.01657781239 5 10 4
-901.201927332423 -63.887453208992 2453.27427247448 0 1 0
-923.433121672838 -64.9285041405139 2443.72921853592 0 1 0
-942.659243222891 -65.8344665133189 2434.44405673162 10 12 7
-955.879101769156 -66.4711691342523 2425.52594964263 0 1 0
-956.090272358219 -66.5256669580375 2417.21415592072 4 6 1
-957.301849441015 -66.6249650888972 2408.86306955894 85 87 82
-956.512669584784 -66.6348688380169 2400.58815647327 211 213 208
-952.722425740664 -66.5107706575829 2392.405966107 191 193 188
-947.932815146102 -66.3422121336571 2384.23139137239 163 165 160
-949.14480766225 -66.4418834480377 2375.86366774036 151 153 148
-951.356952910907 -66.586249383217 2367.47600760222 166 168 163
-952.568625203559 -66.6859779902322 2359.12073789729 165 170 166
-950.780233994158 -66.6519066393447 2350.82819638605 165 170 166
-943.99274748051 -66.3950252055216 2342.60671943568 150 155 151
-942.205525176696 -66.3613507120388 2334.2773917181 144 149 145
-943.417663105936 -66.4614771216766 2325.90349619246 163 168 164
-941.63057107365 -66.4280254856207 2317.55951293694 173 178 174
-936.845114747883 -66.2611731367617 2309.22074302725 160 165 161
-930.061162751981 -66.0055702992994 2300.85975202079 165 170 166
-928.27548969599 -65.9727065017865 2292.45967908028 163 168 164
-921.493155381475 -65.717673131196 2284.03485203165 17 22 18
-915.711074606195 -65.50739934684 2275.57675405767 24 29 25
-905.932788242008 -65.1197318765949 2267.05271359195 156 158 157
-898.15440346378 -64.8213167302344 2258.49540733017 152 154 153
-885.38134727968 -64.3013186499679 2249.82562194922 135 137 134
-868.613896029921 -63.6043901406718 2241.01863514643 138 140 137
-855.844748447662 -63.0855676843065 2232.19482577096 143 145 140
-843.077414294677 -62.5673067894222 2223.29953833593 168 171 164
-799.025004297067 -61.2599041964781 2108.20063626526 147 146 141
-801.243800324587 -61.4082877214129 2099.5487268711 76 75 71
-803.462305083354 -61.5566462189849 2090.90822814126 76 75 71
-804.682540078788 -61.6609689457419 2082.21336553685 93 92 88
-807.898194999983 -61.8533546020911 2073.66167302222 91 90 86
-813.10861197161 -62.1336924290485 2065.26965678049 92 93 88
-816.323258145879 -62.3259483223109 2056.75752891979 91 92 86
-850.179330047844 -69.8410315183348 2524.58182986215 16 19 12
-854.402838890453 -70.0658368902269 2515.71306676026 16 19 12
-856.623361162559 -70.2061835439399 2507.00231912097 20 23 16
-802.774640618362 -67.9848650230199 2501.99200427567 18 21 14
-844.043689602144 -69.7702040296706 2490.68418005963 21 24 17
