ply
format ascii 1.0
comment KinectMotionCapture
element vertex 780
property float x
property float y
property float z
property uchar red
property uchar green
property uchar blue
end_header
-1154.29574454638 -307.025926893667 2779.2168933948 15 18 9
-1130.90023443019 -305.147388886744 2787.05815266336 17 20 11
-1091.88302903572 -307.889435833188 2449.53009713992 28 28 16
-1077.48686727516 -306.715597378846 2459.16684150347 29 26 17
-1067.19426494424 -305.886508521877 2468.235430346 27 26 22
-1045.52789621183 -304.099574765656 2478.5424981574 22 28 18
-1067.21927935693 -305.961078352688 2483.86743502968 20 25 18
-1119.95245066744 -310.435761977552 2485.89664953052 22 25 18
-1114.82093735184 -310.039978754838 2494.37032388103 21 24 17
-1132.4549579219 -311.560573715221 2500.43251115328 18 21 14
-1130.42637366315 -311.425658440159 2508.57309341603 16 19 12
-1116.98859310649 -310.329544447419 2517.82179878915 14 17 10
-1101.45417618046 -309.056304576316 2527.19150205029 16 19 12
-1108.73372345737 -309.704473569531 2534.32728342288 15 18 11
-1145.10767025223 -312.804102305077 2538.83181255071 15 18 11
-1151.38156826552 -313.367859818111 2546.18342868323 15 18 11
-1136.85573187281 -312.178619480037 2555.34844049623 13 16 9
-1156.65933683424 -313.882697531695 2561.55645797726 11 14 7
-1166.06984606207 -314.710807000341 2568.69690862919 11 13 8
-1190.08376681011 -316.770371233326 2574.72728652444 11 13 8
-1183.87721879003 -316.282036224807 2583.16432045498 10 12 7
-1188.09713141661 -316.672907461931 2590.79261255174 9 11 6
-1182.9189265623 -316.270973166393 2599.09681383572 9 11 6
-1246.71787805309 -321.687763015987 2602.65031385142 6 8 3
-1240.52056138881 -321.200380127089 2611.12102087828 15 17 12
-1224.89137185659 -319.917045826595 2620.14522512184 3 5 0
-1131.70848506454 -312.157103860419 2649.25202908894 17 19 14
-1151.63466033775 -313.873689692502 2655.90815837919 14 15 9
-1154.7808085318 -314.174062348158 2663.50323004103 16 17 9
-1141.11292340277 -313.054743829508 2671.91225235908 18 19 11
-1111.64787005886 -310.600994928146 2680.9623546404 20 21 13
-1047.41095950379 -305.209504427325 2691.35303633172 19 20 12
-1118.93559748904 -311.286060355725 2695.89785361017 18 21 12
-1128.37879454639 -312.118982993193 2703.15569996114 18 21 12
-1080.88635007857 -308.140928626599 2712.47809058931 19 22 13
-1090.31061230137 -308.972419456063 2719.66746860184 21 24 15
-1090.24127356973 -309.001852370435 2727.18408584846 21 24 15
-1043.67495615484 -305.100622665129 2735.99925223207 20 23 14
-1074.23262317612 -307.719542812905 2742.59234910792 21 23 12
-1084.72476141262 -308.642699723433 2749.79234791229 19 22 13
-1105.81675893618 -310.462965667796 2756.8142391212 18 21 12
-1149.18450490295 -314.16816677808 2763.52326678108 16 19 10
-1170.34257725694 -315.995908444516 2770.78669012802 15 18 9
-1141.66125441381 -313.607367709073 2778.80821172266 17 20 11
-1172.35299143819 -316.282192093625 2793.65643000299 13 18 11
-1190.38350265711 -317.848007747772 2801.1621593657 18 23 16
-1072.41054225492 -313.874937656203 2443.59297877217 30 33 22
-1103.35556675239 -316.588839660896 2447.66704205825 29 29 17
-1101.336635338 -316.446022090798 2455.84752351309 30 27 18
-1075.57384300851 -314.24457349699 2466.7932869136 26 25 21
-1034.28009480264 -310.695920308197 2479.37566046034 21 26 19
-1050.80272288175 -312.15910457532 2485.24496075371 22 27 20
-1107.68002490524 -317.121753884748 2486.76623381683 22 25 18
-1121.1652575616 -318.322067411821 2493.21413321793 20 23 16
-1118.0956431904 -318.08651060463 2501.44850586598 16 19 12
-1118.12758421869 -318.119807936471 2509.33964424252 15 18 11
-1116.08238426314 -317.972681417675 2517.42531619715 15 18 11
-1080.82150349667 -314.943303598583 2528.69892050193 16 19 12
-1091.2038170601 -315.873738772737 2535.4856376831 15 18 11
-1154.59801366967 -321.404884940981 2537.46416356166 15 18 11
-1154.63950612924 -321.43847821403 2545.39057768876 15 18 11
-1116.18272915942 -318.159458360605 2564.43858762444 12 15 8
-1138.07236190409 -320.089244261398 2570.45740554828 9 14 8
-1189.18780909843 -324.557080825193 2574.2772911155 9 14 8
-1153.75807886461 -321.510138779193 2584.935079575 8 13 7
-1167.35553099596 -322.720542729354 2591.7932573274 7 12 6
-1187.23820302972 -324.477039449925 2598.26266997034 7 12 6
-1248.97134591364 -329.869537170992 2601.95513408551 10 15 9
-1221.84419487794 -327.543057054049 2611.81055975936 2 7 1
-1226.08944351778 -327.941934833383 2619.52693557354 18 23 17
-1188.42513745761 -324.698967435624 2629.80551189082 127 132 126
-1164.33712190176 -322.63527761011 2639.08977876146 15 20 14
-1152.80413341449 -321.662452896638 2647.54012459396 13 15 10
-1147.55214752665 -321.235522033395 2655.58617288538 13 14 8
-1156.9991601054 -322.086396309767 2662.84778081698 16 17 11
-1108.63091192518 -317.910814748062 2672.93858360593 18 19 13
-1082.2876726886 -315.649513135763 2681.76704946745 20 21 15
-1039.06104068879 -311.919607112719 2691.18375825733 20 21 15
-1051.60899870559 -313.040124341905 2698.09844021193 18 21 14
-1073.65897687377 -314.987646262361 2704.70139167211 17 20 13
-1052.48394484863 -313.175377269208 2712.95144231373 19 22 15
-1037.61113211665 -311.911174247978 2720.87552649833 21 24 17
-1037.50448035473 -311.931850848643 2728.26006507728 21 24 17
-1090.24904882917 -316.552278430852 2734.13590029333 20 23 14
-1101.80817439623 -317.589347099668 2741.32824660463 22 24 13
-1096.44377344948 -317.153812256412 2748.96328094013 19 22 13
-1138.7345044966 -320.86726598426 2755.56467340612 18 21 12
-1187.43891168575 -325.140405364663 2762.24658079187 16 19 10
-1141.80889284812 -321.200257524429 2770.66536174958 15 18 9
-1158.73467337838 -322.707584431381 2778.0036187264 14 17 8
-1208.56864611016 -327.151836814401 2800.46123996637 14 19 12
-1097.26705927776 -323.746338801795 2440.02619682858 28 30 17
-1058.12823093814 -320.281731938073 2452.76273324512 28 28 16
-1131.39415164435 -326.84488974209 2451.77548685875 28 25 16
-1105.6406249499 -324.573864463969 2462.79957882222 23 23 21
-1062.28393490087 -320.731127901336 2475.70096324626 19 26 19
-1078.83069499474 -322.233611518256 2481.63504942853 17 22 15
-1114.02057147653 -325.399990747218 2485.59753517257 19 22 15
-1108.8777065482 -324.966617357624 2494.05279567338 18 21 14
-1109.94073294258 -325.086863617192 2501.8209365416 17 20 13
-1098.56098305763 -324.096062081331 2510.85157689511 17 20 13
-1119.32462174265 -325.974879332106 2516.61736986345 18 21 14
-1120.38768190808 -326.094782899095 2524.38585247513 16 19 12
-1114.17695509617 -325.564834919068 2532.83364362237 14 17 10
-1144.34140966066 -328.28338726668 2537.90391715855 14 17 10
-1167.26188197209 -330.355368970395 2543.76301596202 14 17 10
-1124.62413384591 -326.571394383182 2555.40027121749 12 15 8
-1134.03005236951 -327.460282720206 2570.27794565716 8 13 7
-1145.51864517187 -328.510978990493 2577.20074290555 8 13 7
-1175.81070976111 -331.24203004844 2582.73598739881 8 13 7
-1154.95412334879 -329.402650618734 2592.1864093201 8 13 7
-1219.78406051853 -335.221089187605 2595.41785673499 7 12 6
-1210.42959827804 -334.409732943983 2604.06113101235 4 9 3
-1207.33969338096 -334.158261470311 2612.23114562441 12 17 11
-1202.14765672579 -333.718796760117 2620.50768688182 60 65 59
-1120.4070047757 -326.459514364826 2641.12529487149 0 2 0
-1173.91511257395 -331.26852171542 2645.82062216948 10 15 9
-1157.12030828041 -329.791293053481 2654.53586239216 12 13 7
-1104.52113862772 -325.136111671095 2672.60158658429 19 20 14
-1079.21610046375 -322.897017095013 2681.37434880215 19 20 14
-1117.06572299878 -326.307554941192 2687.26423158574 20 21 15
-1029.54855267592 -318.502517428043 2698.46921041023 18 21 14
-1061.08216379417 -321.348562484865 2704.64608127661 18 21 14
-1041.99972131109 -319.665878859279 2712.79105256575 19 22 15
-1041.89769387993 -319.681826407877 2720.19481703186 21 24 17
-1058.70073490032 -321.211004107982 2727.06357081796 21 24 17
-1088.21357925338 -323.878581728939 2733.64304650933 20 23 14
-1135.75260331373 -328.160498051598 2739.88889382913 22 23 15
-1142.05575642327 -328.751727649433 2747.33178396402 20 23 14
-1169.5571878421 -331.24157305343 2754.34812924273 18 21 12
-1169.52404974524 -331.266592696224 2762.00286768227 16 19 10
-1194.95325641334 -333.572199727526 2769.23533686106 15 18 9
-1148.21438944496 -329.414980313781 2777.57147907205 13 16 7
-1135.40875600957 -328.296717814288 2785.28581485493 16 19 10
-1179.99555828536 -332.320292508204 2792.42270584124 16 21 14
-1127.29547491448 -334.211846549162 2435.80311300099 28 29 15
-1043.80864164452 -326.573680923715 2454.07301941319 27 27 15
-1075.80479016999 -329.530854636997 2457.99979079492 28 25 16
-1126.43383999012 -334.198118116853 2459.88879955081 21 23 20
-1101.67776688676 -331.947302245741 2470.70716165656 18 25 18
-1090.33026405521 -330.926667967095 2479.87636383111 18 23 16
-1094.4893415659 -331.328923662181 2487.27067049268 20 23 16
-1099.68673616432 -331.826358768306 2494.56363331469 20 23 16
-1094.5234348025 -331.372490292069 2502.95688589066 19 22 15
-1111.13076987406 -332.917036772554 2509.08838978021 17 20 13
-1124.6440232414 -334.177664233246 2515.60224552902 15 18 11
-1090.39733092312 -331.052876676817 2526.80524909555 17 20 13
-1111.18408469974 -332.981042550696 2532.62570773136 15 18 11
-1133.03630605428 -335.007239093454 2538.44382684142 15 18 11
-1160.11904455151 -337.514001499583 2543.89589587678 15 18 11
-1171.61423188977 -338.589368611427 2550.8266724441 12 15 8
-1146.64603676837 -336.315348396416 2560.87211707965 11 14 7
-1131.02648818938 -334.899746513882 2570.01562311997 8 13 7
-1160.25694962469 -337.604165250272 2575.52433585418 8 13 7
-1173.86003844567 -338.873095902644 2582.36556181205 8 13 7
-1170.75799091699 -338.607395933246 2590.49947634023 8 13 7
-1249.29508765969 -345.86282849016 2600.85243762589 8 13 7
-1236.80463905812 -344.734856204326 2609.74219415043 1 6 0
-1141.49008521271 -336.052729229985 2647.10296604041 0 3 0
-1187.70932348791 -340.321066414649 2652.35452997461 12 13 7
-1144.61524973512 -336.37912288366 2662.39727093719 15 16 10
-1054.11220472601 -328.077904852219 2674.51943484634 18 19 13
-1049.81975498151 -327.702548315294 2682.19824203755 19 20 14
-1100.30528080953 -332.364429039678 2687.45409311493 20 21 15
-1090.7608001981 -331.506841473356 2695.421983483 20 23 16
-1056.93530668117 -328.416135796769 2704.27004872474 19 22 15
-1065.29055534297 -329.204814885244 2711.41373838255 19 22 15
-1072.59767421144 -329.897417876898 2718.62383437023 21 24 17
-1098.94090318122 -332.341479868726 2725.26615561355 20 23 16
-1118.96969114394 -334.205395567593 2732.21024934335 18 21 12
-1137.96412363627 -335.974590036254 2739.27010635004 23 24 16
-1146.38846733435 -336.771953507564 2746.66484947062 20 23 14
-1161.18146779868 -338.155733595207 2753.95515383867 18 21 12
-1170.65130485326 -339.07385726406 2769.05261662066 14 17 8
-1161.05263748174 -338.214212538045 2776.81969192924 14 17 8
-1139.74668049227 -336.277456769773 2784.66316729428 15 18 9
-1125.38099582516 -341.811571882079 2435.58684882077 26 28 15
-1135.75649335546 -342.806732977131 2442.30832387131 21 23 10
-1119.29692689994 -341.271113169084 2452.30510159454 23 23 13
-1136.90936208004 -342.948300323582 2458.1882824308 25 25 23
-1092.50349445731 -338.776221312203 2471.2994551445 19 26 19
-1068.72709320936 -336.549219408268 2481.84379156243 20 23 16
-1077.01283704099 -337.346034506588 2488.72428675774 21 22 16
-1087.37932626594 -338.338991281165 2495.41277840614 20 21 15
-1107.08846230352 -340.213075016604 2501.163647622 19 20 14
-1129.93439659646 -342.383130558017 2506.68408268499 19 20 14
-1096.74793575678 -339.281557932618 2525.7051816239 17 18 12
-1104.02894411562 -339.982867691625 2532.81283740976 19 20 14
-1119.64044134901 -341.470197213569 2539.18036378412 18 19 13
-1143.59953280166 -343.745293751431 2544.87016641527 15 16 10
-1159.25348972191 -345.236725218726 2551.39274753154 12 13 7
-1145.73379705914 -343.975002252666 2560.4428151675 11 14 7
-1147.84185177728 -344.188077588849 2568.1350845558 11 16 10
-1173.96162878372 -346.667413091005 2573.9255026068 8 13 7
-1214.73993494372 -350.530438134916 2578.71437580204 7 12 6
-1201.20907767648 -349.267590088709 2587.72277274406 7 12 6
-1160.45678381752 -345.435181663926 2598.59828797568 4 9 3
-1301.79826282215 -358.791711918774 2596.69018233389 8 13 7
-1271.52847897931 -355.949080036226 2606.89431873587 11 16 10
-1064.71304542902 -336.523652514835 2673.47640520872 18 19 13
-1024.61318570072 -332.75120299488 2682.83917617352 15 16 10
-1080.36934679073 -338.0318382121 2687.78975380137 25 26 20
-1081.35331156735 -338.139878981699 2695.27206028594 21 24 17
-1076.00350356174 -337.649875811821 2702.99473477923 21 24 17
-1080.1489418452 -338.057139431194 2710.33523992206 21 24 17
-1089.58125217936 -338.964021948309 2717.50690062994 21 24 17
-1108.54160593556 -340.771444509376 2724.41609475233 22 25 18
-1129.64117739557 -342.781431900181 2731.34725533611 23 26 17
-1125.35083936627 -342.393098226233 2739.04302501943 24 25 17
-1119.99231267667 -341.904108520831 2746.73268889949 22 25 16
-1134.77173680421 -343.318378786624 2753.95333708759 20 23 14
-1115.61216340819 -341.525914459709 2761.881246202 16 19 10
-1179.24746098124 -347.558357734677 2768.33568936029 16 19 10
-1147.33607554969 -344.561510987436 2776.43763536258 17 20 11
-1135.58101158048 -343.469940472543 2784.13842833887 8 11 2
-1137.63921379406 -343.684413150548 2791.64472294006 21 26 19
-1120.31438269011 -349.077767551609 2427.77422228349 29 26 19
-1126.55861993441 -349.694128051856 2434.98250302176 19 22 11
-1116.29247345315 -348.711494248759 2444.2462574897 25 27 14
-1107.04203598538 -347.82684802407 2453.3220268171 27 27 17
-1069.86657336626 -344.237547835215 2465.63331039134 22 23 18
-1076.08053753283 -344.849887205245 2472.73173185648 18 23 16
-1074.01930393499 -344.660643138195 2480.78446485486 20 23 16
-1074.02357111033 -344.671157042744 2488.5872399026 21 22 16
-1080.24403642419 -345.283670638982 2495.70968885615 20 21 15
-1111.36406529 -348.307742310405 2500.23768417198 17 18 12
-1130.06805046136 -350.12925086221 2506.18706785114 17 18 12
-1075.04907858254 -344.809312467299 2519.58362478503 16 17 11
-1079.19621783944 -345.220361466305 2526.92898444082 14 15 9
-1129.11083136821 -350.065013195415 2529.94975800272 16 17 11
-1140.58069286611 -351.185455121696 2536.75804681039 16 17 11
-1118.73402494125 -349.078150104291 2546.59796470055 15 16 10
-1146.88238127614 -351.814314203138 2551.9643822855 15 16 10
-1132.30459685803 -350.410991261043 2561.07168181052 14 17 10
-1160.49447545705 -353.151213791072 2566.59063016556 12 17 11
-1188.72012655787 -355.895104321408 2572.23915000273 10 15 9
-1186.67320558013 -355.705898121303 2580.34499904713 8 13 7
-1194.03259100948 -356.428114691037 2587.73045406852 7 12 6
-1243.26057789388 -361.207574982555 2592.13939632011 7 12 6
-1254.85167747817 -362.340016875311 2599.39024222991 0 2 0
-1108.96897916477 -348.288493546718 2678.39466525572 16 17 11
-1067.79819988609 -344.307799958406 2687.80911661182 28 29 23
-1084.59927535027 -345.946853081304 2694.60120308302 19 22 15
-1086.56533536142 -346.158956445874 2709.56045739742 20 23 16
-1113.9774606059 -348.827715855266 2716.13226941758 21 24 17
-1109.68493539446 -348.423185697713 2723.83014413416 21 24 17
-1136.08523811765 -350.994638086513 2730.60394141003 22 25 16
-1145.56825050062 -351.926505225641 2737.9480749054 24 25 17
-1066.01301219584 -344.225164110934 2747.47625722032 22 25 16
-1080.76025332919 -345.667888134794 2754.55945204542 20 23 14
-1147.53935013417 -352.156887625621 2760.70714069249 15 18 9
-1160.18213078194 -353.411325252697 2775.6828999537 9 12 3
-1118.64742200871 -349.397841790043 2783.76685423483 17 20 11
-1147.30297089684 -352.192325779913 2790.98048725933 16 21 14
-1131.80243081569 -357.973464688111 2425.84482499105 24 23 18
-1114.32115494718 -356.242808978344 2436.06858077831 18 24 14
-1111.26957996017 -355.945795481362 2444.40873066088 26 28 17
-1084.44325537953 -353.285911580918 2455.5924887195 26 26 16
-1056.54261716827 -350.518828859696 2466.75153093514 21 20 16
-1067.92215576995 -351.655108201644 2473.2144696168 18 21 12
-1084.49172533898 -353.307072024818 2479.13886893297 18 21 14
-1082.42934949952 -353.107240134295 2487.19404560957 19 20 14
-1083.47185225631 -353.215689673185 2494.89250504331 18 19 13
-1077.24901026888 -352.601972770142 2503.34913125351 16 17 11
-1081.3983004577 -353.018866738443 2510.69785766785 15 16 10
-1073.08129381432 -352.196704467826 2519.30350321695 15 16 10
-1083.46583896496 -353.233059610007 2526.03256254374 14 15 9
-1101.1453930006 -354.994492102623 2532.11175443949 16 17 11
-1166.74195827999 -361.518588078154 2533.84770624132 16 17 11
-1139.69377072936 -358.83425057421 2544.22224027891 15 16 10
-1132.41550428161 -358.114826280548 2552.72334082235 15 16 10
-1135.55777760027 -358.43109867734 2560.29398756712 16 17 11
-1168.97979536575 -361.757252997373 2565.38452752871 9 14 8
-1159.60772296862 -360.829605258587 2574.03676813056 11 16 10
-1162.76620313972 -361.147629388973 2581.66555276661 8 13 7
-1164.8795036127 -361.361658021278 2589.37669675323 8 13 7
-1201.54139871544 -365.009981194678 2594.60390456832 8 13 7
-1209.1565980648 -365.803022004191 2657.4466332885 22 23 17
-1158.61801171765 -360.783773575737 2667.80561272253 20 21 15
-1087.98054058217 -353.76636739138 2678.83856584997 22 23 17
-1093.18905396726 -354.289581392276 2686.15653510305 18 19 13
-1097.34615387578 -354.708598825028 2693.53384585417 19 22 15
-1107.84360028255 -355.758235489971 2700.67277113622 19 22 15
-1121.52297963058 -357.124552543736 2707.73669321542 20 23 16
-1128.87218379393 -357.861881722635 2715.07480588131 21 24 17
-1128.82030350452 -357.863641865945 2722.67371404114 21 24 17
-1139.35592613021 -358.918394135106 2729.9520794395 21 24 15
-1111.75112867606 -356.181061895264 2738.29348809985 23 25 14
-1097.89258441132 -354.81094490738 2746.15390046172 22 25 16
-1085.07401513534 -353.544452532522 2753.91286356467 20 23 14
-1088.16421047703 -353.860420724257 2761.29034704712 15 18 9
-1130.57357984868 -358.086986053178 2768.0082685564 14 17 8
-1158.09571246249 -360.843880308079 2782.72644244142 19 22 13
-1132.48365032588 -358.307248507425 2790.54713425126 11 16 9
-1133.94954993438 -365.967302440534 2417.0798766054 41 30 10
-1112.39649741485 -363.773654908348 2435.85801288324 20 31 23
-1114.50574886693 -363.98958367336 2443.55292400449 16 22 12
-1107.31101601196 -363.257233796463 2452.37232894236 17 17 9
-1090.79313019835 -361.574438956685 2462.24549692963 19 16 11
-1084.60106592649 -360.943651910058 2470.82624293799 15 17 6
-1102.22274415405 -362.739816418759 2476.66955434749 14 15 7
-1111.57284151483 -363.692646334187 2483.50696561659 14 15 9
-1120.93272864408 -364.646377419661 2490.38015542568 15 16 10
-1090.85698444444 -361.58090394019 2501.44448448799 16 17 11
-1101.24800424541 -362.639381474235 2508.18361600233 16 17 11
-1100.21614378628 -362.533537856344 2516.10923465134 16 17 11
-1098.1396836783 -362.321159201125 2524.12004056975 17 18 12
-1088.77106918851 -361.365656482301 2532.80177685748 16 17 11
-1137.71695091537 -366.352855873452 2536.03216235804 15 16 10
-1159.62608506887 -368.584589267715 2541.93275135048 13 14 8
-1150.29407479011 -367.631613814929 2558.54236610701 13 14 8
-1144.04722402394 -366.993855006216 2566.92410220546 12 14 9
-1160.78274798589 -368.698227961135 2573.43156927425 17 19 14
-1145.12245753704 -367.100193677952 2590.33255679529 9 11 6
-1174.45198806978 -370.08814283451 2596.02915838446 12 14 9
-1057.48517328939 -358.165103331539 2679.73608515588 17 18 10
-1101.71529670775 -362.673107666968 2685.24378295881 20 21 13
-1120.66104964159 -364.604772311456 2692.02032714216 18 21 12
-1124.83685793938 -365.031556803213 2699.46219476146 19 22 13
-1127.95820958636 -365.351128377287 2706.95308051199 21 24 15
-1089.81776425545 -361.466179382485 2715.8682295875 21 24 15
-1102.44296708435 -362.754892311521 2722.9635164301 21 24 15
-1124.61766017635 -365.017158487311 2729.82986789072 20 23 14
-1131.97679922203 -365.770020517375 2737.19506019846 23 25 14
-1096.9077296672 -362.199414003446 2745.62527599557 23 26 17
-1102.12961991434 -362.735266253129 2752.98493178697 21 24 15
-1075.48602072473 -360.023951034096 2760.98326406712 16 19 10
-1113.64938176025 -363.917886203647 2767.73280464814 15 18 9
-1151.86106326897 -367.817359247957 2774.65918237384 16 19 10
-1149.67199170368 -367.599812744921 2782.2551467311 14 17 8
-1194.34495512424 -372.158975972304 2789.37472362171 9 14 7
-1083.56636984758 -368.485248115605 2423.25725924545 36 29 11
-1103.20217738479 -370.532699655665 2428.62641875549 13 22 21
-1119.76387536643 -372.258560572179 2434.47493765434 12 25 18
-1133.24508606827 -373.662497614243 2440.77934709903 12 18 8
-1103.30780246367 -370.531356111468 2452.39921256533 15 15 7
-1084.70933120745 -368.584273748233 2462.50800168554 19 14 10
-1106.46963647091 -370.852221116395 2467.83222554912 16 16 4
-1112.71238329163 -371.499256496729 2475.01560612332 15 16 8
-1142.81179745473 -374.637526855678 2479.57940941688 16 17 11
-1136.62949264152 -373.986552739377 2488.20913544137 16 17 11
-1108.62818853614 -371.056826147685 2499.09710974745 18 19 13
-1130.464657522 -373.331733706152 2504.69972028481 17 18 12
-1144.00899931945 -374.740430453393 2511.23551808549 17 18 12
-1130.51370152449 -373.325328543126 2520.47299452028 16 17 11
-1143.09707949053 -374.615278042952 2550.79106446642 13 14 8
-1124.31876629068 -372.648435855693 2560.24461101642 14 15 9
-1139.99215658381 -374.278912850448 2566.75248739293 11 12 7
-1146.27413622643 -374.928803340094 2574.07880015636 16 17 12
-1161.97816249338 -376.562412036431 2580.69751568425 4 5 0
-1168.27742877906 -377.214020117781 2588.08785499032 13 14 9
-1038.66816406571 -363.629735482144 2672.66515594663 11 13 2
-1112.41004927169 -371.323503300214 2676.62758487093 15 17 6
-1111.3026679967 -371.203784113553 2684.28156984006 23 25 14
-1107.02207805216 -370.753208118804 2692.05282879445 19 22 11
-1129.15814691736 -373.060397477693 2698.74741392502 20 23 12
-1082.5693753423 -368.194067160338 2708.08852641563 22 25 14
-1060.25890390744 -365.862247953285 2716.34817928206 23 26 15
-1076.04504143687 -367.507663883101 2723.26430336508 21 24 13
-1084.43069193269 -368.380847581568 2730.46751728712 21 24 13
-1084.24706563431 -368.358616946813 2745.38599464946 23 26 17
-1061.73491178753 -366.0071960087 2760.70278554693 19 22 13
-1120.10707700306 -372.100269479778 2767.06050201965 18 21 12
-1087.03837180572 -368.64887086211 2775.04977622175 16 19 10
-1142.30599785515 -374.418798430614 2781.77485482512 15 18 9
-1073.37886782416 -375.041491949953 2424.15703211217 30 22 3
-1075.46273495455 -375.255640219265 2431.75882033397 17 14 9
-1128.16898397468 -380.885079771476 2432.95902520697 13 17 20
-1148.89656092771 -383.093211702105 2438.38301598332 7 20 11
-1095.16217043998 -377.335452191111 2452.92999782194 7 21 6
-1068.26732979576 -374.448817823711 2464.00159851705 13 21 8
-1090.02274214648 -376.76617437095 2469.27739060806 18 20 15
-1128.39244581823 -380.86038283746 2472.77027849584 20 20 18
-1120.1286723345 -379.966219315009 2481.6190261544 20 21 13
-1129.49838957169 -380.957942261686 2488.50472715537 19 22 13
-1105.63538197975 -378.395172062048 2498.93856869416 18 21 12
-1123.31813248003 -380.275749087288 2504.95533583857 17 20 11
-1131.65994969767 -381.157149519064 2511.99061777456 14 17 10
-1151.46082218379 -383.263781523252 2517.93526764117 11 14 7
-1133.78480483881 -381.362547718137 2527.54368057409 13 16 9
-1078.55497022365 -375.445583719173 2540.53427620766 11 16 9
-1121.29976141553 -380.005367742789 2544.3908559707 13 15 10
-1135.91636840406 -381.557303694708 2550.92101014815 14 16 11
-1130.70362271357 -380.988877709323 2559.20208221423 13 18 14
-1109.80158490738 -378.742938451654 2568.74043261 12 18 18
-1145.35114092409 -382.53291284682 2573.64463262959 10 14 13
-1205.02024418624 -388.901309960987 2576.85023115056 17 19 16
-1210.30241368276 -389.454878356473 2584.42250693349 41 38 31
-1088.29744900436 -376.310672482449 2669.67914009077 16 18 7
-1084.00994687431 -375.84351969598 2677.43427215112 16 18 7
-1132.51241785883 -381.01837519779 2682.7971336339 14 16 5
-1100.76908893169 -377.617428952468 2691.77909678967 19 22 11
-1071.09498334171 -374.4382109402 2700.51012324974 20 23 12
-1063.59841217396 -373.629244617364 2708.25723330405 23 26 15
-1061.38330784799 -373.385234139078 2715.77325109175 23 26 15
-1060.22195695459 -373.25407412089 2723.23408058753 22 25 14
-1074.96035187869 -374.822283441878 2730.20520632417 21 24 13
-1069.55732365588 -374.23866676575 2737.78938724899 23 25 14
-1112.90384634252 -378.858943750139 2751.63545581827 23 26 17
-1153.10554309557 -383.140459511953 2773.50180911059 20 23 14
-1090.01686673357 -384.477229687562 2421.52397938683 19 7 0
-1097.27528250204 -385.258243613748 2428.49743227407 32 23 14
-1123.14397971412 -388.077032318247 2433.14132727758 19 18 23
-1138.70311195735 -389.766322356497 2439.18692540951 7 23 13
-1114.95298231076 -387.150926663787 2450.07308561725 6 23 5
-1101.52317912315 -385.665588197732 2459.59807437692 11 22 6
-1094.28999162604 -384.85866244565 2468.32178806897 17 19 16
-1124.37914363204 -388.137959662708 2472.75752398663 19 17 18
-1138.93928813821 -389.716696656509 2479.06112325863 18 19 11
-1105.7448299082 -386.067124532703 2490.60493785889 17 20 11
-1114.07082426508 -386.963042861425 2497.57230677398 15 18 9
-1083.92698338369 -383.647775134652 2508.54244223692 13 16 7
-1081.83667893185 -383.403352421658 2516.52207776056 11 14 7
-1084.94722161676 -383.72808595514 2523.9695729625 15 18 11
-1106.81683838409 -386.106069887013 2529.63017768965 13 18 11
-1108.90002616976 -386.318175529278 2537.2307332454 12 17 10
-1140.20174604824 -389.727882160198 2542.18984195562 12 17 11
-1139.17188088092 -389.59910498331 2550.13734778061 12 17 11
-1109.92398717534 -386.382530911759 2560.47440009245 11 17 13
-1091.08968069696 -384.305695441999 2569.789498574 8 18 19
-1140.24109785749 -389.668008385216 2573.5470988191 8 17 16
-1079.94146174129 -382.891196493894 2669.5691402493 7 7 0
-1157.98672441714 -391.412182238195 2673.4006936274 10 10 2
-1129.44071311828 -388.277063374542 2682.39595081188 20 21 13
-1105.08155055071 -385.600248676955 2691.06059691811 19 20 12
-1074.34004339669 -382.226075375146 2699.847975524 20 21 13
-1066.84149201584 -381.393831239101 2707.60242982782 22 25 14
-1075.21869891133 -382.297809910353 2714.75485198306 21 27 15
-1074.06488855091 -382.160070127497 2722.24783211888 20 26 14
-1062.30019741147 -380.862546545016 2730.04290928404 20 26 14
-1085.54231338261 -383.39272943264 2736.80692371519 21 24 15
-1124.74444474296 -387.667782322042 2743.27627675804 21 24 15
-1151.12693274535 -390.522767236782 2765.39206345535 18 21 14
-1115.9219411834 -386.665920635203 2773.49834448653 9 12 5
-1155.26270464835 -390.957880652989 2780.47266610931 17 20 13
-1112.54338916122 -386.281033944204 2788.47354104873 27 29 24
-1120.13706185269 -395.482403635504 2425.09450759288 35 23 11
-1134.70895572877 -397.075978733683 2439.22500273871 17 25 14
-1133.72255050632 -396.945527014673 2447.33492403929 13 24 7
-1124.44310707177 -395.886024814844 2456.41432382847 17 21 4
-1143.14066713219 -397.96020430901 2462.17940010195 21 18 11
-1141.11125084501 -397.712483431675 2470.38718373553 22 17 14
-1144.26677797735 -398.045423493759 2477.99651620151 18 19 11
-1118.33404994165 -395.120437461554 2488.76814529229 17 20 11
-1132.90810372216 -396.731854315955 2495.10182559813 18 21 12
-1137.09543731578 -397.179901172077 2502.57306043818 13 16 7
-1097.56118360789 -392.732359394087 2514.46203361115 12 15 8
-1090.26469121212 -391.89470958715 2522.9691771592 17 20 13
-1126.73948530795 -395.957760943571 2527.23987794296 13 18 11
-1161.17479107827 -399.791894052858 2531.87645509123 11 16 9
-1147.63394458352 -398.254778323301 2541.02185126899 11 16 10
-1125.7148344044 -395.780069714307 2550.8238356388 11 16 10
-1130.9412859354 -396.344300038781 2558.18343917486 8 17 12
-1133.03387364554 -396.557550595662 2565.8181719687 4 20 20
-1146.47754491531 -397.781668426586 2673.40756644357 23 23 13
-1079.8676935971 -390.314490537044 2684.09203430979 15 17 6
-1062.86711179679 -388.395869407879 2692.32193507775 18 20 9
-1098.75057513997 -392.391009507623 2698.33726569363 20 22 11
-1081.73424600111 -390.47131808323 2706.50937540831 23 26 15
-1082.70590576136 -390.563429213974 2713.95512389635 21 27 15
-1082.61560857841 -390.537126933079 2721.430043828 19 25 15
-1085.7057050095 -390.866774320964 2728.79852374644 19 25 15
-1104.72390100592 -392.977401532438 2735.73104722671 20 23 14
-1121.63994001536 -394.853248946515 2742.8004712901 20 23 14
-1122.47134066222 -394.903767655318 2765.33793501744 17 20 11
-1120.25810104069 -394.643278351211 2772.87127995518 18 21 14
-1114.8410642921 -394.025287973042 2780.42515172535 17 20 13
-1189.42172965174 -402.348331607919 2787.10544417851 12 15 8
-1103.73892085541 -401.317302783507 2426.76966580199 31 17 4
-1127.55997625826 -404.022051872058 2431.67663652918 28 20 17
-1133.81555559175 -404.71389619297 2438.87937168887 20 24 10
-1124.54077559399 -403.626562905815 2447.99272797387 17 24 6
-1123.54152388243 -403.487000262006 2456.06070493919 20 21 3
-1100.75738698762 -400.852302441686 2466.64927287354 23 19 10
-1130.8705543394 -404.275796425872 2471.08406379575 23 18 14
-1129.86427240815 -404.135016337272 2479.12670756416 20 21 13
-1136.12864682929 -404.826664759707 2486.36222084059 18 21 12
-1110.15783695562 -401.827261501771 2497.03944267135 18 21 12
-1113.28889806542 -402.160144733102 2504.55797347082 17 20 11
-1115.37981527696 -402.373837518823 2512.18622483065 17 20 13
-1119.55499126053 -402.82601672349 2519.60878287638 13 16 9
-1146.67622512848 -405.904728377652 2524.84267886506 8 13 6
-1165.48283538694 -408.031147819038 2530.97965558273 9 14 7
-1134.18492719606 -404.422923256506 2541.74624331043 11 16 10
-1139.4172697144 -404.995799528568 2549.12133130668 13 18 12
-1143.60808824046 -405.449383506646 2556.60108014642 8 19 15
-1169.77714945502 -408.41780816841 2562.2656955115 48 72 72
-1067.3457970218 -396.358412815805 2676.64718172167 12 12 0
-1157.08706188138 -406.570681263414 2687.76716999134 17 19 8
-1112.59297453089 -401.463137880911 2697.24415397147 19 21 10
-1092.40024666027 -399.133716170769 2705.57149018042 22 25 16
-1081.7176744749 -397.891900013298 2713.45277179639 23 26 17
-1098.59721980971 -399.799919580565 2720.36639018518 18 24 14
-1103.82090113416 -400.376357687507 2727.70707211001 16 22 12
-1114.359831282 -401.560477711475 2734.91511263946 20 23 12
-1112.15533744683 -401.289049394509 2742.48876431041 19 22 11
-1090.80082672566 -398.830412733967 2750.48052843795 18 21 10
-1132.20908606477 -403.5420976969 2757.07249487482 17 20 9
-1136.39461349184 -404.002059466766 2764.52857229718 17 20 11
-1172.55500245174 -408.114779428638 2771.49783968246 12 15 6
-1188.49876335003 -409.918566563103 2778.89920115289 11 14 5
-1246.08087254293 -416.478357082831 2785.92525413302 22 25 16
-1080.08916108689 -406.213901423535 2429.39040836951 33 19 6
-1103.90158784322 -408.972812336339 2434.23021866042 28 19 14
-1128.7789810886 -411.855871278659 2439.05026886904 21 23 10
-1103.9534017338 -408.91959014625 2450.04333476743 21 24 7
-1088.4220935614 -407.071472054967 2459.7875282345 23 22 4
-1127.85716064773 -411.657492659192 2463.02907685373 26 19 9
-1085.31947611494 -406.648427938675 2475.81130639539 21 21 13
-1118.56660477527 -410.509208822715 2479.91591118499 19 20 12
-1131.06229353617 -411.940933893612 2486.44004729758 17 20 11
-1113.40003740137 -409.843550133483 2496.22246269732 14 17 8
-1097.79230390163 -407.986889040363 2505.68922652955 13 16 7
-1115.49973804944 -410.028015974487 2511.69534738929 12 15 8
-1130.10069800806 -411.705278967939 2518.08735325583 14 17 10
-1133.24235103686 -412.041871162605 2525.64286812932 10 15 8
-1102.97731128899 -408.4712381825 2536.32424020776 11 16 9
-1112.36720601064 -409.538824240034 2543.23603123462 15 20 14
-1167.76541262528 -415.98636705886 2546.12179870385 14 19 13
-1167.79089734431 -415.95826297136 2554.02773171129 9 20 16
-1146.68178524929 -413.044149450763 2672.32350904696 19 19 7
-1094.82522975079 -406.960811888346 2682.35725789461 16 18 5
-1133.9079348077 -411.497489838404 2688.21895713516 18 20 9
-1127.50400268443 -410.722911610409 2696.10386156054 19 21 10
-1092.47623236406 -406.606979315135 2705.03263249346 21 24 15
-1084.9698336139 -405.704905145137 2712.80110905833 21 24 15
-1084.87835695739 -405.669108296217 2720.27764420905 17 23 13
-1118.76337791603 -409.599389897744 2726.70673896412 16 22 12
-1170.75494280178 -415.643105989051 2732.78547899229 20 23 12
-1088.7406466642 -406.023421620665 2749.98008457706 18 21 10
-1075.8614264954 -404.497655956454 2757.67848340653 16 19 8
-1166.25289916025 -415.000470168814 2771.02820141178 18 21 12
-1194.99943933601 -418.332646740851 2778.23926728309 12 15 6
-1074.00504180237 -413.08586855266 2429.73876636259 30 20 10
-1071.94321619869 -412.805169580024 2437.84704119897 26 21 17
-1083.34104774976 -414.134020397811 2444.2563184678 22 23 15
-1077.13178527533 -413.322253032568 2460.68104221048 20 22 9
-1144.59742611356 -421.354088964459 2460.61102736516 20 20 12
-1114.5173610692 -417.722243287721 2472.01782075576 16 16 8
-1104.14150465767 -416.446573530359 2481.05832229356 15 16 8
-1130.15183222066 -419.520202171666 2486.06717043612 14 17 8
-1134.33749050987 -419.984749758668 2493.52176750162 14 17 8
-1135.40145293872 -420.076098407866 2501.31069909822 16 19 10
-1144.80173222383 -421.163551174736 2508.24943219617 18 21 14
-1141.69641718381 -420.75657392646 2516.45948115058 19 22 15
-1120.8410204409 -418.228987723161 2526.34881780994 14 19 12
-1110.3979473307 -416.945782221473 2535.14544361669 14 19 12
-1104.11823220049 -416.160210861743 2543.49848187932 13 18 12
-1155.3470806859 -422.243494257501 2546.72042467674 8 13 7
-1177.34000747388 -424.834051643833 2552.70464759168 1 10 7
-1184.84412330579 -425.206407215717 2669.95274508854 6 7 0
-1109.71709625112 -416.214961259618 2681.14937294623 23 25 12
-1127.64953771298 -418.321515232142 2687.95052367841 19 21 10
-1111.70296183664 -416.388803228392 2696.2063177188 20 22 11
-1059.5813677445 -410.114422147352 2713.17021488179 20 23 16
-1092.37916487583 -413.994240325691 2719.49084100401 19 22 15
-1127.34284614126 -418.132159326447 2725.89737829832 18 21 12
-1188.92509577026 -425.442274024607 2731.71524274565 19 22 11
-1147.41053201671 -420.465728438088 2740.48201854463 17 20 9
-1132.44721892353 -418.65440878692 2748.41551342392 16 19 8
-1090.83334277094 -413.668521719042 2756.82038849476 15 18 7
-1052.35868744974 -409.057788398895 2764.9529036074 15 18 7
-1138.61463294797 -419.30785504122 2770.90136115959 16 19 10
-1113.98932035413 -416.348512813475 2778.75621747434 11 14 5
-1047.21974595488 -417.392314443287 2432.77943072115 19 15 6
-1067.91775695578 -419.881475790719 2437.91715067279 25 21 18
-1067.91733309801 -419.842223048117 2445.73299986724 20 23 16
-1071.02440873924 -420.182268060164 2453.15795574952 17 23 13
-1134.31610228865 -427.870225244806 2453.39421029049 17 20 11
-1106.31643000387 -424.411547201592 2464.62219548213 18 19 13
-1112.56452472899 -425.13406634192 2471.7777752828 18 19 11
-1126.0968890327 -426.745459369243 2478.14020215425 18 19 11
-1131.32062969862 -427.342353643213 2485.46818944938 17 20 11
-1154.24915815723 -430.099567797732 2490.92457925131 16 19 10
-1152.1998220442 -429.80858671886 2499.08571670221 16 19 10
-1125.12083571544 -426.463832640001 2509.76378238769 15 18 11
-1129.30279436695 -426.93337524951 2517.20056080527 13 16 9
-1120.95843796161 -425.874962437808 2525.85381827242 12 17 10
-1126.181919459 -426.471422372874 2533.1811175444 13 18 11
-1125.13647746229 -426.30341103379 2541.09556005091 13 18 12
-1187.90597230707 -433.916606464883 2543.33744321389 8 13 7
-1119.38460216965 -424.937767285464 2672.56981365196 12 14 0
-1120.38577545622 -425.023074288067 2680.13036487152 15 17 4
-1122.44474536598 -425.237289155598 2687.63967254619 20 22 11
-1128.74312257077 -425.967869468227 2694.97592291408 19 21 10
-1089.44517152084 -421.15050347576 2704.07940880623 19 20 12
-1082.98934329285 -420.330418126786 2711.80129300253 19 20 14
-1093.51333138188 -421.576584127277 2718.91468401475 19 22 15
-1145.4919911599 -427.865874550538 2724.79046713006 19 22 13
-1152.87668813171 -428.730228401886 2732.1792318865 17 20 11
-1160.26841700896 -429.595864796445 2739.59422402151 17 20 9
-1182.57465203174 -432.275629629551 2746.68537809368 17 20 9
-1134.58466161339 -426.407212265515 2755.35302533618 16 19 8
-1112.11689535451 -423.643709269737 2763.30121589526 16 19 10
-1134.42752269612 -426.325664458975 2770.40822393268 15 18 9
-1108.72133525659 -423.170155287733 2778.27017371399 15 18 9
-1090.78530990821 -430.371924750708 2418.78133078879 17 19 8
-1120.8251642326 -434.072652307553 2422.76889404487 21 22 14
-1081.49871415575 -429.125896050108 2435.74457925964 18 20 15
-1076.32289640355 -428.436387887739 2444.23920247071 17 22 18
-1075.28611399157 -428.262792703835 2452.18932166538 17 22 16
-1066.97865232494 -427.18322973909 2460.99291516559 17 24 17
-1130.33077629749 -435.031834615177 2461.35211148127 15 25 17
-1129.31991958002 -434.860371371422 2469.39714170298 17 20 13
-1109.5813600505 -432.356165733632 2479.5210653697 17 18 10
-1138.73464128856 -435.941896110584 2484.1868091258 15 18 9
-1148.13466597917 -437.066744919337 2491.10005803862 13 16 7
-1151.29030002353 -437.413907879542 2498.7008078547 13 16 7
-1136.71543233385 -435.553354655548 2508.10760788443 13 16 9
-1112.7236284175 -432.520900825536 2518.36071659258 15 18 11
-1144.0533559286 -436.375355237329 2523.14302168734 13 18 11
-1140.93143779988 -435.940989915699 2531.30964704576 14 19 12
-1169.17959433866 -439.410718579836 2536.58346896351 14 19 13
-1199.55641111557 -443.14440982243 2541.80129621745 9 14 8
-1156.47220734238 -437.034576779723 2677.94091694763 15 17 4
-1099.22424219335 -429.88469093544 2688.11424116744 21 23 12
-1072.6418813777 -426.544154260441 2696.73626799233 20 22 11
-1106.49254562508 -430.707304556873 2702.89078190909 18 19 11
-1103.22954024524 -430.262911189899 2710.5389801168 18 19 13
-1132.89167673284 -433.905637556615 2717.05709037486 18 21 14
-1081.79940066361 -427.52607423845 2726.219159999 19 22 15
-1101.90775060582 -429.98390312955 2733.0836860671 18 21 10
-1116.71798848258 -431.784331131609 2740.17586891019 18 21 10
-1123.02429039875 -432.529865210719 2747.53210115289 18 21 10
-1136.7204666824 -434.156656330404 2762.28750706367 17 20 11
-1112.09223081249 -431.066474587439 2770.21318602518 15 18 9
-1128.01418883735 -433.006841590242 2777.44736832101 15 18 9
-1163.35078366883 -447.215053003597 2408.70322699918 23 26 15
-1069.18176790198 -435.187976283395 2429.04920306425 17 20 11
-1114.77852971952 -440.937428256748 2431.054535573 17 19 14
-1123.10319589357 -441.946068510646 2437.94580648306 18 20 15
-1079.55025737226 -436.358965190346 2451.21986064522 16 21 15
-1094.08663577544 -438.157404766346 2457.29558330353 17 24 17
-1105.52226454581 -439.561051394118 2463.79890110324 16 26 18
-1119.05067569601 -441.230215745819 2470.11017690069 19 22 13
-1119.06683722523 -441.182086007231 2477.9941378794 19 20 12
-1135.74076858594 -443.25025349351 2484.0432428694 16 19 10
-1152.43480748748 -445.320277249108 2490.16490224373 14 17 8
-1156.63561866074 -445.80298299907 2497.66429488431 14 17 8
-1114.92779918281 -440.455136597017 2509.84521935958 14 17 10
-1115.97034415385 -440.537307308395 2517.56042660253 18 21 14
-1131.63944030591 -442.476504040551 2523.85652117183 15 20 13
-1166.14746545213 -446.807058015276 2528.44967696371 16 21 14
-1172.44980012973 -447.556119144696 2535.78895283226 15 20 14
-1174.5794686307 -446.941715036665 2676.56900947354 17 18 10
-1149.11699770283 -443.670958938223 2685.40859177206 23 24 16
-1106.64824916863 -438.248213124426 2694.81069434448 21 22 14
-1115.06169895476 -439.269150607447 2702.02476660092 16 17 11
-1120.2979558058 -439.888172810216 2709.38525362243 15 16 10
-1109.59766342315 -438.490237110446 2717.29838030252 17 18 12
-1062.605636591 -432.458244499128 2733.67179299965 18 21 12
-1082.71824620355 -434.962143728167 2740.52304798926 18 21 12
-1118.83921344272 -439.491472021215 2747.08199653882 18 21 12
-1127.19738061729 -440.468025167022 2761.91147800905 17 20 13
-1128.17783156358 -440.55248808307 2769.39469513019 17 20 13
-1138.77287641733 -441.853496771305 2776.73821020357 15 18 11
-1213.52951379907 -451.26868300842 2783.38140159805 18 21 14
-1151.0187980751 -453.459726429068 2401.8367328995 33 40 33
-1086.89398511974 -445.086665384132 2418.42326796913 20 26 14
-1095.21202818851 -446.056960517609 2433.10772748002 15 17 6
-1098.33789423338 -446.407894322312 2440.59464481205 17 17 9
-1120.17551763128 -449.129438660581 2453.71312816502 15 21 11
-1102.52465688123 -446.786601930529 2463.69374757298 13 23 12
-1075.48422074871 -443.227480132483 2474.64935411454 19 22 13
-1103.57527495094 -446.813006534083 2479.26770624108 20 21 13
-1142.11906591742 -451.751502225674 2482.87390737905 19 22 13
-1143.18577650898 -451.834106526636 2490.67949211142 18 21 12
-1121.30256639431 -448.944223676913 2500.87688566525 18 21 12
-1107.73669158923 -447.1322491098 2510.10288811316 18 21 14
-1094.14919550958 -445.317889467071 2519.25012081814 18 21 14
-1126.53215315345 -449.455717981655 2523.86763501046 14 19 12
-1136.99086165032 -450.754468888592 2530.70545633434 15 20 13
-1129.6667845594 -449.75131234051 2539.21560463023 14 19 13
-1142.90038847956 -450.504180756027 2677.49593256012 19 20 14
-1164.05754957416 -453.18525775295 2684.21722132455 22 23 17
-1158.71597412552 -452.445731629968 2692.12799741821 20 21 15
-1148.00291382851 -450.9646643724 2707.83977403932 14 15 9
-1117.11641619917 -446.930897752445 2716.50526411862 16 17 11
-1139.37763133602 -449.755597808955 2723.33869268792 17 18 12
-1125.39222547372 -447.858036014699 2738.85373460936 16 19 12
-1151.96008035342 -451.238822101265 2745.73864927543 15 18 11
-1181.7610933762 -455.036538413371 2752.67452835182 15 17 12
-1179.57689339671 -454.709568117172 2760.35766440697 15 17 12
-1177.32930197301 -454.331217322322 2775.63144920214 14 16 11
-1147.32122051966 -450.419829992797 2783.58474211641 16 18 15
-1273.5297349762 -466.601716469181 2797.74278451485 16 18 15
-1140.81753137593 -459.86759389979 2402.77907729136 20 27 20
-1112.90739555859 -456.117095183178 2414.52373413412 6 13 5
-1084.9557999712 -452.36202536558 2426.11641590796 18 22 7
-1090.1490935233 -452.989480451892 2433.31206453987 16 17 3
-1064.21225904047 -449.502075133444 2444.42445831412 18 15 6
-1115.08717717288 -456.166503888395 2445.96449330036 18 15 6
-1139.0088875102 -459.267445115536 2450.99504109603 14 17 6
-1151.5211786626 -460.860178988232 2457.47916610576 12 20 5
-1148.50115238376 -460.279191205098 2481.70287623837 18 21 12
-1124.54402200259 -457.055374457121 2492.20460849272 19 22 13
-1089.07210869321 -452.312442509222 2503.77653869819 18 21 12
-1089.05251071618 -452.250414484326 2511.53650628926 17 20 13
-1114.10896346762 -455.497943233544 2516.7903331708 18 21 14
-1129.78565182198 -457.506817818465 2523.07062515068 12 17 10
-1122.46035022233 -456.480355325369 2531.59094123923 14 19 12
-1133.96991189684 -457.938989707473 2538.33311200963 12 17 11
-1192.64353341505 -465.618061518322 2540.91243994247 7 12 6
-1156.77493076122 -459.898897116507 2676.318495924 24 25 20
-1092.03359031659 -451.326626958339 2686.84543508322 17 18 12
-1116.35900985398 -454.473038939739 2693.34523913757 16 17 11
-1110.81399130342 -453.585781685851 2716.18108015176 13 12 7
-1162.87725529881 -460.37915691585 2722.05180036389 13 14 8
-1161.75962250591 -460.180325222854 2729.71767095113 12 14 9
-1174.49158050766 -461.802450545234 2736.99881969628 12 14 9
-1179.77331322751 -462.445737403405 2744.51283027255 12 14 9
-1135.97273755156 -456.639701272991 2753.10935854586 11 13 8
-1157.03005279737 -459.213700471813 2782.90732290954 15 17 14
-1115.19594926489 -453.673195690578 2790.84376444933 13 15 14
-1294.01005795067 -477.10915173831 2797.0099530979 18 20 19
-1145.10243074387 -468.17014006124 2401.75638564923 18 21 14
-1118.21912874565 -464.482696032608 2413.37641637261 23 26 19
-1110.99394049399 -463.444705590232 2422.27571184424 13 15 2
-1081.96867016069 -459.470393406103 2433.91771728054 15 16 2
-1079.89347261155 -459.126857755909 2442.01601649297 17 14 5
-1055.99507776657 -455.844738475796 2452.77356047044 15 15 5
-1122.50857368835 -464.736592762814 2452.52176798304 13 16 5
-1165.22885425503 -470.356528245687 2463.4115902579 11 17 5
-1104.84927821252 -462.165054077476 2478.20167190867 16 17 9
-1107.97544053595 -462.521054961711 2485.68741919866 17 20 13
-1071.46128965748 -457.5440818967 2497.43380727648 19 22 15
-1181.08475145508 -472.159720111406 2501.659527978 15 18 11
-1162.30748053893 -469.568774803297 2511.51097036145 20 23 16
-1155.00807335407 -468.521853972183 2520.14034366055 13 18 11
-1173.86525603869 -470.991420348653 2526.2484408738 16 21 14
-1070.88630018669 -455.926680400768 2687.25376086391 15 16 11
-1132.36758717323 -464.107846549531 2692.14683452214 14 15 9
-1131.24155182616 -463.899031501527 2699.78781104034 13 14 8
-1098.21489722268 -459.417264677316 2708.58373140091 12 13 7
-1125.78500172955 -463.053866318351 2715.13197356384 12 11 6
-1145.93725155256 -465.696592101051 2722.04182804481 11 12 6
-1195.94356204446 -472.336847620185 2728.16665363343 11 13 8
-1177.78581467641 -469.849488291123 2736.356546379 11 13 8
-1142.53262836046 -465.074705280241 2744.86342672873 11 13 8
-1158.4695176173 -467.153878810337 2752.06541058772 11 13 8
-1172.1639616561 -468.827453327505 2774.57748919332 7 9 4
-1158.182777088 -466.90523170413 2782.33113210947 16 18 15
-1155.9623900856 -466.557497242553 2789.89302224798 14 16 13
-1147.26141383745 -476.266036768398 2392.97105119591 15 18 11
-1124.53220827387 -473.075798305146 2404.11430767586 26 29 22
-1128.71594066476 -473.580501862609 2411.5364018808 18 21 14
-1120.45652592195 -472.377272338623 2420.5964607837 18 21 14
-1131.90243479027 -473.878166289177 2427.07562068111 14 17 10
-1039.50136233099 -461.131856724118 2446.64706893711 13 16 9
-1113.27494344615 -471.113498960573 2453.17905480818 13 16 9
-1127.85720635208 -473.043356486227 2459.34309624098 13 16 9
-1114.33745772077 -471.119848087044 2468.80984373184 13 14 9
-1079.95246066355 -466.336939581296 2480.54619967334 14 15 10
-1044.47448053833 -461.405854023524 2492.21439531992 15 17 12
-1072.60462632475 -465.192415701406 2496.85003466521 16 18 13
-1092.41576081397 -467.838097462907 2502.49245754084 16 18 13
-1122.7013515561 -471.917714383452 2507.15318104381 16 18 13
-1133.15647000426 -473.280055249169 2513.93752584952 14 17 10
-1161.41242358211 -477.079614670959 2519.03298779415 18 23 16
-1162.47768884184 -477.155286006781 2526.83665438142 20 25 18
-1105.98027372834 -468.093121256829 2685.17801003551 18 20 15
-1093.15398135049 -466.280485799745 2693.25403394861 18 20 15
-1106.88057525191 -468.091800816219 2700.21137697049 18 20 15
-1090.84167482281 -465.842537954353 2708.32424168177 18 20 15
-1106.70834388493 -467.946285947827 2715.24999669089 16 17 11
-1123.65863713607 -470.197648489776 2722.20951944681 14 15 9
-1155.54958035706 -474.486318003188 2728.80229681591 14 17 10
-1151.22103126192 -473.836324133868 2736.52046582771 12 15 8
-1135.0628276705 -471.516274631342 2752.02864205023 13 16 9
-1170.11251509034 -476.121350383849 2774.04577558148 12 15 8
-1140.06222796433 -471.971763287376 2781.99275396819 13 15 10
-1093.56579777152 -476.492433141067 2399.98666270594 22 25 18
-1125.70404708583 -480.91147226026 2403.51808117796 27 30 23
-1146.4781198732 -483.74043197755 2408.72367273304 12 15 8
-1148.60178472938 -483.962071372407 2416.46849260603 14 17 10
-1130.99796983077 -481.4272301914 2426.74500559842 14 17 10
-1061.41752563121 -471.632598642653 2443.45495825028 14 17 10
-1116.5312221085 -479.107873917173 2460.22174943137 14 17 10
-1098.82938733662 -476.562331678536 2470.14108993329 12 13 8
-1048.78066798325 -469.502818670381 2483.6069657503 13 14 9
