ply
format ascii 1.0
comment KinectMotionCapture
element vertex 751
property float x
property float y
property float z
property uchar red
property uchar green
property uchar blue
end_header
-548.986331224872 390.939496757956 2374.90167270454 129 133 134
-556.090818506842 391.985463064397 2365.95034285499 84 88 89
-564.300794982927 391.848860123659 2362.91053160151 135 139 140
-573.219223439784 390.925221459523 2363.81561128998 138 142 143
-582.298909826114 389.805384754836 2365.70877072094 140 144 145
-591.36294213939 388.685888360332 2367.60388279147 138 142 143
-600.411283532314 387.566854067781 2369.50095177918 142 146 147
-608.790109609909 387.231061121338 2367.44828075164 141 145 146
-617.174831013754 386.894297890742 2365.3951168462 148 152 153
-625.407366063669 386.751900623234 2362.35274594396 158 162 163
-633.806416349438 386.413027612889 2360.29755916605 151 155 156
-642.821844025663 385.292924836806 2362.19873840483 147 151 152
-651.671515952346 384.367933027805 2363.11240206523 155 159 160
-660.068956955202 384.027251427866 2361.05742087917 158 162 163
-668.183113736375 384.074677466691 2357.02163589392 155 159 160
-676.171898182992 384.314756253896 2351.992821655 173 177 178
-684.321711830216 384.358654075781 2347.95235592636 174 178 179
-691.669457414901 385.565015088817 2337.96255938682 175 179 180
-699.199733632748 386.573939808482 2328.95795087426 180 184 185
-706.24941401343 388.354135349186 2315.98053837391 182 186 187
-714.647231985589 388.194278332722 2312.91734685102 184 188 189
-722.427944058154 388.99995275964 2304.8899480437 177 181 182
-730.738230925575 389.029745573886 2300.82949335093 176 180 181
-737.982944851985 390.795065244588 2287.82754072343 190 194 195
-745.880100545473 391.591231267811 2279.78563548068 188 192 193
-753.929909709426 392.191687681714 2272.73288247977 177 181 182
-762.012172129559 392.789362474518 2265.67632709839 176 180 181
-770.345581725292 392.999782498995 2260.60458378356 174 178 179
-778.593886488975 393.400178068112 2254.53551392535 166 170 171
-787.077092203848 393.414236906144 2250.45352141756 167 171 172
-795.069949929669 394.385689755064 2241.39128414841 193 197 198
-802.90875875132 395.737014707406 2230.33189669572 181 185 186
-810.1302856053 398.424415897408 2212.29173364921 175 179 180
-817.536648817182 400.913937799067 2195.23671232424 176 180 181
-825.843562698346 401.677251266258 2187.14375819817 178 182 183
-834.714667207514 401.29164570484 2185.03002518119 171 175 176
-842.570043204761 403.194372408788 2170.94381658272 151 155 156
-849.836440454258 406.616700035847 2148.86512991201 185 191 191
-857.614288112582 409.078913192454 2131.76382144092 181 187 187
-866.32479727888 409.442216743868 2125.63692861755 165 171 171
-874.987690367666 409.993105087209 2118.50779690309 151 155 154
-884.255038417243 409.022035477312 2119.36945839688 169 173 172
-452.784882812087 397.216159585073 2337.51048378741 123 130 122
-463.933845211007 394.337821297642 2348.21970517797 173 178 172
-475.83541770285 390.680623045002 2362.86828530857 166 170 169
-487.45009798086 387.223505626623 2376.54445388741 151 155 156
-497.593383358729 385.137165514442 2383.34610346419 154 158 159
-506.322074837006 384.418225551381 2383.26639477219 128 132 133
-514.852864413276 383.893756951161 2382.20318383597 140 144 145
-523.765581480424 382.979261297589 2383.10895219431 160 164 165
-532.668263390554 382.064927163577 2384.01597245556 168 172 173
-541.00504661817 381.733723698129 2381.96853604092 150 154 155
-548.435290757871 382.372515238336 2374.99300013801 144 148 149
-555.179306462064 383.784805633421 2364.07007584371 81 85 86
-563.040656701431 384.030078827488 2359.05739122993 115 119 120
-571.970826670376 383.111067158945 2359.96099346207 137 141 142
-581.405862215337 381.611434362816 2363.82618179471 139 143 144
-590.307402536534 380.693052123306 2364.73335518005 137 141 142
-599.198660446737 379.774667988276 2365.64181175449 137 141 142
-608.079551104895 378.856344580892 2366.55132167203 137 141 142
-616.467418425169 378.516573994329 2364.49777309457 149 153 154
-624.702902812959 378.368491891496 2361.45480883448 155 159 160
-633.105143296587 378.02661120809 2359.39947212808 149 153 154
-642.124407288933 376.914326532605 2361.3001520286 144 148 149
-651.127832741807 375.802393918874 2363.20280755806 151 155 156
-659.378320685257 375.650907393552 2360.15797990835 153 157 158
-667.929390050091 375.114396859804 2359.09226988641 155 159 160
-676.480739527969 374.577151814939 2358.02652684234 172 176 177
-684.893057785101 374.230806899217 2355.96994424577 174 178 179
-691.535290426807 376.370883073273 2341.02681661648 177 181 182
-698.521188456732 378.123188039052 2328.05719695652 180 184 185
-705.440960014216 380.061569516501 2314.08765236533 177 181 182
-713.972999699553 379.705089326602 2312.0161559332 181 185 186
-721.755877428933 380.491514687233 2303.98853755645 174 178 179
-730.069009284876 380.512884596852 2299.92775000734 173 177 178
-737.435412850049 382.055143635634 2287.91888575278 188 192 193
-745.567408321581 382.452198779599 2281.8643394035 186 190 191
-753.956368951096 382.466767128789 2277.79410678341 176 180 181
-762.024733587706 383.048960905605 2270.73908626322 174 178 179
-770.125509942739 383.628612092397 2263.68002764801 173 177 178
-778.044945385891 384.584260154069 2254.62723493575 165 169 170
-786.319993243658 384.968795371154 2248.55462919643 164 168 169
-794.621969219553 385.350841227954 2242.47890981155 187 191 192
-802.753312503261 386.10837844727 2234.40788106962 181 185 186
-810.057881751714 388.561624118984 2217.36565856164 178 182 183
-817.355394386733 391.197242935519 2199.31614930593 178 182 183
-825.107135182253 393.072709313615 2185.24294555705 177 181 182
-834.160020282761 392.307674702254 2185.12290080623 168 172 173
-841.672959350347 394.927419619702 2167.04654940866 151 155 156
-849.277456180389 397.540555393698 2148.95878954858 176 182 182
-856.813828283116 400.522592462326 2128.86294529815 175 181 181
-865.455162337722 401.059326469896 2121.73654129864 160 166 166
-873.607540353308 402.904850515443 2107.61341924531 145 149 148
-882.260079647857 403.62195817227 2099.47745479232 175 179 178
-458.301046510321 382.915171673135 2366.08460830925 156 163 156
-466.683471049089 382.582675597293 2364.03171980158 156 161 157
-476.706474949547 380.706705026508 2369.84013869675 155 159 158
-486.894177358283 378.639814176131 2376.63643434046 146 150 151
-497.834999532542 375.805074489265 2387.37151558519 145 149 150
-505.96509554221 375.666217066943 2384.34191914751 151 155 156
-514.106643033608 375.526149838085 2381.31065654985 136 140 141
-521.114940901742 376.536677316451 2372.37142389737 110 114 115
-530.236291104825 375.433954433146 2374.25933886168 124 128 129
-538.785888187188 374.906496021077 2373.19378873345 147 151 150
-546.970747565543 374.761519577517 2370.1571339966 172 176 175
-554.267099762945 375.571832466006 2362.19016822298 101 105 104
-562.842938416978 375.041089816021 2361.12135195067 123 127 126
-572.117811200624 373.745707510092 2363.99830266446 136 140 141
-581.027831851599 372.832637799743 2364.90440376443 141 145 146
-589.081630693389 372.872977320654 2360.87592948653 131 135 136
-597.651639288952 372.340217191165 2359.80784608401 127 131 132
-606.877277043242 371.045522829301 2362.69093922672 133 137 138
-615.759652614292 370.131765659326 2363.60049207962 148 152 153
-623.998104819083 369.978059770023 2360.55717226356 150 154 155
-632.092079296851 370.012853762727 2356.52369890776 146 150 151
-640.814610596018 369.287318741938 2356.44477633754 143 147 148
-649.682416066774 368.372041161093 2357.35615145678 147 151 152
-657.949411662224 368.214068284101 2354.30928083126 150 154 155
-666.807070974218 367.298123183573 2355.22192388901 158 162 163
-675.227704149696 366.949098560909 2353.16431069671 173 177 178
-684.072372890265 366.032843808798 2354.0783354477 172 176 177
-690.855017431403 367.945859692439 2340.12597029684 177 181 182
-697.708157428494 369.853787389015 2326.16482112941 180 184 185
-704.631752321918 371.756689204597 2312.19489284292 177 181 182
-712.783706136576 371.961352071907 2307.14604956682 181 185 186
-720.705501589323 372.539983153424 2300.1093293965 173 177 178
-729.152858824781 372.36466993385 2297.04023663852 171 175 176
-737.128901655572 372.938531257811 2289.99675927711 187 191 192
-745.137432458788 373.509665967353 2282.94923478925 186 190 191
-753.178424486799 374.078075766455 2275.8976665084 178 182 183
-761.251845780864 374.643702968878 2268.84205857474 174 178 179
-769.57715030165 374.832843236865 2263.77162303356 171 175 176
-777.816985412075 375.206545051842 2257.70368043506 163 167 168
-786.292400367223 375.2047960475 2253.62270179742 160 164 165
-794.580663437899 375.57421577573 2247.54848668375 185 189 190
-802.401222342134 376.872296435419 2236.49151692982 179 183 184
-810.083243581917 378.538272160162 2223.43549282243 177 181 182
-817.455867659119 380.943107370816 2206.38490496139 179 183 184
-825.005545657756 383.155874354106 2190.32041472072 177 181 182
-833.076579337858 384.435131667777 2179.23223676616 167 171 172
-840.774394417904 386.637090362234 2163.14952862549 152 156 157
-848.387528652583 389.203567847681 2145.06057347257 171 177 177
-855.692206674367 392.688384593275 2121.96925792672 173 179 179
-864.120255241146 393.762078578697 2111.84475506685 161 167 167
-872.074396629253 396.124671968379 2094.72170852564 146 150 149
-880.617784093044 397.189525149283 2084.58283533524 177 181 180
-458.160932926233 373.911703194844 2368.1414184351 173 179 175
-467.366994706435 372.815528136335 2370.01874465193 157 162 158
-476.966591159246 371.339632682056 2373.8633342447 151 155 154
-486.338341015448 370.054624301731 2376.72840822194 151 155 156
-496.883641271064 367.631862149039 2385.49638913925 138 142 143
-505.608368675734 366.918251106558 2385.41716110668 153 157 158
-513.747416353552 366.772788966293 2382.38622467829 155 159 160
-520.943161324023 367.572311121194 2374.43184250882 138 142 143
-528.93050261602 367.612524649417 2370.41166207204 107 111 112
-536.934726090551 367.651184908182 2366.38937892917 107 111 110
-544.955828035294 367.688232411793 2362.36499370013 150 154 153
-553.17402922743 367.535042743612 2359.32444000001 120 124 123
-561.936002619482 366.815236697663 2359.24058020273 113 117 116
-571.217524045093 365.530240551877 2362.11667385373 131 135 136
-579.961825058066 364.810248953561 2362.03526022227 140 144 145
-588.023803657156 364.841825714456 2358.00578823543 125 129 130
-595.935835886973 365.059503520414 2352.98685148034 121 125 126
-605.017714991339 363.961980167399 2354.8794382429 135 139 140
-614.083910517517 362.864801508102 2356.77422158429 147 151 152
-622.975791637759 361.955216555468 2357.68257721347 150 154 155
-631.233817073483 361.794172075407 2354.63683409981 147 151 152
-639.809395313244 361.257832129235 2353.56806506595 140 144 145
-648.535830713027 360.534081453253 2353.48889085679 141 145 146
-657.404896097641 359.623558602349 2354.39985595607 145 149 150
-665.973415939527 359.085816928673 2353.33197145993 162 166 167
-674.399899332097 358.73367239276 2351.2736364113 174 178 179
-682.971691125377 358.194468110964 2350.20534744669 168 172 173
-690.585170662645 358.955971237709 2342.19893459466 173 177 178
-697.431316839005 360.828988942996 2328.23875014893 182 186 187
-704.347936335348 362.696919871405 2314.26978444535 181 185 186
-711.979149016444 363.632647452007 2305.25301268971 181 185 186
-720.032087180733 364.009414286783 2299.2081453848 172 176 177
-728.235609402778 364.198548901162 2294.15290756943 170 174 175
-736.702244759394 364.016032831514 2291.0811877156 188 192 193
-744.471697429294 364.940385677153 2282.04719438159 188 192 193
-752.399733648588 365.676892795939 2274.00159254139 179 183 184
-760.140389297297 366.779029052036 2263.96279735216 172 176 177
-768.369272894799 367.140645488213 2257.89601299539 169 173 174
-776.732331685817 367.315675042821 2252.82090310456 160 164 165
-785.221423566463 367.304992243874 2248.7382411943 155 159 160
-793.828410211129 367.108759720157 2245.64928272001 183 187 188
-801.752441392073 368.195929181818 2235.58764276299 179 183 184
-809.724938980488 369.279234666657 2225.51996466048 175 179 180
-817.183821947621 371.457714727452 2209.4671356651 179 183 184
-824.359645325897 374.362387536177 2189.41648949997 178 182 183
-832.167565562694 376.162906941696 2175.33647225914 165 169 170
-839.617602128914 378.871412196876 2156.25980960775 150 154 155
-847.744698152324 380.295696632288 2144.15656638222 172 178 178
-854.888769931527 384.08531186651 2119.06887640486 160 166 166
-863.479019292372 384.769837767965 2110.94077117024 145 151 151
-871.433852293034 387.088909342004 2093.81775293302 152 156 155
-880.555571842572 386.675092610845 2091.67257866499 180 184 183
-441.996735087676 372.018591324345 2336.90752327858 139 145 143
-455.290994842943 367.358150897202 2357.43154940138 183 187 186
-465.771803864704 365.142798845226 2365.19910486936 155 157 156
-475.590962921384 363.49189766606 2370.02468258549 153 157 158
-485.782478318488 361.468062495817 2376.82038900519 153 157 158
-496.130795445228 359.259239827822 2384.60446148349 149 153 154
-505.252034395562 358.17420180086 2386.49234375904 123 127 128
-513.388633873903 358.023224520578 2383.46196764413 138 142 143
-520.77211587561 358.617336767949 2376.49238504092 156 160 161
-528.188698347223 359.208862547873 2369.51867850613 120 124 125
-535.824155530237 359.611508650926 2363.52584220742 94 98 97
-543.121190502474 360.384093339434 2355.55889058341 105 109 108
-552.079907737259 359.48046303758 2356.45888977926 89 93 92
-560.850751286302 358.76271968818 2356.37391760679 109 113 112
-570.316608597148 357.302334185203 2360.23539647765 125 129 130
-578.378075079911 357.326179685855 2356.20600875991 138 142 143
-586.795406559444 356.978022344287 2354.14880531579 118 122 123
-595.0517964501 356.81403622603 2351.10327405519 116 120 121
-604.304363533536 355.539186022742 2353.98295431794 139 143 144
-613.535790535672 354.265085342041 2356.86527076401 146 150 151
-622.269875683516 353.545445942006 2356.78513108462 147 151 152
-630.374878573439 353.562994314308 2352.75032686391 145 149 150
-638.803114318501 353.21055647302 2350.69153363572 137 141 142
-647.839660851124 352.120820788658 2352.58999739542 137 141 142
-657.156197561953 350.663677034723 2356.47010205736 142 146 147
-665.429486357353 350.493657417287 2353.42247780236 161 165 166
-673.143830748345 351.056419614453 2346.41168808825 174 178 179
-681.310351795253 351.066408377241 2342.36946694194 169 173 174
-689.219091951208 351.441193402804 2336.342599915 173 177 178
-696.617465065984 352.545605863934 2326.34651356815 182 186 187
-703.669629730799 354.195030707041 2313.3691354238 181 185 186
-711.431806955034 354.926098448217 2305.34424613004 181 185 186
-719.863417908271 354.741633080624 2302.2769022481 171 175 176
-728.182373165422 354.738145907344 2298.21545343319 169 173 174
-736.51762208826 354.732963789929 2294.15197572871 188 192 193
-743.687342348417 356.546249933047 2280.15156845122 189 193 194
-751.620242945213 357.263276339357 2272.10541086722 177 181 182
-759.478227161396 358.158936451176 2263.06044488092 171 175 176
-767.709621753843 358.506776262731 2256.99338344708 169 173 174
-776.290089339931 358.30822926448 2253.90750022086 162 166 167
-785.090610714225 357.746032766504 2252.81072770597 155 159 160
-793.381228146319 358.088011970431 2246.7365313143 181 185 186
-800.805418054454 360.054827207304 2231.69627631755 182 186 187
-808.208569370615 362.196841321438 2215.65025806576 174 178 179
-815.598772755352 364.513421950823 2198.59770882637 179 183 184
-823.16639007416 366.643468085738 2182.53143797575 179 183 184
-830.903271650736 368.58767306614 2167.45198018195 162 166 167
-838.629824705506 370.706220472062 2151.3659053726 146 150 151
-846.354084576609 372.998593398573 2134.27173160875 174 180 180
-853.762842260617 376.182697797251 2112.17590654983 153 159 159
-862.526763069115 376.488311247757 2106.04250019411 137 143 143
-870.792829333854 378.046187206278 2092.91363512859 157 161 160
-879.989977978466 377.450421890071 2091.76745427748 178 182 181
-445.68952439436 359.605504855534 2356.63455800234 172 178 178
-454.729691656074 358.708152380404 2357.52437618393 188 192 193
-465.627620205162 356.147234094709 2367.25640210238 152 154 153
-475.647749848671 354.328242435414 2373.06502963589 154 158 159
-485.630941660955 352.510887261661 2378.87826248273 143 147 150
-494.779422210323 351.432654061982 2380.7627272475 146 150 153
-504.109206454938 350.170801340023 2383.63273703663 137 141 144
-512.448070414791 349.829733106541 2381.58530720616 130 134 135
-520.219101030685 350.039372699776 2376.58398778724 128 132 133
-527.257950566984 350.981779168637 2367.64088159271 138 142 141
-534.52664061163 351.737476545541 2359.67751172022 105 109 108
-541.284158062913 353.040391578536 2348.75319052382 108 113 109
-549.901612432565 352.507236657388 2347.67918720886 81 86 82
-558.697529678149 351.790526249958 2347.59132353582 107 112 108
-567.838884216636 350.707787572226 2349.4764491809 125 129 128
-576.964617918507 349.625449313407 2351.36376342829 134 138 137
-585.905015098388 348.725972213808 2352.26603792137 110 114 113
-595.336156660264 347.279561071272 2356.13157204275 121 125 124
-604.412172237699 346.198479032177 2358.02508750993 136 140 141
-613.310882983927 345.299806209697 2358.93256210545 153 157 158
-621.086870324756 345.674209467048 2352.92226285038 141 145 146
-629.202794129431 345.682763233567 2348.88635971979 134 138 139
-637.642277555951 345.32680190738 2346.82617212642 139 143 146
-647.293934530606 343.519100744673 2352.68075313749 140 144 147
-656.908140843894 341.713011519427 2358.54024379346 151 155 158
-665.03090744644 341.718797691063 2354.50325374177 166 170 173
-672.456749135247 342.627114432345 2345.51194298856 170 174 177
-680.206113479628 343.17068455489 2338.49683353295 174 178 181
-688.262719496621 343.350604972949 2333.45995425666 175 179 182
-696.072027587984 343.889161890927 2326.43737737791 182 186 187
-703.386489193178 345.145607501437 2315.44367521929 182 186 187
-711.401055453289 345.498125530694 2309.40390062828 175 179 180
-719.695691404336 345.488543196183 2305.34550277039 170 174 175
-728.254189928392 345.118134376991 2303.27074111216 168 172 173
-736.09181695127 345.823549983977 2295.23626341482 181 185 186
-743.375629901298 347.422205019877 2282.23011063445 190 194 193
-750.955647035369 348.65809016535 2271.20332286103 176 180 181
-758.815598023985 349.53182387842 2262.15792890681 168 172 173
-767.049526540886 349.865828386308 2256.0908279577 164 168 169
-775.525477420318 349.840216085807 2252.00984528302 162 166 167
-784.122397572716 349.63464874543 2248.92192736161 157 161 162
-792.219371525831 350.318886637365 2240.85538074012 171 175 176
-799.757494507546 352.068570099532 2226.80916647635 183 187 188
-807.365751391036 353.81318840771 2212.75421325516 174 178 179
-814.856054474595 355.908086312149 2196.69768332563 179 183 184
-822.427216304924 357.997173602339 2180.63083773585 179 183 184
-830.433652517418 359.370796178394 2168.54278555759 160 164 165
-838.413341666356 360.917174351078 2155.4496889421 143 147 148
-845.958403204851 363.521027134632 2136.36168360325 174 180 180
-853.600383113377 366.117986491569 2117.26136130965 150 156 156
-861.883860932106 367.471033539844 2105.13879016171 135 141 141
-870.151294451778 368.996214079413 2092.00984057308 161 165 164
-878.772715405345 369.81116807218 2082.86981473204 174 178 177
-447.897682662393 348.576642797362 2369.48893037213 195 199 202
-456.062004375708 348.415953896148 2366.45487999266 168 172 173
-466.730371978537 346.068305772138 2375.20730502249 157 159 158
-475.500636715846 345.361232350475 2375.12261725217 150 151 155
-484.873269659954 344.108415192306 2377.98725598208 148 152 155
-493.825908779469 343.219684593995 2378.88797445295 148 152 155
-502.965357074286 342.149609015297 2380.77330463814 138 142 145
-511.118506315279 341.986528814584 2377.74089508331 124 128 129
-519.091626933609 342.003281626902 2373.72255108549 112 116 117
-526.137739743826 342.923426783358 2364.77859710169 148 152 151
-533.599986946314 343.478661256262 2357.79952771906 136 140 139
-540.178269701921 344.934483738072 2345.8892439098 86 91 87
-548.44303120444 344.761725141449 2342.84293129228 82 87 83
-556.897165942463 344.407398496896 2340.78091099698 107 112 108
-565.883276429615 343.511578638406 2341.67747110836 111 115 114
-575.204274855417 342.255899509601 2344.5485610578 117 121 120
-584.334412800049 341.180745949271 2346.43530676108 107 111 110
-594.619156835153 338.848399352868 2355.23556544817 120 124 123
-603.698957124097 337.775258146267 2357.12858769382 141 145 146
-612.924847366007 336.52306990037 2360.01153738922 154 158 159
-620.379732005315 337.242240347558 2352.02502772446 144 148 149
-628.654803134212 337.063509693454 2348.97744425372 135 139 140
-637.094713419182 336.704654508706 2346.91721101182 136 140 143
-646.89917880905 334.737129407236 2353.76107069365 139 143 146
-655.771098563095 333.842549708523 2354.67163759877 155 159 162
-663.904778692245 333.839339241155 2350.63330929581 167 171 174
-671.483560688565 334.547093106266 2342.63136803853 170 174 177
-679.661084335832 334.539895111316 2338.58757882472 172 176 179
-687.305281330066 335.242227499582 2330.57748843969 174 178 181
-694.987566720134 335.941536216507 2322.56265281078 182 186 187
-702.575854921546 336.815140032047 2313.55140137717 183 187 188
-710.983577208428 336.621924292541 2310.48706170335 175 179 180
-719.149009525766 336.781414635226 2305.43665535004 170 174 175
-727.831896591764 336.231310726638 2304.35453105597 168 172 173
-735.545039935264 337.094509439267 2295.32748557149 181 185 186
-743.064483700062 338.307557636082 2284.30831713674 190 194 193
-750.406419402907 339.869364102344 2271.29500801983 178 182 183
-758.718129603241 340.01637042815 2266.22637992772 170 174 175
-766.941014190401 340.337519056221 2260.16045078251 166 170 171
-775.513988716508 340.128579969907 2257.07553001308 162 166 167
-784.097708144981 339.918242209225 2253.98951229546 157 161 162
-791.873745045822 341.111062008095 2242.93837582506 169 173 174
-799.205738646224 343.176685706631 2226.90143880696 193 197 198
-806.328022553265 345.762023263487 2207.86624237627 176 180 181
-814.206693727204 347.115295216201 2195.79394784339 179 183 184
-821.961657346022 348.81377859291 2181.72080798365 176 180 181
-830.141764969677 349.808371779845 2171.62769526555 166 170 171
-837.939845025101 351.671755882292 2156.5408131023 150 154 155
-844.97962556416 355.272962387205 2131.46663422283 157 161 162
-852.390796379323 358.342724224006 2109.37080913648 138 142 143
-860.304900860201 360.534554392571 2092.25320866345 107 111 112
-868.907155005892 361.329644983255 2083.11538676754 149 153 154
-877.479665314747 362.294939869157 2072.97338167022 170 174 173
-446.484895158893 340.672866735842 2365.65506355169 179 183 186
-455.502369709848 339.787468518577 2366.54744189957 164 168 169
-466.588765990713 337.107872624754 2377.2641880595 153 155 154
-475.149096547808 336.582895704931 2376.19729192216 153 154 158
-484.115288800573 335.699094746893 2377.09630606009 144 148 151
-492.671896434504 335.173339721375 2376.02987657066 138 142 145
-501.820552716992 334.110742540855 2377.91427822808 143 147 150
-509.981971261339 333.941519148099 2374.88061262221 144 148 149
-517.579822404017 334.306367936376 2368.8925688729 141 145 146
-523.88270274904 335.916809867933 2356.00879964205 98 102 101
-531.36869553795 336.454165226134 2349.02657376588 122 126 125
-538.15353722981 337.700634020084 2338.09899131496 155 160 156
-546.44007468972 337.520931502228 2335.04973920453 123 128 124
-555.450754690523 336.629458921737 2335.94322173746 102 107 103
-564.802187111001 335.383307633711 2338.81048861306 106 110 109
-573.959824953635 334.315061889921 2340.69378430016 104 108 107
-583.101841950163 333.247214061759 2342.5790283286 117 121 120
-593.901792834729 330.410452504607 2354.33962216891 124 128 127
-603.150059578225 329.168305408044 2357.21975296619 143 147 148
-612.215278780318 328.103438930006 2359.11457305408 142 146 147
-619.513015214157 328.97972617978 2350.13957369661 145 149 150
-628.106796737891 328.442584913097 2349.06853511077 144 148 149
-636.39329505126 328.25703211426 2346.0193032921 142 146 147
-646.202409975929 326.310947184828 2352.86228600881 141 145 146
-655.07801371248 325.421390852091 2353.77262021458 153 157 160
-663.651683764755 324.883082191685 2352.70409449577 165 169 172
-671.224466934278 325.572107114974 2344.70295117861 169 173 176
-679.677331896604 325.206576371974 2342.64135911814 172 176 179
-687.447745763699 325.715420813647 2335.62371425538 174 178 181
-694.980984749823 326.571447142398 2326.61913865934 181 185 186
-702.557705893317 327.423989245746 2317.60938619144 181 185 186
-710.954907766812 327.225889553074 2314.54637226474 174 178 179
-718.475460875825 328.247151544611 2304.53549781947 169 173 174
-726.913469904231 328.045138313735 2301.46740170725 168 172 173
-734.391228784496 329.23426570139 2290.45349829426 181 185 186
-742.160492970159 330.071553094376 2281.41951749699 190 194 193
-749.393162730079 331.773869050646 2267.41178699886 180 184 185
-757.828926325862 331.735826640509 2263.33585219384 172 176 177
-766.391447237694 331.52271601185 2260.25224695928 166 170 171
-775.072615086165 331.135116068466 2258.16222216679 162 166 167
-783.548750381482 331.09259063921 2254.08126101822 157 161 162
-791.221258529103 332.431106096167 2242.0347332729 167 171 172
-798.554096002688 334.455768837338 2225.99803908238 184 188 189
-805.676678328686 336.992112681665 2206.96269416523 175 179 180
-813.745584387502 337.970677558107 2196.88350095499 181 185 186
-821.404654903446 339.8063076622 2181.81403944962 182 186 187
-829.583904554689 340.776469408081 2171.72109814073 163 167 168
-837.294055695967 342.773688434232 2155.63714943844 144 148 149
-844.166091725551 346.652914856678 2128.56755746137 155 159 160
-851.340023994309 350.179462659648 2103.47683385017 128 132 133
-859.112059015192 352.669475697906 2084.36056308675 117 121 122
-867.509015728904 353.954794908529 2072.22400880244 144 148 149
-876.037686163695 355.064789871374 2061.07916623279 173 177 176
-432.573256518383 336.462325547171 2345.23144407821 35 41 39
-444.643814576148 333.099900679636 2359.85815953399 174 178 179
-453.88909112778 332.041898228037 2361.73049145298 151 155 156
-464.575494575012 329.74726914559 2370.48052609229 156 158 157
-474.181923705085 328.33812587683 2374.32408721783 156 157 161
-483.559700481004 327.106483520149 2377.1882685336 145 149 152
-492.116824528932 326.580456707325 2376.1217753145 144 148 151
-500.280233379218 326.406089856509 2373.08787487533 140 144 147
-507.482516082861 327.109998345845 2365.1329286306 145 149 150
-514.723396309649 327.81085072951 2357.1731736913 152 156 157
-520.300460567967 330.088915193722 2340.34699492667 109 113 112
-528.202106149624 330.256251936602 2335.32948693526 88 92 91
-535.574831374391 330.947331426767 2327.35330425624 133 138 134
-544.434396501554 330.235104053585 2327.25724562921 104 109 105
-553.289257482171 329.522519417422 2327.1617749927 112 117 113
-563.368854985955 327.586558463236 2333.97121669022 105 109 108
-572.541087226142 326.525445468513 2335.85267229895 103 107 106
-581.186981639275 325.9879106991 2334.77513136887 120 124 123
-591.508769030348 323.707611145452 2343.5706302001 128 132 131
-601.447337293922 321.778123727325 2350.39741419648 140 144 143
-610.532570539888 320.720104457971 2352.28971861813 138 142 141
-618.326675087715 321.052204954798 2346.27726984555 144 148 149
-627.088603723938 320.340705648662 2346.19363402677 145 149 150
-635.537480627802 319.975725074949 2344.13229793484 142 146 147
-645.051349758162 318.397365645166 2348.9957829928 142 146 147
-653.641496534733 317.858485100394 2347.92520258224 153 157 158
-662.377879332357 317.146221819216 2347.84451647625 162 166 169
-670.536407923168 317.124410041325 2343.80337648681 167 171 174
-679.554349637706 316.065837627273 2345.70383968171 173 177 180
-687.316260668213 316.558802649458 2338.68753800931 176 180 183
-694.840625760121 317.393476251647 2329.68412605445 180 184 185
-701.746577643608 319.085010468215 2315.71695614034 179 183 184
-710.149481089909 318.880995892641 2312.65348653644 174 178 179
-717.80146671491 319.705687946452 2303.63417457958 170 174 175
-725.993944300774 319.841178972602 2298.58045633799 167 171 172
-733.721879810249 320.659780920718 2289.55192259138 178 182 183
-741.255416131511 321.817464701476 2278.53114128912 188 192 191
-748.843063555592 322.970984628114 2267.50361820649 180 184 185
-757.052044615344 323.266502337321 2261.43949163742 172 176 177
-765.841775440667 322.706307147475 2260.34406044887 163 167 168
-774.415346197347 322.486400916671 2257.25909415497 161 165 166
-783.421017324676 321.584079380218 2258.15323033603 158 162 163
-791.492033295827 322.212816806609 2250.09006927573 164 168 169
-798.501537577036 324.708108840051 2231.06894393854 182 186 187
-805.122101068139 328.045344166837 2207.05546312516 169 173 174
-813.095596740743 329.169087514794 2195.97986687779 168 172 173
-820.663881731255 331.135930085977 2179.91394249646 176 180 181
-828.936763132307 331.912168908659 2170.81727401731 166 170 171
-836.129331014725 334.883041785768 2148.74898970515 155 159 160
-842.932881990316 338.859389464238 2120.68000139438 161 165 166
-849.639082813319 343.331866946653 2089.59855370363 104 108 109
-857.759812450074 345.096400624931 2074.47166709919 113 117 118
-866.031422866788 346.686959561929 2060.33433698863 157 161 160
-874.29997225673 348.44058572262 2045.1892723462 157 161 160
-425.325064698676 326.723206949399 2355.23152787858 33 38 34
-433.52293847255 326.544613930607 2352.19333755016 184 190 190
-443.868854144985 324.621249465742 2358.96951114228 167 171 172
-453.11784524191 323.571013150049 2360.84135905613 170 174 175
-463.392711405863 321.651097443305 2367.62614985595 148 150 149
-473.008601503746 320.254908394236 2371.46849619416 147 148 150
-482.59850741872 318.859720246523 2375.31432283769 143 147 150
-490.360984512249 319.027263102961 2370.31418170805 143 147 150
-497.751042808318 319.539674498992 2363.34399357847 134 138 141
-504.784933738767 320.395742462446 2354.40197382675 128 132 133
-512.054767871923 321.075756155076 2346.43842022033 125 129 130
-518.037972843948 322.962669100019 2331.57820204443 134 138 137
-525.590497379259 323.462879076197 2324.58777122068 143 147 146
-532.808348621831 324.305495768377 2315.62282973302 85 90 86
-541.338672343176 323.938434622821 2313.55157530762 37 42 38
-550.767615014233 322.709502420296 2316.40912401634 107 112 108
-562.109537052752 319.589093325278 2330.11820423281 93 98 94
-572.159248045341 317.676118247249 2336.93131505776 100 105 101
-581.314254019237 316.623627660778 2338.81489769587 115 120 116
-590.956711254308 315.056904198536 2343.66230507566 132 136 135
-600.567229757536 313.491675413203 2348.51345401545 134 138 137
-609.658959348347 312.441364507542 2350.40492743197 143 147 146
-617.777372046249 312.417387785193 2346.36855910136 145 149 148
-626.226259176869 312.050199342752 2344.30746781627 142 146 147
-634.835166670879 311.511377798642 2343.23454602371 138 142 143
-644.201886126786 310.119419025948 2347.10821651342 144 148 149
-653.095560656345 309.23951869289 2348.01602989359 156 160 161
-662.124872764808 308.189481363173 2349.91529192244 161 165 168
-670.421404567288 307.989851880239 2346.8648450541 166 170 173
-679.010381114011 307.449194497866 2345.79441536055 173 177 180
-686.771865261163 307.925822834295 2338.77820998275 175 179 182
-694.29548040584 308.738745612258 2329.77494889689 180 184 185
-701.332378326338 310.225444505656 2316.79990448498 179 183 184
-709.732830002805 310.016268342895 2313.73651417157 174 178 179
-717.889956087199 310.143500356748 2308.68722933818 170 174 175
-725.819963927369 310.606463875405 2301.64978891687 167 171 172
-733.173836593962 311.909679384178 2289.64335822573 177 181 182
-740.111131775054 313.882436585468 2273.65592179754 187 191 190
-747.711236822699 315.007989292515 2262.62691772782 179 183 184
-755.933516196888 315.288923718552 2256.56117001228 172 176 177
-764.959244511755 314.392013309668 2257.4527889249 162 166 167
-773.433016256264 314.333871793411 2253.37216385791 159 163 164
-782.344949524342 313.603855498569 2253.26961684298 158 162 163
-790.428937218001 314.21271517246 2245.20488933575 161 165 166
-797.95004957762 315.822000435457 2231.16116763071 181 185 186
-804.664784556272 318.929748758042 2208.14446648521 173 177 178
-811.971728583243 321.194847482015 2190.09475599901 169 173 174
-819.830284266514 322.619823172057 2177.01709583301 177 181 182
-827.574924973797 324.373082284119 2161.93741286347 163 167 168
-835.048648297382 326.786305093255 2142.8585718606 153 157 158
-841.780701657738 330.854590947888 2113.79057681542 146 150 151
-848.663769986548 334.912477389912 2084.7035231127 103 107 108
-856.874821523298 336.472315125824 2070.57383129554 130 134 135
-864.852682711438 338.689596189648 2052.44052024015 141 145 144
-873.287273432681 340.072858477545 2039.29108415766 135 139 138
-427.830510113625 315.642787876296 2369.05662344173 101 106 102
-434.691726063531 316.491581236229 2360.13617166415 183 187 188
-444.37643530766 315.106058005011 2363.96990169171 172 176 177
-453.190699621473 314.407466548241 2363.87946042867 147 151 152
-463.042580030512 312.85212661545 2368.70070305633 158 160 159
-472.45144787239 311.640538564474 2371.56071130984 148 152 153
-481.839677391114 310.429670575099 2374.42353347654 140 144 147
-489.604629473188 310.586064373301 2369.42287257488 134 138 141
-495.811291642763 312.105527670276 2356.55135039248 144 148 151
-502.863133844826 312.938710652834 2347.60691042624 143 147 148
-509.382437524131 314.279445781628 2335.70453020421 136 140 141
-516.340901734443 315.275716366454 2325.7636266757 91 95 94
-523.348769543084 316.268304662678 2315.81680783611 106 110 109
-530.405963524155 317.257389761577 2305.86360233862 91 96 92
-538.056694978348 317.733964235433 2298.86097811525 35 40 36
-548.063507178325 316.004747317977 2304.67103116839 97 102 98
-559.617013899654 312.753617104347 2319.36197848368 97 102 98
-570.738059532866 309.845566582758 2332.09037643279 108 113 109
-580.419405106144 308.293267090583 2336.93289279287 116 121 117
-589.733107423864 307.079977744694 2339.80478162148 135 139 138
-598.695384782889 306.204667850386 2340.70426195409 131 135 134
-607.972296658576 304.992527822964 2343.58073898567 144 148 147
-616.589003806556 304.454284395592 2342.50684231996 143 147 146
-625.363216253649 303.747315311424 2342.42142135528 142 146 147
-633.978093034924 303.207994045071 2341.34775594696 142 146 147
-643.351687216484 301.829094528344 2345.22053412046 147 151 152
-652.251727893243 300.954106414169 2346.12778037569 155 159 160
-661.287529004387 299.91189485638 2348.02597173774 164 168 171
-669.733277952662 299.539053559325 2345.96528696584 167 171 174
-678.184722993967 299.165252166529 2343.90389388359 168 172 175
-685.674871457638 299.959105585903 2334.90485946014 170 174 177
-693.20856848659 300.749470549308 2325.90063988867 181 185 186
-700.254817359053 302.202962912544 2312.9242757127 183 187 188
-709.18643705392 301.321722758022 2313.82759755768 175 179 180
-717.598109298971 301.105680394842 2310.76282506554 171 175 176
-725.646918966827 301.386500290717 2304.71896591417 167 171 172
-732.62571163764 303.158090000141 2289.73480797895 175 179 180
-739.680266271116 304.924253511908 2274.74096941965 185 189 188
-747.043617977483 306.353904054815 2261.72533574004 181 185 186
-755.382161323858 306.455720695372 2256.65323776662 174 178 179
-764.297772165749 305.729354564355 2256.55046246839 160 164 165
-772.882742935858 305.49791237047 2253.46410389976 157 161 162
-781.372766481137 305.429956358969 2249.38147655023 155 159 160
-789.569987830847 305.854516298607 2242.31079059714 155 159 160
-797.298184723663 307.098888001129 2230.25780141862 175 179 180
-804.500352729265 309.325093526328 2212.22126878431 177 181 182
-811.509677109311 312.03720817929 2191.18422070669 171 175 176
-819.272005521353 313.593800225166 2177.11053543007 179 183 184
-827.104353420007 315.145214961571 2163.02812576973 164 168 169
-834.226037791366 318.164446910848 2139.96063258186 158 162 163
-840.626008313928 322.810117822548 2106.90157032708 125 129 128
-847.442635004343 326.954185626498 2076.81489409429 122 126 125
-855.673794526331 328.477386830533 2062.68278940045 111 115 114
-864.202570311534 329.506451511461 2051.5381468107 149 153 152
-873.077865199691 329.880349000956 2044.3829747065 179 183 182
-881.420942634758 331.552364836008 2029.22882432253 178 183 179
-425.953424462652 308.021829463712 2363.26433902985 177 179 176
-434.996651663437 307.156890369867 2364.15368998965 174 178 179
-445.527863832804 305.109613099352 2371.91475309257 156 160 163
-453.476066815688 305.089850549407 2367.89961483025 169 173 174
-462.275700035056 304.394221731863 2367.8109916393 154 156 155
-470.247363065968 304.371949364945 2363.79293231119 146 150 151
-479.861525639354 303.002210359768 2367.63566484774 142 146 149
-488.046171342284 302.810126718877 2364.59916083145 139 143 146
-495.45135423771 303.288548218812 2357.62717475246 135 139 142
-502.109455583447 304.435471709795 2346.71567089647 134 138 139
-508.24526055775 306.081229863349 2332.8447313132 134 138 139
-515.400509479855 306.884834704225 2323.88770496136 119 123 122
-521.851764577412 308.354373263449 2310.98555023385 98 102 101
-528.552932671092 309.652108712139 2299.06058764621 59 64 60
-536.222089663751 310.111026048385 2292.05571052401 48 53 49
-546.965003721281 307.732520488883 2301.80660095715 99 104 100
-558.529964098942 304.524138367562 2316.49600634826 96 101 97
-570.182492167094 301.154054070778 2332.18259674441 105 110 106
-580.206951389482 299.285389042894 2338.99874215204 126 131 127
-589.516485238481 298.083174969184 2341.87112201457 130 135 131
-597.812844848676 297.877106459124 2338.82071359175 139 143 142
-606.933781704227 296.841119597167 2340.70850439245 140 144 143
-615.719140840318 296.136608185012 2340.62192618343 141 145 144
-624.813956781898 295.101088427459 2342.51273522092 140 144 143
-634.356614286379 293.570225543812 2347.37250257953 143 147 148
-643.563557579753 292.370904023573 2350.25767751945 145 149 150
-652.600122012935 291.33724633736 2352.15599136585 155 159 160
-661.327996551583 290.633351192183 2352.07658527183 167 171 174
-669.332163462563 290.752169532942 2347.04617072737 165 169 172
-677.358303746705 290.868873881298 2342.0132598717 165 169 172
-684.853114448331 291.640455026497 2333.0139425505 169 173 176
-692.391407380314 292.408785822637 2324.00896719496 179 183 184
-699.840328020914 293.337562651138 2314.00727561465 181 185 186
-708.379595559451 292.953087570995 2311.93471064397 176 180 181
-716.796973066636 292.731130089881 2308.86948201484 171 175 176
-724.975713682257 292.83458931195 2303.81756242054 167 171 172
-732.199569880337 294.241590697958 2290.81915633268 174 178 179
-739.130292382663 296.132947213233 2274.83275450175 183 187 186
-745.908887218444 298.344211801436 2256.84912064133 181 185 186
-754.032993313033 298.75957405386 2249.7875832616 174 178 179
-763.190815647976 297.709651269871 2251.67080767229 162 166 167
-771.789621622362 297.471895478462 2248.58297944733 160 164 165
-780.081584301417 297.719246248225 2242.50862410867 157 161 162
-787.98792928831 298.612250853314 2232.44970261035 157 161 162
-796.043256379359 299.339643336198 2223.38055252675 168 172 173
-803.359825417888 301.356749770948 2206.33798107308 177 181 182
-810.192587275446 304.336516938302 2183.30664763594 170 174 175
-817.790372939151 306.178989930993 2167.23736926786 176 180 181
-825.917072950774 307.210078880422 2156.14289802677 168 172 173
-833.22845040562 309.846453825061 2135.06835496896 153 157 158
-839.552994212849 314.565259335936 2101.01058555803 120 124 123
-846.544637896197 318.308410925426 2072.91849823418 105 109 108
-854.942662986156 319.474695467398 2060.7821240964 111 115 114
-863.551905410132 320.316113141641 2050.63562100576 170 174 173
-872.576331312838 320.353514030006 2045.47833884954 160 165 161
-880.915007490337 321.987767213966 2030.32483716309 174 179 175
-888.920969147638 324.574816772093 2009.1637439998 173 178 174
-424.952593166583 299.700671693354 2361.39577613518 178 180 179
-436.170503435798 297.176931128452 2372.09545941866 172 176 177
-445.611370249791 295.986178158928 2374.95141952118 163 167 170
-452.917109146848 296.456544267861 2367.99210494761 171 175 176
-460.673575197023 296.592814796483 2362.99255604647 147 149 148
-468.452619762177 296.727171670464 2357.99043478842 146 150 151
-478.084348688754 295.369691358833 2361.83094286511 141 145 148
-486.887317428818 294.674805604552 2361.74190146405 138 142 145
-494.893859357382 294.640695978719 2357.71952062873 134 138 141
-501.355520068298 295.925261658804 2345.82448182862 134 138 139
-506.914594385685 298.029963939765 2329.00100464539 134 138 139
-513.510232756284 299.305218085482 2317.08927074702 124 128 127
-519.604541761259 301.069846453131 2302.21526920799 105 109 108
-527.06641590833 301.678563350443 2294.22817816947 44 49 45
-535.293774125247 301.627579516661 2290.17828520443 43 48 44
-545.865504626514 299.442440429953 2298.94234201146 94 99 95
-556.736574170948 296.932257840263 2309.68551353119 97 102 98
-568.585144267425 293.443309516263 2326.35563916357 106 111 107
-579.482391906537 290.777485619622 2338.10364078588 124 129 125
-588.627674491294 289.749145012591 2339.98837324736 130 135 131
-597.426239182029 289.047554828925 2339.90013937024 141 146 142
-606.05709506513 288.508828101266 2338.82447829879 142 147 143
-614.848549973811 287.806553625982 2338.73689321376 139 143 142
-624.422123154969 286.290562894507 2343.5927633134 135 139 138
-633.963683827209 284.776074043852 2348.45262442975 143 147 146
-643.321166073003 283.425312321297 2352.32709890896 148 152 151
-651.75623640363 283.048731871248 2350.26775661234 158 162 163
-660.343660133994 282.509188689458 2349.19751776688 156 160 163
-668.643627710911 282.292797280721 2346.14668627614 161 165 168
-676.813528637739 282.236694643826 2342.10397712141 172 176 179
-684.307559877506 282.986526845049 2333.10481434751 174 178 181
-691.845073301646 283.732989255758 2324.09999385955 178 182 183
-698.760765698875 285.28194329473 2310.13198386673 180 184 185
-707.050609492075 285.21587294724 2306.07457306973 176 180 181
-715.356793104061 285.148221655896 2302.01488705455 170 174 175
-724.179121081562 284.436395670521 2301.92347434662 167 171 172
-732.262658718093 284.687110427809 2295.87512036213 175 179 180
-739.177936663006 286.538424207848 2279.89099164051 182 186 185
-745.707050413371 289.024614417867 2259.92215307267 187 191 192
-753.822634546483 289.424155687473 2252.86172084735 178 182 183
-762.750632555915 288.702435142284 2252.75738746985 163 167 168
-771.346977029996 288.45939893919 2249.66964006262 159 163 164
-779.530007966965 288.852851794521 2242.60080690854 156 160 161
-787.435443307856 289.721368528268 2232.5420634166 155 159 160
-795.188224959282 290.904272681744 2220.48616807815 165 169 170
-802.902420582573 292.241754706899 2207.42675360564 182 186 187
-809.919786365815 294.844483519861 2186.38899007215 175 179 180
-817.507554533577 296.646744705042 2170.32106772471 178 182 183
-825.355735608731 298.126379979421 2156.23687120621 167 171 172
-832.316089260082 301.341466073737 2131.17362116712 155 159 160
-838.393419765038 306.444115259133 2094.12239011283 96 100 99
-845.318469466886 310.270650972642 2065.03070663686 111 115 114
-853.894830824389 311.090393927023 2054.88836398853 121 125 124
-862.748257863009 311.43379537727 2047.73624144164 127 131 130
-871.85428293823 311.302409044992 2043.57690778443 128 133 129
-880.550926708777 312.112518486973 2033.41957997156 184 189 185
-889.023103906353 313.546907185323 2019.25763158126 168 173 169
-409.547476203578 296.158421597253 2335.11017087955 194 193 189
-422.632754527345 292.350229218227 2353.64241781949 168 168 166
-434.742979104266 289.202725867725 2368.26361714002 167 168 170
-444.624466964303 287.694949745556 2373.08103967523 157 158 162
-452.569826392823 287.658586410323 2369.06629998927 174 175 179
-459.487721429809 288.436521798639 2360.13896159865 141 142 144
-466.862160034197 288.885249124476 2353.17089042398 139 143 146
-476.101644344163 287.865957319336 2355.04384323737 137 141 144
-485.125003710075 287.009806412936 2355.93541017338 137 141 144
-493.345877832577 286.80377149019 2352.89466207345 133 137 140
-500.015029722616 287.895106303404 2341.98192556566 128 132 133
-505.775347633306 289.793359064736 2326.14156514739 132 136 137
-511.997584495269 291.362123546865 2312.26004213562 112 116 115
-518.290848122451 292.925885438863 2298.36966857759 95 99 98
-526.685905607057 292.706424870751 2295.30721877979 42 47 43
-535.274416703227 292.324247412853 2293.22850245354 61 66 62
-545.123491215673 290.811787599234 2298.04998231724 101 106 102
-555.646853740092 288.656186761418 2306.8199973739 105 110 106
-567.681016099515 285.054477343614 2324.47518650833 120 125 121
-578.757530907375 282.262616412059 2337.20883566004 126 131 127
-588.411785781937 280.76005939544 2342.05460178412 131 136 132
-596.874275476679 280.382448840835 2339.9918404257 139 144 140
-605.179680525763 280.164158256916 2336.94033537198 140 145 141
-613.977290245778 279.464119461284 2336.8519763153 138 142 141
-623.400289583485 278.123937809319 2340.71848705528 136 140 139
-633.571068445964 275.985781910228 2349.53245652787 145 149 148
-642.927268335449 274.648658818769 2353.40705512072 150 154 153
-651.658985741146 273.950431357937 2353.32715453397 157 161 160
-660.238857393411 273.411309564673 2352.2578570335 155 159 162
-668.242809240792 273.508163839472 2347.22752716928 161 165 168
-676.127377684788 273.761881585026 2341.20423572421 172 176 179
-683.34601761916 274.807281694921 2330.22304732443 174 178 181
-691.162760889346 275.214274737357 2323.1998890481 177 181 182
-698.745718202946 275.935389071092 2314.1897044534 180 184 185
-706.633189126846 276.33668191221 2307.15773479529 176 180 181
-714.681086712554 276.577125484915 2301.11385552724 172 176 177
-723.381778408133 276.025708152658 2300.02951277951 169 173 174
-731.960148140815 275.631338990375 2297.95233441064 173 177 178
-738.987770882378 277.284733279583 2282.9623940347 181 185 184
-745.506142564836 279.719768958113 2262.99503072706 184 188 189
-753.270302387767 280.575248264248 2252.95395191815 175 179 180
-762.199073654396 279.856165956788 2252.84951509502 161 165 166
-770.686808966109 279.764586286384 2248.76723551558 159 163 164
-779.190676512401 279.671262233742 2244.6829473224 157 161 162
-787.400230879597 280.046064291742 2237.61085331725 158 162 163
-794.735132239853 281.825493170625 2221.57430711177 161 165 166
-802.151047363637 283.599226011962 2205.52790613662 180 184 185
-809.266421482335 285.99127226693 2185.48615366549 174 178 179
-816.947639528672 287.596757953813 2170.41477462514 177 181 182
-824.164602302365 290.130931043175 2149.35228310631 169 173 174
-830.965986778508 293.590630810132 2122.29261283394 161 165 166
-837.14679488868 298.438711535512 2086.23682588144 97 101 100
-844.49858651173 301.411999703916 2062.13305056206 92 96 95
-853.240467891923 301.896829759744 2053.98654843976 109 113 112
-862.47835446758 301.449815039134 2051.82720490811 115 120 116
-871.49998658114 301.465714752116 2046.67032802284 111 116 112
-880.400674525159 301.788544583034 2039.51212150025 181 186 182
-888.855085063258 303.188709581753 2025.3524804109 167 172 168
-407.64463614092 288.387827575551 2329.32149452604 91 91 83
-420.750086499174 284.632697317097 2347.85108437813 166 166 164
-432.445353299645 281.849258312243 2360.50773502908 173 173 175
-442.99341322715 279.873945480067 2368.26626584686 141 142 146
