ply
format ascii 1.0
comment KinectMotionCapture
element vertex 750
property float x
property float y
property float z
property uchar red
property uchar green
property uchar blue
end_header
-235.691696405411 467.904537916183 1685.99998950958 203 205 204
-232.340961694717 470.417976379395 1695.00005245209 204 206 205
-228.403463959694 471.821248531342 1700.00004768372 205 207 206
-224.438384175301 473.224371671677 1705.00004291534 204 206 205
-220.445722341537 474.627405405045 1710.00003814697 202 204 203
-216.299250721931 475.752741098404 1713.99998664856 200 202 201
-212.130650877953 476.877927780151 1718.00005435944 200 202 201
-208.060622215271 478.280574083328 1723.00004959106 207 209 208
-203.962996602058 479.683011770248 1728.00004482269 207 209 208
-199.722498655319 480.807781219482 1731.99999332428 208 210 209
-195.685014128685 482.48752951622 1738.00003528595 206 208 207
-191.284909844399 483.334332704544 1741.00005626678 203 205 204
-186.653763055801 483.625590801239 1741.99998378754 201 203 202
-182.330131530762 484.749585390091 1746.00005149841 203 205 204
-178.086042404175 486.150979995728 1751.00004673004 205 207 206
-173.91337454319 487.829774618149 1756.99996948242 197 199 198
-169.611409306526 489.230781793594 1761.99996471405 191 193 192
-165.18834233284 490.353852510452 1766.00003242493 188 190 189
-160.743147134781 491.476744413376 1769.99998092651 186 188 185
-156.187742948532 492.321640253067 1773.00000190735 169 171 168
-151.871770620346 493.999361991882 1779.00004386902 168 170 167
-147.357508540154 495.121479034424 1782.99999237061 167 169 166
-142.980992794037 496.798723936081 1789.00003433228 173 175 172
-138.648688793182 498.753398656845 1796.0000038147 178 180 177
-134.128987789154 500.152349472046 1800.99999904633 180 182 179
-129.510030150414 501.273393630981 1804.99994754791 190 192 189
-124.937988817692 502.671778202057 1809.99994277954 193 195 192
-120.338447391987 504.069983959198 1815.00005722046 197 199 196
-115.838550031185 506.023287773132 1822.00002670288 201 203 200
-111.23938113451 507.698535919189 1827.99994945526 204 206 203
-106.665417551994 509.651243686676 1835.00003814697 199 201 200
-102.10844129324 511.881351470947 1843.00005435944 198 200 199
-97.4549725651741 513.833522796631 1850.00002384186 201 203 202
-92.6631987094879 515.229761600494 1855.00001907349 197 199 198
-87.6550748944283 515.514671802521 1855.99994659424 194 196 195
-82.7302932739258 516.354739665985 1858.99996757507 192 194 193
-77.9143050312996 518.027722835541 1865.00000953674 194 196 195
-73.0654299259186 519.700348377228 1871.00005149841 204 206 205
-68.3652982115746 522.761404514313 1881.99996948242 204 206 205
-63.3698478341103 523.877799510956 1886.0000371933 201 203 202
-58.3524368703365 524.99383687973 1889.99998569489 201 203 202
-53.2004907727242 524.998247623444 1889.99998569489 206 208 207
-48.1755249202251 526.391208171844 1894.99998092651 213 215 214
-43.0778004229069 527.228236198425 1898.00000190735 214 216 215
-37.9037074744701 527.231574058533 1898.00000190735 254 255 255
-399.214386940002 466.58331155777 1700.00004768372 23 23 21
-395.068347454071 467.149168252945 1702.00002193451 138 138 138
-389.534831047058 466.068208217621 1697.99995422363 173 173 173
-381.982505321503 462.516993284225 1684.99994277954 188 190 189
-373.828500509262 458.142131567001 1669.0000295639 192 194 193
-367.531210184097 455.96307516098 1661.00001335144 176 178 175
-362.151324748993 454.882115125656 1656.99994564056 170 172 169
-357.224524021149 454.350143671036 1654.99997138977 178 180 175
-352.521479129791 454.09283041954 1654.00004386902 175 177 174
-348.033964633942 454.110085964203 1654.00004386902 176 178 175
-343.338429927826 453.85280251503 1652.99999713898 177 179 176
-338.442981243134 453.320950269699 1651.00002288818 177 179 176
-333.760410547256 453.063696622849 1649.99997615814 170 172 169
-328.883349895477 452.53187417984 1648.00000190735 159 161 158
-324.213653802872 452.274590730667 1646.99995517731 170 172 169
-319.937348365784 452.566593885422 1648.00000190735 184 186 183
-315.846651792526 453.133106231689 1649.99997615814 194 196 193
-311.744749546051 453.699737787247 1651.99995040894 192 194 191
-307.445704936981 453.991740942001 1652.99999713898 183 185 182
-303.140789270401 454.283744096756 1654.00004386902 191 193 192
-299.191206693649 455.125033855438 1656.99994564056 198 200 199
-295.22493481636 455.966293811798 1659.9999666214 193 195 194
-291.417181491852 457.082331180573 1664.00003433228 192 194 193
-287.070006132126 457.374215126038 1664.99996185303 143 145 144
-282.547324895859 457.391351461411 1664.99996185303 133 135 134
-278.024256229401 457.408428192139 1664.99996185303 151 153 152
-273.007988929749 456.601142883301 1661.99994087219 125 127 126
-268.815398216248 457.167476415634 1664.00003433228 181 183 182
-264.92914557457 458.283185958862 1667.99998283386 190 192 191
-261.489152908325 460.223138332367 1674.99995231628 174 176 175
-256.936877965927 460.239708423615 1674.99995231628 149 151 150
-252.233594655991 459.981441497803 1674.00002479553 180 182 181
-247.535243630409 459.722846746445 1672.99997806549 204 206 205
-242.842048406601 459.464222192764 1672.00005054474 201 203 202
-238.581374287605 460.029780864716 1674.00002479553 202 204 203
-234.72885787487 461.419671773911 1679.00002002716 201 203 202
-230.985760688782 463.084250688553 1684.99994277954 206 208 207
-226.940989494324 464.199185371399 1689.00001049042 207 209 208
-223.268941044807 466.138422489166 1695.99997997284 206 208 207
-219.558477401733 468.077719211578 1702.99994945526 204 206 205
-215.6832665205 469.742000102997 1708.99999141693 204 206 205
-211.281090974808 470.306664705276 1710.99996566772 204 206 205
-207.109197974205 471.42094373703 1715.0000333786 203 205 204
-203.151181340218 473.084777593613 1720.99995613098 203 205 204
-199.160158634186 474.748522043228 1726.99999809265 203 205 204
-195.248678326607 476.686954498291 1733.99996757507 207 209 208
-191.0789757967 478.075474500656 1738.9999628067 209 211 210
-186.45304441452 478.364199399948 1740.00000953674 199 201 200
-182.134598493576 479.477375745773 1743.99995803833 202 204 203
-177.895739674568 480.865269899368 1748.99995326996 205 207 206
-173.827275633812 482.802957296371 1756.00004196167 203 205 204
-169.527783989906 484.190434217453 1761.0000371933 201 203 202
-164.826512336731 484.477907419205 1761.99996471405 197 199 198
-160.301104187965 485.314935445786 1764.99998569489 195 197 194
-155.759051442146 486.151844263077 1768.00000667572 194 196 193
-151.45643055439 487.813383340836 1774.00004863739 195 197 194
-147.038146853447 489.199638366699 1779.00004386902 194 196 193
-142.672225832939 490.860641002655 1784.9999666214 192 194 191
-138.427734375 493.071436882019 1792.99998283386 194 196 193
-133.99039208889 494.731932878494 1799.00002479553 195 197 194
-129.376530647278 495.842158794403 1802.99997329712 197 199 196
-124.671570956707 496.677070856094 1805.99999427795 198 200 197
-120.082601904869 498.061716556549 1810.99998950958 201 203 200
-115.593269467354 499.996095895767 1817.999958992 204 206 203
-111.126400530338 502.2052526474 1825.99997520447 205 207 206
-106.615670025349 504.414081573486 1833.99999141693 203 205 204
-102.005697786808 506.347596645355 1840.99996089935 202 204 203
-97.2519591450691 507.730782032013 1845.99995613098 201 203 202
-92.4207866191864 508.838474750519 1850.00002384186 200 202 201
-87.5675976276398 509.945869445801 1853.99997234344 199 201 200
-82.6923996210098 511.052846908569 1858.00004005432 197 199 198
-77.8369754552841 512.434542179108 1863.00003528595 194 196 195
-72.9150623083115 513.540804386139 1866.99998378754 205 207 206
-68.0438280105591 515.196859836578 1873.00002574921 212 214 213
-63.1397217512131 516.852557659149 1878.99994850159 200 202 201
-58.2336373627186 518.783032894135 1886.0000371933 192 194 193
-53.1484819948673 519.33765411377 1888.00001144409 196 198 197
-48.103142529726 520.442008972168 1891.99995994568 202 204 203
-43.0585853755474 521.821022033691 1896.99995517731 209 211 210
-37.9467196762562 522.649526596069 1899.99997615814 213 215 214
-404.791414737701 463.04839849472 1703.9999961853 16 17 12
-399.935811758041 462.793588638306 1702.99994945526 101 101 99
-395.317584276199 462.810784578323 1702.99994945526 167 167 167
-388.634324073792 460.382074117661 1694.00000572205 165 165 165
-380.86611032486 456.594407558441 1679.99994754791 191 193 192
-373.397678136826 453.07844877243 1667.00005531311 182 184 183
-367.769628763199 451.736658811569 1661.99994087219 171 173 170
-362.168520689011 450.394928455353 1656.99994564056 171 173 170
-356.810063123703 449.324935674667 1652.99999713898 175 177 172
-352.112472057343 449.070483446121 1651.99995040894 177 179 176
-347.63041138649 449.087858200073 1651.99995040894 178 180 177
-343.148112297058 449.105322360992 1651.99995040894 178 180 177
-338.46041560173 448.850959539413 1651.00002288818 179 181 178
-333.980143070221 448.8685131073 1651.00002288818 175 177 174
-329.100370407104 448.342263698578 1649.00004863739 164 166 163
-324.034243822098 447.544068098068 1646.00002765656 163 165 162
-319.372296333313 447.289615869522 1644.99998092651 165 167 164
-315.289795398712 447.850942611694 1646.99995517731 190 192 189
-311.38476729393 448.68415594101 1649.99997615814 198 200 197
-307.277083396912 449.245482683182 1651.99995040894 184 186 183
-302.791595458984 449.263036251068 1651.99995040894 177 179 178
-298.847436904907 450.096279382706 1654.99997138977 192 194 193
-294.886559247971 450.929582118988 1657.99999237061 195 197 196
-291.084170341492 452.034831047058 1661.99994087219 195 197 196
-286.914825439453 452.596187591553 1664.00003433228 152 154 153
-282.564491033554 452.885419130325 1664.99996185303 129 131 130
-278.041303157806 452.902585268021 1664.99996185303 182 184 183
-273.024886846542 452.103644609451 1661.99994087219 122 124 123
-268.670648336411 452.392578125 1662.99998760223 169 171 170
-264.628201723099 453.225523233414 1666.00000858307 192 194 193
-261.03749871254 454.874634742737 1672.00005054474 178 180 179
-256.800055503845 455.435395240784 1674.00002479553 136 138 137
-251.797914505005 454.635739326477 1671.0000038147 146 148 147
-246.81168794632 453.835815191269 1667.99998283386 185 187 186
-242.131873965263 453.579932451248 1667.00005531311 196 198 197
-237.884625792503 454.14012670517 1669.0000295639 195 197 196
-233.626142144203 454.700171947479 1671.0000038147 188 190 189
-229.493424296379 455.532163381577 1674.00002479553 185 187 186
-225.478410720825 456.636250019073 1677.99997329712 185 187 186
-221.836149692535 458.556592464447 1684.99994277954 185 187 186
-218.155443668365 460.476905107498 1692.00003147125 190 192 191
-214.436188340187 462.39709854126 1699.00000095367 194 196 195
-210.061058402061 462.956368923187 1700.99997520447 197 199 198
-206.157699227333 464.604139328003 1707.00001716614 207 209 208
-202.221304178238 466.251850128174 1713.00005912781 207 209 208
-198.482483625412 468.443661928177 1720.99995613098 207 209 208
-194.587171077728 470.363289117813 1728.00004482269 208 210 209
-190.653324127197 472.282648086548 1735.00001430511 209 211 210
-186.252370476723 473.113179206848 1738.00003528595 201 203 202
-181.834697723389 473.943322896957 1741.00005626678 200 202 201
-177.502006292343 475.045502185822 1745.00000476837 204 206 205
-173.444196581841 476.964235305786 1751.99997425079 207 209 208
-169.155344367027 478.338271379471 1756.99996948242 208 210 209
-164.745345711708 479.439824819565 1761.0000371933 201 203 202
-160.131573677063 479.996621608734 1763.00001144409 201 203 200
-155.770853161812 481.369882822037 1768.00000667572 200 202 199
-151.467964053154 483.015239238739 1774.00004863739 202 204 201
-147.132053971291 484.66032743454 1779.99997138977 203 205 202
-142.52333343029 485.488265752792 1782.99999237061 200 202 199
-138.129577040672 487.132877111435 1789.00003433228 201 203 200
-133.777305483818 489.049464464188 1796.0000038147 200 202 199
-129.171326756477 490.148961544037 1799.99995231628 201 203 200
-124.612271785736 491.520375013351 1804.99994754791 201 203 200
-119.959406554699 492.619276046753 1809.00001525879 203 205 202
-115.538790822029 494.807064533234 1817.00003147125 205 207 204
-111.013442277908 496.722221374512 1824.00000095367 205 207 206
-106.565974652767 499.181777238846 1832.99994468689 205 207 206
-101.792134344578 500.279366970062 1837.00001239777 205 207 206
-96.9962626695633 501.376688480377 1840.99996089935 202 204 203
-92.2283157706261 502.745926380157 1845.99995613098 202 204 203
-87.4328911304474 504.114866256714 1850.99995136261 203 205 204
-82.5654938817024 505.211055278778 1855.00001907349 199 201 200
-77.6761025190353 506.306946277618 1858.99996757507 194 196 195
-72.7256387472153 507.129967212677 1861.99998855591 205 207 206
-67.8313300013542 508.497476577759 1866.99998378754 213 215 214
-62.9767924547195 510.409295558929 1873.99995326996 203 205 204
-58.1148229539394 512.59309053421 1881.99996948242 195 197 196
-53.0683249235153 513.414800167084 1884.99999046326 189 191 190
-48.0053462088108 514.235973358154 1888.00001144409 196 198 197
-42.9258830845356 515.056788921356 1891.00003242493 205 207 206
-37.8299653530121 515.877246856689 1894.00005340576 201 203 202
-32.6830931007862 516.152441501617 1894.99998092651 239 241 240
-403.858214616776 457.356125116348 1700.00004768372 25 26 21
-400.187879800797 458.449482917786 1703.9999961853 166 166 164
-394.638508558273 457.390636205673 1700.00004768372 161 161 161
-387.045741081238 453.910291194916 1687.00003623962 189 189 189
-379.749894142151 450.69882273674 1674.99995231628 184 186 185
-373.414993286133 448.563605546951 1667.00005531311 178 180 179
-368.229568004608 447.773784399033 1664.00003433228 172 174 171
-362.185895442963 445.907533168793 1656.99994564056 173 175 172
-356.611639261246 444.579482078552 1651.99995040894 175 177 172
-351.277351379395 443.52051615715 1648.00000190735 175 177 174
-347.016632556915 443.80721449852 1649.00004863739 181 183 180
-342.750191688538 444.093942642212 1649.99997615814 181 183 180
-338.477998971939 444.380760192871 1651.00002288818 179 181 178
-333.997756242752 444.398432970047 1651.00002288818 175 177 174
-329.117953777313 443.877726793289 1649.00004863739 166 168 165
-324.248671531677 443.357020616531 1646.99995517731 166 168 165
-319.584041833878 443.105518817902 1646.00002765656 168 170 167
-315.498799085617 443.661540746689 1648.00000190735 184 186 183
-311.591058969498 444.486856460571 1651.00002288818 194 196 193
-307.48063325882 445.042908191681 1652.99999713898 192 194 191
-302.809059619904 444.791257381439 1651.99995040894 179 181 180
-298.50372672081 445.078045129776 1652.99999713898 181 183 182
-294.370383024216 445.634096860886 1654.99997138977 190 192 191
-290.751308202744 446.997940540314 1659.9999666214 198 200 199
-286.759734153748 447.823226451874 1662.99998760223 159 161 160
-282.412081956863 448.109865188599 1664.00003433228 132 134 133
-277.891486883163 448.127120733261 1664.00003433228 185 187 186
-273.206233978271 447.875022888184 1662.99998760223 125 127 126
-268.687605857849 447.892069816589 1662.99998760223 156 158 157
-264.64506983757 448.717027902603 1666.00000858307 184 186 185
-261.054247617722 450.34995675087 1672.00005054474 181 183 182
-256.970107555389 451.174765825272 1674.99995231628 130 132 131
-251.663684844971 449.844598770142 1669.99995708466 134 136 135
-246.384054422379 448.51416349411 1664.99996185303 178 180 179
-241.712212562561 448.260992765427 1664.00003433228 191 193 192
-237.615540623665 449.085295200348 1667.00005531311 200 202 201
-233.362317085266 449.64000582695 1669.0000295639 198 200 199
-228.960692882538 449.925154447556 1669.99995708466 195 197 196
-224.687620997429 450.479567050934 1672.00005054474 192 194 193
-220.66655755043 451.572686433792 1675.99999904633 189 191 190
-216.88124537468 453.204602003098 1682.000041008 189 191 190
-212.936624884605 454.566955566406 1687.00003623962 193 195 194
-208.717435598373 455.390274524689 1690.00005722046 182 184 183
-204.964593052864 457.291215658188 1697.00002670288 186 188 187
-201.291307806969 459.461569786072 1705.00004291534 191 193 192
-197.689458727837 461.901307106018 1713.99998664856 201 203 202
-193.812981247902 463.801920413971 1720.99995613098 206 208 207
-190.007895231247 465.971976518631 1728.99997234344 210 212 211
-186.051711440086 467.87229180336 1735.99994182587 209 211 210
-181.639224290848 468.694478273392 1738.9999628067 205 207 206
-177.311763167381 469.785898923874 1743.00003051758 201 203 202
-172.962114214897 470.877081155777 1746.99997901917 204 206 205
-168.686643242836 472.237586975098 1751.99997425079 206 208 207
-164.383545517921 473.597913980484 1756.99996948242 205 207 206
-159.962043166161 474.688410758972 1761.0000371933 205 207 204
-155.606508255005 476.0482609272 1766.00003242493 200 202 199
-151.30877494812 477.677375078201 1771.99995517731 202 204 201
-146.895363926888 479.036659002304 1776.99995040894 204 206 203
-142.374470829964 480.126202106476 1781.00001811981 204 206 203
-137.831419706345 481.215357780457 1784.9999666214 205 207 204
-133.48975777626 483.113080263138 1792.00005531311 204 206 203
-128.894358873367 484.201729297638 1796.0000038147 204 206 203
-124.553017318249 486.368507146835 1804.00002002716 205 207 204
-119.90250647068 487.456530332565 1807.99996852875 206 208 205
-115.54791778326 489.892363548279 1817.00003147125 205 207 204
-110.961370170116 491.519033908844 1822.99995422363 205 207 206
-106.341876089573 493.145406246185 1828.9999961853 208 210 209
-101.578578352928 494.232177734375 1832.99994468689 207 209 208
-96.7932417988777 495.318621397018 1837.00001239777 203 205 204
-92.0358374714851 496.674418449402 1842.00000762939 207 209 208
-87.3454213142395 498.5691010952 1848.99997711182 210 212 211
-82.4385955929756 499.384880065918 1851.99999809265 204 206 205
-77.5152146816254 500.200271606445 1855.00001907349 200 202 201
-72.5752785801888 501.015245914459 1858.00004005432 204 206 205
-67.7278116345406 502.638816833496 1863.9999628067 210 212 211
-62.9482939839363 505.071103572845 1873.00002574921 208 210 209
-58.0886639654636 507.233321666718 1881.00004196167 207 209 208
-53.100798279047 508.58610868454 1886.0000371933 191 193 192
-47.9838214814663 508.859872817993 1886.99996471405 186 188 187
-42.8839810192585 509.402990341187 1889.00005817413 191 193 192
-37.7531461417675 509.675860404968 1889.99998569489 210 212 211
-32.6512679457664 510.487794876099 1893.00000667572 198 200 199
-404.588133096695 453.54962348938 1702.99994945526 89 90 85
-400.205314159393 453.833431005478 1703.9999961853 148 148 146
-394.191682338715 452.252924442291 1697.99995422363 179 179 179
-385.686576366425 447.74255156517 1680.99999427795 191 191 191
-378.407031297684 444.563776254654 1669.0000295639 180 182 181
-372.98446893692 443.515866994858 1664.99996185303 176 178 177
-367.804497480392 442.734271287918 1661.99994087219 176 178 175
-362.422078847885 441.686421632767 1657.99999237061 174 176 173
-356.845080852509 440.372079610825 1652.99999713898 175 177 172
-351.721256971359 439.590483903885 1649.99997615814 171 173 170
-347.034275531769 439.341843128204 1649.00004863739 176 178 175
-342.975646257401 439.892441034317 1651.00002288818 179 181 178
-338.49573135376 439.910262823105 1651.00002288818 182 184 181
-334.015488624573 439.928084611893 1651.00002288818 175 177 174
-329.335272312164 439.679443836212 1649.99997615814 166 168 165
-324.660181999207 439.430832862854 1649.00004863739 165 167 164
-319.795906543732 438.915610313416 1646.99995517731 169 171 168
-315.325051546097 438.933372497559 1646.99995517731 178 180 177
-311.042547225952 439.217686653137 1648.00000190735 179 181 178
-306.940287351608 439.768463373184 1649.99997615814 199 201 198
-302.643418312073 440.052717924118 1651.00002288818 198 200 199
-298.701941967011 440.870016813278 1654.00004386902 159 161 160
-294.387966394424 441.154211759567 1654.99997138977 175 177 176
-290.593683719635 442.238003015518 1659.00003910065 190 192 191
-286.432325839996 442.78872013092 1661.00001335144 189 191 190
-282.259702682495 443.339377641678 1662.99998760223 136 138 137
-277.74178981781 443.35675239563 1662.99998760223 168 170 169
-273.223429918289 443.374007940292 1662.99998760223 149 151 150
-268.381506204605 442.857921123505 1661.00001335144 134 136 135
-264.50315117836 443.941473960876 1664.99996185303 157 159 158
-260.602712631226 445.024967193604 1669.0000295639 173 175 174
-256.68004155159 446.108371019363 1672.99997806549 131 133 132
-251.228153705597 444.525182247162 1667.00005531311 132 134 133
-246.252417564392 443.741589784622 1664.00003433228 172 174 173
-241.43785238266 443.22457909584 1661.99994087219 181 183 182
-237.346470355988 444.04074549675 1664.99996185303 193 195 194
-232.958734035492 444.323480129242 1666.00000858307 195 197 196
-228.702172636986 444.872707128525 1667.99998283386 195 197 196
-224.434375762939 445.421785116196 1669.99995708466 191 193 192
-220.418572425842 446.504086256027 1674.00002479553 188 190 189
-216.251701116562 447.319626808167 1677.00004577637 190 192 191
-212.068051099777 448.134928941727 1679.99994754791 195 197 196
-207.867681980133 448.95014166832 1682.99996852875 201 203 202
-204.375311732292 451.365679502487 1692.00003147125 199 201 200
-200.597405433655 453.247666358948 1699.00000095367 195 197 196
-196.896374225616 455.396294593811 1707.00001716614 188 190 189
-192.92613863945 457.011252641678 1713.00005912781 190 192 191
-189.142629504204 459.159582853317 1720.99995613098 195 197 196
-185.529544949532 461.841374635696 1730.99994659424 208 210 209
-181.443780660629 463.455855846405 1736.99998855591 206 208 207
-177.019774913788 464.269667863846 1740.00000953674 201 203 202
-172.579050064087 465.083301067352 1743.00003051758 202 204 203
-168.217912316322 466.163456439972 1746.99997901917 205 207 206
-164.115324616432 468.043953180313 1753.99994850159 209 211 210
-159.701690077782 469.123601913452 1758.00001621246 206 208 205
-155.53030371666 471.003711223602 1764.99998569489 198 200 197
-151.064231991768 472.08297252655 1769.00005340576 199 201 198
-146.741360425949 473.695546388626 1774.99997615814 201 203 200
-142.065703868866 474.240511655808 1776.99995040894 202 204 201
-137.533262372017 475.318908691406 1781.00001811981 204 206 203
-133.276700973511 477.464586496353 1789.00003433228 204 206 203
-128.832668066025 479.07617688179 1794.99995708466 205 207 204
-124.4937479496 481.221348047256 1802.99997329712 206 208 205
-119.779333472252 482.031673192978 1805.99999427795 207 209 206
-115.302674472332 483.909368515015 1812.99996376038 205 207 204
-110.665820538998 485.252916812897 1817.999958992 204 206 205
-106.059610843658 486.863046884537 1824.00000095367 208 210 209
-101.365014910698 488.205939531326 1828.9999961853 208 210 209
-96.5375229716301 489.014655351639 1832.00001716614 204 206 205
-91.7933881282806 490.356892347336 1837.00001239777 208 210 209
-87.0217531919479 491.698741912842 1842.00000762939 212 214 213
-82.178145647049 492.773324251175 1845.99995613098 207 209 208
-77.3125290870667 493.847608566284 1850.00002384186 202 204 203
-72.4248960614204 494.921386241913 1853.99997234344 203 205 204
-67.6243007183075 496.795743703842 1860.99994182587 207 209 208
-62.8525763750076 499.203652143478 1870.00000476837 209 211 210
-58.0007433891296 501.344203948975 1878.00002098084 210 212 211
-53.0206598341465 502.683520317078 1883.00001621246 192 194 193
-47.9368790984154 503.221571445465 1884.99999046326 180 182 181
-42.7966751158237 503.225326538086 1884.99999046326 180 182 181
-37.6763343811035 503.495633602142 1886.0000371933 193 195 194
-32.5849428772926 504.299402236938 1889.00005817413 212 214 213
-27.4771079421043 505.102694034576 1891.99995994568 252 254 253
-403.417706489563 447.617828845978 1697.99995422363 102 103 98
-399.048566818237 447.899013757706 1699.00000095367 167 167 165
-392.119944095612 445.280432701111 1689.00001049042 182 182 182
-384.327530860901 441.607147455215 1674.99995231628 190 190 190
-377.517700195313 438.988268375397 1664.99996185303 176 178 177
-372.330039739609 438.214957714081 1661.99994087219 172 174 173
-367.158353328705 437.441736459732 1659.00003910065 175 177 174
-362.002611160278 436.668455600739 1656.00001811981 174 176 173
-356.862813234329 435.89523434639 1652.99999713898 176 178 173
-351.525902748108 434.858292341232 1649.00004863739 171 173 170
-346.841663122177 434.612393379211 1648.00000190735 172 174 171
-342.578023672104 434.894055128098 1649.00004863739 177 179 176
-338.308602571487 435.175716876984 1649.99997615814 187 189 186
-333.831071853638 435.193657875061 1649.99997615814 183 185 182
-329.153567552567 434.94787812233 1649.00004863739 164 166 163
-324.678063392639 434.965848922729 1649.00004863739 162 164 161
-319.813758134842 434.456259012222 1646.99995517731 166 168 165
-315.151423215866 434.210330247879 1646.00002765656 180 182 179
-310.682862997055 434.228241443634 1646.00002765656 181 183 180
-306.585967540741 434.773623943329 1648.00000190735 194 196 193
-302.661150693893 435.582965612412 1651.00002288818 202 204 203
-298.900246620178 436.65611743927 1654.99997138977 165 167 166
-294.405609369278 436.673820018768 1654.99997138977 164 166 165
-290.436118841171 437.483131885529 1657.99999237061 175 177 176
-286.104947328568 437.764585018158 1659.00003910065 191 193 192
-282.107472419739 438.573777675629 1661.99994087219 142 144 143
-277.759164571762 438.855171203613 1662.99998760223 161 163 162
-273.404985666275 439.136415719986 1664.00003433228 161 163 162
-268.721789121628 438.889741897583 1662.99998760223 135 137 136
-264.361351728439 439.170837402344 1664.00003433228 146 148 147
-260.307341814041 439.979672431946 1667.00005531311 165 167 166
-256.236553192139 440.788358449936 1669.99995708466 127 129 128
-251.395523548126 440.277278423309 1667.99998283386 140 142 141
-246.416851878166 439.501941204071 1664.99996185303 177 179 178
-241.454094648361 438.726425170898 1661.99994087219 175 177 176
-237.077459692955 439.006626605988 1662.99998760223 194 196 195
-232.6949685812 439.28661942482 1664.00003433228 194 196 195
-228.717938065529 440.358519554138 1667.99998283386 198 200 199
-224.718764424324 441.430270671844 1672.00005054474 197 199 198
-220.434010028839 441.973865032196 1674.00002479553 193 195 194
-216.009020805359 442.253202199936 1674.99995231628 198 200 199
-211.704388260841 442.796468734741 1677.00004577637 199 201 200
-207.635506987572 443.867623806 1680.99999427795 195 197 196
-204.027622938156 445.994824171066 1689.00001049042 197 199 198
-200.257703661919 447.857856750488 1695.99997997284 196 198 197
-196.333914995193 449.456691741943 1702.00002193451 196 198 197
-192.264467477798 450.791358947754 1707.00001716614 201 203 202
-188.387200236321 452.653974294662 1713.99998664856 202 204 203
-184.792965650558 455.308735370636 1723.99997711182 208 210 209
-181.039452552795 457.69926905632 1733.00004005432 207 209 208
-176.829561591148 459.033280611038 1738.00003528595 201 203 202
-172.493040561676 460.102885961533 1741.99998378754 200 202 201
-168.134346604347 461.17228269577 1746.00005149841 203 205 204
-164.034217596054 463.03379535675 1753.00002098084 210 212 211
-159.623041749001 464.102745056152 1756.99996948242 207 209 206
-155.277863144875 465.435594320297 1761.99996471405 206 208 205
-150.905057787895 466.768145561218 1766.99995994568 203 205 202
-146.422028541565 467.836290597916 1771.00002765656 201 203 200
-141.996800899506 469.168335199356 1776.00002288818 203 205 202
-137.389540672302 469.971746206284 1779.00004386902 206 208 205
-133.138120174408 472.095787525177 1786.99994087219 204 206 203
-128.627493977547 473.427027463913 1792.00005531311 205 207 204
-124.296419322491 475.550502538681 1799.99995231628 206 208 205
-119.58983540535 476.352751255035 1802.99997329712 205 207 204
-115.057423710823 477.947294712067 1809.00001525879 205 207 204
-110.492013394833 479.541510343552 1815.00005722046 207 209 208
-105.777330696583 480.607032775879 1819.00000572205 208 210 209
-101.206853985786 482.464849948883 1825.99997520447 208 210 209
-96.439890563488 483.529686927795 1830.00004291534 205 207 206
-91.6508585214615 484.594136476517 1833.99999141693 205 207 206
-86.7925584316254 485.394090414047 1837.00001239777 212 214 213
-81.9621905684471 486.457824707031 1840.99996089935 210 212 211
-77.193409204483 488.049745559692 1847.00000286102 207 209 208
-72.3135843873024 489.112734794617 1850.99995136261 203 205 204
-67.557118833065 491.232395172119 1858.99996757507 207 209 208
-62.6896396279335 492.823213338852 1865.00000953674 208 210 209
-57.8819289803505 495.206356048584 1873.99995326996 201 203 202
-52.9123544692993 496.532142162323 1878.99994850159 202 204 203
-47.9153729975224 497.857570648193 1883.99994373322 182 184 183
-42.7547693252563 497.59703874588 1883.00001621246 180 182 181
-37.6394651830196 497.864574193954 1883.99994373322 193 195 194
-32.5358659029007 498.395979404449 1886.0000371933 199 201 200
-27.4357981979847 499.191254377365 1889.00005817413 217 219 218
-397.225230932236 431.259512901306 1652.99999713898 122 123 118
-402.72256731987 442.234754562378 1695.00005245209 155 156 151
-397.657006978989 441.730678081512 1692.999958992 165 165 163
-390.280336141586 438.617408275604 1680.99999427795 184 184 184
-382.9685151577 435.504019260406 1669.0000295639 182 184 183
-376.855164766312 433.69522690773 1661.99994087219 178 180 179
-371.675759553909 432.930201292038 1659.00003910065 174 176 175
-366.51223897934 432.165235280991 1656.00001811981 174 176 173
-361.36469244957 431.400209665298 1652.99999713898 174 176 173
-356.66486620903 431.157171726227 1651.99995040894 174 176 171
-351.543843746185 430.392205715179 1649.00004863739 181 183 180
-346.859633922577 430.149227380753 1648.00000190735 179 181 178
-342.180490493774 429.906219244003 1646.99995517731 176 178 175
-337.711483240128 429.92427945137 1646.99995517731 177 179 176
-333.242118358612 429.942339658737 1646.99995517731 174 176 173
-328.772366046906 429.960399866104 1646.99995517731 165 167 164
-324.499160051346 430.23955821991 1648.00000190735 159 161 158
-319.443345069885 429.474383592606 1644.99998092651 159 161 158
-314.977884292603 429.492384195328 1644.99998092651 178 180 177
-310.134470462799 428.988128900528 1643.00000667572 182 184 181
-306.231766939163 429.789394140244 1646.00002765656 182 184 181
-302.312344312668 430.590659379959 1649.00004863739 203 205 204
-298.918068408966 432.17533826828 1654.99997138977 180 182 181
-294.601291418076 432.454347610474 1656.00001811981 160 162 161
-290.278643369675 432.733237743378 1656.99994564056 160 162 161
-285.950124263763 433.012157678604 1657.99999237061 196 198 197
-282.294780015945 434.335678815842 1662.99998760223 162 164 163
-278.110682964325 434.875577688217 1664.99996185303 140 142 141
-273.750990629196 435.154259204865 1666.00000858307 170 172 171
-268.900632858276 434.649229049683 1664.00003433228 140 142 141
-264.378488063812 434.666484594345 1664.00003433228 140 142 141
-260.168194770813 435.206055641174 1666.00000858307 162 164 163
-255.793154239655 435.484230518341 1667.00005531311 131 133 132
-250.960022211075 434.978544712067 1664.99996185303 147 149 148
-245.841339230537 433.950155973434 1661.00001335144 181 183 182
-240.889295935631 433.182775974274 1657.99999237061 177 179 178
-236.380770802498 433.199018239975 1657.99999237061 190 192 191
-232.151553034782 433.73766541481 1659.9999666214 191 193 192
-228.185251355171 434.798747301102 1664.00003433228 199 201 200
-224.331200122833 436.120957136154 1669.0000295639 201 203 202
-220.186129212379 436.920523643494 1672.00005054474 196 198 197
-215.766355395317 437.197208404541 1672.99997806549 201 203 202
-211.593195796013 437.996387481689 1675.99999904633 203 205 204
-207.773923873901 439.579427242279 1682.000041008 204 206 205
-204.163148999214 441.685110330582 1690.00005722046 205 207 206
-200.272247195244 443.267852067947 1695.99997997284 204 206 205
-196.348279714584 444.850534200668 1702.00002193451 198 200 199
-192.27859377861 446.171671152115 1707.00001716614 198 200 199
-188.291221857071 447.754055261612 1713.00005912781 197 199 198
-184.377938508987 449.597626924515 1720.00002861023 201 203 202
-180.530622601509 451.702415943146 1728.00004482269 202 204 203
-176.537618041039 453.545689582825 1735.00001430511 200 202 201
-172.308012843132 454.865843057632 1740.00000953674 197 199 198
-167.858213186264 455.663084983826 1743.00003051758 197 199 198
-163.765996694565 457.50567317009 1750 208 210 209
-159.544438123703 459.086686372757 1756.00004196167 209 211 208
-155.20167350769 460.406005382538 1761.0000371933 206 208 205
-150.745943188667 461.463660001755 1764.99998569489 204 206 203
-146.350711584091 462.78241276741 1769.99998092651 203 205 202
-141.927912831306 464.100927114487 1774.99997615814 204 206 203
-137.323051691055 464.89629149437 1777.99999713898 205 207 204
-132.999569177628 466.73721075058 1784.9999666214 204 206 203
-128.637626767159 468.577891588211 1792.00005531311 205 207 204
-124.237209558487 470.418363809586 1799.00002479553 205 207 204
-119.533002376556 471.212476491928 1802.00004577637 204 206 203
-114.875763654709 472.267776727676 1805.99999427795 203 205 202
-110.135547816753 473.061263561249 1809.00001525879 207 209 208
-105.553187429905 474.638968706131 1815.00005722046 209 211 210
-101.048700511456 476.739317178726 1822.99995422363 210 212 211
-96.3422507047653 478.054881095886 1827.99994945526 206 208 207
-91.4583504199982 478.585481643677 1830.00004291534 205 207 206
-86.6105705499649 479.377239942551 1832.99994468689 207 209 208
-81.9243267178535 481.214791536331 1840.0000333786 210 212 211
-77.1578922867775 482.790499925613 1845.99995613098 208 210 209
-72.241336107254 483.581155538559 1848.99997711182 205 207 206
-67.3809200525284 484.894543886185 1853.99997234344 207 209 208
-62.4930635094643 486.207544803619 1858.99996757507 208 210 209
-57.6704405248165 488.304793834686 1866.99998378754 204 206 205
-52.719559520483 489.617079496384 1871.99997901917 211 213 212
-47.7921366691589 491.452068090439 1878.99994850159 197 199 198
-42.6901616156101 491.717308759689 1879.99999523163 179 181 180
-37.642564624548 492.766827344894 1883.99994373322 190 192 191
-32.5212925672531 493.03126335144 1884.99999046326 195 197 196
-27.4671092629433 494.603127241135 1891.00003242493 203 205 204
-22.3447307944298 495.389848947525 1894.00005340576 217 219 218
-401.077091693878 435.834944248199 1687.99996376038 146 147 142
-395.795792341232 435.078203678131 1684.99994277954 163 163 161
-388.672977685928 432.255834341049 1674.00002479553 186 186 186
-382.068514823914 429.949671030045 1664.99996185303 181 183 182
-376.646369695663 428.934693336487 1661.00001335144 178 180 179
-371.469646692276 428.177893161774 1657.99999237061 174 176 175
-366.087526082993 427.162915468216 1654.00004386902 173 175 172
-360.726833343506 426.147907972336 1649.99997615814 174 176 173
-355.819314718246 425.649493932724 1648.00000190735 173 175 170
-350.709080696106 424.892663955688 1644.99998092651 173 175 172
-346.246212720871 424.910753965378 1644.99998092651 180 182 179
-341.783046722412 424.928903579712 1644.99998092651 178 180 177
-337.524563074112 425.205439329147 1646.00002765656 176 178 175
-333.260267972946 425.48194527626 1646.99995517731 175 177 174
-328.990131616592 425.758481025696 1648.00000190735 167 169 166
-324.51730966568 425.776690244675 1648.00000190735 161 163 160
-319.655656814575 425.278127193451 1646.00002765656 157 159 156
-314.995944499969 425.037890672684 1644.99998092651 174 176 173
-310.152471065521 424.539148807526 1643.00000667572 180 182 179
-306.435793638229 425.590813159943 1646.99995517731 180 182 179
-302.513629198074 426.384031772614 1649.99997615814 175 177 176
-298.936009407043 427.694141864777 1654.99997138977 205 207 206
-294.619143009186 427.970498800278 1656.00001811981 184 186 185
-290.121257305145 427.988409996033 1656.00001811981 154 156 155
-286.140322685242 428.781569004059 1659.00003910065 175 177 176
-282.142668962479 429.574698209763 1661.99994087219 198 200 199
-278.295308351517 430.626273155212 1666.00000858307 125 127 126
-273.604154586792 430.38535118103 1664.99996185303 171 173 172
-269.079566001892 430.402815341949 1664.99996185303 152 154 153
-264.554530382156 430.420130491257 1664.99996185303 153 155 154
-260.341465473175 430.954366922379 1667.00005531311 164 166 165
-255.810081958771 430.971443653107 1667.00005531311 123 125 124
-250.826090574265 430.212706327438 1664.00003433228 153 155 154
-245.561897754669 428.936660289764 1659.00003910065 179 181 180
-240.760311484337 428.435981273651 1656.99994564056 171 173 172
-236.396953463554 428.710848093033 1657.99999237061 183 185 184
-232.167556881905 429.244130849838 1659.9999666214 190 192 191
-228.063970804214 430.035829544067 1662.99998760223 198 200 199
-224.078059196472 431.086003780365 1667.00005531311 203 205 204
-220.069944858551 432.136088609695 1671.0000038147 196 198 197
-215.65268933773 432.410091161728 1672.00005054474 190 192 191
-211.482048034668 433.201193809509 1674.99995231628 191 193 192
-207.541778683662 434.509426355362 1679.99994754791 179 181 180
-203.815490007401 436.334788799286 1687.00003623962 186 188 187
-200.05065202713 438.16003203392 1694.00000572205 196 198 197
-196.247309446335 439.985156059265 1700.99997520447 210 212 211
-192.292794585228 441.551476716995 1707.00001716614 208 210 209
-188.085287809372 442.600220441818 1710.99996566772 202 204 203
-184.070065617561 444.16618347168 1717.00000762939 195 197 196
-180.12623488903 445.990711450577 1723.99997711182 196 198 197
-176.143869757652 447.814971208572 1730.99994659424 200 202 201
-171.924933791161 449.121683835983 1735.99994182587 196 198 197
-167.485743761063 449.91073012352 1738.9999628067 196 198 197
-163.404181599617 451.734453439713 1746.00005149841 203 205 204
-159.284099936485 453.557908535004 1753.00002098084 209 211 208
-154.949232935905 454.863667488098 1758.00001621246 204 206 203
-150.501385331154 455.910533666611 1761.99996471405 203 205 202
-146.031349897385 456.957072019577 1766.00003242493 203 205 202
-141.699105501175 458.520829677582 1771.99995517731 202 204 201
-137.256592512131 459.825575351715 1776.99995040894 202 204 201
-132.786512374878 461.130082607269 1781.99994564056 204 206 203
-128.432422876358 462.95177936554 1789.00003433228 204 206 203
-123.970799148083 464.514493942261 1794.99995708466 204 206 203
-119.409821927547 465.818047523499 1799.99995231628 203 205 202
-114.694088697433 466.603755950928 1802.99997329712 202 204 201
-110.083490610123 467.906773090363 1807.99996852875 207 209 208
-105.503499507904 469.468176364899 1814.00001049042 209 211 210
-100.945971906185 471.28814458847 1820.99997997284 210 212 211
-96.1919128894806 472.331374883652 1825.00004768372 206 208 207
-91.2658348679543 472.597748041153 1825.99997520447 205 207 206
-86.4758491516113 473.640292882919 1830.00004291534 203 205 204
-81.7528739571571 475.199967622757 1835.99996566772 209 211 210
-77.0805776119232 477.277100086212 1843.99998188019 208 210 209
-72.2081586718559 478.318482637405 1848.00004959106 206 208 207
-67.3137381672859 479.359537363052 1851.99999809265 207 209 208
-62.3973198235035 480.400145053864 1855.99994659424 209 211 210
-57.520717382431 481.958121061325 1861.99998855591 206 208 207
-52.6393949985504 483.77451300621 1868.99995803833 210 212 211
-47.7197542786598 485.590547323227 1876.00004673004 202 204 203
-42.6936782896519 486.629664897919 1879.99999523163 184 186 185
-37.6256853342056 487.40953207016 1883.00001621246 194 196 195
-32.5067229568958 487.671196460724 1883.99994373322 193 195 194
-27.4403244256973 488.968014717102 1889.00005817413 197 199 198
-22.3701726645231 490.781992673874 1896.00002765656 199 201 200
-393.934547901154 428.468883037567 1677.00004577637 188 188 186
-387.994378805161 426.953881978989 1671.0000038147 194 194 194
-381.857007741928 425.183296203613 1664.00003433228 174 176 175
-376.664370298386 424.434781074524 1661.00001335144 173 175 174
-371.263682842255 423.43083024025 1656.99994564056 169 171 170
-366.3270175457 422.937899827957 1654.99997138977 172 174 171
-360.963612794876 421.933859586716 1651.00002288818 178 180 177
-355.837464332581 421.185404062271 1648.00000190735 177 179 174
-350.940465927124 420.692443847656 1646.00002765656 171 173 170
-346.264451742172 420.455127954483 1644.99998092651 182 184 181
-341.801285743713 420.473366975784 1644.99998092651 182 184 181
-337.337732315063 420.49166560173 1644.99998092651 177 179 176
-333.076179027557 420.765578746796 1646.00002765656 175 177 174
-328.609108924866 420.783877372742 1646.00002765656 167 169 166
-324.141681194305 420.802175998688 1646.00002765656 161 163 160
-319.285422563553 420.309156179428 1644.00005340576 158 160 157
-314.631104469299 420.071661472321 1643.00000667572 170 172 169
-309.792995452881 419.578462839127 1641.00003242493 179 181 178
-306.081742048264 420.619338750839 1644.99998092651 183 185 182
-302.164971828461 421.404480934143 1648.00000190735 170 172 171
-298.41211438179 422.445386648178 1651.99995040894 203 205 204
-294.103354215622 422.719120979309 1652.99999713898 197 199 198
-289.963930845261 423.248589038849 1654.99997138977 168 170 169
-286.15814447403 424.289464950562 1659.00003910065 158 160 159
-282.160431146622 425.074517726898 1661.99994087219 194 196 195
-277.978897094727 425.603806972504 1664.00003433228 130 132 131
-273.621708154678 425.877243280411 1664.99996185303 161 163 162
-268.935412168503 425.638973712921 1664.00003433228 149 151 150
-264.571815729141 425.91205239296 1664.99996185303 165 167 166
-260.202407836914 426.18516087532 1666.00000858307 170 172 171
-255.520135164261 425.946444272995 1664.99996185303 122 124 123
-250.239878892899 424.684256315231 1659.9999666214 171 173 172
-245.282396674156 423.933386802673 1656.99994564056 182 184 183
-240.631431341171 423.694103956223 1656.00001811981 167 169 168
-236.55578494072 424.478024244308 1659.00003910065 189 191 190
-232.043743133545 424.494206905365 1659.00003910065 192 194 193
-227.942705154419 425.277799367905 1661.99994087219 196 198 197
-223.824933171272 426.0613322258 1664.99996185303 204 206 205
-219.822093844414 427.100569009781 1669.0000295639 202 204 203
-215.410068631172 427.371948957443 1669.99995708466 190 192 191
-211.497247219086 428.666830062866 1674.99995231628 188 190 189
-207.433223724365 429.705590009689 1679.00002002716 170 172 171
-203.709468245506 431.511998176575 1685.99998950958 176 178 177
-199.710980057716 432.806521654129 1690.99998474121 187 189 188
-196.030974388123 434.868633747101 1699.00000095367 209 211 210
-192.19434261322 436.674684286118 1705.9999704361 208 210 209
-188.099309802055 437.968581914902 1710.99996566772 202 204 203
-184.083834290504 439.518362283707 1717.00000762939 199 201 200
-179.930806159973 440.811961889267 1722.00000286102 198 200 199
-175.851881504059 442.361325025558 1728.00004482269 202 204 203
-171.640858054161 443.654477596283 1733.00004005432 199 201 200
-167.305886745453 444.691479206085 1736.99998855591 193 195 194
-163.135915994644 446.240186691284 1743.00003051758 197 199 198
-159.114629030228 448.300749063492 1751.00004673004 207 209 206
-154.873088002205 449.849098920822 1756.99996948242 205 207 204
-150.256797671318 450.372993946075 1758.99994373322 203 205 202
-145.711943507195 451.152682304382 1761.99996471405 201 203 200
-141.230389475822 452.18813419342 1766.00003242493 201 203 200
-137.03565299511 454.247504472733 1774.00004863739 201 203 200
-132.573425769806 455.538392066956 1779.00004386902 204 206 203
-128.227204084396 457.341223955154 1786.00001335144 203 205 202
-123.704381287098 458.631545305252 1791.00000858307 203 205 202
-119.15398389101 459.921658039093 1796.0000038147 203 205 202
-114.448793232441 460.69923043251 1799.00002479553 203 205 202
-109.970532357693 462.500840425491 1805.99999427795 204 206 205
-105.453826487064 464.302152395248 1812.99996376038 208 210 209
-100.732371211052 465.334892272949 1817.00003147125 206 208 207
-95.8834141492844 465.855062007904 1819.00000572205 205 207 206
-91.0233035683632 466.374814510345 1820.99997997284 207 209 208
-86.2938389182091 467.66260266304 1825.99997520447 200 202 201
-81.5814137458801 469.206094741821 1832.00001716614 205 207 206
-76.9614577293396 471.517622470856 1840.99996089935 210 212 211
-72.1359103918076 472.804337739944 1845.99995613098 207 209 208
-67.1738609671593 473.322331905365 1848.00004959106 204 206 205
-62.2007139027119 473.839849233627 1850.00002384186 207 209 208
-57.3400743305683 475.381553173065 1855.99994659424 208 210 209
-52.4747297167778 477.178990840912 1863.00003528595 203 205 204
-47.5710555911064 478.976100683212 1870.00000476837 205 207 206
-42.629063129425 480.772733688354 1876.99997425079 190 192 191
-37.5888235867023 481.800615787506 1881.00004196167 188 190 189
-32.509408891201 482.571959495544 1883.99994373322 198 200 199
-27.4280644953251 483.599007129669 1888.00001144409 184 186 185
-22.3720241338015 485.650241374969 1896.00002765656 194 196 195
-17.3357762396336 489.494055509567 1911.00001335144 202 204 203
-389.826953411102 409.986704587936 1621.99997901917 138 139 134
-393.247812986374 423.166543245316 1674.00002479553 197 197 195
-388.01246881485 422.426283359528 1671.0000038147 182 182 182
-381.875157356262 420.674860477448 1664.00003433228 175 177 176
-376.90931558609 420.187443494797 1661.99994087219 175 177 176
-371.729999780655 419.447243213654 1659.00003910065 173 175 174
-366.787970066071 418.959945440292 1656.99994564056 173 175 172
-361.200481653214 417.71399974823 1651.99995040894 180 182 179
-355.423867702484 416.215240955353 1646.00002765656 178 180 177
-350.532382726669 415.727823972702 1644.00005340576 176 178 175
-346.072316169739 415.746212005615 1644.00005340576 177 179 176
-342.027425765991 416.27037525177 1646.00002765656 180 182 179
-337.561160326004 416.288763284683 1646.00002765656 182 184 181
-333.094537258148 416.307151317596 1646.00002765656 175 177 174
-328.827112913132 416.578531265259 1646.99995517731 158 160 157
-324.356973171234 416.596919298172 1646.99995517731 159 161 158
-319.692134857178 416.362315416336 1646.00002765656 160 162 159
-314.649313688278 415.621757507324 1643.00000667572 169 171 168
-309.811145067215 415.134072303772 1641.00003242493 179 181 178
-305.913835763931 415.911227464676 1644.00005340576 190 192 189
-301.999717950821 416.688323020935 1646.99995517731 170 172 171
-298.068910837173 417.465478181839 1649.99997615814 170 172 171
-293.94343495369 417.989611625671 1651.99995040894 189 191 190
-289.981871843338 418.766677379608 1654.99997138977 194 196 195
-286.176055669785 419.796794652939 1659.00003910065 149 151 150
-282.17825293541 420.573830604553 1661.99994087219 166 168 167
-277.829557657242 420.844703912735 1662.99998760223 147 149 148
-273.639291524887 421.368539333344 1664.99996185303 144 146 145
-268.9528465271 421.133041381836 1664.00003433228 122 124 123
-264.907002449036 421.909779310226 1667.00005531311 159 161 160
-260.219633579254 421.674013137817 1666.00000858307 162 164 163
-255.383729934692 421.184897422791 1664.00003433228 131 133 132
-250.106006860733 419.936269521713 1659.00003910065 138 140 139
-245.151028037071 419.193625450134 1656.00001811981 159 161 160
-240.647867321968 419.210225343704 1656.00001811981 167 169 168
-236.572071909904 419.986069202423 1659.00003910065 157 159 158
-232.199728488922 420.255422592163 1659.9999666214 166 168 167
-228.095814585686 421.03099822998 1662.99998760223 171 173 172
-223.840713500977 421.553283929825 1664.99996185303 188 190 189
-219.705939292908 422.328501939774 1667.99998283386 203 205 204
-215.425446629524 422.850400209427 1669.99995708466 186 188 187
-211.386173963547 423.87855052948 1674.00002479553 178 180 179
