ply
format ascii 1.0
comment KinectMotionCapture
element vertex 751
property float x
property float y
property float z
property uchar red
property uchar green
property uchar blue
end_header
-257.403264990904 548.417410183658 1794.4555612544 189 188 184
-246.754251194515 550.515873426087 1782.69132409099 196 192 189
-210.322519670656 557.799376996697 1767.28550243988 216 213 208
-96.8201637451087 580.53512629179 1729.99768163097 90 87 82
-156.625858108832 558.743600262582 1950.51108333595 174 176 171
-162.851391664816 557.472371216188 1940.49833838599 166 171 165
-164.111525182394 557.186398335457 1930.04906137487 149 154 150
-159.414563903271 558.082602882798 1919.02539590842 151 156 152
-175.566015247644 554.83886339677 1910.06506162231 151 157 155
-189.730006043486 551.989450069623 1900.98864386782 150 155 151
-200.913938838696 549.731170642814 1891.67479518513 151 156 150
-208.126208654125 548.260739284559 1881.99125272643 152 157 151
-227.247154262651 544.426280638777 1873.67233731322 152 157 153
-244.380531588736 540.985939892792 1865.23200064517 152 157 153
-255.557501855084 538.72753346068 1856.19013534144 152 157 153
-265.740718103771 536.66599633393 1847.09084084564 152 157 153
-270.961679910468 535.588754752181 1837.44036683163 150 154 153
-274.197571275131 534.904906054982 1827.57006884119 150 154 153
-271.480661011189 535.401851746136 1816.95610551226 153 157 156
-274.71605054557 534.717056307553 1807.10440424967 159 161 160
-279.934658933961 533.638283722239 1797.53494131382 148 148 146
-276.226119665853 534.330212560607 1786.77847069266 157 156 152
-267.559099860236 536.005015225143 1775.31247197223 199 198 194
-260.876783232092 537.285382419471 1764.07953175135 215 214 210
-269.070029140936 535.61451825793 1754.95832260801 213 212 207
-163.745634465271 546.839588812722 1972.34789278657 177 178 173
-158.053923420436 547.919963647261 1961.29208018372 167 168 163
-160.307909779312 547.443574073539 1950.91262310101 158 160 157
-165.540684975703 546.383413850859 1940.81878154172 152 156 155
-165.807820396369 546.294769237417 1930.28302413502 153 157 156
-172.03205441314 545.039254177225 1920.32861735926 158 162 161
-185.205355282126 542.422809257825 1911.10445077707 151 155 156
-201.355077930281 539.22322386776 1902.25908919534 154 158 157
-207.575752229356 537.967032856111 1892.4524075223 154 159 155
-213.795546370987 536.710355938831 1882.67960372311 155 160 156
-225.969762200719 534.287818203858 1873.60318224314 155 160 156
-249.059383760855 529.728546475469 1865.83838612762 154 159 155
-262.221518721865 527.112076421349 1857.04127013407 154 159 155
-274.389782829624 524.689742766005 1848.19768169168 152 156 155
-275.641275932538 524.40330933328 1838.08560751245 150 154 153
-278.877068077944 523.72800975606 1828.22836674085 148 152 151
-278.143946133807 523.828722890481 1817.88128814534 149 153 152
-284.355291688702 522.570333970169 1808.43684616632 151 155 154
-285.605706081952 522.281967015833 1798.36485563102 145 150 146
-282.888314865731 522.769257645148 1787.75932272152 150 152 149
-286.122427151933 522.091704437039 1777.96531689169 162 164 161
-289.356083846403 521.413912406118 1768.18886073545 163 165 162
-297.547942941963 519.765804559099 1759.14628703738 190 192 189
-294.830437358135 520.251024969602 1748.5430011686 180 181 176
-289.138565880777 521.317398058326 1737.47842482819 191 192 187
-186.036218203204 532.011617030196 1984.78652353111 185 186 181
-159.482665741713 537.104186210015 1972.06438051652 157 159 156
-153.790801200185 538.168216709304 1960.99701780775 152 154 151
-155.052137180599 537.889062830324 1950.51739089061 159 161 160
-165.251044779573 535.884027478352 1940.8654913219 154 158 159
-174.455327011021 534.070514773575 1931.17515231441 154 158 159
-188.62349046106 531.298435464473 1922.01868809156 153 157 158
-203.782251561813 528.334651671537 1913.03923561463 158 162 163
-217.946143526838 525.562692364746 1904.04051988436 156 160 159
-217.216848345906 525.664427353574 1893.54497531471 156 160 159
-224.429040281154 524.233089130284 1883.90645188076 156 160 159
-230.647671564331 522.992926942308 1874.19682886275 155 159 158
-252.746223756003 518.688268343211 1866.33167903528 154 158 157
-269.879177201751 515.341490105877 1858.00836929508 153 157 156
-282.047810659103 512.952308672431 1849.18594169367 151 155 154
-282.306574258723 512.860371123466 1838.97384835449 150 154 153
-283.557494522729 512.57649095873 1828.88690420675 148 152 151
-282.823979335696 512.675028061729 1818.55285845094 148 152 151
-285.066731813309 512.198691468759 1808.60319246273 149 153 152
-287.309400626309 511.721953881065 1798.66569060841 157 161 160
-291.535589525385 510.862142436099 1789.01036100059 149 153 152
-297.745119934448 509.619421578717 1779.653684368 151 155 154
-307.921145626457 507.611475184164 1770.89296333752 131 135 134
-315.120362195528 506.177229353384 1761.75844019792 174 178 177
-309.426232070361 507.228538786583 1750.76596544515 162 164 161
-294.808238921043 509.999859370005 1738.40368088472 184 186 183
-286.141545486859 511.622958762845 1726.86941144693 192 192 190
-278.467489242013 513.053987610496 1715.44137326008 208 208 206
-128.851413229117 532.432190201391 1990.89463302211 167 169 166
-142.03614745785 529.888685512575 1981.30192873565 168 170 167
-151.245542098037 528.101117271222 1971.44896103921 156 158 157
-157.473445600402 526.880456661926 1961.38856207955 156 158 157
-157.741191766061 526.793390003214 1950.83062892909 152 156 157
-167.940903490502 524.81586623562 1941.18616596016 153 157 158
-172.180255937929 523.971816394279 1931.03328287783 155 159 160
-197.272740189075 519.159844269886 1922.93466798324 156 160 161
-208.460438893453 516.992988451411 1913.58112294212 157 161 162
-229.575330744799 512.937372479798 1905.31074295278 158 162 163
-225.866635056192 513.60341473249 1894.53259076463 160 164 163
-236.05705817318 511.625125963155 1885.2410125643 159 163 162
-242.275327524746 510.401745427358 1875.56355393308 157 161 160
-264.374488643832 506.15766712755 1867.73032678428 155 159 158
-277.537747055613 503.612797664553 1858.97550643126 156 160 159
-279.781916248632 503.144123318941 1848.98802221653 149 153 152
-282.02576566388 502.674993935829 1839.01254744066 153 157 156
-287.246111548459 501.639272590272 1829.42140224031 149 153 152
-292.465960725251 500.603320232886 1819.85874684645 151 155 154
-294.708196618952 500.133063055128 1809.93579835492 147 151 150
-298.934472805379 499.284992105433 1800.2896632947 147 153 153
-301.176159698886 498.813797608983 1790.39649000018 150 159 158
-308.377397940719 497.399420028118 1781.20428588215 148 157 156
-317.561574446902 495.607762142828 1772.33253907836 139 145 145
-323.768854799609 494.381605381573 1763.08158769345 151 155 154
-316.089997217262 495.794106195658 1751.82130843341 153 157 156
-305.437255647232 497.771243055195 1740.07249465185 167 171 170
-295.777560041917 499.558661322923 1728.41646110979 163 165 164
-289.093982591482 500.780065363392 1717.16948809836 164 166 165
-273.487619367682 503.695928874825 1704.47384237322 196 198 197
-77.6117980400119 531.423239021242 1997.76751320327 178 180 177
-105.706116377459 526.119128842753 1989.16153848769 162 164 161
-128.828743983111 521.747332256732 1980.30804814321 164 166 163
-139.033133222978 519.79797567082 1970.50169062978 156 158 157
-150.22941585758 517.662088254391 1960.8365825559 159 161 160
-158.444382026504 516.08483308702 1950.9669805339 153 157 158
-171.624338199212 513.57597104406 1941.59821583407 153 157 158
-181.82288105128 511.625830190036 1932.0195133221 154 158 159
-203.937210778153 507.441033672101 1923.65709664565 155 159 160
-220.090374942598 504.37371432269 1914.81924577295 157 161 162
-232.269428285812 502.051140840004 1905.66109142316 156 160 161
-232.531819822779 501.962078650025 1895.3102930636 157 161 160
-238.751233217712 500.755799061601 1885.60648293462 156 160 159
-254.897435610027 497.688352505423 1877.04058564886 154 158 157
-270.04851133971 494.807100321985 1868.45012018287 153 157 156
-286.190259130527 491.739939421756 1860.05863087059 153 157 156
-287.441253576406 491.4632417936 1849.97649949282 146 150 149
-292.662209709316 490.441999495301 1840.38637494773 150 154 153
-291.927865924713 490.536315784911 1830.08018167104 146 150 149
-294.170451466596 490.072147482926 1820.15010548313 148 152 151
-299.389821067804 489.049767069236 1810.62076607238 144 148 147
-300.639416402128 488.770741067177 1800.5908167924 146 152 152
-304.865277554116 487.933584040321 1790.97262124558 149 158 157
-309.090541472837 487.096165880613 1781.37748725942 146 155 154
-324.227419694968 484.214489008989 1773.35077836222 139 145 145
-325.474894205709 483.934107020947 1763.40226226152 149 153 152
-319.77938044149 484.953551453523 1752.4389755208 150 154 153
-308.133589896502 487.086740154947 1740.55202559913 157 161 160
-300.456270926446 488.4759640889 1729.20661911954 166 168 167
-291.788662179896 490.049908351148 1717.66466905464 161 163 162
-285.105288949232 491.251691812455 1706.38864736029 188 190 189
-74.3343702079526 521.233688196008 1997.59550604938 165 170 166
-107.39928144833 515.087948521749 1989.36799872838 159 164 160
-128.536216747078 511.14626197938 1980.35841309845 158 162 161
-145.696107340647 507.939298958274 1971.13242911696 156 160 159
-153.912565968668 506.384333656427 1961.22842976421 153 157 156
-168.088068821437 503.727940861215 1951.90000673809 155 159 158
-179.281583722263 501.622079590301 1942.37531105066 154 158 159
-189.480346376683 499.699609019377 1932.81772812026 153 157 158
-209.609563041552 495.942124360173 1924.28289757383 154 158 159
-216.825391126764 494.569777120461 1914.56560077779 158 162 163
-227.019385947279 492.647015387325 1905.19404868551 157 161 162
-231.254256060521 491.824382155209 1895.24867104457 159 163 164
-242.438645933903 489.717709197622 1886.07974151391 158 162 163
-265.535662532234 485.410709392133 1878.29679184944 155 159 160
-273.737746587202 483.85429246965 1868.94371718118 154 158 159
-284.917044890617 481.74759145947 1859.98307851053 155 159 160
-286.168204880882 481.473850711149 1849.89765195449 144 148 147
-293.374614872788 480.099989559596 1840.54682134904 151 155 154
-294.625226354368 479.825191323632 1830.49102175203 147 151 150
-298.852726344172 479.000502087095 1820.82216169912 150 154 153
-304.071910803797 477.992218556161 1811.30586962153 148 152 151
-306.313706836219 477.533058832721 1801.42135281255 146 150 151
-309.547329112609 476.890387108669 1791.68395131479 153 157 158
-313.772569664222 476.064318770252 1782.1019171601 140 146 146
-324.941739422689 473.956236106907 1773.52632881223 144 148 149
-324.205360123156 474.044972365496 1763.29369910286 146 150 149
-319.501357243406 474.865323783287 1752.47312332206 146 150 149
-310.830320889239 476.416956335455 1741.03185465257 153 157 156
-301.168750672888 478.150676476539 1729.39143049113 149 153 152
-295.475410460261 479.151719725488 1718.3141112626 158 160 157
-290.774436267949 479.968867193804 1707.36239894235 164 166 163
-282.1080161182 481.517046940887 1695.74633044486 196 198 193
-65.538455789941 512.100299819689 2018.67031402807 153 153 151
-71.7761183052406 510.930154806714 2008.29206358085 163 165 162
-86.9571147656387 508.131145504265 1998.62049837886 157 162 158
-117.042594223118 502.618560134405 1990.1948532214 161 166 162
-136.192983966219 499.096407365925 1981.05116423875 155 160 156
-149.379222169407 496.659516241077 1971.51415285445 157 161 160
-155.608851887062 495.488388796871 1961.44879710733 152 156 155
-170.778926889406 492.689523085812 1952.21355928573 155 159 158
-185.94664524339 489.890747745449 1943.06119969078 154 158 157
-196.145693649004 487.995809862068 1933.52201109318 153 157 156
-210.316561624516 485.37779965927 1924.42527218621 155 159 158
-221.505600542806 483.301939165912 1915.10772592634 158 162 163
-224.748169614656 482.671590217362 1905.03388391586 156 160 161
-235.934631251443 480.595455564896 1895.81677237438 157 161 164
-245.133692813999 478.880380418063 1886.44549464918 156 160 163
-267.239406028353 474.817012538398 1878.55954663915 153 157 158
-270.477855349021 474.185659718129 1868.64564089634 153 157 158
-280.665266922495 472.289798614325 1859.56026872802 153 157 158
-283.902075783423 471.657805323516 1849.70046535852 141 145 146
-294.087351130369 469.761609522988 1840.70754973987 148 152 151
-298.315489800079 468.948393947235 1831.02604739706 146 150 149
-301.550603929309 468.315408249771 1821.2407392316 148 152 151
-304.785256015112 467.682005389974 1811.47304140709 147 151 150
-305.042332741813 467.589436591699 1801.32619911833 147 151 152
-310.260716732453 466.594450321119 1791.8554697157 156 158 157
-313.494052439952 465.959837423408 1782.13792126999 136 140 139
-319.703418673007 464.783961476138 1772.85943412078 145 147 146
-318.967331199508 464.870099242265 1762.61260877796 148 150 149
-319.223282790656 464.775489244173 1752.50754900116 148 150 149
-307.575726910315 466.8437871835 1740.61991979789 154 158 157
-299.89724747185 468.189986313628 1729.2736717231 131 136 132
-301.146415857737 467.913171508836 1719.27210806865 157 162 158
-303.3868297487 467.455823343246 1709.43423045894 157 162 158
-301.66052088973 467.718803869862 1698.97040545889 190 192 187
-52.0433668676823 503.726918665761 2028.67104363541 151 152 147
-70.211350274775 500.434562402063 2019.07109823017 162 162 160
-86.3885409849003 497.498893450945 2009.42623798984 156 161 157
-106.539474639386 493.850260359825 2000.16883347595 158 163 159
-133.644107451876 488.954646983891 1991.56432329875 159 164 160
-145.838505834108 486.732004362717 1981.90440494042 151 156 152
-157.037819154124 484.687196120666 1972.2279657727 156 160 159
-159.292708634473 484.245200236989 1961.8408160815 156 160 159
-174.463658868225 481.487574677437 1952.61565168301 155 159 158
-183.671574606037 479.798411269364 1942.92614414564 154 158 157
-191.884625239005 478.287029952063 1933.19281338321 154 158 157
-205.063339942245 475.885332331224 1923.9876345138 155 159 158
-219.233407626617 473.305590401189 1914.95393849268 158 162 161
-228.435610559338 471.615787218634 1905.48702022799 157 161 164
-236.643225351201 470.103692391155 1895.96537485443 158 162 165
-243.856937627007 468.769357191554 1886.38091040892 157 161 164
-260.999320982759 465.655823269175 1877.93948690028 154 158 159
-270.196015693309 463.96544588444 1868.68723250551 154 158 159
-277.405619634091 462.630707099587 1859.2535778978 154 158 159
-279.650167270016 462.184802394738 1849.26642632166 140 144 145
-284.872800696275 461.205066868626 1839.65531411726 149 153 152
-296.050383885664 459.158484540817 1830.81693406689 146 150 149
-304.248876611836 457.644973912388 1821.65961523134 149 153 152
-305.498459111204 457.375554375235 1811.64048226808 149 153 152
-309.725196248685 456.572615070368 1802.02479052815 150 151 153
-316.928460560666 455.236263027406 1792.83717838334 156 158 157
-321.153786408364 454.432679124204 1783.27595261704 133 135 134
-322.402038749403 454.161749987246 1773.31651074544 145 147 146
-321.665451188444 454.245563245148 1763.0774098868 149 151 150
-324.897515873177 453.618611053873 1753.41776289042 150 152 151
-319.201081034192 454.589265139548 1742.43808762555 144 148 147
-309.537190611435 456.269348900386 1730.82142976562 123 128 124
-304.834410428791 457.060865753031 1719.92210641099 158 163 159
-307.074951953942 456.609302320082 1710.09477640366 158 163 159
-300.389156046486 457.754595767314 1698.84346189634 179 184 178
-51.7449193088537 492.914897093514 2028.72629206103 153 155 152
-67.9259674973727 490.022852209215 2018.9868331534 160 160 160
-90.0690427344881 486.07791824214 2009.76781307855 161 165 164
-124.136519719808 480.027656861643 2001.56724245808 154 160 156
-140.309128788116 477.136298216023 1992.15835043326 154 160 156
-150.516441455779 475.297378628651 1982.35631397773 157 161 160
-155.753406062847 474.335377708324 1972.19480684693 148 152 151
-161.983495446453 473.197498479329 1962.14718513489 160 165 161
-172.187155684014 471.357810720362 1952.48707349694 154 158 157
-180.402426386805 469.86864246072 1942.70015017381 154 158 157
-191.596786287751 467.853365048204 1933.23969092513 156 160 159
-205.769841879341 465.312020091383 1924.13044485187 157 161 160
-232.854663899116 460.492380216947 1916.39110836517 158 162 163
-240.06994570695 459.178096794321 1906.75750643637 155 159 160
-249.270488999616 457.513226362541 1897.37289873362 156 160 163
-246.552478634332 457.950382728426 1886.74705879173 155 159 162
-261.709726234385 455.233920240956 1878.092313735 152 156 157
-270.907048957997 453.568343585749 1868.84214352747 152 156 157
-283.081655847166 451.377378404911 1859.98975807534 152 156 157
-283.340383224683 451.287551166023 1849.78134630987 136 140 141
-285.584743390031 450.847034931278 1839.81663224574 146 150 149
-295.770455395711 449.005763483187 1830.85629924238 144 148 147
-305.954737005964 447.16445271372 1821.95182882724 147 151 150
-307.204275434897 446.898045861833 1811.93765307867 150 152 149
-307.461189409446 446.806180602354 1801.79792711359 151 151 151
-314.66537678013 445.489145889663 1792.60430488673 156 156 156
-320.875772563663 444.346969763898 1783.3124388229 125 127 126
-324.108585912323 443.729181228659 1773.63337067484 143 145 144
-324.364211733942 443.635858340671 1763.54242509947 150 152 151
-324.61978628511 443.541948911844 1753.45285356852 152 154 153
-321.899001533168 443.972104576341 1742.91860466599 110 115 111
-319.178816937304 444.401557155487 1732.3694694542 146 150 149
-311.498853734222 445.704397419096 1721.03465662917 150 156 154
-312.747028649583 445.433612068436 1711.06907041968 156 162 158
-309.036033754738 446.036106071638 1700.31254596023 174 179 173
-295.408025552046 448.384928853796 1687.91273644306 177 180 173
-43.2166097157673 483.566575958231 2039.1207229924 159 161 156
-45.4808437517071 483.137697240729 2028.38243990014 153 158 154
-67.6286899950314 479.252712526238 2019.04132126526 167 169 168
-97.7262674018382 473.985988527546 2010.39750855505 162 166 165
-131.795774117335 468.028936530003 2002.21769010458 155 159 158
-146.97514690968 465.354235676514 1992.75238110166 157 161 160
-155.194841342635 463.888380601377 1982.80827019282 151 155 156
-163.413624604837 462.422164780051 1972.90870844024 154 158 159
-165.668612318921 461.99166326593 1962.5393859914 156 160 159
-170.904161062164 461.042703308232 1952.44721810498 154 158 159
-177.132772463079 459.920762494039 1942.47447451883 157 161 162
-194.2895932613 456.900195640016 1933.56860662241 154 158 159
-213.431083222046 453.534538029995 1924.95010920132 156 160 161
-235.549945892349 449.651690931153 1916.73473942359 159 163 164
-247.73244229065 447.494273518424 1907.61935042166 155 159 160
-255.940153847587 446.026743947621 1898.15109866234 155 159 160
-257.194018536671 445.766387608073 1887.97433425424 156 160 161
-271.358580848105 443.263735367008 1879.23858024996 154 158 157
-280.555909816131 441.623245011937 1870.01510172617 151 155 154
-290.744881951578 439.810274882448 1860.95773933404 149 153 152
-288.024251830858 440.238108655842 1850.41495383982 137 141 140
-283.318166279692 441.009862073998 1839.61427049536 145 149 148
-291.519339811378 439.540712044819 1830.39980748843 145 150 146
-299.719120771537 438.071395721646 1821.23026765901 148 153 149
-305.932578739955 436.946526972708 1811.8466289184 142 147 143
-307.182100925989 436.682705264259 1801.83586372649 146 148 147
-314.386833865907 435.385031496511 1792.64170705557 151 152 154
-317.620565480178 434.776061369267 1782.9362184337 117 121 122
-322.838458156999 433.822559025323 1773.52923352255 149 153 154
-328.055842244603 432.86858875653 1764.15094840649 150 154 155
-333.272255034235 431.914580114932 1754.80125898987 148 152 153
-328.566436568561 432.681217691914 1743.99396881116 124 128 127
-323.861027443359 433.4472692737 1733.16072620403 145 149 150
-315.188171961577 434.900774831532 1721.68519413448 149 153 154
-312.468355571087 435.321309718973 1711.10276826235 163 167 166
-308.75707826881 435.913195516309 1700.34589098921 166 170 169
-300.087052279266 437.364267249407 1688.75715930756 176 181 175
-42.9174259469551 472.728762137718 2039.1770513248 137 142 138
-48.164843657081 471.79530824758 2028.63765231736 160 165 161
-79.2625670004425 466.440145052862 2019.92719915464 155 159 158
-115.326783585251 460.235681027742 2011.74720547098 162 166 167
-142.438799575484 455.56197309339 2003.09240010343 157 161 162
-154.636146418169 453.438657282243 1993.42389517536 159 163 164
-163.850055484713 451.82496273871 1983.58118024347 153 157 158
-170.080920036873 450.720907938696 1973.53958032579 157 161 162
-179.29246849308 449.106821532975 1963.78870547206 157 161 162
-179.558693384933 449.021420280676 1953.29201715702 153 157 158
-187.774419651058 447.576547968816 1943.5255256296 154 158 159
-203.938213542383 444.77264318597 1934.55506248111 159 163 164
-223.080465296825 441.459419470958 1925.96309100154 162 166 167
-236.259015551556 439.165199729103 1916.87974081833 155 159 160
-239.501462931682 438.568853960214 1906.8471649375 153 157 158
-251.683496089882 436.44427339229 1897.77581385017 155 159 160
-260.884175777669 434.828879228578 1888.44832394801 155 159 160
-276.042920347958 432.195081433877 1879.83315587742 154 158 157
-282.26089662332 431.088699166474 1870.28345062098 152 156 155
-290.464486568343 429.642613343742 1860.99931037846 151 155 154
-289.72976481018 429.723165860299 1850.69311113844 139 143 142
-287.009160997199 430.142349886736 1840.14001001454 144 148 147
-294.217643201014 428.864987855997 1830.81180351296 141 146 142
-305.396271452521 426.909236219635 1822.03010581567 143 148 144
-311.609784713999 425.801158083892 1812.66233449801 141 146 142
-313.85181670906 425.370984760307 1802.79971881537 141 145 146
-315.100764183827 425.109896875469 1792.81435069997 136 140 141
-316.349528225231 424.848377673419 1782.83568868058 116 120 121
-319.583115934104 424.247608448582 1773.1446298776 152 156 157
-324.801107058843 423.307581045796 1763.75759042301 146 150 151
-332.002853862913 422.028711122437 1754.69100761722 128 132 133
-329.281103320667 422.443278878801 1744.17776805022 132 136 137
-327.551830176277 422.68802567923 1733.80089483413 137 141 142
-327.807097548896 422.593537820532 1723.72270783156 152 156 157
-327.070349543929 422.667907648138 1713.4890628407 148 152 153
-320.381820139718 423.757447769396 1702.2940440167 156 160 159
-307.742749222513 425.861648034153 1690.08864454971 174 179 175
-57.5351821969625 459.378847102621 2040.19011474216 136 141 137
-63.776526644054 458.292168656881 2029.75758161714 163 168 164
-105.8131106882 451.181750146145 2021.85165474726 164 168 167
-133.923913949053 446.414566152154 2013.16857731422 159 163 164
-151.094947039365 443.487983477432 2003.81748157036 156 160 161
-157.327785437462 442.401231976358 1993.70799107719 156 160 161
-162.566004621981 441.481267365284 1983.5519108531 151 155 156
-170.785245093594 440.059407072557 1973.67278053515 156 160 161
-181.985349438478 438.135566697559 1964.09531135438 155 159 160
-188.214529931033 437.047565194936 1954.13676711435 154 158 159
-192.455184386418 436.293437372057 1944.02954838848 156 160 161
-209.613497541279 433.366523060361 1935.16591091187 160 164 165
-225.775837051812 430.606699342905 1926.29962085604 161 165 166
-229.019475877875 430.019099253635 1916.22986957775 154 158 159
-235.242947164734 428.929919982104 1906.48387148834 154 158 159
-245.439698657991 427.172253841962 1897.19117079645 156 160 161
-262.588299525957 424.245524455459 1888.70732169533 156 160 161
-277.747819445764 421.653056557995 1880.09690235196 153 157 156
-282.973212094598 420.730204735566 1870.43902751083 152 156 155
-289.190954791367 419.64020669954 1860.92536822899 151 155 154
-287.462995014138 419.885144015698 1850.49736863563 137 141 140
-286.72845189213 419.962588002717 1840.1808499762 143 147 146
-291.951494547423 419.0383843221 1830.60404471403 141 146 142
-299.159649769294 417.780255419963 1821.30926885178 142 147 143
-307.359763556033 416.355081392881 1812.18344239266 141 146 142
-313.573150323287 415.26342213394 1802.83824423287 143 147 148
-315.814793929421 414.838637022151 1792.98726879357 130 134 135
-317.063824305918 414.580224788448 1783.01085828768 119 123 124
-320.297349995315 413.987937896182 1773.32200630784 153 157 158
-325.515669812352 413.061987481769 1763.93723520557 141 145 146
-325.771170187979 412.969118124419 1753.85167946039 117 121 122
-326.026621828577 412.875781589326 1743.76752682947 136 140 141
-326.282030296497 412.782096433733 1733.68468721454 140 144 145
-334.474774263967 411.355346473646 1724.83588191925 144 148 149
-330.761115178066 411.92715979758 1714.15054072502 144 148 149
-329.032152853865 412.165338656233 1703.76379221739 156 160 159
-312.423405776332 414.900751629914 1690.93353941367 171 176 172
-63.2043678180114 447.590648757051 2040.62906273912 148 153 149
-75.4126935544002 445.532948670899 2030.61124251228 159 164 160
-110.490546204923 439.68982245942 2022.25225840667 157 161 160
-132.637276731212 435.986692404458 2013.15000738605 156 160 161
-146.826605165178 433.600305710547 2003.57114450876 154 158 159
-155.048931466674 432.200968156958 1993.60491723994 154 158 159
-162.275811526637 430.965883066041 1983.60305250832 151 155 156
-174.472116088809 428.908082310854 1974.05495332287 158 162 163
-183.684475599892 427.34359892538 1964.31631474953 152 156 157
-187.926281944942 426.600985054109 1954.18576376792 156 160 161
-198.130434397583 424.871601304053 1944.62485060895 160 164 165
-208.333160862578 423.142117040095 1935.11956206304 156 160 161
-232.446429103976 419.111390491084 1927.02278049646 155 159 160
-234.696016695409 418.696734350382 1916.87220230122 153 157 158
-240.919777344573 417.624160202775 1907.14204902195 154 158 159
-249.129778808052 416.222822195472 1897.65537118527 156 160 161
-263.29906452747 413.835649499525 1888.85900307586 153 157 158
-271.506112241935 412.434200713808 1879.47832424947 146 150 149
-278.719013408383 411.196712123852 1870.02954719807 146 150 149
-280.96439575368 410.780054548784 1860.04117560356 146 150 149
-283.209695058483 410.362935793785 1850.06487912792 131 135 134
-282.475139941289 410.437925328525 1839.73686909184 135 139 138
-289.685231525231 409.199204100762 1830.39657674614 142 147 143
-295.900954972045 408.124571486977 1820.96901016644 142 147 143
-302.116036153263 407.049626574896 1811.57553501749 136 141 137
-308.330244026571 405.974554047938 1802.21605474395 141 145 144
-316.529159083236 404.571245995588 1793.16055680841 118 122 123
-321.748630358267 403.659816870728 1783.73704979296 121 125 126
-324.982294587643 403.076192722033 1774.06140936587 139 143 144
-322.260228272276 403.47601984103 1763.54468394526 115 119 120
-322.515958733436 403.383449342658 1753.45045655211 111 115 116
-323.76396815602 403.126512432206 1743.50620776218 129 133 134
-330.965813188016 401.885908511183 1734.47687295494 147 151 152
-339.159071133604 400.481465704624 1725.64125610591 141 145 146
-335.444788751884 401.042941634029 1714.96917597347 153 157 158
-331.730776339296 401.603808653805 1704.27656592358 153 157 156
-316.113014549014 404.129338804118 1691.61663055085 164 169 165
-299.505033877967 406.81755282304 1678.70574532415 177 182 178
-62.9066068095367 436.804732749122 2040.68550854296 146 151 147
-95.0069661339508 431.542568368299 2031.99658473575 157 162 158
-111.191021006316 428.87071315844 2022.37603692172 156 160 161
-128.367164548798 426.037123016578 2012.915730435 155 159 160
-140.569297834563 424.012701575947 2003.17566467686 154 158 159
-152.769486114819 421.988080857822 1993.50207771488 153 157 158
-159.002917052807 420.933998890413 1983.41383152747 151 155 156
-174.182792972454 418.42385636119 1974.10554862145 159 163 164
-181.407858104454 417.207620284808 1964.19485618197 152 156 157
-190.61976722679 415.66768455867 1954.50017774712 156 160 161
-192.873141786773 415.259279388847 1944.21762830149 158 162 163
-210.033988296566 412.42562043801 1935.35510896233 156 160 161
-227.192434147629 409.592120458452 1926.58658637382 155 159 160
-238.386342019377 407.728508352983 1917.31596530617 150 154 155
-247.591044640912 406.188030421422 1907.90235970889 154 158 159
-258.781955244783 404.32425596917 1898.74870793756 156 160 161
-272.951625049561 401.975873362667 1889.97897825226 153 157 158
-281.158599372629 400.596711183091 1880.62509745713 146 150 149
-287.377814945049 399.540351826563 1871.08999171587 146 150 149
-287.636275656033 399.45251619147 1860.89414063301 148 152 151
-285.908366219971 399.68711369363 1850.46239622475 129 133 132
-285.173547619983 399.75971259397 1840.1421171299 129 133 132
-286.425350178116 399.508904974468 1830.06552541137 137 142 138
-285.690582294972 399.580470048704 1819.74215408376 139 144 140
-290.913945087072 398.683366632578 1810.19125973123 133 138 134
-299.115024700936 397.30211263034 1801.06551855415 137 141 140
-308.307932880665 395.759399874645 1792.11980580705 113 117 116
-312.535679865324 395.02314296913 1782.53624416582 121 125 124
-313.784993617522 394.770297083379 1772.5547350716 130 134 133
-318.011744957299 394.033374951602 1763.00937241274 103 107 106
-323.230367625073 393.135045836202 1753.63309768988 116 120 119
-324.478642692323 392.881246087433 1743.69115981697 133 137 136
-328.703731308305 392.143656267638 1734.21006525203 140 144 143
-332.928218150628 391.405806523772 1724.75221099994 141 145 144
-333.183086803259 391.312145044273 1714.69049465809 147 151 150
-330.461296189933 391.701395429926 1704.1516373649 148 152 151
-316.826534806501 393.861545648265 1691.81318347737 155 160 156
-297.241260854182 396.986772569699 1678.40997883137 182 187 183
-49.6776658728746 428.086148353437 2039.91360023109 144 149 145
-77.8028864605544 423.547816775321 2030.9220926081 156 160 159
-108.907654637823 418.532829742146 2022.29223310624 150 154 155
-114.151478976845 417.65488669012 2011.96220354058 145 149 150
-131.32749976831 414.867663934073 2002.55648031664 157 161 162
-150.489924237306 411.762497407417 1993.39948505501 147 151 152
-166.666562513086 409.134693195416 1984.10677730862 151 155 156
-180.852891638143 406.82490592678 1974.73670916528 157 161 162
-187.083944725704 405.787121982671 1964.75889717212 154 158 159
-192.31988557637 404.907979827165 1954.7263693481 154 158 159
-193.579121360207 404.66425928316 1944.35754618656 153 157 158
-209.747336814013 402.036233549765 1935.40311843679 155 159 160
-225.913290469448 399.408329819067 1926.53722059975 154 158 159
-239.095567448548 397.257223654319 1917.46188145505 148 152 153
-247.307244963379 395.900486866172 1907.94826229125 152 156 157
-256.511592112463 394.384618217821 1898.58429813 151 155 156
-267.701926065409 392.551126849166 1889.48569951727 147 151 152
-275.909870464489 391.193943465487 1880.11750392938 147 151 150
-281.136290134713 390.312894709524 1870.45504965951 145 149 148
-282.388737868633 390.066566802182 1860.35805220609 149 153 152
-287.613962050366 389.184876014488 1850.74163240363 127 131 130
-289.858935521462 388.778947529801 1840.79008588847 125 129 128
-292.103590236742 388.372683773638 1830.85063746609 131 136 132
-287.395987870968 389.07653933299 1820.03633299959 130 135 131
-288.647285285543 388.827969999081 1809.97256255165 127 132 128
-293.870442704342 387.944485564297 1800.44431791247 132 136 135
-303.064399281347 386.426641677037 1791.4843324436 106 110 109
-305.307068018643 386.018599046615 1781.61126811426 112 116 115
-306.556723063308 385.768636377313 1771.61019111564 114 118 117
-313.762607299402 384.567376799585 1762.47455993353 86 90 89
-324.937663148932 382.732164193871 1753.96190960857 122 126 125
-330.155808616565 381.847796513574 1744.61927623405 136 140 139
-330.410929643074 381.755268225952 1734.54891298096 134 138 137
-327.688985337395 382.13744413627 1724.0177912788 141 145 144
-328.936494547372 381.885772025357 1714.09874546668 143 147 146
-322.245731681033 382.900402793869 1702.9105861861 148 152 151
-314.563517827669 384.072610593503 1691.52347349193 141 146 142
-300.929751655409 386.193843590606 1679.10433698933 160 165 161
-46.3944697575398 417.73050314016 2039.77937342006 140 144 143
-75.5166664178488 413.112381885682 2030.84507700761 153 157 156
-97.6723662009231 409.589621964206 2021.58594391834 151 155 156
-110.873794949301 407.474350045029 2011.80056333791 146 150 151
-126.062239916712 405.046496167072 2002.2364027883 157 161 162
-142.243156168238 402.462264092577 1992.83260612365 147 151 152
-156.432999627667 400.190676763496 1983.35687698357 151 155 156
-169.626647885972 398.075525613093 1973.8757145805 157 161 162
-182.818452686205 395.960325072246 1964.46654787332 153 157 158
-194.02025377074 394.157511532497 1954.95271352372 154 158 159
-200.249730885549 393.135755245261 1945.04438048046 153 157 158
-213.436629568802 391.020390385665 1935.82678538777 155 159 160
-222.645965509231 389.52975200837 1926.29493230051 154 158 159
-235.82945185699 387.414335304802 1917.21064743384 149 153 154
-239.073063902807 386.860172955613 1907.17784569037 151 155 156
-253.247217140859 384.588591486052 1898.31535104714 152 156 157
-265.432197933543 382.62917570977 1889.315462214 149 153 154
-274.634667477464 381.138054629232 1880.05145339923 145 149 148
-277.87464605832 380.582969011765 1870.15966871909 142 146 145
-284.094323288951 379.559620399135 1860.63263938178 145 149 148
-289.32004383871 378.69192881496 1851.02117585214 131 135 134
-293.55154246701 377.979911125343 1841.31701318424 127 131 130
-289.836555287585 378.515076281721 1830.64422850594 129 134 130
-288.108296589506 378.737826111853 1820.20408856121 129 134 130
-290.352896210693 378.336438566293 1810.27202910624 125 130 126
-293.590141881064 377.778839498712 1800.48435728604 126 130 129
-295.833787597544 377.376718730699 1790.57946766555 94 98 97
-295.098621835404 377.441724481902 1780.27392871971 112 116 115
-299.327589998555 376.727319502609 1770.66610210803 107 111 110
-311.498201083349 374.76653770374 1762.22636450878 95 99 98
-327.637829473568 372.182944346895 1754.43692629897 139 143 142
-331.863610230138 371.468337612579 1744.95345794925 133 137 136
-328.148441127649 371.998959744789 1734.28290550505 135 139 138
-322.448714053779 372.840372153642 1723.28380763741 142 146 145
-321.711971640604 372.902886730331 1713.03721484453 137 141 140
-322.959874265032 372.653810738512 1703.10558054554 142 146 145
-316.269456078067 373.64899360019 1691.88306833646 138 143 139
-305.611171922681 375.265811224955 1679.96399494765 176 181 177
-45.8196483591076 406.977115405751 2050.69922540863 148 153 147
-47.0903604695434 406.741800040136 2039.90021726884 135 139 138
-69.251011102629 403.278884607937 2030.50251942575 148 152 151
-87.4300064125593 400.430858617147 2020.94927833627 150 154 155
-104.611658121216 397.736696762754 2011.42340099081 149 153 154
-125.769155038466 394.428138816147 2002.29000080479 158 162 163
-138.967765908783 392.348638211523 1992.65316114317 147 151 152
-157.136821572733 389.50121778968 1983.48904606474 151 155 156
-165.359457208896 388.189458839072 1973.59543929613 156 160 161
-178.552541375517 386.109929124019 1964.174571104 153 157 158
-187.766926380644 384.644384933199 1954.4723272822 155 159 160
-199.962277416244 382.718222867953 1945.09351391696 153 157 158
-213.150178256143 380.638662654322 1935.87519534212 155 159 160
-222.360210249227 379.172776882954 1926.34271554771 155 159 160
-233.556707340867 377.400007638814 1917.05911407695 150 154 155
-235.806899784591 377.007664467874 1906.91817889557 150 154 155
-251.970051178763 374.467804485968 1898.25633773284 152 156 157
-258.193542653482 373.461503011553 1888.60786321568 149 153 154
-266.403362457145 372.148444504902 1879.21374821445 145 149 148
-267.65708282626 371.908199824122 1869.07354346915 141 145 144
-273.877925343489 370.901286293771 1859.51861742043 143 147 146
-281.091518000133 369.740831251553 1850.1162024391 133 137 136
-283.337251852406 369.346284008258 1840.14715789388 126 130 129
-283.595927104864 369.257881094201 1829.94231268657 126 131 127
-281.867951172024 369.475303977373 1819.48540163136 127 132 128
-287.092717293051 368.620110375329 1809.92465985358 125 130 126
-289.337373430253 368.224079488503 1799.99614312456 130 134 133
-294.560631160782 367.368390312476 1790.48449757538 90 94 93
-291.839431246888 367.737136979444 1779.90053838808 110 114 113
-297.062002158293 366.880847271294 1770.42441609267 91 95 94
-309.233440933406 364.953218844357 1761.97860223765 101 105 104
-324.3817363691 362.566660494134 1754.03728921862 145 149 148
-331.586172297639 361.404411890548 1744.9908251043 137 141 140
-323.900249017705 362.536311003951 1733.71473407605 139 143 142
-320.185346976327 363.055761648067 1723.01242408673 138 142 141
-317.463849168927 363.421733582645 1712.44645310392 130 134 133
-321.689413104376 362.71693766778 1702.98199297707 137 141 140
-318.967925668019 363.082009690833 1692.40532561405 140 144 143
-305.331747433252 365.127690664627 1679.99933892625 176 181 177
-258.954091624148 372.214964088908 1661.98507841546 172 177 173
-50.4955535247742 395.385420213592 2051.06184261341 156 161 155
-46.7912594802975 395.907865419547 2039.95747547515 136 140 139
-68.9535903210876 392.505241946056 2030.55884615614 143 147 146
-96.0868868851521 388.348394359898 2021.62728707807 146 150 153
-122.221749230613 384.342997271009 2012.7724500558 154 158 159
-130.449382194324 383.053762326381 2002.71703974604 154 158 159
-142.653898662626 381.160901505934 1993.01576583186 147 151 152
-152.867837135449 379.569657109248 1983.22070450212 152 156 157
-164.074957443421 377.827487137744 1973.56409086675 155 159 160
-178.263408977797 375.632854685534 1964.22539119957 154 158 159
-188.472722393349 374.041341134481 1954.61080413283 153 157 158
-199.674772692273 372.299083621766 1945.14292523129 152 156 157
-208.887070259025 370.85807277661 1935.54860774954 155 159 160
-219.092102751013 369.266288481579 1926.10104330158 156 160 161
-228.301753927878 367.825081894983 1916.60994573213 151 155 156
-236.515996799775 366.534463337567 1907.06705619121 154 158 159
-249.698630387326 364.490546283989 1898.09287096503 153 157 158
-261.885672288201 362.59726294574 1889.08343480235 148 152 153
-264.133553448646 362.209886485252 1879.03816544939 145 149 148
-265.38727244315 361.972676267698 1868.89194781331 142 146 145
-272.602499286724 360.831832520855 1859.44672024424 146 150 149
-279.816710357812 359.690809058685 1850.0409996182 138 142 141
-282.0626895892 359.302108364835 1840.06864238165 127 131 130
-279.341231404381 359.665342019295 1829.4888578686 122 127 123
-281.586674380932 359.275766903186 1819.5271956532 126 131 127
-290.784831046039 357.832938996889 1810.48360257422 128 133 129
-294.022500576999 357.292392533636 1800.69767458709 129 134 130
-295.273372355512 357.052339183051 1790.65968327796 103 108 104
-287.586757655947 358.165006209612 1779.38996539046 83 88 84
-296.781888418386 356.721393379912 1770.46379227977 77 82 78
-303.989802132429 355.578355281869 1761.30203102148 130 135 131
-318.146585427951 353.383361025339 1753.20064735594 131 136 132
-320.388228514315 352.991673422295 1743.39455457511 126 131 127
-322.629307026798 352.59965910777 1733.60085171143 131 136 132
-318.9144305144 353.108506457876 1722.89548374888 122 127 123
-319.170283339897 353.016143458833 1712.79669673041 132 137 133
-320.418515313349 352.773221766049 1702.85879834288 141 146 142
-317.697130771587 353.130490793478 1692.27905603519 135 139 138
-310.013957900509 354.237773223463 1680.85971321393 161 165 164
-282.486264842968 358.34573673096 1666.04500370893 166 170 169
-24.32476845319 388.414914317802 2049.53558492386 147 152 146
-26.5918244825754 388.036720630522 2038.74143023366 136 140 139
-70.6460821727952 381.433607958826 2030.74818210276 141 145 146
-106.735135881329 376.017123777239 2022.44353965135 148 152 155
-129.88680934707 372.527646847151 2013.40220336695 155 159 160
-134.135423069902 371.853236014392 2003.06950286125 153 157 158
-151.313980597071 369.252927445461 1993.76532927678 147 151 152
-160.53355402987 367.837498291778 1983.91411339502 152 156 157
-170.746284425566 366.273824167949 1974.19587073998 156 160 161
-178.968603778813 365.00617339346 1964.36198536583 155 159 160
-186.195706552034 363.886322468215 1954.4844705889 152 156 157
-193.421562046311 362.766266567956 1944.64615891927 152 156 157
-201.640573879367 361.49802588276 1934.94090949138 156 160 161
-221.788549124766 358.454065203378 1926.43905573046 156 160 161
-231.992719631471 356.889879079805 1917.05481344439 151 155 156
-241.201504302652 355.473541001388 1907.62428380761 158 162 163
-250.408998507557 354.057096338948 1898.24407562158 154 158 159
-259.61496564152 352.640611218661 1888.91418242928 148 152 153
-261.863157751556 352.258943812792 1878.86289003224 143 147 146
-264.111028636663 351.876851764222 1868.82369626961 141 145 144
-273.314096971605 350.459877986694 1859.60657350253 144 148 147
-282.516110064086 349.042791885639 1850.43989745028 145 149 148
-284.76204754155 348.659864136597 1840.47537064522 131 135 134
-281.046538720886 349.163091122187 1829.77935597732 123 128 124
-277.331779265159 349.665635317833 1819.06264519278 127 132 128
-281.564116670666 348.986074694156 1809.36055010355 126 131 127
-284.802657245672 348.453879058228 1799.54954517282 127 132 128
-290.027225035563 347.626106944023 1790.0259979446 110 115 111
-289.292243137232 347.683861459541 1779.70548714579 74 79 75
-292.529536925933 347.1507673631 1769.94224624527 79 84 80
-301.724113540403 345.732093065968 1761.0551834442 136 141 137
-311.910480491586 344.165834593439 1752.36454065422 122 127 123
-316.138506069673 343.484807937005 1742.83871739271 128 133 129
-318.380033455929 343.098555986333 1733.03365816952 134 139 135
-318.635956177592 343.006984636105 1722.93298937825 126 131 127
-319.884399536144 342.767547790497 1712.99057108928 135 140 136
-316.169911003166 343.264888230088 1702.25768431272 133 138 134
-315.433463057735 343.31949192516 1691.99108860489 127 131 130
-313.70450422234 343.521121389296 1681.55563502954 150 154 153
-304.036942357441 344.901003868227 1669.76946161947 161 165 164
2.84530615267364 381.446042140874 2047.94929148327 133 138 134
-17.3355786957066 378.454086140702 2038.22637984015 133 137 136
-57.4135797245727 372.553140058326 2029.94165196079 136 140 141
-103.455662188302 365.780555657185 2022.29168349308 151 155 156
-127.604100571542 362.208764447123 2013.31310036827 157 161 162
-137.822019515896 360.672998280009 2003.42203667211 151 155 156
-153.012282835474 358.410159697914 1993.97331412458 146 150 151
-160.242999378585 357.310296467744 1983.96669716091 153 157 158
-168.467227526254 356.064884737515 1974.08208806123 156 160 161
-176.690547104898 354.819261616067 1964.24208679915 157 161 162
-183.918099906937 353.718770197097 1954.3584452956 149 153 154
-188.161472688278 353.053887233278 1944.24080923085 151 155 156
-199.364420335967 351.371950041453 1934.80262614588 156 160 161
-223.491226025125 347.801923668121 1926.68074337961 156 160 161
-234.690134517298 346.120161528701 1917.40061244239 148 152 153
-243.899409675198 344.728750821812 1907.97767797719 148 152 153
-250.125267286405 343.77277558732 1898.29076308973 151 155 156
-259.331934588216 342.381192025002 1888.96024228754 149 153 152
-264.562009485739 341.569929467267 1879.2391849056 147 151 150
-269.79111433353 340.758508166312 1869.54654519309 143 147 146
-278.001015701367 339.511565801922 1860.22955759117 146 150 149
-283.228437101006 338.699692397034 1850.60222742987 145 149 148
-283.487148075648 338.612720429897 1840.39752251646 130 134 133
-278.778185016887 339.250223935952 1829.57447970926 121 125 124
-276.056691584519 339.597171802449 1818.97858636771 126 131 127
-275.322485087261 339.6535795222 1808.62632412326 126 131 127
-272.601595741898 339.999436268281 1798.0056494078 125 130 126
-279.81379471791 338.895620122157 1788.71851877803 106 111 107
-284.045348615121 338.226411310004 1779.0581608852 78 83 79
-292.249023200925 336.977525549238 1769.98245082648 85 90 86
-296.479095962708 336.307930809847 1760.37956645818 125 130 126
-308.652431633092 334.47969908284 1751.96633988589 123 128 124
-314.866696228949 333.520358191155 1742.7289064153 134 139 135
-319.094272613269 332.850437744174 1733.22323940644 131 136 132
-318.357429404186 332.904006307743 1722.97098052694 136 141 137
-317.620676074681 332.957130809467 1712.71473204277 131 136 132
-311.920657221986 333.733350182115 1701.6570386411 136 141 137
-311.1844303676 333.78555427354 1691.37922541977 131 135 134
-308.463179913616 334.126645614026 1680.76754735466 143 147 146
-304.749922944914 334.611834423462 1669.97347929524 162 166 165
19.0716577652221 372.757105478654 2047.03392387973 143 145 142
5.85441507409046 370.819031014166 2036.82074061354 130 132 129
-58.1101902294154 361.60170035096 2030.06504958478 137 139 138
-84.2554126839579 357.809343597694 2021.03404991482 158 159 161
-116.366703405914 353.161444850934 2012.57744035209 158 162 163
-137.529716157376 350.08363213374 2003.4762187131 150 154 153
-152.72113104823 347.862020152663 1994.02675471987 148 152 151
-158.957731417249 346.924161548031 1983.93942788403 152 156 155
-167.182653878346 345.700832039071 1974.05139279884 159 163 162
-175.406429207615 344.477327776854 1964.2080039628 155 159 158
-184.623750120805 343.111083728339 1954.49763552831 151 155 154
-190.856385377237 342.172300120891 1944.5642858315 155 159 158
-211.009540739016 339.238055607228 1935.97777994622 158 162 161
-232.1541286494 336.161757030778 1927.59829069148 155 159 158
-244.347676790889 334.368053701215 1918.44148945073 147 151 150
-249.580286902371 333.571601112078 1908.63724892841 152 156 155
-255.805960799164 332.632423237605 1898.96622515998 150 154 153
-261.037031998346 331.835480064977 1889.2216039107 148 152 151
-266.267366526616 331.038222853192 1879.50543712157 143 147 146
-269.508828449962 330.525509035595 1869.59184906544 143 147 146
-275.731591838988 329.585452361982 1860.04295922453 144 148 147
-277.978475732719 329.214486526514 1850.0542869747 146 150 149
-280.22479788058 328.843103198095 1840.07779663944 137 141 140
-278.49658650723 329.040449235936 1829.61785523295 122 126 125
-272.794197384 329.806256136996 1818.64162010484 125 129 128
-267.092597985027 330.571372638592 1807.63377851922 121 125 124
-264.372057326903 330.909184030185 1796.99083741654 125 127 126
-271.585361362475 329.824699914855 1787.68127447678 117 119 118
-277.804441943175 328.882292652391 1778.27379766189 90 92 91
-286.009154909809 327.65545753141 1769.18118036194 102 104 103
-295.205549283563 326.286685286851 1760.27665421172 126 128 127
-306.387117277324 324.633634194564 1751.71440252265 140 142 141
-313.594923166106 323.54902333757 1742.6195901207 124 126 125
-314.844073135739 323.316510629316 1732.65698962824 130 132 131
-318.078854110454 322.799630449216 1723.00936745777 133 135 134
-316.349325809399 322.992435538177 1712.59602042693 140 142 141
-314.619790778713 323.184825420693 1702.17316580842 135 137 136
-310.90531517644 323.66061557909 1691.41663462289 127 131 130
-307.191112211334 324.1359761747 1680.63966181273 149 153 152
-301.492754335358 324.894374698048 1669.50724181973 156 160 159
38.2866299281144 364.399179027967 2045.93647867002 143 145 142
3.17217012617199 359.416163031427 2037.07028037831 130 132 129
-34.9231256053901 354.013910651366 2028.59567916951 136 138 137
-83.9590193859152 347.073029324805 2021.09029937988 156 157 159
-112.092712180734 343.072643656591 2012.3452734395 160 164 163
-138.232481103221 339.352741323986 2003.60521267101 149 153 152
-145.465787040372 338.291681257823 1993.53905706708 149 153 152
-151.70310899245 337.37031897821 1983.43191596066 155 159 158
-166.892549230167 335.189835592793 1974.10378897102 155 159 158
-179.095827108194 333.429013188567 1964.60202092586 147 151 150
-192.291934309878 331.528435707978 1955.25514717806 147 151 150
-202.502573765734 330.047304273079 1945.70725367759 153 157 156
