ply
format ascii 1.0
comment KinectMotionCapture
element vertex 751
property float x
property float y
property float z
property uchar red
property uchar green
property uchar blue
end_header
-797.641974357097 423.268252603582 2604.28693147523 197 201 200
-810.835334519364 420.691601654483 2594.3215059229 203 207 206
-834.003777945233 416.159240503621 2583.50497274607 199 203 202
-864.152337369876 410.258106595769 2572.18742566729 197 201 202
-886.316448122796 405.921529851152 2561.72574891246 207 211 212
-893.515205864884 404.517775812079 2552.64189805834 208 212 213
-898.718089963308 403.504769024737 2543.75760909509 199 203 204
-904.917794924617 402.295813867705 2534.82120000645 199 203 204
-911.116678527313 401.086597227316 2525.91661169705 196 200 201
-920.306364621773 399.290651637522 2516.82492729023 201 205 206
-926.50315283606 398.080855622503 2507.99228714259 192 196 197
-932.699353893591 396.870672618598 2499.19150438436 191 195 196
-933.90989103193 396.637333085484 2490.74646410851 197 201 202
-937.113759316693 396.012729075336 2482.1820266085 195 199 200
-947.295399350231 394.019793221833 2473.21799482481 197 201 202
-965.450058283893 390.463359371656 2463.85526982594 207 211 212
-981.608697278821 387.297771740171 2454.69793069915 206 210 211
-985.805295715805 386.476507852447 2446.24048825507 200 204 207
-991.9945861122 385.264143386901 2437.7074557884 199 203 206
-1001.17258080823 383.465368494208 2429.06967384595 199 203 206
-1011.34568916657 381.470982834383 2420.43753279389 198 202 205
-1020.52087612396 379.671698176865 2411.89961486964 194 198 199
-1017.7394100637 380.215749954153 2403.85929458161 191 195 196
-1024.92085871011 378.806277677182 2395.45512813352 193 197 198
-1027.12019568445 378.372889489439 2387.24840510284 176 180 181
-1035.29605953723 376.767482232264 2378.87682950764 181 185 184
-1032.51445476133 377.309410253833 2370.8396503824 177 181 180
-1031.72502029788 377.460319691074 2362.73803225471 174 178 179
-1031.93176523416 377.415391515325 2354.60948352603 169 173 174
-1036.12192958508 376.589115295618 2346.40745038639 167 171 172
-1037.32405575297 376.347934937207 2338.27339631041 171 175 176
-1035.53901186472 376.691886270447 2330.18275515157 170 174 175
-1033.75447453378 377.035009389371 2322.08075149403 179 183 184
-1036.94774085512 376.401971216583 2313.93094428565 176 180 181
-1042.13135821892 375.378188734244 2305.78809594407 168 172 173
-1047.31450905844 374.353957137695 2297.67232355126 181 185 186
-1046.52474834288 374.499941841921 2289.57816868699 190 194 195
-1044.74017666692 374.840373247251 2281.47461719699 185 189 190
-1043.95074608184 374.98515970894 2273.36627310958 144 148 147
-1044.15672074971 374.934224628967 2265.26137938775 148 152 151
-1043.36771472871 375.077784571925 2257.1444497123 170 174 173
-1040.58879590113 375.610744898344 2248.99266560121 158 162 161
-1037.81028121401 376.142997440581 2240.8243263171 171 175 174
-1035.0321714621 376.6746020061 2232.63946501493 176 178 177
-1024.29644985066 378.765059468911 2224.25547364671 171 173 170
-1014.55686821495 380.659662940275 2215.83675012955 175 177 172
-806.381705084596 412.815752445356 2603.48631994865 195 199 198
-819.575185852505 410.274363723827 2593.54471778597 197 201 200
-842.744743551429 405.804545866305 2582.75178912954 199 203 202
-872.895187806821 399.985133125027 2571.45764701868 198 202 203
-891.069649049976 396.479548282838 2561.36625212611 203 207 208
-901.261279183288 394.51636306706 2552.04371657912 206 210 211
-904.469163323897 393.902390501122 2543.34306553519 197 201 202
-906.679297675544 393.480769256999 2534.73630282096 196 200 201
-908.888929637965 393.05886476512 2526.13954630021 193 197 198
-918.079437788885 391.287128073538 2517.04172672956 199 203 204
-927.268707754358 389.515300888812 2507.99220257094 189 193 194
-936.456493809989 387.743091650756 2498.99093974181 189 193 194
-936.669602351595 387.705142054786 2490.62117233358 195 199 200
-942.864747889819 386.510364860564 2481.87818449837 195 199 200
-957.034636932494 383.773897598179 2472.6925156105 205 209 210
-975.189727919231 380.266537469298 2463.35627127494 205 209 210
-988.358495906671 377.722511933866 2454.38702376334 199 203 206
-991.558270640754 377.104756436847 2445.9992545989 198 202 205
-997.747603785715 375.908645752756 2437.48200342892 197 201 204
-1011.9086487348 373.171265136865 2428.63168687919 198 202 203
-1017.09908450159 372.167184230759 2420.24350576351 197 201 202
-1023.28543612586 370.97015676942 2411.84179838597 193 197 198
-1020.50354526728 371.505978992269 2403.8092444264 190 194 195
-1025.69262447589 370.500605581421 2395.48201929991 190 194 193
-1026.89589313866 370.265122963282 2387.30943036078 174 178 177
-1033.07995060872 369.066425547208 2378.99559340806 178 182 181
-1032.29055020356 369.215042058014 2370.89950698497 174 178 177
-1032.49723855648 369.17054907971 2362.77363701154 171 175 174
-1031.70780643794 369.318066816387 2354.66828548961 169 173 172
-1034.90223338181 368.695072938846 2346.48390192307 168 172 171
-1038.09623971334 368.071650868837 2338.3154975837 164 168 167
-1037.30689532635 368.217521599271 2330.21427356881 161 165 164
-1036.51768374402 368.362756782833 2322.10717668648 175 179 178
-1038.71520985029 367.93036086162 2313.97229407238 172 176 175
-1040.91268461304 367.497285255167 2305.8480131354 162 166 165
-1045.10066483741 366.679096028538 2297.73070162984 177 181 180
-1045.30654130532 366.629807606515 2289.63141395657 189 193 192
-1044.5171555054 366.77235830502 2281.52824370827 180 184 183
-1040.74210584242 367.491297055872 2273.40023088715 138 142 141
-1039.95294964748 367.632619390815 2265.27744316987 153 158 154
-1041.15449061912 367.388770797706 2257.17272043413 170 174 173
-1044.3455950875 366.759852430882 2249.10250467048 157 161 160
-1044.55154939411 366.707242238277 2240.99660813019 173 177 176
-1039.78306549418 367.615222702416 2232.79026331345 175 177 176
-1030.04094918632 369.483552422538 2224.44239283422 177 179 176
-1020.30020900595 371.350915587866 2216.03970071299 177 179 174
-1020.50784646726 371.295606577236 2207.86512287326 191 194 187
-798.93248708664 405.487156574903 2612.97357566421 226 230 229
-812.12856583952 402.981204528196 2602.97780920938 181 185 184
-826.320928268046 400.284968878857 2592.9570001579 192 196 195
-845.500195631306 396.638150939159 2582.55081788233 193 197 196
-870.663734420486 391.850712731044 2571.71081291286 194 198 199
-887.842071631314 388.584101322581 2561.69982538186 197 201 202
-897.037112728202 386.837926327738 2552.45228876107 203 207 208
-904.235700471905 385.471669433789 2543.41534357928 194 198 199
-908.440829199075 384.675203131264 2534.65113358133 197 201 202
-915.637702137074 383.308352434032 2525.68057136665 188 192 193
-923.831129594545 381.75111601831 2516.67427139625 201 205 206
-934.017877536933 379.813658333726 2507.5701730249 187 191 192
-940.214441878621 378.635938947445 2498.79004879569 187 191 192
-942.421420000141 378.217831964571 2490.30109104347 190 194 195
-947.619608252237 377.229329591449 2481.63596776302 193 197 198
-958.798938750847 375.100776211355 2472.64128261255 205 209 210
-973.964670559522 372.212167931998 2463.47943318704 196 200 201
-988.131290979522 369.513485720541 2454.45275928582 194 198 199
-995.318429260712 368.144065027745 2445.85990171868 195 199 200
-1001.50794483764 366.964200946937 2437.35296482693 195 199 200
-1014.67319356571 364.454813034637 2428.55845337461 194 198 199
-1015.87751321165 364.223792119758 2420.34957900572 192 196 197
-1019.07482371257 363.612544529034 2412.06510829862 189 193 194
-1017.28936922999 363.950153126379 2403.98370424738 187 191 190
-1023.47535082119 362.768469016877 2395.61293355356 187 191 190
-1027.66802518607 361.965982322584 2387.33834373354 173 177 176
-1031.8599055546 361.163169976552 2379.08511159348 168 172 171
-1034.0587989339 360.73959296288 2370.90626027637 170 174 173
-1036.25765202808 360.315543386579 2362.73780082831 166 170 169
-1035.46811302462 360.460205529424 2354.64288541122 165 169 168
-1038.6624997354 359.84538495377 2346.46885015515 167 171 170
-1038.86877276941 359.799261992749 2338.35746213314 163 167 166
-1037.08330817908 360.132041747602 2330.27126828876 160 164 163
-1034.30244021034 360.653967323893 2322.18381510196 170 174 173
-1034.50904716639 360.606134948995 2314.05754081335 152 156 155
-1037.70250411903 359.988771015628 2305.91711286457 139 143 142
-1042.88647563066 358.991692754534 2297.78909613469 172 176 175
-1046.07894252813 358.373452040092 2289.68642155162 180 184 183
-1049.2709853514 357.754844073878 2281.59992693085 182 186 185
-1045.49529798457 358.462879085064 2273.48513018986 131 136 132
-1045.70116033427 358.411913888334 2265.38459391385 162 167 163
-1044.91189065062 358.549962254212 2257.27205118088 159 163 162
-1045.11780039673 358.4978740868 2249.16845672979 168 172 171
-1042.33851355559 359.013826959873 2241.01279457022 173 177 176
-1038.56471820943 359.718597385046 2232.82054584558 174 176 175
-1032.80154238418 360.801672996475 2224.56072431544 174 176 175
-1026.04441322931 362.073418356512 2216.24245934228 172 174 171
-1025.25670600593 362.207692819528 2208.05547333507 185 187 182
-807.674285953908 395.086502448989 2612.14780234748 220 224 223
-819.872742558306 392.803237381476 2602.27350768281 177 181 180
-831.071395364577 390.707171797075 2592.55852270564 188 192 191
-850.25198933748 387.111853999388 2582.16511360393 192 196 195
-872.423515487579 382.954560593673 2571.60611808037 193 197 198
-887.607358728131 380.108878824678 2561.77317754817 195 199 200
-896.803084288829 378.387009378174 2552.52498713642 200 204 205
-908.990501719554 376.102932062267 2543.08126949091 190 194 195
-916.188313661229 374.755307557007 2534.09465136388 193 197 198
-923.385163359487 373.407399056885 2525.14533611114 188 192 193
-927.588746311167 372.621037360236 2516.45238992181 200 204 205
-933.786595011633 371.459841393929 2507.63981007806 186 190 191
-939.9836183046 370.298264984096 2498.85908152778 188 192 193
-941.193605545894 370.072607375183 2490.43445660375 191 195 196
-951.377871901363 368.161378474627 2481.45550969413 194 198 199
-959.566502971147 366.624388148637 2472.64908307375 201 205 206
-975.730242103065 363.589364585741 2463.43260256671 194 198 199
-988.900918938712 361.115893414875 2454.46450649732 193 197 198
-1000.07619488945 359.016625288663 2445.66905616181 194 198 199
-1008.25928137497 357.478710326821 2437.07833829904 195 199 200
-1014.44794071049 356.314829202264 2428.62202755505 195 199 200
-1017.64576218354 355.712088319307 2420.3267201347 193 197 198
-1020.84316764121 355.108858000989 2412.04714651834 189 193 194
-1024.04015968523 354.50528760228 2403.78336538731 186 190 189
-1027.23673615855 353.90125765935 2395.53533277574 186 190 189
-1030.43265736327 353.296805112358 2387.30313178324 172 176 175
-1031.63591650856 353.066033388124 2379.14529780328 167 171 170
-1028.85387352677 353.583050129045 2371.09849746771 169 173 172
-1031.05299747839 353.164273273448 2362.91578862582 162 166 165
-1031.25977504782 353.119036314578 2354.78563293287 161 165 164
-1036.44684059945 352.138176606688 2346.56342942328 161 165 164
-1038.64528867351 351.717926029797 2338.41487863753 160 164 163
-1037.85550892755 351.858213990782 2330.31535082335 157 161 160
-1035.07435596675 352.371872792225 2322.23015988704 165 169 168
-1036.27682752037 352.137019385292 2314.0987251219 136 140 139
-1037.47891648446 351.901700788889 2305.97241900767 138 142 141
-1039.67664025318 351.478852156903 2297.84938699246 164 168 167
-1039.88289206027 351.42946380891 2289.73532247116 175 179 178
-1043.07535139194 350.818820653708 2281.63177647175 166 170 169
-1042.2860420601 350.95528907026 2273.5190868996 134 139 135
-1045.47816231846 350.343622698332 2265.43701919675 162 167 163
-1047.67465884842 349.918399935012 2257.35940276398 157 161 160
-1048.87550077216 349.679542107564 2249.27803515303 165 169 168
-1045.10066429113 350.374116388379 2241.1155297515 172 176 175
-1038.34117048281 351.628365533591 2232.87089753874 168 170 169
-1030.58748220208 353.068620895029 2224.56506189495 166 168 167
-1025.81991271783 353.947668810163 2216.29191300311 177 179 176
-1023.04258510225 354.452626757548 2208.04787201709 174 176 173
-1023.25002550392 354.396770019309 2199.88040784302 188 190 185
-815.419285176425 384.918219471492 2611.42175264086 194 198 197
-826.619798048424 382.852148361667 2601.66627560815 175 179 178
-833.826609392673 381.524545074224 2592.34942689459 182 186 185
-854.006353453416 377.796252118813 2581.87115448408 191 195 194
-869.193847877577 374.991128347618 2571.94838589064 186 190 191
-882.383477457726 372.555254951287 2562.27992050483 193 197 198
-890.582288209212 371.042323000291 2553.1014686893 193 197 198
-902.771035044841 368.790692169368 2543.64063183148 190 194 195
-915.955697306371 366.35437065266 2534.16582530789 191 195 196
-923.153079963062 365.025256273866 2525.21585987335 191 195 196
-929.352070557733 363.880531627085 2516.37633648268 197 201 202
-936.547600059337 362.5509202966 2507.49826518014 179 183 184
-937.757938377021 362.328230192672 2499.06310525291 187 191 192
-938.968147055635 362.105124459483 2490.6325657989 196 200 201
-946.161620161142 360.774530114405 2481.83381009423 201 205 206
-953.354362888588 359.443496881454 2473.07245363864 193 197 198
-971.513764269674 356.082966168796 2463.72539827863 192 196 197
-983.688763864382 353.829143387323 2454.79949767139 198 202 203
-1002.84069401117 350.283950202707 2445.58019014015 193 197 198
-1009.0303375353 349.136675547247 2437.09391985529 196 200 201
-1012.22894529838 348.542308055544 2428.77687219896 196 200 201
-1015.42714109498 347.947570088651 2420.4755278324 192 196 197
-1021.61494691185 346.799191043074 2412.06922049225 185 189 188
-1024.81210308732 346.203589490974 2403.80758086952 182 186 185
-1028.00884547077 345.607647959215 2395.56174862813 181 185 184
-1028.2157738441 345.564351480681 2387.42778253496 169 173 172
-1028.42270253738 345.520514745524 2379.29322385099 163 168 164
-1023.64792006406 346.397884955942 2371.2908573808 164 169 165
-1024.85161299215 346.168618260713 2363.11768565068 162 166 165
-1027.05103397591 345.754563850646 2354.92843836219 159 163 162
-1032.23876610865 344.787181013591 2346.69465297921 156 160 159
-1034.43741643301 344.3722514321 2338.53458603805 154 158 157
-1033.64808910326 344.509654935471 2330.4236039108 153 157 156
-1030.86699861338 345.014924448013 2322.32696362266 149 153 152
-1031.07383818854 344.96691010519 2314.19140239017 121 125 124
-1033.27229128609 344.54995923861 2306.04619824389 141 145 144
-1037.46169814571 343.764100582904 2297.90784296741 142 146 145
-1037.66810198967 343.714641748845 2289.78776063614 182 186 185
-1042.85213958782 342.743774218152 2281.68530407998 155 159 158
-1047.04029760072 341.956624391371 2273.60369648759 149 154 150
-1051.22765190264 341.169121489641 2265.54379681209 157 162 158
-1051.43311261488 341.117663029741 2257.45842829147 151 155 154
-1049.64791771087 341.433805728835 2249.34383058218 170 174 173
-1043.88222048836 342.485652483303 2241.14902284987 168 172 171
-1038.11758198264 343.536644060986 2232.92124336324 159 160 162
-1030.36330434333 344.955059344906 2224.61499170087 177 179 178
-1030.5702318506 344.900419496639 2216.46887981951 171 173 172
-1023.8126876029 346.133262984204 2208.12506827761 178 180 177
-1023.02528732156 346.261390671261 2199.9288107656 173 175 172
-1019.25362532129 346.94080527172 2191.62595836179 146 147 142
-805.196387187408 378.067348977658 2612.50249011931 189 193 192
-818.394695596642 375.667010175861 2602.52365555036 179 183 182
-834.585880386102 372.720800305216 2592.32986497209 181 185 184
-858.759520241345 368.319075331689 2581.48452685086 190 194 193
-875.943653968576 365.190975176968 2571.39571409514 182 186 187
-886.139979422355 363.336044688573 2562.0059047476 193 197 198
-895.337142082879 361.66279819889 2552.75375508248 192 196 197
-903.535115026611 360.171276020536 2543.63103586127 191 195 196
-911.731987046014 358.679416739551 2534.5509826218 190 194 195
-917.932606870431 357.551033669705 2525.6653296154 194 198 199
-929.12041361625 355.513190043357 2516.44608529625 199 203 204
-936.316477031938 354.202462608353 2507.56742285433 180 184 185
-940.519237431541 353.436876422833 2498.92893199341 186 190 191
-938.737188160201 353.76172469382 2490.70073943505 200 204 205
-951.915038691045 351.359236816429 2481.52848689993 202 206 207
-961.102216746848 349.683726950626 2472.66413993693 191 195 196
-979.262664208838 346.372130226545 2463.3380664478 192 196 197
-989.443745640644 344.514566006622 2454.54121838907 191 195 196
-1002.61452543781 342.11146976921 2445.64466141023 193 197 198
-1010.79862782853 340.616948202805 2437.0608309392 195 199 200
-1013.00052082549 340.212345746989 2428.79444237982 194 198 197
-1016.19864352475 339.625702938088 2420.49532207952 189 193 192
-1019.3965891498 339.038533955132 2412.21188227565 180 184 183
-1023.59096003205 338.269296295773 2403.90668693229 180 184 183
-1027.78453880979 337.499732481016 2395.62277478881 179 184 180
-1025.9983143632 337.819570359449 2387.5523827691 169 174 170
-1025.20899903777 337.957180733603 2379.44115359375 160 165 161
-1021.43061830294 338.639104280992 2371.40358652541 160 165 161
-1022.63429751084 338.412425192864 2363.2244046127 158 163 159
-1025.83044134545 337.822134754847 2355.00803344317 156 161 157
-1031.01839301679 336.868320929824 2346.77091230324 152 157 153
-1033.21751316853 336.458724865113 2338.60753438799 151 156 152
-1030.43600285749 336.956303669594 2330.51904447488 151 156 152
-1025.66309575397 337.816246096042 2322.43399423254 145 150 146
-1025.87029457801 337.76804608237 2314.28419295025 120 125 121
-1029.06502360675 337.1749212868 2306.12007397988 138 143 139
-1035.24641580157 336.036985636874 2297.96632173335 127 132 128
-1034.45734219655 336.16876982945 2289.83938958199 165 170 166
-1036.65530956886 335.755759486378 2281.71740029142 131 136 132
-1044.82614746011 334.253755811676 2273.64395869843 152 157 153
-1049.01395594859 333.477115478565 2265.57797122817 149 154 150
-1052.20584949162 332.881444522279 2257.52193899114 147 152 148
-1049.42516813584 333.373430930374 2249.39504595029 174 178 177
-1045.64968617982 334.046180073461 2241.23433379557 161 165 164
-1039.88423365108 335.080916273506 2233.01159058761 160 161 163
-1032.12946232577 336.477402854819 2224.71041332075 171 172 174
-1034.32626540658 336.060294214439 2216.62020335099 175 177 176
-1027.56792826074 337.274082679253 2208.28692119937 176 178 175
-1026.7801868998 337.399510285617 2200.10109512103 175 177 174
-1014.05412819589 339.699183864998 2191.50536389113 187 188 183
-801.96037063373 369.905953633843 2612.88033911463 181 185 184
-817.156527417891 367.182343433427 2602.69721369042 175 179 178
-835.345509953862 363.921128262157 2592.30998649028 173 177 176
-858.522589155909 359.763867803443 2581.55869149846 187 191 190
-875.708010501511 356.681849582644 2571.46903338778 176 180 181
-886.903024935315 354.674770572222 2561.99179554033 193 197 198
-897.098663263678 352.846731493071 2552.65771535847 189 193 194
-903.301521791437 351.735007893338 2543.70245372615 188 192 193
-910.501281992406 350.443912812299 2534.70038781874 183 187 188
-917.700080706691 349.152533534934 2525.73559499358 197 201 202
-930.883887782047 346.786271856894 2516.36943696715 200 204 205
-940.07560759938 345.136201302779 2507.35489700368 184 188 189
-943.280954948481 344.560476027746 2498.79445955505 186 190 191
-946.485893982143 343.984319286459 2490.24951721306 201 205 206
-956.672027087747 342.154399367987 2481.28491456416 191 195 196
-963.864838318933 340.861433119404 2472.55242935282 186 190 191
-981.029040114577 337.777861860759 2463.29043723069 195 199 200
-993.205170676764 335.58933880436 2454.39044831203 191 195 196
-1007.37368806846 333.042659969132 2445.45284370407 192 196 197
-1012.56718647913 332.106782471397 2437.02752021131 193 197 196
-1011.77796581828 332.244460806996 2428.90333939924 190 194 193
-1011.98594270618 332.202625736472 2420.72996287163 185 189 188
-1016.18114867448 331.444542498553 2412.39478144345 176 180 179
-1018.38244811186 331.043909274813 2404.15585310438 176 180 179
-1023.57352898203 330.106034556989 2395.82287100786 177 182 178
-1022.78397944737 330.241369676666 2387.7090277593 169 174 170
-1024.98444788385 329.83936718421 2379.50110759883 155 160 156
-1024.1952081269 329.973656392173 2371.38335893258 152 157 153
-1024.40243445801 329.928480017323 2363.2357291294 150 155 151
-1024.60966086331 329.882823470326 2355.08758085442 151 156 152
-1024.81688494 329.836627371828 2346.93894426075 151 156 152
-1026.02022556076 329.611088758594 2338.77422006057 150 155 151
-1025.23132675114 329.742736387086 2330.64030966728 152 157 153
-1020.45816293741 330.588855882479 2322.54112576179 146 151 147
-1022.65778207144 330.183028212683 2314.36229210269 120 125 121
-1023.86103632369 329.955411926483 2306.19871263803 142 147 143
-1032.03502168817 328.476217810234 2298.02674803528 126 131 127
-1033.23773482934 328.247722124084 2289.89269762227 153 158 154
-1037.42719728752 327.482645267017 2281.77448325663 119 124 120
-1044.60302115555 326.18120741377 2273.69682688801 146 151 147
-1049.78687380702 325.236734348477 2265.63926382139 142 147 143
-1050.98785171379 325.006513071088 2257.56185478467 145 150 146
-1046.21608271341 325.847579741635 2249.40273140751 170 174 173
-1040.44995134955 326.866468445484 2241.19882839505 152 156 155
-1034.68440680815 327.884693893856 2232.96195338711 162 163 165
-1030.91021113668 328.544976743447 2224.73758343032 165 166 168
-1034.10232392147 327.954772306574 2216.66952720509 172 174 173
-1029.33372019653 328.792322307751 2208.39224275804 170 172 171
-1022.57568836678 329.986223202488 2200.02567405478 170 172 169
-1010.84380871305 332.071868910777 2191.45233672759 177 178 173
-802.717524266051 361.020906583475 2612.85623487114 173 177 176
-817.914746229297 358.33797580317 2602.67515698664 170 174 173
-840.098118280655 354.419675535527 2591.90979503048 168 172 171
-865.273117772524 349.972014971377 2580.98669316324 187 191 190
-879.464873871556 347.465484036935 2571.18394709295 175 179 180
-889.662439634805 345.664690630033 2561.80379038327 193 197 198
-899.858628465387 343.863723630349 2552.47726258157 186 190 191
-907.059601540785 342.591751819569 2543.44832643464 188 192 193
-911.265988169606 341.848817724507 2534.69243204404 182 186 187
-918.465486893933 340.576214968823 2525.72976597258 196 200 201
-933.645528248032 337.892486450689 2516.21930926101 197 201 202
-938.847133945034 336.972276220235 2507.49394723812 182 186 187
-943.05030070988 336.22815869692 2498.86262561175 186 190 191
-945.257785989386 335.836355085341 2490.38208890285 199 203 204
-956.44236647124 333.857108707626 2481.35185536839 185 189 190
-966.6278775304 332.054062872524 2472.44041977039 184 188 189
-983.793162201517 329.016778103809 2463.18580399148 196 200 201
-1001.95349488408 325.803103006564 2453.96935718124 190 194 195
-1007.14782936328 324.881050516391 2445.51687667406 191 195 194
-1010.3474127721 324.311181137834 2437.18800158972 192 196 195
-1007.5643408544 324.798432276636 2429.14945562254 189 193 192
-1010.76351677871 324.227651058215 2420.835527381 185 189 188
-1017.94980725744 322.951665658005 2412.3761284919 177 181 180
-1019.15413551005 322.73258624258 2404.17973960689 175 179 178
-1023.348851357 321.984443468181 2395.88371191136 176 181 177
-1022.55923365065 322.116855803688 2387.76939478788 170 175 171
-1025.75640661057 321.544087031318 2379.53161525083 153 158 154
-1025.96350326735 321.499335303284 2371.38950952254 149 154 150
-1025.17419610334 321.630191361595 2363.27070910604 145 150 146
-1023.38845503547 321.936636340978 2355.16704470797 148 153 149
-1024.59226152288 321.714211594165 2346.99678104376 146 151 147
-1024.79949290956 321.667383349523 2338.84718000053 139 144 140
-1023.01423504862 321.97225922829 2330.72294542242 139 144 140
-1017.2447882518 322.980660120194 2322.62803522236 133 138 134
-1017.45256703503 322.932185666781 2314.45527245336 118 123 119
-1019.65241118875 322.531129623801 2306.27276765023 135 140 136
-1026.83144266246 321.249604405677 2298.09112759443 110 115 111
-1032.0177004138 320.319799027184 2289.94598913692 108 113 109
-1038.19919972058 319.213641821813 2281.83149661828 95 100 96
-1040.39706633741 318.811011588707 2273.7245905634 131 136 132
-1044.58578054073 318.056007071976 2265.64643549326 141 146 142
-1044.79169533912 318.004277673795 2257.54302879981 151 156 152
-1042.01107532256 318.479742513109 2249.39599882192 152 156 155
-1034.25382717554 319.833974874652 2241.14625500088 145 149 148
-1032.46965731526 320.132229086987 2232.97238775235 167 169 168
-1031.68121142257 320.254033050128 2224.8102064266 160 161 163
-1033.87834216659 319.84779065296 2216.7188575785 161 163 162
-1029.10937504029 320.67169303965 2208.44112235844 160 162 161
-1020.36056892063 322.198085534368 2200.01226470407 173 175 172
-1011.61300063357 323.723638320903 2191.53412664958 178 180 175
-810.464279011595 350.923582039647 2612.12843815598 171 176 172
-826.660677853606 348.107575805257 2601.87066697823 162 166 165
-844.851689093071 344.944071718965 2591.50906565534 161 165 164
-865.036653603527 341.433128356175 2581.06013323835 183 187 186
-876.23478027496 339.485749990671 2571.52536031745 175 179 178
-882.440748876392 338.406719039813 2562.48364908052 184 188 187
-894.634445532419 336.285302172214 2552.96916981952 191 195 196
-908.822371666692 333.816372493885 2543.35648537262 185 189 192
-914.026794654502 332.910360098981 2534.52693361938 181 185 188
-922.224423286356 331.483086814588 2525.49598160144 200 204 207
-934.411884979357 329.361052282989 2516.21519830632 194 198 201
-940.611467498736 328.280630507872 2507.42158391869 181 185 188
-942.819613776024 327.894409613319 2498.93053220643 189 193 196
-943.032205048538 327.855037233822 2490.57945379089 186 190 193
-952.2226147394 326.252820550118 2481.6674999089 160 164 167
-962.409167751513 324.476866003935 2472.74442971953 192 196 199
-980.573336034444 321.312108744952 2463.42127377854 196 200 203
-995.743267467986 318.668010364895 2454.3578243634 188 192 191
-1003.93017186245 317.2387637795 2445.73456912646 192 197 193
-1006.13309062259 316.850333455822 2437.44545457875 194 199 195
-1008.33550049497 316.461591604958 2429.16656984529 187 192 188
-1013.52901314626 315.551848611901 2420.768750998 185 190 186
-1019.71873255169 314.468290849674 2412.35725408964 179 184 180
-1021.91983285636 314.078337147723 2404.1282506067 175 180 176
-1027.11140867524 313.167579308816 2395.80504021619 175 180 176
-1026.3216837719 313.297166143094 2387.70120370507 171 176 172
-1030.51543168146 312.559067301475 2379.44446596881 156 161 157
-1027.73230292515 313.034479810112 2371.39543004228 152 157 153
-1025.94607270883 313.335953395548 2363.30554536013 143 148 144
-1020.17424200924 314.330344302202 2355.28876349566 143 148 144
-1019.38542511087 314.457258628223 2347.14656947124 141 146 142
-1018.59674518891 314.583626325305 2338.99843500569 137 142 138
-1017.80796316961 314.709424148397 2330.84435418359 137 142 138
-1013.03479246348 315.527963590344 2322.72515110803 130 135 131
-1015.23522070029 315.132693933698 2314.5260312906 125 130 126
-1018.43112102417 314.563748213395 2306.33277088934 131 136 132
-1024.61483875461 313.474495953365 2298.14972591755 118 123 119
-1029.80186374517 312.558257550476 2289.99849305544 122 127 123
-1033.99216192044 311.814835145176 2281.87086685291 99 104 100
-1035.19451803629 311.590759016152 2273.74619081828 126 131 127
-1036.39696411955 311.36617564757 2265.62677869913 150 155 151
-1035.60763542252 311.487437525989 2257.48919358823 153 158 154
-1033.82317030295 311.781325799827 2249.33150307522 150 155 151
-1032.038735363 312.074669002829 2241.16272299499 158 163 159
-1033.24090092566 311.848032775845 2233.04274560303 151 156 152
-1032.45232227938 311.96708119598 2224.88279405756 160 164 163
-1032.6590945725 311.91245266061 2216.74276062958 158 163 159
-1026.89443927418 312.89578036624 2208.433660413 154 159 155
-1020.13551858924 314.051445688973 2200.0607768375 157 162 158
-1016.36284566792 314.687195481352 2191.75055082234 173 178 174
-1012.59071379437 315.322291069498 2183.41847635179 174 176 171
-806.229442214863 342.921062287801 2612.60606887465 177 182 178
-819.431786034236 340.661441013497 2602.62993292959 160 164 163
-834.629309959155 338.059722509295 2592.53357761244 154 158 157
-857.811610919078 334.089921808418 2581.77947808399 181 185 184
-869.011058625046 332.172231280063 2572.22495107023 167 171 170
-879.210837098652 330.425316073867 2562.8161642369 190 194 193
-893.401825951382 327.994373328049 2553.12456558532 187 191 190
-908.589137955123 325.392372575413 2543.42702446723 182 186 187
-911.798048798349 324.841746864197 2534.75426330213 175 179 180
-917.002313026086 323.948860888474 2525.94501058045 196 200 201
-931.187126391524 321.517368402538 2516.50350588496 191 195 196
-942.376311132147 319.598568948469 2507.34890043077 181 185 186
-945.58214204055 319.046692546354 2498.79517089244 187 191 192
-946.792130359616 318.836249479485 2490.38684004881 173 177 178
-949.997288814096 318.283651818002 2481.85861790655 172 176 177
-963.177361479388 316.022187291828 2472.75093667265 187 191 192
-977.353023186431 313.589713287267 2463.65673182299 187 191 192
-991.52674330597 311.157155998062 2454.63832151443 191 195 194
-998.717523357604 309.920275002055 2446.05476664929 193 198 194
-1003.91249688458 309.024760856082 2437.60580477119 193 198 194
-1010.10412752723 307.958039773345 2429.13768802134 183 188 184
-1014.30060660966 307.232628073287 2420.78782906367 180 185 181
-1020.49071585799 306.165291705176 2412.37851302817 173 178 174
-1021.69500298869 305.951414885332 2404.18931747634 169 174 170
-1027.88379743059 304.883408232271 2395.83066893036 171 176 172
-1029.0874625432 304.668676687508 2387.6648662625 167 172 168
-1030.29122894592 304.453464898286 2379.50391396512 156 161 157
-1024.51777077948 305.432654120604 2371.53441674484 154 159 155
-1023.72839898222 305.557735547877 2363.4119420659 142 147 143
-1019.94923609764 306.194346012232 2355.34696563245 141 146 142
-1021.15342164843 305.97710202429 2347.16744955795 139 144 140
-1018.37160578142 306.441871737489 2339.05567395499 133 138 134
-1015.59020562379 306.906050624632 2330.92701660647 132 137 133
-1011.81301331416 307.540212721002 2322.79171919681 126 131 127
-1010.02864922049 307.832636776967 2314.61918328892 126 131 127
-1014.22144048874 307.101154639709 2306.40693891696 104 109 105
-1021.40189921104 305.857631629369 2298.21032088545 115 120 116
-1028.58161502237 304.6138231154 2290.05175662498 111 116 112
-1031.77620028882 304.051799586697 2281.91732573973 90 95 91
-1028.99562686278 304.512274134228 2273.76170421046 97 102 98
-1029.20261894644 304.460678065397 2265.61633663587 136 141 137
-1027.41806714384 304.749580961394 2257.44735629291 140 145 141
-1028.62076063333 304.526555375842 2249.31062252042 147 152 148
-1028.82779329214 304.473448028519 2241.1620464337 153 158 154
-1031.02593297276 304.078997717331 2233.05325107037 157 162 158
-1029.24182092899 304.365622851241 2224.8646377435 153 158 154
-1027.45821431427 304.651720166457 2216.66502855611 149 154 150
-1021.69346846609 305.618596750024 2208.34180339371 158 163 159
-1018.91526720553 306.073731399511 2200.07841105992 163 168 164
-1017.13256087071 306.357941646023 2191.83226483787 165 170 166
-1017.34040010968 306.300958402106 2183.64800316518 171 176 170
-786.01549373801 337.588262675302 2614.69206501771 185 190 186
-803.21449414147 334.690428927894 2604.26945338761 158 162 161
-820.411150442197 331.792649066373 2593.93851527129 149 153 152
-845.593145816435 327.548571204744 2582.96058151258 182 186 185
-867.776538774633 323.809602290187 2572.38695464006 162 166 165
-877.977143134675 322.089655838817 2562.97484627564 193 197 196
-897.160553319401 318.855443133172 2552.85909669652 189 193 192
-909.353969055238 316.798984782013 2543.41601943351 179 183 184
-911.565015272459 316.424385774589 2534.82410671003 174 178 179
-918.765807178504 315.208489978698 2525.862461395 197 201 202
-930.955536822366 313.151389320511 2516.5720845041 192 196 197
-943.14337053517 311.094196357915 2507.34638326922 183 187 188
-942.358145578844 311.222945292534 2499.06577356789 191 195 196
-944.566099541899 310.846891942577 2490.58383050016 172 176 177
-949.767077971136 309.965921109698 2481.92511651747 175 179 180
-964.943448307134 307.403444960417 2472.69765215379 188 192 193
-980.117501836355 304.84092853677 2463.55136859312 186 190 191
-988.307458308285 303.455070295972 2454.86473944695 192 196 195
-996.496069617593 302.068913101484 2446.22103813431 193 198 194
-1006.67832961223 300.34646809917 2437.52320836679 192 197 193
-1016.85920188103 298.623762348949 2428.87933576126 182 187 183
-1018.06390969959 298.413344663454 2420.67741242256 179 184 180
-1019.26871943238 298.202386548293 2412.48025043935 171 176 172
-1018.47896285144 298.327123408341 2404.36311968138 168 173 169
-1024.66842712715 297.275263607847 2395.9956289563 169 174 170
-1024.87554623225 297.231076084399 2387.85325166932 165 170 166
-1029.06998416849 296.514490424335 2379.59264449747 155 160 156
-1023.29638837051 297.477087876172 2371.62003621783 153 158 154
-1019.51665331637 298.10319728711 2363.56614693054 141 146 142
-1015.73771271903 298.728641912887 2355.48981851216 141 146 142
-1013.95254874161 299.017614623391 2347.35416383201 138 143 139
-1013.16384808363 299.138259157072 2339.19136992198 131 136 132
-1012.37552182977 299.258320726047 2331.02264184731 131 136 132
-1010.59081078701 299.545705521027 2322.85825514177 125 130 126
-1008.80661288586 299.832500424959 2314.68250449315 125 130 126
-1010.01111822908 299.615264463027 2306.48117365233 88 93 89
-1016.19632227321 298.558536952493 2298.27496096348 120 125 121
-1019.3924344375 298.004866566043 2290.09914737071 105 110 106
-1019.60008294227 297.954146072591 2281.92906471018 79 84 80
-1020.80358807798 297.735165756214 2273.76495249035 96 101 97
-1023.00297620059 297.347885455391 2265.61506229374 126 131 127
-1027.19352914523 296.624831709497 2257.4993491197 137 142 138
-1027.40065424036 296.572179905391 2249.34764942884 153 158 154
-1029.59917793371 296.183629264009 2241.23018012872 158 163 159
-1028.8103886895 296.297725295975 2233.0638171986 144 149 145
-1028.02196323616 296.411211179263 2224.89190571879 142 147 143
-1026.23804875201 296.691781812257 2216.68907022088 153 158 154
-1023.45909167193 297.139375225062 2208.44712073345 162 167 163
-1021.67601389942 297.418759661539 2200.21963478785 165 170 166
-1020.88813010575 297.530033817689 2192.01485380111 166 171 167
-1020.10060622469 297.64069885766 2183.80467694885 171 176 170
-1018.31817585308 297.918350442315 2175.55002773075 142 143 137
-751.590883554486 334.500152505636 2627.03855864282 196 201 197
-768.794698092597 331.648212071274 2616.47707065845 184 189 185
-788.992165841309 328.299592566504 2605.71375923379 145 149 148
-809.186870058726 324.951048582868 2595.05853727435 142 146 145
-841.361131337356 319.616062530657 2583.40307878358 174 178 177
-865.54322206085 315.605695755601 2572.63833695966 155 159 158
-884.73021122067 312.423106912057 2562.43813836282 190 194 193
-900.91961948029 309.737102439729 2552.59316924138 192 196 195
-911.117327376823 308.044095414833 2543.32319018616 178 182 183
-915.324587434685 307.343812398775 2534.57895460668 177 181 182
-923.523663561654 305.981397591777 2525.55174471482 197 201 202
-935.713955841774 303.956857525635 2516.27433910587 184 188 189
-940.916880244228 303.090283353039 2507.55502777367 177 181 182
-941.12954432301 303.050621504721 2499.20079302764 187 191 192
-944.335473528672 302.514327021156 2490.65062756776 169 173 174
-951.532437151854 301.316012545413 2481.86680706467 170 174 175
-968.705030547234 298.463531257971 2472.52496876788 194 198 199
-984.877723946911 295.776424994975 2463.33209125856 192 196 197
-994.065176981449 294.2469314231 2454.60445343646 192 196 195
-1001.25681593685 293.047843830151 2446.027909282 192 197 193
-1008.44725074705 291.84853977876 2437.48887008902 188 193 189
-1016.63398143268 290.483709869895 2428.94156966135 181 186 182
-1017.83877049419 290.275791355284 2420.73915448417 179 184 180
-1019.04366349436 290.067391891091 2412.54148540538 172 177 173
-1015.26243590064 290.685045848779 2404.53685092082 167 172 168
-1019.45860110825 289.979940995438 2396.23038799463 167 172 168
-1021.65990654316 289.605027472859 2388.00951629742 163 168 164
-1026.85194707043 288.733908535465 2379.71070469273 152 157 153
-1021.07780809279 289.679998446304 2371.73227644126 151 156 152
-1015.30450411073 290.625325886116 2363.72039498738 137 142 138
-1012.52218577245 291.074474371046 2355.61148483064 137 142 138
-1009.74028573553 291.523091358906 2347.48565532721 133 138 134
-1009.94853059345 291.475573166035 2339.29570350389 126 131 127
-1009.16034686126 291.592715877324 2331.11827114429 127 132 128
-1008.37230004893 291.709371993783 2322.93496501451 122 127 123
-1005.59157342317 292.155665948049 2314.76078024331 121 126 122
-1004.80393766482 292.271252325452 2306.56026009637 72 77 73
-1010.98971544454 291.230760405897 2298.33973157236 117 122 118
-1015.18273176575 290.520101846984 2290.15037489361 93 98 94
-1016.38667876716 290.30418490299 2281.97228224466 67 72 68
-1016.5945394106 290.252837751221 2273.7932356128 102 107 103
-1019.79023914782 289.705909269531 2265.64078003649 134 139 135
-1026.96895442196 288.498711796621 2257.5513055636 141 146 142
-1029.16779146817 288.116079636712 2249.42794415772 137 142 138
-1030.37044016476 287.897987538339 2241.29825824518 143 148 144
-1026.59474001751 288.504023577877 2233.07444236689 144 149 145
-1024.81063184201 288.779694205462 2224.87391574973 150 155 151
-1022.03133574813 289.219635416036 2216.63699975034 160 165 161
-1024.22983328569 288.834542833398 2208.52426570597 150 155 151
-1025.43248857476 288.613958189378 2200.39164583314 155 160 156
-1025.63974471075 288.557700365036 2192.23095274461 167 172 168
-1019.87546542725 289.489881763456 2183.85223960082 174 179 175
-1018.09289739865 289.762078253317 2175.59711323428 181 182 176
-742.355908807051 327.117228149291 2628.04471687891 188 193 189
-753.568767917117 325.288366449787 2618.0614032884 157 162 158
-782.757464564338 320.52833158398 2606.37568111265 141 145 144
-809.944723651563 316.0942342029 2595.03739021615 139 143 142
-847.114426390076 310.032238606075 2582.92162629823 167 171 170
-870.299461226022 306.249989827016 2572.26205623306 158 162 161
-886.491914188754 303.607411942634 2562.33539290389 189 193 192
-899.6872146344 301.453228684291 2552.74774762468 194 198 197
-908.887505365239 299.94993361784 2543.55582288449 179 183 184
-917.088385925023 298.609242332408 2534.4907393399 179 183 184
-931.277037285894 296.291967772658 2525.01254611154 196 200 201
-939.475065233554 294.951018745197 2516.04935099897 183 187 188
-940.685991428094 294.748785539847 2507.62250463807 183 187 188
-937.904730545196 295.196932271473 2499.47118985649 191 195 196
-943.106991461847 294.343171882821 2490.78224351394 169 173 174
-954.295824502245 292.513021033211 2481.7458925551 173 177 178
-974.462799055264 289.218794371857 2472.23276369849 194 198 199
-992.631524956752 286.250016331341 2462.94190762689 190 194 195
-999.824009844533 285.070242862923 2454.3437147359 193 197 196
-1004.02285352574 284.378022373617 2445.93707723233 191 196 192
-1008.22138810244 283.685490917626 2437.55151149975 187 192 188
-1013.41647456259 282.830099449562 2429.14121644382 179 184 180
-1015.6190613594 282.462073952131 2420.88698530368 178 183 179
-1018.81857557099 281.931115339744 2412.60259407079 170 175 171
-1013.04279135487 282.862698516627 2404.6728912245 167 172 168
-1013.25068846646 282.818513932384 2396.50010990474 166 171 167
-1016.44979767054 282.286222687337 2388.23011688971 163 168 164
-1020.64541392466 281.591110240392 2379.94651325588 152 157 153
-1020.85283231366 281.545642658067 2371.79106448861 151 156 152
-1013.08551937755 282.799351797745 2363.82675339777 137 142 138
-1011.29983429728 283.077692956601 2355.69072509251 137 142 138
-1006.52426186632 283.842797777975 2347.59869097487 133 138 134
-1007.72953779667 283.632765881118 2339.38430287784 127 132 128
-1008.93443270754 283.422208357754 2331.17491717669 128 133 129
-1005.15678060908 284.02315228115 2323.02192279144 123 128 124
-1001.37968359132 284.623528292922 2314.84662414967 121 126 122
-996.606607366797 285.385627810189 2306.65380277342 73 78 74
-1002.79364487553 284.361332627703 2298.41075527269 101 106 102
-1006.98729171748 283.661342779889 2290.19888611108 87 92 88
-1012.176699219 282.79872730528 2282.01211263766 71 76 72
-1013.38086427006 282.58494300556 2273.82778772202 102 107 103
-1016.57701095858 282.04611814246 2265.66656478236 117 122 118
-1024.75235210276 280.695724073 2257.57990718226 116 121 117
-1031.93076226322 279.50733377339 2249.52255130293 144 149 145
-1034.12926366661 279.129742542714 2241.4177205429 149 154 150
-1032.34433014073 279.400531282873 2233.244209683 148 153 149
-1026.57727469794 280.319524219196 2224.96916249438 155 160 156
-1023.79762479923 280.751276993894 2216.7372823019 151 156 152
-1025.00045009796 280.533828098073 2208.60138478755 144 149 145
-1026.20312412699 280.315999341205 2200.47099155132 148 153 149
-1021.43349134222 281.070336809924 2192.14457911896 161 166 162
-1013.67831343244 282.310225033351 2183.68182453777 171 176 172
-1008.91024852263 283.063094755775 2175.29255816741 168 171 164
-1014.09444147147 282.194818440479 2167.29418451372 172 175 168
-756.320500905167 315.963130922639 2617.83523623062 156 161 157
-779.518278460154 312.24261033755 2606.74391554263 131 135 134
-806.707788125965 307.881917276097 2595.39648014359 139 143 142
-841.883064177061 302.240803396603 2583.45608212211 166 170 169
-867.067484069128 298.200865055284 2572.6025791023 174 178 177
-889.252589229519 294.641350539108 2562.14539296037 189 193 192
-901.450274896077 292.682363573473 2552.64941406795 186 190 189
-907.655911188054 291.683516514039 2543.70678592279 172 176 175
-916.855718573352 290.204417766664 2534.55973214464 178 182 181
-936.03657367783 287.12507736883 2524.70080912098 191 195 194
-946.231319953008 285.485705584663 2515.6041698786 184 188 187
-945.445518321463 285.606025322597 2507.33704802031 183 187 186
-942.663686259391 286.045831422907 2499.19910137198 171 175 174
-945.870175858522 285.525439707041 2490.65343374943 165 169 168
-954.065898485311 284.204937582088 2481.81161765999 178 182 181
-968.247335619218 281.924724808177 2472.65517550403 194 198 197
-985.420151531964 279.164673635134 2463.40388479589 190 194 193
-998.599875833426 277.044286599953 2454.46129697168 195 200 196
-1006.78955225504 275.723266605913 2445.8459066895 194 199 195
-1006.99777163667 275.681006862361 2437.66259668568 191 196 192
-1008.20365245603 275.478466355611 2429.43261110829 181 186 182
-1011.40408985988 274.955814677686 2421.12105767009 173 178 174
-1015.60139064833 274.272947788672 2412.78476493581 159 164 160
-1015.80908063368 274.229088433048 2404.62042803227 163 168 164
-1015.01940011378 274.344562109903 2396.49037845273 166 171 167
-1020.21297608866 273.500793202928 2388.16092259294 161 166 162
-1020.420397212 273.455534959317 2380.00559172997 157 162 158
-1020.62782156908 273.409855721447 2371.84968245002 153 158 154
-1011.86281878668 274.80140606308 2363.90906336491 138 143 139
-1009.08027268671 275.233839860398 2355.79110798008 137 142 138
-1006.29814444342 275.665712269505 2347.65621853309 135 140 136
-1005.50996903817 275.777631106644 2339.47285173421 129 134 130
-1008.70848308712 275.25029983277 2331.23144507867 127 132 128
-1003.93402947873 275.99988882748 2323.08834858797 128 133 129
-999.160031683534 276.748849445107 2314.91743784739 122 127 123
-994.386728018587 277.497205132165 2306.71874856434 81 86 82
-996.588928441508 277.127541946032 2298.47785983038 64 69 65
-1001.77977647385 276.278797485313 2290.2496790483 90 95 91
-1006.96968142387 275.429677035212 2282.04862869407 71 76 72
-1008.17428059202 275.218448008858 2273.85008063434 93 98 94
-1010.37499319785 274.847260312399 2265.66570404465 98 103 99
-1016.55946250419 273.837543268371 2257.5386836725 102 107 103
-1026.72685314498 272.189549284513 2249.50193953304 131 136 132
-1032.90935377169 271.179396054237 2241.4513936373 139 144 140
-1034.11181779354 270.966304693099 2233.33429486017 152 157 153
-1028.34394291192 271.868893646007 2225.06433605802 140 145 141
-1024.56833650995 272.451917432031 2216.81214750389 143 148 144
-1023.78011375669 272.556076407683 2208.62229928762 145 150 146
-1023.98748067048 272.500329262583 2200.45782494715 149 154 150
-1017.22659393197 273.559677268799 2192.05836343916 150 155 151
-1010.46643034133 274.618355735362 2183.62059511936 165 170 166
-1007.6889577227 275.038812320573 2175.30081508836 171 173 168
-1008.89263094334 274.821497798105 2167.13192212817 172 174 169
-753.078887561721 307.597390274217 2618.21241690835 179 184 180
-775.279799786733 304.096654324485 2607.20987260828 112 116 115
-799.475160608768 300.281417724492 2596.1360051168 140 144 143
-836.651156085444 294.420731246166 2583.9904494194 163 167 166
-859.840368848611 290.763410187358 2573.30172924968 167 171 170
-886.022003625367 286.634288764237 2562.4766931343 198 202 201
-898.220807502236 284.707774500072 2552.9718773951 188 192 191
-905.425503691975 283.567693665286 2543.93904341431 176 180 179
-913.627806881043 282.270107436617 2534.86464147917 181 185 184
-932.810309276933 279.242334989084 2524.99670629398 190 194 193
-942.007836955463 277.787280603249 2515.96456833728 184 188 187
-945.214947717037 277.275576326024 2507.40395143719 177 181 180
-945.427273259718 277.235194348484 2499.06217463542 168 172 171
-950.629976439651 276.408291644108 2490.39410561288 167 171 170
-953.835943131581 275.895571531696 2481.87711219214 180 184 183
-965.024690037173 274.124985645734 2472.89875916211 193 197 196
-982.199003448336 271.41108056867 2463.63848915201 188 192 191
-999.37096084797 268.697322576529 2454.47045816266 187 192 188
-1007.56141508991 267.397909293695 2445.85719237823 186 191 187
-1007.7695705082 267.355486521858 2437.67620723621 184 189 185
-1006.98000469585 267.469759288839 2429.54038504374 181 186 182
-1009.18332364478 267.112162243391 2421.26873613111 179 184 180
-1012.3837223369 266.597173300406 2412.96692333602 173 178 174
-1015.58370779482 266.081754200681 2404.68079929578 160 165 161
-1012.79953461639 266.508409200992 2396.62023094637 162 167 163
-1017.99339665599 265.678161585376 2388.28478801931 155 160 156
-1015.20950980334 266.103840071877 2380.21198056104 149 154 150
-1018.40853748825 265.586905396633 2371.96166229988 150 155 151
-1009.64323757692 266.95359379221 2364.01528598803 141 146 142
-1007.85747497262 267.220672008914 2355.87019431058 140 145 141
-1007.06902328643 267.330233628407 2347.69509452895 137 142 138
-1006.28047317341 267.439344434811 2339.51403277258 129 134 130
-1005.49229885509 267.547901915819 2331.32701432699 125 130 126
-998.724278848818 268.597535314889 2323.19591483759 120 125 121
-994.947013323642 269.175719130394 2315.00337377838 128 133 129
-990.173619366249 269.910204445975 2306.79332050022 95 100 96
-988.390519988932 270.173389490977 2298.54928528651 72 77 73
-991.589462158089 269.651766087095 2290.29727488138 85 90 86
-997.776688254159 268.659233928661 2282.07163663479 67 72 68
-999.978405875364 268.293720554382 2273.85407321283 88 93 89
-1001.18350245997 268.08460981596 2265.63835884947 95 100 96
-1004.38074356471 267.561458655208 2257.45119154674 97 102 98
-1015.54593286667 265.783787099998 2249.39526801714 128 133 129
-1024.71732770131 264.319548031928 2241.36530553612 138 143 139
-1030.90000347552 263.325343249024 2233.32503848403 146 151 147
-1026.12788240087 264.0547150373 2225.06907081509 136 141 137
-1024.34348444746 264.313417402033 2216.86165050884 144 149 145
