ply
format ascii 1.0
comment KinectMotionCapture
element vertex 775
property float x
property float y
property float z
property uchar red
property uchar green
property uchar blue
end_header
-1466.67636040057 -92.8841626307711 2450.10469745762 168 170 165
-980.305497754445 -80.396750264769 2727.43660441309 145 147 144
-987.879233368953 -80.9879248215955 2728.50837801741 139 139 137
-995.535892609727 -81.6875991345887 2731.58570343877 133 135 132
-1002.99186788321 -82.1686792157084 2730.65650871118 135 137 134
-1010.53079722567 -82.758246061822 2731.73286196737 122 127 123
-1017.94057893174 -83.1852812116434 2729.8016025003 83 88 84
-1025.28206410937 -83.5051814212742 2725.86296943505 77 77 75
-1032.70635671092 -83.9335441232191 2723.92990259008 74 73 69
-1039.91788013345 -83.9881215048163 2714.96787323687 75 76 70
-1046.88849323675 -83.512692111135 2695.95716079387 68 69 63
-1122.10549789099 -87.6165069606255 2671.46482272513 17 18 10
-1129.61633420004 -89.8539080518906 2704.79717089944 18 19 11
-1136.99561746762 -91.4140095951274 2725.04349938863 18 19 11
-1144.30783969971 -92.6096978463213 2738.24270653558 11 12 4
-1151.57181295912 -93.6480230409568 2748.42421889575 12 13 7
-1158.83618139022 -94.4292378047862 2753.56632908997 13 14 8
-1166.05210548236 -95.2589313691057 2759.72229961667 14 15 9
-1173.38728728948 -95.6334115923972 2756.79252427624 14 15 9
-1180.48867419492 -96.6103068283057 2765.98647758039 11 12 6
-1187.74169449517 -97.1340836047918 2766.09040997202 7 10 3
-1194.68002587993 -98.255029893758 2778.32839255781 15 18 9
-1202.19948066315 -98.2303943023613 2767.31235239033 16 19 10
-1209.11924116891 -99.2474779742358 2777.5367645284 18 21 12
-1216.45113058125 -99.5710967374815 2773.5993387506 9 12 3
-1223.39691837418 -100.435740770086 2780.79704009816 10 13 4
-1230.18081191626 -101.444348103161 2791.03838530792 9 12 3
-1237.02975479435 -102.302942003246 2798.24815639551 11 14 5
-1243.87884400757 -103.11017684381 2804.44984660214 11 14 5
-1251.30302270676 -103.286027657797 2797.477212962 11 14 5
-1258.55842870084 -103.656816748792 2794.55714318221 14 17 8
-1266.13904527374 -103.740160531459 2785.54936920992 13 16 7
-1272.93188870533 -104.544140664976 2791.75806998643 11 14 5
-1280.2076375179 -104.916584043418 2788.83546589966 18 21 12
-1286.82539522575 -105.81226892354 2797.08187230571 14 17 8
-1294.97778490902 -105.521615859972 2779.93954193039 13 16 7
-1303.34703076302 -105.142274896272 2760.75454143419 10 13 4
-1311.05557015714 -105.286004954432 2752.73864957339 14 17 8
-1318.44323082559 -105.666174982319 2749.80209989648 12 15 6
-1324.87668402778 -106.653144059647 2760.0871210053 12 15 6
-1331.71048462374 -107.357573919382 2764.27507421135 16 19 10
-1339.70876522927 -107.366129779675 2753.19936682053 20 23 14
-1346.77311740092 -107.931345972171 2754.33488037538 14 15 7
-1354.33479644221 -108.220295687351 2749.36075954376 14 15 7
-1362.00419337115 -108.464883566004 2743.3656325018 20 21 13
-1370.06014938605 -108.528917552585 2733.29056075874 17 18 10
-1378.25613901111 -108.550695695166 2722.19021527154 19 20 12
-1386.60007309437 -108.530707029621 2710.06361010101 14 17 8
-1391.65967139867 -110.046011987533 2732.61467778595 19 22 13
-1400.33098711369 -109.893100233337 2717.42332544295 17 23 13
-1410.73470633878 -109.030001978855 2685.88995448685 14 20 10
-1448.92017267448 -100.462655198299 2464.43372865604 23 29 19
-1458.09607916873 -100.497340171713 2452.20344222827 90 96 86
-979.735040942729 -87.8264422138664 2725.51174541487 146 146 144
-987.314752701667 -88.4123064426933 2726.58299951587 121 117 116
-994.835363719411 -88.9458292456834 2726.65356383376 99 95 96
-1002.34985500055 -89.4791264223566 2726.72489126441 91 91 91
-1009.73203003811 -89.8579292029169 2723.78926282995 95 99 98
-1017.16349849714 -90.2888268982358 2721.85506688746 109 113 112
-1024.48974606799 -90.5669413965425 2716.91053824607 114 113 109
-1031.93841126302 -90.9993352435534 2714.9744404614 86 83 78
-1039.11076427906 -90.9755355298122 2704.00171874367 76 76 68
-1121.69437546516 -97.1034033514806 2709.83610473351 18 19 11
-1129.13416709628 -98.2196261101663 2722.01149560591 15 16 8
-1136.5025886477 -99.3313619073492 2734.19578122606 26 27 19
-1143.87260037913 -99.9074080846562 2735.29293852653 14 15 7
-1151.0907396373 -101.204584762343 2751.52745550189 14 17 8
-1158.36014822229 -101.920595567543 2755.6610779042 14 17 8
-1165.41009783613 -103.255845500566 2772.9243713156 11 14 5
-1172.7449005769 -103.537894246708 2767.97878540029 10 13 4
-1179.89893770623 -104.295552156678 2773.13460225255 12 15 6
-1187.15618033778 -104.767704464923 2772.23018467281 11 14 5
-1194.53984118139 -105.004617855265 2766.27045532582 12 15 6
-1201.80810372173 -105.477770805907 2765.36466516177 11 14 5
-1208.92056521908 -106.184544638799 2769.51784930751 9 12 3
-1215.63539924092 -107.401467205217 2784.80727735632 13 16 7
-1222.84331532267 -107.871074351058 2783.90900873578 15 18 9
-1229.7380716809 -108.710163653468 2791.11277093849 12 15 6
-1236.71350957566 -109.408477046311 2795.28303253949 12 15 6
-1243.30578462083 -110.471723411531 2807.5640489599 11 14 5
-1250.72094600808 -110.662915735226 2800.5925810283 11 14 5
-1258.41593058142 -110.628833511551 2788.54692380517 11 14 5
-1266.16881263398 -110.598606429514 2776.49381120256 10 13 6
-1273.31797169862 -111.113855539042 2776.61068240507 12 15 8
-1280.28697938525 -111.763628333854 2779.7739315299 16 19 12
-1287.2936205197 -112.367222225862 2781.92443524551 16 19 12
-1293.65079207351 -113.415804690845 2794.23475257486 17 20 13
-1301.65003250734 -113.304666735295 2780.13530863043 17 20 13
-1309.64937477021 -113.24233809837 2767.04366761414 12 15 8
-1317.78314918516 -113.14014399326 2752.92745817753 13 16 9
-1324.13644642226 -114.140065004751 2764.23044375231 14 17 10
-1332.41689783758 -113.998847724648 2749.08789976013 16 19 12
-1339.42244396266 -114.602894427457 2751.23854131889 15 18 11
-1346.82078691213 -114.988998026985 2748.30091445105 13 16 9
-1352.28020178719 -116.369357620282 2768.78611755271 21 24 17
-1360.07266599743 -116.537664716808 2760.75981709377 20 23 16
-1367.72126573212 -116.794054150457 2754.76707622894 19 22 15
-1377.52900013093 -116.070723652582 2725.32406319427 17 20 13
-1385.00414737029 -116.462080963225 2722.37662517184 13 16 9
-1390.72236637683 -117.615901627477 2737.79025870602 16 19 12
-1400.58773525688 -116.993923092644 2710.35569433199 19 25 15
-1409.65984085913 -116.758730926692 2692.0910478034 21 27 17
-1448.75756178088 -108.398291801215 2461.45161818744 19 25 15
-1457.60502603892 -108.587170553758 2452.28602703616 68 74 64
-978.951529940178 -95.0700469990299 2719.58199560467 148 145 140
-986.648639361247 -95.7497381625458 2722.65422045776 142 134 132
-994.132903752253 -96.2319186870545 2721.72149831353 142 132 131
-1001.79597530161 -96.9097972720526 2724.79820638715 133 129 126
-1009.22563511604 -97.3428491896355 2722.86424182589 118 118 116
-1016.62037208045 -97.7278570954311 2719.9270620782 93 94 89
-1023.84116650798 -97.8718691507997 2711.97203864834 76 73 68
-1031.20119582555 -98.163022613683 2707.02308831358 97 92 86
-1038.29958331521 -98.0235798628856 2693.03599095112 70 67 60
-1113.76732914463 -104.056286247446 2708.82804895461 120 121 113
-1121.29056605921 -106.24535286175 2745.18202388286 24 25 17
-1128.67838691711 -105.574883998375 2719.06444252426 21 22 14
-1136.06104598082 -106.605565731918 2730.23881056713 9 10 2
-1143.37128219617 -107.677701751706 2742.43025308864 23 24 16
-1150.59187526611 -108.836101331192 2756.64872418186 14 17 8
-1157.7302654508 -109.989341271722 2770.87719985272 15 18 9
-1164.8302480948 -111.002251279826 2782.08703770914 12 15 6
-1172.17473295441 -111.203483456884 2775.12441622995 11 14 5
-1179.43074079599 -111.675004671642 2774.22015108273 13 16 7
-1186.61750799144 -112.280129882537 2776.34818016349 12 15 6
-1193.91364346924 -112.662544153097 2773.42329846816 12 15 6
-1201.30337917565 -112.913222318128 2767.46284726325 12 15 6
-1208.0119299582 -114.17739265539 2784.76855804488 12 15 6
-1215.79225641925 -113.901891445295 2766.66501176376 13 16 7
-1222.07346990383 -115.55235793904 2793.09521396966 15 18 9
-1228.94547448962 -116.367616931422 2800.30175270278 14 17 8
-1236.14675395317 -116.79056650933 2798.39650232372 14 17 8
-1243.61725782476 -116.955219473195 2790.41037098861 13 16 7
-1250.4676865669 -117.723421613518 2796.61179123873 13 16 7
-1258.07255455596 -117.805033263979 2786.59305890463 13 16 7
-1265.72460622423 -117.889815021638 2776.56844667469 11 14 7
-1272.9290533173 -118.359454992308 2775.67061104987 13 16 9
-1279.78608711581 -119.082485148933 2780.863400971 15 18 11
-1286.06646279774 -120.181928109076 2795.19905037558 15 18 11
-1293.1474866861 -120.689760923921 2795.32440491474 16 19 12
-1300.81330451911 -120.821863470221 2786.30588646462 17 20 13
-1308.9314978375 -120.707603423254 2771.18390258333 14 17 10
-1315.84358345498 -121.342644131694 2774.35397618071 14 17 10
-1322.4376900224 -122.140958379409 2781.59539058897 16 19 12
-1331.20555693861 -121.74733193593 2759.33706508847 16 19 12
-1338.10573796213 -122.381775985552 2762.50886300626 15 18 11
-1344.00084316782 -123.502626101999 2777.90033536176 14 17 10
-1351.07681615875 -124.010674645419 2778.02632079116 16 19 12
-1360.15246633521 -123.591361609364 2754.72183101646 19 22 15
-1367.72650856165 -123.902043985437 2749.74646483335 20 23 16
-1374.67255372596 -124.493744931508 2751.90449924814 14 17 10
-1383.88803260628 -124.129694008066 2729.59039230686 18 21 14
-1390.17795235065 -125.000634012962 2738.88557315477 21 24 17
-1398.72799172161 -124.961194814792 2724.7175815754 19 22 15
-1408.37974337381 -124.533751443454 2700.33348923327 24 27 20
-1448.59331186412 -116.35069550826 2458.46975641482 28 31 24
-977.899810756476 -102.113589810418 2708.64651397406 152 147 141
-986.081923015601 -103.202584288186 2720.72919591592 145 134 130
-993.762879265317 -103.870227657509 2723.80340486186 137 126 122
-1001.33128289208 -104.444278096205 2724.87603903971 128 120 117
-1008.50678737594 -104.603918801822 2716.92670868456 119 116 111
-1015.67968092689 -104.720296317745 2707.9696628594 97 96 91
-1022.74721377529 -104.65705916878 2694.99430375669 90 85 79
-1029.98151076142 -104.734530250295 2685.02204585767 70 63 57
-1037.04277724638 -104.4982451339 2668.01602438291 38 33 27
-1113.3817710457 -112.331650295025 2726.02983921561 158 159 151
-1120.84916346322 -114.026204469322 2753.31981650482 18 19 11
-1128.22745158732 -112.64472075975 2709.06174296285 14 15 7
-1135.62488435979 -113.816112856728 2724.26586682019 28 29 21
-1142.89708598307 -115.238971721134 2745.53264387127 12 13 5
-1150.02228833614 -116.782206883524 2769.84162440097 14 17 8
-1157.1984396788 -117.636915723101 2778.01823867363 15 18 9
-1164.42545838648 -118.192370832646 2779.13318643226 15 18 9
-1171.65768940298 -118.705028772912 2779.23968392254 16 19 10
-1178.82387512991 -119.343294897093 2782.37829609124 17 20 11
-1186.16959863346 -119.604084156274 2776.42336397626 13 16 7
-1193.31446179729 -120.241203442369 2779.56439378588 13 16 7
-1200.10209546778 -121.374180822582 2794.84451580226 16 19 10
-1207.56635882724 -121.470052153391 2784.84336764706 19 22 13
-1214.84504264077 -121.856714719529 2781.92067500399 19 22 13
-1222.06127850282 -122.325956050241 2781.0213671607 17 20 11
-1228.15540387535 -123.976512788507 2809.49029129096 17 20 11
-1235.70445357752 -124.035089258593 2798.47077698856 16 19 10
-1242.99783298241 -124.379889770922 2794.5382128134 15 18 9
-1250.35279299271 -124.685558750723 2789.59017359306 15 18 9
-1257.33265528814 -125.312868270259 2792.75176870192 16 19 10
-1264.86286360429 -125.500376129234 2784.75824679264 17 20 13
-1272.31997475719 -125.769694753587 2778.78943661932 17 20 13
-1278.82512098556 -126.712400562025 2790.07332166351 14 17 10
-1285.26441914418 -127.650928904931 2801.36517288756 14 17 10
-1292.76967340412 -127.880391822031 2794.38280295106 17 20 13
-1300.24031042483 -128.150915524399 2788.41230800293 19 22 15
-1306.84921524013 -128.927674673396 2795.65157864401 22 25 18
-1313.20104793306 -129.817529098081 2805.94677003061 18 21 14
-1320.59680328615 -130.126648016596 2800.99364887797 18 21 14
-1329.46288451412 -129.709785885659 2776.70763142526 18 21 14
-1336.31812287855 -130.329842950738 2779.88475976485 17 20 13
-1344.45768527902 -130.341559261448 2766.77581509909 20 23 14
-1351.05714922709 -131.074811707972 2773.00846223304 19 22 13
-1358.22722458923 -131.542530751975 2772.11491093835 29 32 23
-1366.92178924628 -131.3742887514 2753.8975555986 28 31 22
-1375.42904970859 -131.323663800555 2738.72718601865 15 18 9
-1382.77364701557 -131.759625490139 2736.80408468695 20 23 14
-1390.61130743324 -132.011491396117 2729.78005115586 25 28 19
-1397.37468764172 -132.669154264779 2733.976428982 19 22 13
-1407.92707440292 -131.973382999871 2700.40957164959 25 28 19
-1446.90803029615 -124.826348829678 2469.7876688089 25 28 19
-977.21758846005 -109.525392061139 2704.7201813393 156 149 141
-985.463564659721 -110.623167961564 2717.80260366271 122 109 103
-993.105585431858 -111.236556906905 2719.87384155078 111 96 91
-1000.5496317969 -111.675300601824 2717.93833689089 106 95 89
-1007.57295211037 -111.681998291253 2705.97636652026 104 97 89
-1014.53548923444 -111.563379124427 2690.99859022026 88 84 75
-1021.53585492903 -111.406850078311 2675.00806593706 69 62 56
-1028.85733782098 -111.554803225855 2666.03280046263 46 39 33
-1036.09436966754 -111.535420369298 2653.03640437574 46 41 35
-1112.91730839066 -119.78019572075 2725.09972979015 25 26 18
-1120.30725148069 -119.650873878342 2709.06066020036 34 35 27
-1127.75608283105 -120.700223599464 2722.2426742284 11 12 4
-1135.13493612935 -121.664162222843 2733.41734144269 25 26 18
-1142.38664660071 -123.025065293153 2754.68675277875 19 20 12
-1149.62432980208 -123.899097260802 2763.86342622418 21 24 15
-1156.7491060353 -124.968498355023 2778.09362031782 20 23 14
-1163.83448333526 -125.913934970066 2789.30486287731 18 21 12
-1170.85392125634 -126.855228086528 2800.52456363843 18 21 12
-1178.16046378439 -127.086113936536 2793.5667552298 16 19 10
-1185.58733044887 -127.162900730042 2782.5625366044 15 18 9
-1192.74184663532 -127.7487415141 2784.69453963557 17 20 11
-1199.6296307597 -128.681946139065 2795.93064871144 20 23 14
-1206.93782291991 -128.994402820716 2790.98822344873 26 29 20
-1214.23322679415 -129.346648271911 2787.05542623775 25 28 19
-1221.36457949255 -129.890930017375 2788.18252339285 23 26 17
-1227.94513337454 -130.966640248677 2803.48833693159 21 24 15
-1234.93227274773 -131.582752601796 2806.64899441682 21 24 15
-1242.42306473226 -131.745552819338 2797.65263926782 20 23 14
-1249.62980719328 -132.173556048065 2795.74648017884 21 24 15
-1256.64349313443 -132.751156734077 2797.89603629204 21 24 15
-1263.89948170507 -133.14204709125 2794.97618701484 22 25 18
-1271.54749709391 -133.27488696827 2784.95220504805 22 25 18
-1278.72653246127 -133.741952511088 2784.05753387671 19 22 15
-1284.82395006306 -134.868006526447 2801.4391467419 18 21 14
-1292.64188583304 -134.931131260354 2789.37840192737 21 24 17
-1299.07879237084 -135.795815188138 2799.66267004674 24 27 20
-1305.93192495547 -136.40403004939 2802.84027025792 23 26 19
-1312.33757282872 -137.22629582677 2812.12064046894 24 27 20
-1321.18600444383 -136.830040895594 2786.82895248497 24 27 20
-1328.63907129915 -137.153351852664 2781.86871656989 25 28 21
-1336.27006905499 -137.407266389444 2774.87047871222 26 29 22
-1344.01344655364 -137.628062672243 2766.85044221309 32 33 25
-1350.8668529292 -138.236640882042 2770.0277689449 45 46 38
-1357.95819170408 -138.739200882891 2770.15206263017 47 48 40
-1365.75952293646 -138.963898178818 2762.12480412087 35 36 28
-1376.45743481859 -138.121187806028 2722.49255575942 20 21 13
-1382.80043130813 -138.939805733292 2731.78073488626 15 16 8
-1391.23645637009 -139.003360136617 2718.63492994678 22 23 15
-1400.53815148983 -138.799160984889 2697.31841205941 20 21 13
-1447.82647800194 -132.439507061137 2456.59244786354 27 28 20
-977.122566630813 -117.413003814133 2711.80710147147 150 137 128
-985.098051562945 -118.265870234181 2719.88395878583 132 112 103
-992.590979700877 -118.747871092238 2718.95015498406 126 103 95
-999.810691819333 -118.985781937723 2712.00320099728 98 80 70
-1006.37890911028 -118.577476783407 2689.01165301177 81 67 56
-1012.98535327893 -118.096277615246 2663.99976837774 63 53 41
-1020.16827611116 -118.105637965544 2651.01020047016 38 29 22
-1027.62266701137 -118.359320376478 2644.03400149269 48 39 34
-1034.94924568424 -118.416032066838 2632.03455825048 37 30 24
-1112.36003819431 -126.511112458948 2705.03181586948 24 25 17
-1119.86813788149 -127.600971731904 2720.22191443633 15 16 8
-1127.29253860389 -128.421137247043 2728.36721741668 34 35 27
-1134.65734468817 -129.350913217298 2739.54378794285 22 23 15
-1141.99200793768 -130.052233637414 2744.67691536039 26 27 19
-1149.18057209139 -131.235235725733 2762.93043692435 28 31 22
-1156.3107008968 -132.263503250897 2777.15961445609 25 28 19
-1163.17609109736 -133.765742617254 2804.52421160878 21 24 15
-1170.19071063437 -134.597897843681 2813.72861179988 19 22 13
-1177.83084402681 -134.148755484956 2787.57988591536 14 17 8
-1185.40527978863 -134.035402429248 2770.51014768587 10 13 4
-1192.54310974255 -134.687041365241 2774.66002080243 14 17 8
-1199.1570646723 -135.984690836841 2797.01654078179 15 18 9
-1206.40148741281 -136.379057302695 2794.09790373729 16 19 10
-1213.52380267394 -136.916686578474 2795.22611119209 16 19 10
-1220.8122260882 -137.276325872038 2791.29420457266 17 20 11
-1227.57902585238 -138.131030073946 2801.53727768643 16 19 10
-1234.73643200665 -138.595687503936 2800.64529937133 20 23 14
-1241.93622202675 -139.025410247856 2798.7402527029 21 24 15
-1249.27937737385 -139.351200109048 2793.79373962237 21 24 15
-1256.49544832144 -139.782141711956 2791.88642413152 22 25 16
-1263.76738854453 -140.179050014543 2788.96460003045 21 24 17
-1271.43010582968 -140.336984113501 2778.93884943866 21 24 17
-1278.91124923113 -140.634303087841 2772.96735418946 18 21 14
-1285.34069212962 -141.543305349645 2785.26828490277 17 20 13
-1292.07410500831 -142.245495298373 2791.4841342001 21 24 17
-1298.4423105492 -143.112889458602 2802.78467003321 23 26 19
-1305.22023877724 -143.742556144124 2806.9793988943 22 25 18
-1312.04061267513 -144.337249793089 2810.16081131955 24 27 20
-1321.11038434468 -143.90712410251 2781.81835091331 23 26 19
-1328.19636108831 -144.405866197383 2781.94306342532 24 27 20
-1335.59033196816 -144.773603080702 2777.9980064309 27 30 23
-1342.99923446488 -145.142335985358 2774.05108868195 31 32 24
-1350.33879882643 -145.544403374924 2771.12083907446 43 44 36
-1357.51443073091 -146.011401403104 2770.22659245737 35 36 28
-1366.65593665313 -145.775151721797 2746.91436636576 24 25 17
-1375.54583790711 -145.67370610858 2727.66512298125 16 17 9
-1383.29888805002 -145.989484328465 2721.65950372123 15 16 8
-1392.5395565793 -145.835371363911 2700.35073349176 19 20 12
-1404.79072170803 -144.781508874759 2649.43881335995 21 22 14
-1412.3674202 -145.23703451732 2647.48679869351 27 28 20
-1423.74685013143 -144.579886869875 2608.77791694837 29 30 22
-1449.71382870675 -139.847084836678 2434.20562720448 28 29 21
-967.668255552747 -123.505079086994 2686.80120016117 156 146 136
-976.600016832369 -124.954989405014 2710.88424678071 147 130 120
-984.477947738985 -125.706588534396 2716.95763738054 132 110 97
-992.027483316507 -126.226993588695 2717.02455753924 125 101 91
-999.115022315834 -126.367471283945 2707.07053982628 86 66 55
-1005.69324778314 -126.01982451111 2684.07790262121 69 53 40
-1012.22901400472 -125.529474681241 2657.05943988281 54 42 28
-1019.57885307772 -125.722326345857 2648.08051369454 40 31 24
-1026.90153375423 -125.84350850724 2637.08941377812 42 33 28
-1034.11719920447 -125.782751079501 2621.07251383813 33 26 20
-1104.25114137245 -132.794195403568 2683.88950648744 164 163 158
-1111.92095461226 -134.235485699694 2710.14562852638 13 14 6
-1119.41840456052 -135.280427309253 2725.33693782862 31 32 24
-1126.8301622082 -136.144810118256 2735.49978976849 17 18 10
-1134.2091499017 -136.691932818169 2736.59575075301 22 23 15
-1141.57040726053 -137.273042474346 2738.70194124885 21 22 14
-1148.69359971396 -138.749685631507 2767.04198589597 22 25 16
-1155.86040107991 -139.598697246853 2777.23512618341 20 23 14
-1162.81393505904 -140.819368713005 2798.54137888795 20 23 14
-1169.74698821795 -141.828646153488 2813.8030276525 19 22 13
-1177.4409361159 -141.345892361471 2784.62419595801 15 18 9
-1185.08683178314 -141.175429008076 2764.52232826228 12 15 6
-1191.9210249794 -142.248676331105 2781.81185682451 16 19 10
-1198.57481140681 -143.415434288468 2802.14744690519 16 19 10
-1205.80558217464 -143.813937740295 2799.23076470951 14 17 8
-1212.88209225605 -144.377698679679 2801.37244429493 15 18 9
-1220.11851868575 -144.776744100092 2798.4548174646 16 19 10
-1227.70770201091 -144.883450475068 2786.42273437352 15 18 9
-1234.94652103933 -145.317864350546 2784.51258920078 15 18 9
-1241.97166924101 -145.913701147246 2787.6686902827 18 21 12
-1249.25142852725 -146.315895313573 2784.74566406017 19 22 13
-1256.3448326145 -146.84624806215 2785.87746029607 21 24 15
-1263.52951817252 -147.312516437067 2784.98208191502 18 21 14
-1271.03869850002 -147.589703648653 2777.99910743999 19 22 15
-1278.23686203356 -148.056994883994 2777.10204978094 19 22 15
-1284.53839214593 -148.991722985845 2791.43438519821 18 21 14
-1290.82021924854 -149.890216244979 2804.761637182 20 23 16
-1296.96042705176 -150.814592537109 2819.1140774086 22 25 18
-1304.71259865224 -150.967741809433 2808.06946374824 25 28 21
-1311.88322294117 -151.398540381578 2806.16805962379 26 29 22
-1320.15487528027 -151.37530643104 2789.01155021282 23 26 19
-1327.75303320657 -151.658781644089 2782.01748841871 23 26 19
-1333.4194830489 -152.692835611723 2800.46056860051 29 32 25
-1341.82428496592 -152.678412525549 2783.28746611248 38 39 31
-1349.97825149591 -152.78789346198 2770.17698135617 31 32 24
-1358.28197685621 -152.872116917973 2756.04005397034 30 31 23
-1365.9402796265 -153.194764141342 2750.04651698031 31 32 24
-1375.09503278852 -153.054032821803 2727.74081662263 19 20 12
-1383.79345211834 -153.09394147287 2711.53890259622 17 18 10
-1393.34963136902 -152.909279431388 2687.16737648077 18 19 11
-1402.82800990869 -152.789680009718 2664.82134523932 20 21 13
-1411.08303262492 -153.046139425719 2655.72962499251 19 20 12
-1450.83693333482 -147.57083742711 2418.96930279758 27 28 20
-966.742023907794 -130.869754099611 2678.8739654124 153 139 128
-975.484410649365 -132.109537111865 2698.94934309916 125 107 95
-983.549621496097 -132.950638251056 2708.02265926458 131 108 94
-991.317620074379 -133.611294856371 2712.09367454131 115 89 76
-998.50885630647 -133.847426615639 2704.14258239345 71 49 36
-1004.79037118499 -133.314637079956 2674.13219512403 161 143 131
-1011.71196685437 -133.210724641549 2656.13626524186 173 159 146
-1019.32671768081 -133.668308637785 2654.17950728964 25 16 9
-1026.49200612354 -133.677265037458 2639.17676478945 39 30 25
-1104.16109722684 -141.977098958728 2732.29751105847 120 121 115
-1111.59713511687 -142.650820945144 2737.41791484071 21 22 14
-1118.99469733858 -143.25758967654 2740.52732937474 16 17 9
-1126.37101536146 -143.637072103983 2736.58450628398 15 16 8
-1133.80330995771 -143.568187519833 2718.52493643957 21 22 14
-1141.09013713698 -144.846282864531 2742.81280864146 21 22 14
-1148.11601215156 -146.592026497628 2782.25098548249 21 24 15
-1155.39859850619 -146.965900974382 2778.32008505019 22 25 16
-1162.47667044523 -147.843328731769 2790.53974727482 19 22 13
-1169.35209212556 -148.96611632567 2810.84780306057 19 22 13
-1176.93485983197 -148.746135981111 2787.73014112785 12 15 6
-1184.48239773675 -148.750043281062 2771.67199575981 12 15 6
-1191.30082205762 -149.772559845908 2788.96335858682 13 16 7
-1198.18418930883 -150.605605189445 2800.19975509644 14 17 8
-1205.7789673617 -150.64512764873 2785.14325505791 16 19 10
-1212.43752678332 -151.625279731818 2801.44700968442 17 20 11
-1219.92073720462 -151.819242425579 2791.44375536803 17 20 11
-1227.86893303719 -151.688163875209 2770.29633875039 17 20 11
-1235.92363462844 -151.564071915342 2749.13564924266 17 20 11
-1242.78364076455 -152.331552408268 2758.35917395352 18 21 12
-1249.35819949684 -153.242070028047 2772.65737325571 19 22 13
-1256.19182865088 -153.943402844188 2779.86864126405 20 23 14
-1263.1869223745 -154.526069868792 2783.02821801629 19 22 15
-1270.32164704741 -155.020959851146 2783.14683693052 22 25 18
-1277.44960731181 -155.515505981256 2783.26653936615 20 23 16
-1283.85658737556 -156.350940288607 2795.57007956985 19 22 15
-1290.19237908779 -157.181824558842 2807.88249167659 24 27 20
-1296.26219004454 -158.092401841021 2823.25136777244 25 28 21
-1303.52881984188 -158.466986775684 2819.32222022638 24 27 20
-1311.79433055203 -158.454213741381 2801.15881770465 23 26 19
-1320.80644967562 -158.199225831508 2773.83170031262 23 26 19
-1327.00658473889 -159.021587439005 2786.16101912303 25 28 21
-1332.97892239704 -159.893812268846 2800.53451148102 28 31 24
-1341.1380519184 -160.003545129526 2786.41569597915 31 32 24
-1350.20288580291 -159.849080495671 2762.10556638439 34 34 24
-1357.8348481976 -160.183086558283 2756.11510616187 26 26 16
-1365.58136758769 -160.492292506849 2749.1028377639 45 45 35
-1373.81770366284 -160.671799374011 2736.98994528431 10 10 0
-1383.90636201228 -160.357812286689 2705.49733812759 26 26 16
-1391.82354638152 -160.678184223511 2698.46356088568 23 23 13
-1402.36697500943 -160.329179078921 2664.89873467158 19 19 9
-1415.84832145367 -159.298748338726 2603.75576510289 20 20 10
-1451.63092285288 -155.452441202778 2406.79800753823 29 29 19
-974.580591788904 -139.462165127864 2691.01927964205 117 99 87
-982.617963988758 -140.244269124836 2699.08822744095 114 87 76
-990.411356058219 -140.892595805505 2703.15628155842 104 77 66
-997.442282563839 -141.019095527859 2691.19367747437 63 43 32
-1011.23480591309 -140.930042652713 2656.21614065562 86 78 67
-1019.26524370079 -141.741941582847 2665.29371939025 32 23 16
-1026.53889910293 -141.914153650698 2654.30887192368 35 26 21
-1111.20705056865 -150.500667786258 2750.58816072989 25 26 18
-1118.53325202597 -150.677730363373 2739.59652833118 19 20 12
-1125.91221533567 -150.917413181167 2730.61433120727 17 18 10
-1133.2918746064 -151.600565299058 2736.74948263999 23 24 16
-1140.40359372743 -153.507778100365 2785.24727655729 18 21 12
-1147.69792178667 -153.801437696429 2778.29115775458 20 23 14
-1155.08854664928 -153.924091887361 2765.27620848557 20 23 14
-1162.04147554165 -155.112056307158 2789.6055118631 19 22 13
-1169.05316172828 -155.949284716938 2801.83359304235 19 22 13
-1176.44825419742 -156.102072020812 2789.82585269513 12 15 6
-1184.05291461086 -156.061622107868 2770.73692013051 15 18 9
-1190.70682386899 -157.230646736004 2795.10372978208 15 18 9
-1198.38726299452 -157.19526325071 2776.00535382445 15 18 9
-1205.74717997431 -157.553027158594 2771.05683319377 16 19 10
-1212.70585884656 -158.269144489874 2779.26022176925 16 19 10
-1219.86061934435 -158.791133083442 2780.38433906114 16 19 10
-1227.68393617282 -158.824464107486 2763.28392823321 16 19 10
-1235.55169547742 -158.890280775972 2747.18574389498 17 20 11
-1242.24609501157 -159.737391059773 2760.46113369443 18 21 12
-1248.54238670202 -160.765734951976 2780.84121276502 19 22 13
-1254.67570551981 -161.813136951411 2802.24912690492 20 23 14
-1261.86880595369 -162.24939116569 2800.3449322577 20 23 16
-1269.11989479549 -162.659916594224 2797.42574614596 23 26 19
-1276.26709389719 -163.122893568568 2796.53503718526 21 24 17
-1283.05688771772 -163.740122395027 2801.73569936534 21 24 17
-1289.87515718513 -164.329709938493 2805.92528833126 25 28 21
-1296.6651497745 -164.91752844752 2810.11816115695 25 28 21
-1304.37092721706 -165.150877664444 2800.08747578385 25 28 21
-1311.98349875035 -165.437366513793 2792.08393609492 24 27 20
-1321.01566941383 -165.254225237505 2764.7545055948 24 27 20
-1327.16672351211 -166.066892999884 2778.09761098928 25 28 21
-1333.47578840473 -166.801151492519 2788.39748951943 28 29 21
-1340.45222580051 -167.312660783364 2789.54383288334 31 31 23
-1349.42172695563 -167.243880925799 2766.25351299561 32 29 20
-1357.21460408758 -167.542319123613 2758.2275037021 72 69 60
-1364.95485704903 -167.866947284268 2751.21581766249 105 102 93
-1373.45884075409 -168.004626685001 2736.04635289528 24 21 12
-1384.01668076894 -167.654656381614 2699.45618385153 21 18 9
-1390.39753624186 -168.364237067401 2708.73935125536 22 19 10
-1402.00502242988 -167.845890791082 2663.95577183949 22 19 10
-1450.58933989035 -163.783513569281 2411.98860627643 34 31 22
-974.053186338639 -147.071033813517 2690.09744731093 117 101 88
-981.888980667488 -147.70798225465 2694.16017991291 117 93 83
-989.404146086373 -148.163546986419 2692.21560404441 86 62 52
-996.186673894049 -148.143045914079 2674.23724867009 165 148 140
-1010.75729200446 -148.649793559547 2656.29606125763 28 21 13
-1018.75160803255 -149.404847699018 2664.37031097739 29 22 16
-1026.20271973323 -149.749643734643 2658.40268853605 45 38 32
-1110.51751107737 -156.785569722725 2708.36478062974 26 27 19
-1118.00909063432 -157.509771215505 2716.50144737086 25 26 18
-1125.45215221355 -158.525930097285 2735.73069715197 23 24 16
-1132.77831535052 -159.615072280077 2757.99778866109 18 19 11
-1140.02136049835 -160.484453272963 2772.21245647883 13 16 7
-1147.37389006511 -160.717413218345 2762.22561305838 15 18 9
-1154.77375089372 -160.953550168899 2752.23311161154 16 19 10
-1161.98016736817 -161.659943469822 2760.40531812225 17 20 11
-1169.04023650528 -162.517904225539 2774.64303045833 19 22 13
-1176.2435856947 -163.063393126751 2776.76883315418 14 17 8
-1183.36494854241 -163.68414664846 2781.92836703079 14 17 8
-1191.10545029037 -163.62091730281 2759.79912071857 14 17 8
-1198.23246973752 -164.242195418397 2764.95795006651 15 18 9
-1205.44409756733 -164.76175245016 2766.07496424813 16 19 10
-1212.25661765554 -165.577404030204 2779.33553045538 17 20 11
-1219.5865303912 -165.970682249438 2775.39853480084 17 20 11
-1226.89367726122 -166.389372543524 2772.47213421174 18 21 12
-1234.08926692731 -166.881396328934 2772.58339025536 18 21 12
-1241.02004912649 -167.517259354923 2778.77443435873 19 22 13
-1247.54590935939 -168.341571170284 2793.07848392583 19 22 13
-1254.42542638772 -168.947440294439 2798.26815953339 19 22 13
-1261.6292489922 -169.386617154733 2796.36263451935 21 24 17
-1268.89086110584 -169.802779887199 2793.44190974239 23 26 19
-1275.87943848543 -170.33543763271 2795.59448089999 21 24 17
-1282.96893123731 -170.82104583836 2795.71896031607 20 23 16
-1290.0517213752 -171.306274344562 2795.84403491008 23 26 19
-1297.70895422826 -171.587337021377 2786.82698009591 22 25 18
-1306.14767652761 -171.62399525866 2766.62671777097 23 26 19
-1313.63809580204 -172.001654055622 2761.66172334917 22 25 18
-1319.91396226553 -172.756718175554 2773.98141410302 22 25 18
-1326.04325829465 -173.529155499381 2787.3273690992 23 26 19
-1332.4860742994 -174.187821296505 2795.59474274549 26 27 19
-1340.97730039233 -174.281743206211 2777.40345325574 31 31 23
-1349.39168670512 -174.424380280221 2761.23749567105 33 30 21
-1356.76659182957 -174.84845469819 2758.30265343127 67 64 55
-1365.03837524448 -175.06239276022 2745.17774090838 89 86 77
-1374.56200807585 -175.008728629517 2718.79524717559 13 10 1
-1384.50087716962 -174.901502627061 2689.33725152677 23 20 11
-1391.87832665089 -175.379513670502 2688.41784827161 21 18 9
-1402.83591326479 -175.123739962575 2650.77035418076 23 20 11
-1449.97890452299 -172.008223172956 2413.09413157962 39 36 27
-973.307704395778 -154.575479025194 2685.17156597981 117 100 90
-981.209666393583 -155.226792873088 2690.23352590813 119 97 86
-988.73565673774 -155.685530647089 2688.28784777779 85 62 54
-1018.16106195501 -157.020538840997 2661.44076172483 37 32 26
-1025.69042369783 -157.431920499823 2657.4789236881 44 39 33
-1102.14857212149 -162.565728623971 2657.02082317167 112 113 107
-1110.01808123845 -164.179937493257 2702.39997619874 34 35 27
-1117.47677836162 -164.467672433799 2693.4077150411 21 22 14
-1132.35108619116 -166.725990511706 2745.97662443122 19 20 12
-1139.67013425339 -167.366155846551 2752.11922658027 14 15 7
-1146.99711169039 -167.862461320769 2752.21385721377 18 21 12
-1154.44363277003 -168.077649892623 2740.19986321152 18 21 12
-1161.76325080958 -168.62182634683 2742.31115278597 17 20 11
-1168.87462818477 -169.441558777342 2756.5421212156 19 22 13
-1175.82928651144 -170.347598742437 2774.82410347404 14 17 8
-1182.82940139269 -171.088091699699 2786.04568683623 13 16 7
-1190.29161230073 -171.32879809878 2775.03748913463 15 18 9
-1198.15363929726 -171.28236878123 2750.87774723573 17 20 11
-1204.93313357747 -172.153316291386 2768.17356914995 20 23 14
-1212.09564785938 -172.68791732045 2770.30443912802 21 24 15
-1219.03203298748 -173.35244777079 2778.51047397876 22 25 16
-1226.06846026407 -173.927201882933 2782.67255880777 21 24 15
-1232.63479114949 -174.73653341792 2797.97944579358 20 23 14
-1239.58520910104 -175.305865460724 2802.15249006779 19 22 13
-1246.82624860856 -175.725480444937 2799.23434172184 18 21 12
-1254.89710735998 -175.789402842742 2779.07981812335 18 21 12
-1262.55956613103 -176.067807491834 2769.05465731624 16 19 12
-1269.30358725794 -176.720361970277 2777.28442625005 18 21 14
-1275.7161312169 -177.471972131022 2790.59497873154 18 21 14
-1282.58336023547 -178.036275815095 2794.77815098203 25 28 21
-1289.7924903767 -178.478246871098 2792.87197097719 25 28 21
-1297.52089391117 -178.761183556047 2782.83835231968 23 26 19
-1306.50402919338 -178.691799904846 2754.50765362372 22 25 18
-1313.6772039667 -179.179762995093 2754.62145595101 21 24 17
-1319.75676709948 -179.958286192897 2769.98900754195 21 24 17
-1325.67372609702 -180.750431369419 2786.38457413886 21 24 17
-1333.83329759462 -180.965139208844 2772.26597992884 22 25 18
-1342.70560066409 -181.033298805663 2749.99607777968 20 20 12
-1348.94337093136 -181.725882979752 2761.31267107668 30 27 18
-1356.74751433596 -182.062208503194 2753.28535559388 33 30 21
-1365.29658790452 -182.254069384127 2737.10247919634 25 22 13
-1374.92882252252 -182.251092880875 2709.69863871976 20 17 8
-1384.79324702069 -182.239084180988 2681.25811143467 24 21 12
-1391.51571166926 -182.842736783177 2687.4750675118 22 19 10
-1400.98038313764 -182.949424965873 2665.13134275216 24 21 12
-1449.15340408018 -180.262054875324 2416.2421868899 42 39 30
-972.887514730123 -162.256623234216 2686.25191828402 116 99 91
-980.94343660879 -162.965129302226 2694.31835737515 117 94 86
-988.655036511676 -163.523624304815 2696.38076763781 107 84 78
-1017.22442295463 -164.438771759017 2649.48397813382 21 16 10
-1109.48108981374 -171.477071995803 2690.39300004461 14 15 7
-1117.05298074398 -172.348360436145 2707.59017670807 19 20 12
-1124.51238633443 -172.551072005742 2693.55892747218 14 15 7
-1131.95767628442 -173.542410846664 2716.81858219587 20 21 13
-1139.33155193571 -174.273202895005 2727.99349687661 16 17 9
-1146.67003077162 -174.916452339532 2735.14136940006 18 21 12
-1154.05721254302 -175.370878632112 2733.21300240484 18 21 12
-1161.39640487522 -175.907657293778 2735.32182974145 18 21 12
-1168.48199702906 -176.748222034221 2752.57937243873 19 22 13
-1175.24793979174 -177.82433594384 2781.9706320539 15 18 9
-1182.14671473639 -178.610353040197 2797.23597058877 13 16 7
-1189.5776809801 -178.87595142662 2786.23173758873 15 18 9
-1197.06135338649 -179.145019477217 2775.22093630842 16 19 10
-1204.77304858189 -179.300821789219 2758.13477772417 19 22 13
-1211.48426608318 -180.117713378309 2775.43921809115 20 23 14
-1218.51261495157 -180.699044691118 2780.6102557455 20 23 14
-1225.54464032212 -181.259341821198 2784.77285183441 18 21 12
-1232.4284129323 -181.874158865262 2791.97763439967 18 21 12
-1239.43861185684 -182.411831950925 2795.1352076222 18 21 12
-1246.47134667545 -182.929677266752 2797.28222918446 18 21 12
-1255.50618845055 -182.680468833003 2756.85139800844 18 21 12
-1263.12484399823 -183.022834650857 2748.84724622049 17 20 13
-1269.71038128974 -183.725400053602 2761.12815363225 18 21 14
-1274.87677448171 -184.848594357015 2797.77344178677 19 22 15
-1282.25565193809 -185.239659369136 2792.82264269797 25 28 21
-1289.16247254236 -185.771037808159 2795.99310034697 25 28 21
-1297.00980496189 -186.043054791504 2783.92923711468 22 25 18
-1305.38350142478 -186.19969299491 2764.74485242212 19 22 15
-1313.01728387832 -186.564726370285 2757.74655967814 19 22 15
-1319.23614055204 -187.26526273626 2771.080908418 18 21 14
-1326.35317376992 -187.746399389118 2771.20193917106 18 21 14
-1334.6285551163 -187.982233680158 2756.06126111415 19 22 15
-1341.4510775939 -188.529788960739 2760.24996837032 18 18 10
-1349.40802187968 -188.851830824238 2750.18793216026 23 20 11
-1357.41203690009 -189.176950977817 2740.12027017611 24 21 12
-1365.37465153007 -189.520774281172 2731.06527079945 21 18 9
-1374.65425524012 -189.650878986514 2707.73677570159 24 21 12
-1382.92537947135 -189.971986021611 2696.62784213172 21 18 9
-1390.38057102367 -190.432514197514 2694.69100398699 22 19 10
-1399.92200901213 -190.579612790664 2671.32987827193 22 19 10
-1449.93629501715 -188.283515252401 2404.07264497524 47 44 35
-972.357966116842 -169.888438015387 2685.3304138347 116 99 91
-980.418211790806 -170.572295487874 2693.39600816179 119 94 87
-988.231782479094 -171.166030086256 2697.46140034062 104 79 72
-995.318632393566 -171.434244643235 2686.50011791367 158 138 131
-1109.10829773735 -179.371607238101 2706.58450718417 22 25 18
-1116.55706279213 -179.720312721489 2698.60157342063 22 27 20
-1124.03993236418 -179.996912010153 2686.58320506435 17 20 13
-1131.54779546429 -180.572756422581 2690.68646036095 18 21 14
-1138.89361580362 -181.659016029884 2723.02868296441 16 21 14
-1146.24702980661 -182.280885791759 2730.17487563341 14 19 12
-1153.58653358734 -182.846131658925 2734.29911326685 15 20 13
-1160.83354596718 -183.498501810346 2743.47403874746 16 21 14
-1167.83841777658 -184.358541543038 2764.77293508346 14 19 12
-1174.59538576012 -185.332874652491 2793.1573595637 17 22 15
-1181.50918589913 -186.038400633792 2806.40499660753 15 18 9
-1188.74866162989 -186.448776165845 2802.47933198172 13 16 7
-1196.3721361818 -186.623561524539 2784.39654570521 15 18 9
-1203.94072095775 -186.887869110693 2771.35952086153 19 22 13
-1211.15988553634 -187.371540591613 2771.46781289995 18 21 12
-1217.85562557898 -188.100528329609 2786.75809853673 19 22 13
-1225.0580774456 -188.56462886923 2785.86049731649 16 19 10
-1232.97648730273 -188.740120070714 2766.73321961815 14 17 8
-1239.75702871141 -189.381752405801 2776.97401673875 16 19 10
-1246.65785595521 -189.956791186561 2783.16863886498 19 22 13
-1254.19059513961 -190.31219005329 2775.1752432533 19 22 13
-1262.41763740034 -190.470596664962 2753.99379059882 21 24 15
-1268.08584263879 -191.394160206272 2783.52163963129 19 22 13
-1274.2631882593 -192.127367159068 2800.89248367226 19 22 13
-1281.16396602791 -192.646841716949 2804.06366408298 21 24 15
-1289.08525161808 -192.915923334604 2789.97494973689 19 22 15
-1296.17817962463 -193.392070429163 2790.09873526925 19 22 15
-1305.53409442898 -193.38170685473 2755.67506819342 16 19 12
-1312.70510933051 -193.862967868988 2755.78936267899 16 19 12
-1319.29239341228 -194.455437844065 2764.03853323901 15 18 11
-1324.48316865975 -195.292724168927 2790.60267420926 15 18 11
-1332.93776618555 -195.522027042613 2772.41607200036 16 17 11
-1340.8408310576 -195.864619899796 2762.36105401165 21 21 13
-1348.95674101496 -196.183752253983 2750.26355769836 15 15 5
-1357.30154971335 -196.480479133776 2736.12206297502 17 17 7
-1364.47939808708 -196.962399437653 2736.23550641988 24 24 14
-1371.83243181053 -197.418445166686 2734.31116489514 20 20 10
-1380.59377979024 -197.686308650486 2717.09455122674 20 20 10
-1389.72858124578 -197.922479349687 2696.80770747852 18 18 8
-1441.32001189462 -195.98725997864 2405.16819370753 41 38 29
-1449.75108954627 -196.475794439579 2401.09403003542 51 48 39
-963.31058221397 -176.726866768272 2669.34536033521 152 139 131
-971.718009071687 -177.487267686747 2682.40698637471 92 75 67
-979.527191499009 -178.050787147552 2685.46491924514 73 48 41
-987.264447534468 -178.593933094616 2687.52408735294 96 69 62
-994.51707245623 -178.947485157383 2679.56564348173 109 86 78
-1001.63053946376 -179.228765156999 2667.59314643936 151 133 123
-1108.43707201819 -186.382522688759 2673.43065825423 8 13 6
-1116.09952647008 -187.334654585765 2701.70202491029 19 24 17
-1123.57020523648 -187.592600882423 2686.66182720918 14 19 12
-1131.08279259743 -188.122912269722 2688.74899883998 14 19 12
-1138.47662090487 -188.994561560616 2713.02244757244 14 19 12
-1145.81463083084 -189.688240458166 2726.21711454389 15 20 13
-1153.01572143994 -190.468355691686 2745.47593925901 15 20 13
-1160.2348024895 -191.091100984926 2754.65427238851 16 21 14
-1167.39863030171 -191.710356190925 2763.83949160434 14 19 12
-1174.32623697818 -192.473073828022 2783.13215941274 16 21 14
-1181.20707589499 -193.185268723694 2799.40722894791 15 18 9
-1188.53548082392 -193.56154500489 2792.44707512142 13 16 7
-1195.84265210195 -193.968228022881 2787.50526566922 15 18 9
-1203.45893497075 -194.236263851407 2772.44692400735 18 21 12
-1210.45455346212 -194.813334861716 2779.63740919629 17 20 11
-1217.8514402044 -195.210101154564 2773.67645030226 15 18 9
-1225.90257457326 -195.379408895218 2750.50160442408 15 18 9
-1233.15852707186 -195.862373184592 2750.60506341647 16 19 10
-1240.49246057719 -196.318692671026 2748.6833464757 17 20 11
-1246.79416001141 -197.073417814974 2770.06947695605 17 20 11
-1253.88325322694 -197.577519117846 2772.2094291292 19 22 13
-1259.94603101408 -198.332812467496 2794.63330448189 20 23 14
-1266.68066633636 -198.893493736937 2801.85655593435 19 22 13
-1272.86851833972 -199.561750416588 2818.21799042969 18 21 12
-1281.36272388569 -199.728241558257 2792.97223000548 17 20 11
-1290.04602482038 -199.891079858883 2766.69493460812 15 18 11
-1297.2649177262 -200.35620539124 2765.79528434266 14 17 10
-1304.54921487012 -200.809721089724 2763.87975434268 11 14 7
-1312.73804326171 -201.11532128411 2748.75006130884 10 13 6
-1317.76254022164 -201.930945601832 2779.365644173 15 17 12
-1325.00775535941 -202.382046204958 2777.45498501627 17 19 14
-1332.48915063745 -202.800793815923 2772.4912249418 15 18 11
-1339.99070116674 -203.220875185101 2767.52519339228 14 15 7
-1347.84321359033 -203.60014432079 2758.48426773414 11 13 2
-1357.44534924484 -203.774892528591 2729.06903699684 14 17 6
-1364.55409977123 -204.264932502756 2730.1988119256 16 19 8
-1372.37696593774 -204.674089878378 2723.17703885108 16 19 8
-1381.44553758731 -204.95730539559 2702.89858408195 18 21 10
-1392.92201625825 -205.014987374374 2658.13287057961 18 20 9
-1441.12568337329 -204.188028283091 2402.19073962626 117 113 104
-1449.45747708488 -204.693561638485 2399.13669786709 115 111 102
-960.521722933807 -183.757904279711 2629.40154232026 74 63 57
-970.251050924029 -184.853021647111 2664.46964214995 64 49 42
-978.266769842773 -185.45791444006 2670.5252110058 83 60 54
-986.094898495943 -186.011515121997 2673.58099364725 73 50 44
-993.712812252812 -186.499246164384 2672.63160746937 96 76 69
-1001.55104295379 -187.066768501053 2676.69361292661 94 75 68
-1108.14230048753 -194.398982346781 2701.70595622781 14 17 10
-1115.5840390489 -194.719186499492 2688.68490824343 19 22 15
-1123.11057321623 -195.333516078032 2697.82485087898 18 21 14
-1130.58889503444 -195.8923462621 2702.93967531348 18 21 14
-1137.98468039615 -196.590262718469 2719.15044497489 17 20 13
-1145.15183139342 -197.522826580803 2754.537861267 17 20 13
-1152.63512393061 -197.793526184281 2737.48050856212 17 20 13
-1159.67689260655 -198.586974025071 2762.80561368144 17 20 13
-1166.71427860795 -199.26211064212 2779.06104947428 14 17 10
-1173.85603400091 -199.799678779797 2784.21781941606 17 20 13
-1181.2116646514 -200.193620390497 2777.25431450149 17 20 11
-1188.48182048903 -200.647720796141 2775.34055079274 14 17 8
-1195.73012193193 -201.113577634169 2774.43723244158 16 19 10
-1203.00579004415 -201.568141182451 2772.52278205322 20 23 14
-1210.19134437123 -202.056320430416 2773.64272715282 20 23 14
-1217.22842465651 -202.587481447556 2778.81254305627 16 19 10
-1225.29920447965 -202.804646590869 2754.62744420538 15 18 9
-1232.82115218786 -203.209624003869 2747.64321296766 18 21 12
-1239.31918053823 -203.876852075363 2765.98155104495 17 20 11
-1246.56639764468 -204.342990702816 2765.07836875466 16 19 10
-1253.1937024839 -204.939888346612 2777.35378555111 19 22 13
-1259.74972996368 -205.53223774825 2789.63808536299 18 21 12
-1265.70482870153 -206.217201564642 2812.07521321412 18 21 12
-1272.70350829344 -206.693759499846 2813.21844857157 17 20 11
-1280.44867865115 -207.047776462415 2801.16755050464 12 15 6
-1291.30360200894 -206.945768284158 2738.33941378127 11 14 7
-1298.72545737972 -207.397170495623 2735.39878439509 11 14 7
-1305.02760195873 -207.999648426262 2749.73040843029 10 13 6
-1312.28430142914 -208.466734537327 2748.8260452922 10 13 6
-1319.03712047842 -208.993286032894 2755.03901027656 17 19 14
-1324.63377438818 -209.642320934535 2776.51284793868 18 20 15
-1333.58337115923 -209.916591552388 2752.21822831343 15 17 12
-1341.21786601957 -210.342489730997 2746.22793431752 9 12 3
-1348.96042099319 -210.762230293983 2739.21621147553 8 11 2
-1357.75660028072 -211.09233136871 2719.97980050119 14 17 8
-1365.7691359718 -211.503245141149 2710.9187479516 15 21 11
-1373.91384291546 -211.909572138403 2700.83350203378 15 21 11
-1383.50471040729 -212.212136455547 2675.45124302598 16 22 12
-1395.62228664029 -212.34924649189 2624.55913038236 18 21 12
-1439.16140755246 -212.514590935568 2416.56637779206 89 86 79
-968.998586119631 -192.373015507488 2650.53716553957 58 45 37
-977.106015330936 -192.9747051955 2657.58896815602 85 64 59
-985.069669435179 -193.546511045556 2662.64326016144 76 52 48
-992.952971390574 -194.102856262835 2666.69985182678 61 40 35
-1000.8527777006 -194.670717818976 2671.76210127229 77 60 53
-1008.63585951349 -195.21041385488 2674.82322860696 66 55 49
-1107.83694758614 -202.230455762415 2726.95854570716 12 13 7
-1115.0484532259 -202.132370674289 2671.63938653149 19 20 14
-1122.61137399672 -202.617426993257 2670.69685610937 20 21 15
-1130.06143642159 -203.832304004433 2741.32116131362 19 20 14
-1137.4217004337 -204.325235414148 2742.41955646079 19 20 14
-1144.82579058345 -204.737989772824 2735.45005362991 18 19 13
-1152.12560968588 -205.289436932233 2742.60274917024 18 19 13
-1159.5543080737 -205.703870956019 2735.63017980007 16 17 11
-1166.21533556784 -206.619274944822 2782.16599100962 14 15 9
-1173.47440690734 -207.074834133785 2780.25361442235 18 19 13
-1181.5562679016 -207.16801932276 2737.92699683011 17 20 11
-1188.42197689088 -207.826803672868 2758.23504276626 14 17 8
-1195.48343550436 -208.373630370289 2766.42491894807 16 19 10
-1202.75200903934 -208.840375532134 2765.51907309904 22 25 16
-1209.8630897499 -209.348959156669 2769.67190763195 22 25 16
-1216.844133937 -209.880373510794 2776.86409137271 22 25 16
-1224.11044568892 -210.336718695005 2774.95081329468 20 23 14
-1231.65623242172 -210.738387553283 2765.94822417828 18 21 12
-1239.03363635143 -211.181188693447 2762.00543232034 18 21 12
-1246.24707388931 -211.655020667511 2762.11417287885 19 22 13
-1253.35885557723 -212.143132208794 2764.2512515563 18 21 12
-1260.20264630926 -212.665970698749 2771.46054113259 16 19 10
-1266.63246298795 -213.234929578441 2785.77614417332 18 21 12
-1274.08999337962 -213.662292366115 2779.80769788516 17 20 11
-1282.9693766357 -213.931876910418 2749.47546529297 14 17 8
-1291.15132520387 -214.302027932335 2733.3388734458 12 15 8
-1299.03117493195 -214.71510959715 2723.28669793084 13 16 9
-1305.36819135975 -215.278257349445 2737.61386659086 15 18 11
-1313.20870701701 -215.699245868025 2728.574307656 17 20 13
-1320.30308742032 -216.186525062744 2730.71355571895 12 14 9
-1326.71101722834 -216.723163956433 2742.00850343489 8 10 5
