ply
format ascii 1.0
comment KinectMotionCapture
element vertex 751
property float x
property float y
property float z
property uchar red
property uchar green
property uchar blue
end_header
-289.358595132603 544.08355347845 1930.2280239681 163 165 162
-297.567068414088 544.982257556461 1922.14699810054 164 166 163
-305.814382750881 545.8780069549 1914.0608926112 161 163 160
-314.766265871361 546.132102739504 1908.91209270704 158 160 157
-323.740760724277 546.384339971628 1903.76047588678 158 160 157
-331.438464775432 547.910084580221 1892.71823814729 159 161 158
-339.618747238753 549.007197328596 1883.63228045807 156 158 155
-348.265588931623 549.676345405246 1876.50508069886 158 160 157
-356.737158020271 550.555004049764 1868.39127481891 160 162 159
-365.041692797867 551.642708157783 1859.28983595276 159 161 158
-373.390285314038 552.727010816957 1850.18314816763 161 163 160
-383.385928672371 552.115135120516 1848.93736232301 161 163 160
-391.207961991316 553.828437272976 1836.87118773288 163 165 164
-399.285218958019 555.326120239958 1825.78165793276 165 167 166
-405.302272227574 559.141938091424 1803.85784576219 167 169 168
-412.002130844993 562.317304610473 1784.87357142129 165 169 168
-418.800033165546 565.48589018708 1765.87731993197 164 168 167
-427.905994933921 566.120412178672 1758.69267561945 185 190 184
-64.0073919533526 534.553698930269 2025.89545934872 198 205 211
-72.7142003550798 534.625060180119 2021.78541164368 186 191 197
-80.5620748061735 535.338355944027 2014.75756174269 177 181 184
-89.8905183801833 534.978141620861 2012.58668864726 169 173 174
-100.085654355389 533.974961026078 2013.33265225609 165 169 170
-111.975555326426 531.688544576274 2019.91686142663 153 157 158
-122.135524348008 530.686887651967 2020.66720965084 137 141 142
-132.564446309169 529.472138568566 2022.39224240703 133 137 138
-143.254503362215 528.044377312494 2025.09293510574 146 150 149
-153.104290845666 527.257540708862 2024.87349906353 147 151 150
-161.867342253167 527.323228679717 2020.75644750425 130 134 133
-171.183717137479 526.961454035854 2018.58708461899 150 154 153
-179.710890181031 527.237470181393 2013.49122829508 147 151 150
-189.573409053734 526.448568349158 2013.27020888946 142 146 145
-197.872532524563 526.934530870943 2007.19433155077 150 154 155
-206.971409048781 526.781316268106 2004.04387484137 145 149 150
-214.555390117946 527.899993234814 1995.03227525224 151 155 156
-223.190611945714 528.16763299786 1989.92295713774 151 155 156
-231.848541474438 528.433527539066 1984.81080983239 148 152 151
-241.514631350311 527.850828231225 1983.6060734791 151 155 154
-249.963474361999 528.325222204425 1977.5115424922 152 156 155
-259.886268248984 527.529258013347 1977.28325998836 156 161 157
-266.945180744565 529.26758507615 1965.31225246325 158 163 159
-272.886583743208 532.056776029432 1948.4395006131 160 165 161
-279.380930221855 534.41858329039 1933.51400411299 160 165 161
-288.023838602481 534.878825023897 1927.39553245351 163 165 162
-295.557154811784 536.38954070541 1916.37384892298 164 166 163
-304.269547670937 536.844517264259 1910.24647960827 161 163 160
-312.787788607596 537.507522117141 1903.13510437239 158 160 157
-323.533776105205 536.067182223603 1905.8290906764 157 159 156
-331.658300873734 537.146406790134 1896.75013832574 158 160 157
-340.255101770212 537.802854145692 1889.62897654025 156 158 155
-347.828474837164 539.504467956619 1877.59410432907 159 161 158
-356.505403864937 540.154795413061 1870.46295914304 160 162 159
-364.391846445867 541.639431586444 1859.39727620844 159 161 158
-372.333156533896 543.120094607183 1848.32475659649 159 161 158
-382.334817163756 542.507775853818 1847.07822099873 163 165 162
-391.150246461921 543.147189771403 1839.92982053818 163 165 164
-399.998897908849 543.783830303323 1832.77728145347 164 166 165
-405.416665392582 548.16914161859 1807.90345530196 170 172 171
-410.775015224712 552.753897881545 1782.02883179272 167 171 170
-416.64324652204 556.913538476018 1758.10707181438 164 168 167
-425.401717278602 557.94622565886 1748.94912930681 174 179 173
-433.114191841381 560.22189339997 1733.87208473741 188 193 187
-62.4736301163302 525.536096779477 2023.08730972946 198 205 213
-74.1380202667852 523.479892466474 2028.69136796354 189 193 202
-84.0123692969179 522.695853375272 2028.46909968711 175 179 182
-92.4342492096624 522.969795631411 2023.38614851621 164 168 169
-100.305020582689 523.664913020037 2016.35572935558 161 165 166
-110.198967131521 522.879145172991 2016.13077970855 149 153 154
-122.059490764659 520.615801606465 2022.71859423557 140 144 145
-132.483826236368 519.409228038143 2024.4441778286 139 143 144
-143.445660127609 517.781813888148 2028.11940753035 145 149 148
-152.193984321736 517.840377571066 2024.00421260179 145 149 148
-161.230251417072 517.687207379612 2020.86132879328 126 130 129
-170.278685788802 517.532906233553 2017.71716982767 146 150 149
-179.338936954744 517.377551175033 2014.57129870271 145 149 148
-188.411159922165 517.221254277471 2011.42393604799 145 149 148
-197.23530292815 517.273494812116 2007.29929603174 148 152 153
-206.591388179205 516.905129280907 2005.12499488434 143 147 148
-214.935574976317 517.373890187922 1999.04377947752 151 155 156
-223.811608040485 517.42192919516 1994.91267495334 150 154 155
-232.455716771495 517.67765309105 1989.80203891713 149 153 152
-241.369185160895 517.722533368605 1985.66651127283 152 156 155
-249.324445895662 518.601174386734 1977.61689740073 153 157 156
-258.765480747308 518.225127635105 1975.43201527361 155 159 158
-266.066879464927 519.724638638271 1964.43930318208 157 162 158
-273.423241658167 521.220289819432 1953.43974213843 159 164 160
-280.135245718504 523.336680807307 1939.49565692086 159 164 160
-288.531175868371 523.992248400272 1932.39956493383 162 164 163
-296.277508956618 525.268653164898 1922.35984257254 164 166 165
-303.848331290803 526.749325612097 1911.3333173484 162 164 163
-312.807972009215 526.981009148635 1906.18360836374 158 160 159
-322.668639026515 526.381434995716 1904.95463437283 156 158 157
-332.096521633053 526.195495545276 1901.76320582915 156 158 157
-341.75034042899 525.801351844651 1899.55157691268 155 157 156
-348.872397335159 527.888395114422 1885.55639681033 161 163 162
-356.06549947618 529.970494339632 1871.55236370265 163 165 164
-363.535896988364 531.841182169978 1858.52220988332 161 163 162
-371.885608977717 532.881694363673 1849.41525744645 158 160 159
-381.885140842133 532.269451502693 1848.16898730618 163 165 164
-390.499441879944 533.0986451009 1840.03749958723 162 164 163
-399.543073574866 533.512993191832 1833.86914088645 159 161 160
-404.376712112319 538.450468512556 1806.04345490652 167 169 168
-409.546782186391 543.172583454806 1779.18403850187 169 173 172
-415.607009752085 547.064013668619 1756.24671194499 166 170 169
-425.846398275488 546.433026674685 1754.9705584737 164 169 163
-436.268395341844 545.596120376669 1754.67984591517 176 181 175
-47.4252215925775 519.797903309254 2008.85617856144 243 250 255
-60.6409638298782 516.710322660268 2019.3082693479 188 193 199
-72.6127222548027 514.46306500968 2025.88216006883 172 176 185
-83.080326135724 513.263230823923 2027.60232627227 170 174 177
-92.3738775013789 512.899446282041 2025.43581692019 155 159 160
-101.099749442457 512.952452805848 2021.32343853466 154 158 159
-110.411750978182 512.587074826895 2019.1546309067 141 145 146
-121.139078800622 511.179155864417 2021.85062017975 138 142 143
-131.287891627656 510.188661037374 2022.6023312361 141 145 146
-141.427211688424 509.198469839176 2023.35498586522 145 149 148
-150.735958822692 508.832224184814 2021.18658665232 142 146 145
-160.593244860718 508.049687655598 2020.96620351073 123 127 126
-169.373253316052 508.09745370697 2016.84708300887 140 144 143
-178.170656839535 508.143812981703 2012.72579541004 140 144 143
-186.196704914644 508.81052447362 2005.67607344089 145 149 148
-196.337787692615 507.818190425683 2006.42851373645 146 150 151
-205.696827015024 507.446829760138 2004.25385182599 141 145 146
-215.062451627569 507.07463151847 2002.07837031597 150 154 155
-223.425920797527 507.528067086409 1995.99454867301 149 153 154
-232.566009797987 507.360041181196 1992.83874762652 148 152 151
-240.977783100445 507.809745058432 1986.74914800941 153 157 156
-248.685438967492 508.87557241994 1977.72225371421 153 157 156
-257.885490194061 508.702594359014 1974.55922304646 155 159 158
-265.904181282608 509.557309513427 1966.50199671786 156 160 159
-273.253858973346 511.026093493906 1955.50334061443 159 163 162
-280.891698224338 512.285697724442 1945.47696161749 159 163 162
-288.118082691698 513.952202840488 1933.48548398966 161 163 162
-296.999859952652 514.178810893968 1928.34526500153 163 165 164
-303.652636961047 516.453068041436 1913.40046813679 162 164 163
-312.829168322584 516.469302477706 1909.23194695784 159 161 160
-322.462562270576 516.074551350857 1907.02310881002 156 158 157
-332.10230167937 515.678918204199 1904.81348110897 155 157 156
-341.105235563236 515.895418997746 1899.65816910768 155 157 156
-347.80227333222 518.355289797736 1883.69967285654 162 164 163
-355.417046899922 519.993824796713 1871.6595599547 164 166 165
-363.298473115206 521.424194457667 1860.59464594181 162 164 163
-371.642015520498 522.443243870803 1851.48876022277 159 161 160
-380.833233250911 522.645064907932 1846.3102304379 162 164 163
-388.659448868546 524.268218724633 1834.24377132405 164 166 165
-397.52356072218 524.871029638066 1827.08963222983 158 160 159
-402.950383151332 529.125089440821 1802.2147814521 165 166 168
-408.317487056452 533.573300587341 1776.33942507302 166 170 169
-414.944823880597 536.796535828502 1756.3563878644 165 169 168
-424.076713772405 537.380254685603 1749.16864166361 157 162 158
-434.697794656436 536.342652848019 1749.8615405131 160 165 159
-47.9837607219304 509.263242510806 2012.84520749591 241 248 254
-59.7010151564892 507.241715979845 2018.4428175259 180 185 189
-71.3818078806179 505.222330598642 2024.04473185442 171 176 182
-80.6847918606668 504.855374586931 2021.87681345105 161 165 168
-90.8644056838463 503.869367556418 2022.62466890672 156 160 161
-100.459820821186 503.295649799468 2021.42872869038 149 153 154
-110.910334780018 502.104011280712 2023.15100603207 126 130 131
-121.064038105395 501.118759064735 2023.9020929769 135 139 140
-131.487225038791 499.928440875105 2025.62753682402 126 130 131
-141.342675042388 499.14924881409 2025.40761426989 134 138 137
-150.646078916094 498.780474386976 2023.239648255 141 145 144
-159.413983257002 498.820891825649 2019.12229789611 119 123 122
-168.73606599315 498.450389948063 2016.9520054188 145 149 148
-177.799020858992 498.283756824472 2013.8060668572 128 132 131
-186.610824209397 498.3205987519 2009.68300730869 143 147 146
-195.960705643699 497.947310660427 2007.50925305559 140 144 145
-205.317260921508 497.57318185536 2005.33490842901 140 144 145
-213.915381308655 497.81039770957 2000.23030047524 147 151 152
-222.536213109079 498.045927827636 1995.12286271068 144 148 149
-231.429343369572 498.075916542744 1990.98967209229 143 147 148
-240.339861273574 498.104379509821 1986.85431561678 149 153 154
-248.779181044354 498.538231577668 1980.76107983971 147 151 152
-257.729650432009 498.563492461825 1976.62074608781 154 158 159
-265.981035140468 499.196259837851 1969.54299282962 153 157 158
-272.376721865146 501.450044015426 1954.63009295848 162 166 167
-279.549293476107 503.090414834115 1942.64539968074 160 164 165
-287.013045483584 504.52392191774 1931.63260067743 158 160 159
-296.584255273619 504.131758668229 1929.43151592981 162 164 163
-304.133791267695 505.559084153255 1918.40802787114 164 166 165
-313.296816468577 505.567817902561 1914.24121193398 159 161 160
-322.257153171065 505.776939330555 1909.09123524239 159 161 160
-332.109146232557 505.17702192552 1907.86334461383 161 163 162
-340.031115848133 506.390876549982 1897.80186857585 157 159 158
-346.519509803205 509.011261658864 1880.86105976355 163 165 164
-354.35027119382 510.417983973423 1869.8025306957 165 167 166
-362.855331859516 511.217467384266 1861.68475377009 163 165 164
-372.010449154806 511.411077120471 1856.51075073028 159 161 160
-379.981588973347 512.807540131371 1845.4344900133 162 164 163
-388.007614686142 514.199852155569 1834.35163106141 167 169 168
-396.28427866088 515.387587104288 1824.24596004957 160 162 161
-402.680514838039 518.574721197433 1804.29185790653 164 165 167
-408.038513062271 522.955366902848 1778.41757552503 165 169 168
-413.719976981802 527.127034896065 1753.51140423937 163 167 166
-422.304865170257 528.29328030151 1743.36708499107 157 162 158
-431.850156750447 528.457614254187 1738.14446760392 157 162 156
-446.802096917567 522.636421402402 1762.49567047313 184 191 183
-31.6386737847794 504.225159341229 1994.74306175092 245 253 255
-48.2430648711751 498.9530988398 2015.86330083078 191 199 201
-60.251792356707 496.746966307714 2022.43270999871 179 184 187
-71.6277490105381 494.950663209777 2027.06439148919 168 173 177
-79.7513916885519 495.395786835768 2021.01052066378 154 158 159
-89.9342246293755 494.414830281903 2021.75796109235 154 158 159
-100.394998139925 493.230899277733 2023.47893780517 143 147 148
-110.840877717014 492.047618491645 2025.2017714805 121 125 126
-120.707655190707 491.270927300265 2024.98018847038 129 133 134
-130.849598859216 490.291438402185 2025.73248750463 108 112 113
-140.428699280814 489.717446098034 2024.53858399138 134 138 137
-149.187078407289 489.750527295967 2020.42244164267 140 144 143
-157.691338777185 489.984642294864 2015.32931476141 121 125 124
-166.218454430662 490.217005173948 2010.23358055876 140 144 143
-176.098044228907 489.437646376 2010.01040567132 126 130 129
-185.446972860307 489.061913155353 2007.83701703029 144 148 147
-195.062969541844 488.483718959723 2006.63852014746 137 141 142
-203.648800372975 488.711087178966 2001.53547179102 136 140 141
-212.257338905062 488.936710176369 1996.42959424373 143 147 148
-221.141087811936 488.959293763785 1992.29759386394 142 146 147
-229.542616469533 489.382533904529 1986.20910214051 143 147 148
-238.960682286254 489.000246249453 1984.02710284836 151 155 156
-248.140851263611 488.817782303421 1980.86633807977 148 152 153
-256.607857670188 489.235659195798 1974.76992951303 154 158 159
-264.863984257795 489.851817824536 1967.69138796616 153 157 158
-271.499353314974 491.866964566331 1953.75713296704 161 165 166
-279.374055641362 492.876942913995 1944.70977960642 159 163 164
-286.369242371119 494.683481108764 1931.73885795036 157 159 158
-295.712530345917 494.488117214321 1928.5577708668 161 163 162
-303.714554691697 495.488969141334 1919.49455250498 164 166 165
-313.320560755098 495.090766949198 1917.2891412915 159 161 160
-321.392121184017 496.086230969658 1908.21701915772 158 160 159
-330.812526439799 495.883985933356 1905.02656668338 164 166 165
-338.312026294066 497.470679836962 1893.00097578116 157 159 158
-346.295959626733 498.655620636767 1882.93160291239 155 157 156
-354.957523099117 499.241115615309 1875.8027862596 167 169 168
-363.239116116589 500.220929911119 1866.70449451346 165 167 166
-371.564851704197 501.197277631634 1857.60094343338 160 162 161
-378.727201067723 503.358865191272 1842.59285166263 160 162 161
-387.355849934197 504.129749219811 1834.45948670692 165 166 168
-395.043941932604 505.886295101176 1821.40246649147 167 168 170
-402.411417399888 508.033381618097 1806.36881438364 162 163 165
-407.950743366601 512.149124365639 1781.48028808258 165 169 170
-413.057266385511 516.847825212058 1753.62117653672 162 166 167
-420.901138220645 518.777861172708 1739.53633167172 155 160 156
-430.821854282027 518.53675346624 1736.28330544137 157 162 158
-442.191394640149 516.72025496684 1740.91584083148 183 190 182
-34.6367331471988 492.053547509735 2006.49418142665 242 250 252
-47.9012896330528 489.060622341659 2016.93993121164 174 182 184
-60.2072918995169 486.675006142749 2024.48016173768 166 172 172
-73.0577147195659 483.88973031998 2033.96935902047 161 165 166
-81.7478792467699 483.920406067783 2029.8614955164 148 152 153
-90.7457399033722 483.749138152773 2026.72345226409 144 148 149
-100.906154704259 482.774566705044 2027.47367352904 142 146 147
-110.77210315972 482.000735269919 2027.25218644442 132 136 137
-120.633960035093 481.226865880967 2027.03121006475 103 107 108
-129.373376691232 481.253331489909 2022.91745154215 111 115 116
-138.406997570556 481.078650721817 2019.77495461309 134 138 137
-147.452752489836 480.902778890393 2016.6309465642 128 132 131
-154.881430396393 481.923613228979 2007.63922582544 121 125 124
-163.698444341082 481.944237108509 2003.51555873522 127 131 130
-172.798992888924 481.764157942158 2000.36472384529 122 126 125
-183.75556371138 480.189156831489 2004.04047231903 139 143 142
-192.861262285672 480.008032912588 2000.88899748757 129 133 132
-201.979010077852 479.825785560087 1997.73626221221 126 130 129
-210.087262867501 480.437031272318 1990.67618737909 134 138 139
-219.492359890381 480.053479527114 1988.49580984468 135 139 140
-228.404140669391 480.065617605514 1984.36033876085 142 146 147
-238.569526744022 479.085710291079 1985.1097134233 149 153 154
-248.236306041454 478.501712897091 1983.90489445274 149 153 156
-256.936630096219 478.708588636383 1978.78761198509 151 155 158
-264.942153966193 479.506630147059 1970.73217809554 150 154 157
-271.331163054408 481.684278381831 1955.820552324 159 163 166
-278.965708808191 482.870216075235 1945.79477833424 158 162 163
-286.418799731681 484.249696803002 1934.78345204767 157 158 160
-295.525774298776 484.246294362815 1930.62366285846 161 162 164
-303.295747457332 485.422410109423 1920.58101419497 164 165 167
-312.007412728363 485.808277225079 1914.45415794497 158 159 161
-320.086144175 486.781426088192 1905.38119967674 157 158 160
-329.732432520012 486.376775741026 1903.17077845365 164 165 167
-337.880729583396 487.344539823901 1894.08939325709 158 159 161
-346.073184047217 488.3090702677 1885.00226572494 151 152 154
-354.51930784984 489.074384702905 1876.89193375419 164 165 167
-362.590550364846 490.228202308414 1866.81174717747 168 169 171
-370.711369853622 491.378266858119 1856.72562383979 161 162 164
-378.277425098791 493.110872193109 1843.6836558675 158 159 161
-387.300213337961 493.472317877355 1837.51779735464 165 166 168
-394.194598007318 495.976897426085 1820.52662827121 168 169 171
-401.176342084943 498.475376683279 1803.52481358374 159 160 162
-406.910877126151 502.33070965362 1779.62053949106 163 167 168
-412.018740618693 506.955924026018 1751.76121391729 161 165 166
-419.866395092193 508.850184306508 1737.67599121536 153 158 154
-429.427822711976 508.991512534107 1732.45142073063 150 155 151
-440.809913040386 507.190458965861 1737.08234928497 178 185 177
-34.5997739462554 481.933869173287 2008.54105799426 226 231 235
-44.8485323028411 480.96041583786 2009.28001129249 169 174 177
-56.8793644206547 478.796054258824 2015.84655193068 159 164 167
-69.4601680301632 476.237407751991 2024.36087190981 144 148 151
-81.6951487401496 473.879906299785 2031.90989146704 159 163 164
-90.9781220302579 473.505209536731 2029.7447309332 149 153 154
-101.41887231624 472.338499952216 2031.46816107407 129 133 134
-109.848836286885 472.556328350378 2026.38458910313 137 141 142
-119.996177938046 471.58736500881 2027.13618678239 114 118 119
-127.896088893759 472.197671913748 2020.1023545195 116 120 121
-135.552493207702 473.002904351423 2012.09046974953 134 138 137
-143.796529677011 473.411452660878 2006.02167081052 121 125 124
-152.068652933978 473.818032514182 1999.94937199033 120 124 123
-161.176098465984 473.63214147694 1996.79793197165 124 128 127
-171.094269616982 472.855640100499 1996.56993483456 123 127 126
-181.272021560402 471.882532231553 1997.31798867233 134 138 137
-190.657498035918 471.49843625817 1995.13982083069 129 133 132
-199.533146449925 471.505652294224 1991.00911208317 125 129 128
-208.681723673281 471.315525929095 1987.85230995741 131 135 136
-218.60072049807 470.537060842342 1987.62421495248 132 136 137
-227.515058497991 470.540794348564 1983.48844687574 141 145 146
-236.694256696194 470.347525311635 1980.32807197821 146 150 153
-246.374878353549 469.762646079873 1979.12152788526 146 150 153
-254.846349352385 470.15282356197 1973.02439484047 149 153 156
-264.303404944209 469.760945093566 1970.83755511195 148 152 155
-271.400461937123 471.316125283118 1958.8625099586 159 162 167
-280.195571227916 471.504836549954 1953.7332064206 158 162 165
-287.625855238084 472.858357722757 1942.72479466554 158 159 161
-295.339719144502 474.013803244593 1932.68944280805 162 163 165
-302.199736718307 475.942195567345 1918.72738146684 164 165 167
-310.469972700724 476.701930626274 1910.63877368056 156 157 159
-318.999689804212 477.264888879647 1903.5264700248 153 154 156
-327.998290389453 477.438068528849 1898.37181287825 154 155 157
-336.804544153003 477.802620933439 1892.23320867511 159 160 162
-346.063499967722 477.77830864336 1888.05450819005 149 150 152
-354.081499852211 478.911330622153 1877.98102074339 158 159 161
-362.563085269973 479.654677625506 1869.86632122317 167 168 170
-370.470475277639 480.973564132331 1858.7984606694 162 163 165
-379.037652744957 481.710502875808 1850.67309664333 161 162 164
-386.45009021896 483.599343160341 1836.64220072334 164 165 167
-392.952662967272 486.444773652911 1817.68365563607 165 166 168
-399.359748639042 489.475759704567 1797.72861075056 151 152 154
-406.251906492323 492.115701957971 1779.72967598955 159 163 164
-411.355698154339 496.667597988497 1751.8710516374 163 167 168
-418.64557973441 499.101416585318 1734.83095349286 142 146 145
-428.580480675988 498.848296892812 1731.57618870646 136 141 137
-439.426994588548 497.637164234669 1733.24909893217 170 177 169
-36.6924270215991 470.451045717815 2017.37981129017 189 193 202
-46.0132373273814 470.07202740955 2015.20994030111 172 177 183
-55.9381990497936 469.300826765192 2014.98108178156 150 155 159
-67.0433694121495 467.74711593997 2018.63822984403 142 145 150
-79.8831602509542 465.021759346246 2028.12835587133 112 116 117
-90.9209336873278 463.471625425718 2031.79390525207 128 132 133
-101.357042166925 462.313154602479 2033.51789296645 149 153 154
-109.495839176396 462.71526838724 2027.46224423496 141 145 146
-117.38024868966 463.310315882852 2020.43014637681 136 140 141
-125.298201493692 463.902990093443 2013.39410903299 92 96 97
-132.972340443536 464.688038849812 2005.37982396957 124 128 127
-142.058290063268 464.498620005791 2002.23107580401 120 124 123
-150.612587133081 464.696463789109 1997.13204042611 119 123 122
-160.535363669481 463.922535688413 1996.90346178752 116 120 119
-170.454159259657 463.148443141494 1996.67538038054 128 132 131
-180.632592062825 462.180547450792 1997.42333552496 132 136 135
-188.973792221816 462.567736438726 1991.34246738092 128 132 131
-198.376920878335 462.179233703414 1989.16234852525 124 128 127
-207.275199978301 462.176345813123 1985.0286019415 130 134 135
-217.202911962305 461.399833852784 1984.79941419272 131 135 136
-226.8760519377 460.816147913409 1983.59380062696 140 144 145
-236.302924467613 460.424460335705 1981.41072706342 145 149 152
-245.736448741557 460.032050392768 1979.22682530388 145 149 152
-253.965144719841 460.60086486673 1972.15183161404 148 152 155
-263.425294531511 460.205862891342 1969.96461397082 148 152 155
-270.523409877955 461.730992613305 1957.9892756093 159 162 167
-279.321075295514 461.908435216327 1952.85992302616 159 163 166
-287.215689276632 462.850972888297 1943.81026241136 158 159 161
-294.239463406512 464.556730229055 1930.83603861956 162 163 165
-301.329095621586 466.257993420841 1917.85360796327 164 165 167
-309.378063307833 467.189622876441 1908.784713645 156 157 159
-319.677842822072 466.207066425603 1909.51732377712 154 155 157
-328.660191292229 466.370056159558 1904.36496190197 150 151 153
-337.449889440597 466.721927147638 1898.22845713779 159 160 162
-346.054994750775 467.262163578003 1891.10656504789 147 148 150
-353.434212426387 468.942410459648 1878.08805118383 154 155 157
-361.707995632905 469.856910933273 1868.9911463263 165 166 168
-369.616928294277 471.148286677963 1857.92316570708 161 162 164
-378.589726832873 471.485982284342 1851.7636081583 162 163 165
-384.80333187923 474.478293914004 1831.83305062745 164 165 167
-390.727684466897 477.842841445427 1809.92175508953 165 166 168
-397.347400200492 480.631419004521 1790.94874097042 150 151 153
-403.87422132874 483.602460579987 1770.97891166945 157 161 162
-409.751374274719 487.32293303439 1747.05719485577 162 166 167
-417.42375388013 489.334555188223 1731.98584925466 132 136 135
-426.818444158246 489.641730815676 1725.77372248426 131 136 132
-438.222889566949 487.871741973092 1730.4017794489 169 176 169
-39.3971434921208 458.628753368871 2028.15893140596 185 187 199
-47.481850073767 459.021651919574 2022.11005710807 169 171 183
-56.4915951681608 458.833325243071 2018.97081594057 137 142 146
-65.8095781973542 458.451259546283 2016.80106553536 151 157 157
-78.3632563761523 455.947971613706 2025.31862482304 131 135 136
-89.7011563847767 454.217995688191 2029.9548808876 108 112 113
-98.990664865457 453.836910376766 2027.78892162463 134 138 139
-105.717526209351 455.185853357625 2016.86830491624 138 142 143
-113.630720895053 455.762583747484 2009.8326630762 148 152 151
-122.977922862354 455.377225807914 2007.659515259 90 94 93
-132.609234474647 454.799429573719 2006.45910611533 119 123 122
-140.318846186082 455.562691858607 1998.44069190361 123 127 126
-148.883295759704 455.748957204094 1993.34017977592 120 124 123
-158.81746958352 454.976754144546 1993.11041454914 112 116 115
-170.080788729662 453.248720001095 1997.75573248207 129 133 132
-179.729350997475 452.668152579753 1996.5531778564 134 138 137
-187.811457165524 453.232213732477 1989.49673049468 127 131 130
-196.961483799625 453.031125592577 1986.33977635848 123 127 126
-206.891211306522 452.257471341473 1986.11032955869 130 134 135
-217.323170648292 451.10278845147 1987.83482508556 131 135 136
-226.237240291016 451.089876561949 1983.69913433327 140 144 145
-234.425347597076 451.645512612419 1976.62948084341 148 152 153
-243.872443773854 451.24930917007 1974.44365511193 147 151 154
-252.356547510886 451.611152447503 1968.34526046196 149 153 156
-262.067343701874 451.023096758729 1967.13495913069 148 152 155
-269.646185406068 452.138826212375 1957.1163215679 159 162 167
-277.743326039023 452.872682627604 1949.04962347714 158 162 165
-285.647708315517 453.792737176846 1939.99856277659 154 155 157
-292.909636271249 455.27619889276 1928.00313156983 160 161 163
-301.363160077468 455.811937775348 1920.90016779962 164 165 167
-309.626633457732 456.533585340737 1912.81274451691 160 161 163
-319.254088343939 456.122012574844 1910.60469182807 158 159 161
-327.797218005006 456.650609717582 1903.49056458444 154 155 157
-336.589220375165 456.988595305405 1897.35356856497 161 162 164
-345.622030546176 457.136366178756 1892.19494944621 138 139 141
-353.417166780305 458.408594200009 1881.1412203732 149 150 152
-361.474630680982 459.489293786139 1871.06294583979 167 168 170
-368.763083405558 461.315861538806 1857.04792674477 158 159 161
-376.728466869834 462.575927442269 1845.97274358369 161 162 164
-381.760098200686 466.637965877292 1820.14026917067 164 165 167
-389.089647725242 468.635057459827 1805.11174500261 170 171 173
-396.689608211741 470.440045932738 1791.05766814004 152 153 157
-404.169449550413 472.426664727361 1776.01017575306 154 158 159
-409.464374744077 476.644773153118 1749.13650545084 155 159 160
-416.758151820909 478.990970017183 1732.09615192004 121 125 124
-425.603442420399 479.842722199116 1722.92785129523 129 134 130
-435.21425351256 479.94728082186 1717.69721487654 170 177 170
-28.5503760875045 449.917707078073 2027.51986961786 208 211 220
-37.8429682028871 449.534753100036 2025.35353045658 183 181 195
-49.2548422001653 447.817324320438 2029.98052196222 172 170 184
-58.2428327979161 447.624647695886 2026.84376681398 145 151 151
-67.2429169679731 447.431081196984 2023.70550480287 134 148 135
-77.4299954663651 446.476370830092 2024.45234629256 133 142 137
-86.7345036984151 446.091582727572 2022.28452490046 139 143 144
-94.3154762523457 446.844765074273 2014.28219064025 88 92 91
-100.792744754494 448.353785220315 2002.38437271848 94 99 95
-109.311372637275 448.53275967951 1997.28983833594 120 125 121
-120.655642554366 446.817487668904 2001.92526075134 80 85 81
-131.69137084313 445.292982908218 2005.59075759219 116 121 117
-139.402620591443 446.036910294852 1997.57218988092 121 125 124
-147.697339771547 446.400546238444 1991.4974245831 113 117 116
-157.367779986327 445.819182288236 1990.29214181662 117 121 122
-168.907391056132 443.918261767091 1995.91136280795 125 129 130
-178.561664312242 443.337091634248 1994.70809707192 135 139 140
-186.648442193223 443.884369343099 1987.65087063791 127 132 128
-195.803904736005 443.677321018545 1984.49325382838 124 129 125
-204.971416496675 443.469149260392 1981.33437657495 127 131 130
-214.404300746399 443.072181481868 1979.15056668955 130 134 133
-223.843748186783 442.674494475582 1976.96569938207 139 143 142
-233.785887063548 441.901246496717 1976.73494291553 147 151 150
-243.969189001339 440.940622828721 1977.48203100138 143 147 148
-252.92982904621 440.91518858654 1973.34056151539 145 149 150
-260.948339252315 441.635480609459 1965.28371175838 147 151 152
-268.294228052709 442.912976893469 1954.2860322354 163 167 170
-275.460734953034 444.373074437493 1942.30257054095 160 164 165
-283.846642104121 444.897473674721 1935.2080747921 154 156 155
-292.037019142013 445.605443183627 1927.12980952146 158 160 159
-300.719130246155 445.93842531516 1921.00654045874 160 162 161
-308.981854690855 446.640949768332 1912.91926099879 161 163 162
-317.946622543889 446.783380332715 1907.76914722257 161 163 162
-326.279004852047 447.48057134731 1899.6731889185 153 155 154
-334.434602537796 448.360195656536 1890.59088449164 155 157 156
-343.273236221773 448.680939461975 1884.44835483425 143 145 144
-352.139875380739 448.999359154306 1878.30209611088 150 152 151
-360.619505425754 449.685258532802 1870.18779189589 167 169 168
-367.908885285056 451.476349457776 1856.17251025816 159 161 160
-375.269513269278 453.262423690735 1842.14835048693 157 161 160
-381.105835090399 456.518333237352 1820.24856703125 160 164 163
-388.040100577145 458.845744459 1803.25288762407 165 169 168
-396.031859851141 460.246997860207 1791.16659427617 143 147 148
-403.127241604852 462.563129773676 1774.15083821504 153 157 158
-407.669213527099 467.444918422129 1743.33839558992 155 159 160
-414.976989591317 469.746683488318 1726.29617180908 122 126 125
-424.021044564957 470.392146594999 1718.11153718733 120 125 121
-433.103748666354 471.034430864114 1709.92208775428 161 166 160
-21.4549795763992 444.196671221809 2007.25752862472 247 255 255
-35.3739975915082 440.987166918297 2019.63755002982 174 174 184
-47.4071651337451 438.909131789804 2026.20333161447 162 160 171
-58.5007886379854 437.396409323289 2029.86181271518 146 150 151
-67.7892067664649 437.010197642831 2027.69600302183 139 150 142
-77.3783016934915 436.435867242284 2026.50085314375 124 130 128
-84.3475755553347 437.546235243761 2016.55830016316 115 119 120
-91.0780646068847 438.840301312918 2005.63737525469 126 130 129
-97.0061384628629 440.691479145599 1991.79181832148 90 95 91
-106.686459204764 440.110799637336 1990.58530072117 99 104 100
-118.050919668138 438.410426087149 1995.2181642412 66 71 67
-129.106664024109 436.898023959165 1998.88113132334 114 119 115
-137.661092262915 437.062833013953 1993.78216657211 121 125 124
-146.238243051961 437.226134789686 1988.68037015031 108 112 111
-155.10803523645 437.20171030224 1984.55023528105 123 127 128
-166.398416963366 435.504204604771 1989.19233583705 131 135 136
-176.071808272937 434.921697097812 1987.98668780291 135 139 140
-185.484780541351 434.524263379317 1985.80512377335 126 131 127
-194.645756409224 434.311073275553 1982.64707537634 125 130 126
-204.331067547782 433.726791129807 1981.43994449145 127 131 130
-213.764179386242 433.326822742963 1979.25611410631 131 135 134
-222.45134121284 433.48042618167 1974.14037422888 145 149 148
-232.650291831868 432.524601159402 1974.88573708351 150 154 153
-242.839738557159 431.568903812173 1975.63228563165 147 151 150
-251.805699060889 431.534709797119 1971.4901752524 148 152 151
-259.588708062481 432.419615986546 1962.45435378097 149 153 154
-267.178768469048 433.485300213669 1952.43444798277 162 166 167
-275.053143443498 434.363731426016 1943.38748189844 158 162 163
-283.435830774716 434.871673292613 1936.29343130398 152 154 153
-292.081342313257 435.19367148155 1930.17499884523 160 162 161
-300.075177269942 436.06329545967 1921.11290778615 164 166 165
-308.561117350507 436.563405367492 1914.00599248418 163 165 164
-316.195740052 437.79294515969 1902.97240696904 159 161 160
-324.759484042483 438.287205182908 1895.85603787329 150 152 151
-332.70925276637 439.326868371723 1885.79131112914 152 154 153
-341.774074133819 439.450562459199 1880.62876060767 143 145 144
-351.072038937661 439.389902589623 1876.44528775144 151 153 152
-359.348641292176 440.238466829791 1867.34796445288 171 173 172
-367.259468191348 441.447663608516 1856.27996385937 165 167 166
-374.213798375533 443.561835236923 1840.29026942238 157 161 160
-380.850801437094 446.033786848024 1822.32337859956 161 165 164
-388.368215526115 447.77338515068 1808.28001551082 164 168 167
-396.345146859834 449.145480688007 1796.19540911966 142 146 147
-402.658841774302 452.14348719803 1775.24441860079 152 156 157
-406.438366815726 457.667881710801 1740.49444389768 155 159 160
-414.124308518589 459.563973272078 1725.4217100727 117 121 120
-423.353852010527 460.009305822942 1718.22214171534 121 126 122
-432.978091211776 460.091148171819 1712.98964910178 159 164 158
-22.9630958026026 433.167727732533 2014.15265919053 201 219 229
-33.5126676706785 432.035413345705 2015.86241846278 157 165 167
-46.4646749250832 429.422591195515 2025.33824418938 159 160 162
-57.5620187102703 427.922949774622 2028.99622657256 148 145 152
-67.1499404768703 427.348813555511 2027.80122258659 143 143 151
-75.8568832253508 427.32831351503 2023.69140002931 133 137 140
-81.6672833184973 429.151393415199 2009.86060208092 106 110 111
-88.1262332880459 430.601440309313 1997.96522550768 145 149 148
-94.3597786160144 432.231647882802 1985.09005682494 114 118 117
-104.625878864025 431.28157586818 1985.82678438377 91 96 92
-116.285795691766 429.412470052738 1991.43114841359 67 72 68
-127.353469107228 427.912685746261 1995.09259359105 112 117 113
-137.019257147951 427.331797332818 1993.88789013608 119 123 122
-146.68626252907 426.750473034652 1992.68303591211 106 110 109
-155.275211041931 426.901496844563 1987.57979953771 125 129 130
-164.955752315805 426.318653288226 1986.37326011526 132 136 137
-174.10860981245 426.101200092036 1983.21599580094 133 137 136
-184.058945377566 425.334417433572 1982.98419940997 124 129 125
-193.746034818369 424.750141444151 1981.77684658726 124 129 125
-203.690924649459 423.982986540004 1981.54549050325 126 130 129
-213.631593704991 423.215622745947 1981.31466169718 130 134 133
-223.317192197297 422.630247294658 1980.10749783143 147 151 150
-232.010835412073 422.771854230332 1974.99122097618 149 153 152
-241.218393545322 422.548228790992 1971.82714660018 147 151 150
-250.195053594612 422.505051768756 1967.68372463734 148 152 151
-259.42941807516 422.278885004438 1964.5165519489 149 153 154
-267.725562450888 422.776573495249 1957.43332840555 161 165 166
-275.820404488598 423.452705539901 1949.36706918096 157 161 162
-284.650614673746 423.583283210257 1944.23377862036 152 154 153
-292.585707246022 424.435149426201 1935.17906502801 159 161 160
-299.884928831404 425.825338147268 1923.17922542785 162 164 163
-307.468606227306 427.031009572547 1912.15206044216 160 162 161
-315.328792574504 428.052550518197 1902.0985607733 156 158 157
-323.894610990769 428.530192559639 1894.98173629559 150 152 151
-331.846034105864 429.545085088841 1884.91686832586 150 152 151
-341.553285255303 429.118276070318 1882.69889765925 142 144 143
-351.056422752545 428.869970258101 1879.4982419897 150 152 151
-359.739852508138 429.338148949869 1872.36676523356 170 172 171
-367.225633488822 430.879382203745 1859.33531898646 166 168 167
-374.777202388485 432.415946612063 1846.29567509125 160 164 163
-381.995009754802 434.305729091066 1831.28137827863 163 167 166
-389.48639669973 436.011448263907 1817.24111217433 166 170 169
-396.465896354344 438.247947298077 1800.24002722443 141 145 146
-401.615863529457 442.262858543768 1773.38498193848 152 156 157
-405.962365891048 447.15967757984 1741.58920607875 154 158 159
-412.712421911982 449.908306249249 1721.5921040994 119 123 122
-421.585290737932 450.692490187909 1712.42078008227 133 138 134
-430.502217283476 451.473267671157 1703.24372662424 153 158 152
-18.9351859167759 425.464894109757 2003.59032478337 190 210 221
-32.8701857420126 422.330099412981 2015.96815500796 155 163 165
-44.91730445492 420.294235215454 2022.53208451335 157 161 162
-55.7240978920581 418.989709338354 2025.21788466547 144 143 149
-65.6199739374812 418.232487727466 2024.99285932192 143 141 152
-74.0403534977585 418.38505312953 2019.9106552965 133 137 140
-81.0256716114706 419.444829600517 2009.96623331912 138 142 143
-87.1940470793342 421.046398880698 1997.09903259882 105 109 110
-94.0006996540115 422.28078792382 1986.16876009027 125 129 128
-103.130722495036 422.061146372523 1983.01435116893 140 144 143
-112.834318956503 421.47832712322 1981.80493453136 77 82 78
-123.37384320949 420.352147268827 1983.51593153149 99 104 100
-133.623169677518 419.407267175413 1984.2549789549 104 108 107
-144.135617696918 418.282155288385 1985.96935209645 103 107 106
-152.743001196219 418.420896356097 1980.8638474909 128 132 131
-161.640659703458 418.377675799167 1976.73028456809 133 137 138
-171.349741437413 417.792536274181 1975.52018951131 134 138 137
-182.370000215334 416.306940602196 1979.18751438995 126 131 127
-192.58684872127 415.362039264642 1979.93061492696 126 131 127
-202.794278165028 414.417200475679 1980.67489074253 129 133 132
-213.75388754558 412.934094907973 1984.3497777498 133 137 136
-222.929409332501 412.707553425807 1981.18970899973 149 153 152
-231.37142633275 413.017491786212 1975.09670321545 144 148 147
-239.59583314257 413.504282323909 1968.02246079558 144 148 147
-248.826273857263 413.273167191383 1964.85555053254 148 152 151
-258.309247622535 412.862138984248 1962.66552679936 150 154 155
-267.085604416569 412.985875207636 1957.53897484031 162 166 167
-274.944636952694 413.821208843483 1948.4940368975 158 162 163
-282.847952372403 414.65342029064 1939.44334066606 150 152 151
-290.795657616224 415.482328577583 1930.38735381449 156 158 157
-298.560679609965 416.486043161833 1920.34577703943 161 163 162
-307.048219166217 416.952905357177 1913.23874968901 159 161 160
-314.239960135196 418.482710940319 1900.2440279914 157 159 158
-322.810675263427 418.943381045356 1893.12687739672 153 155 154
-330.550274820471 420.110572126183 1882.08035558373 153 155 154
-341.333289351407 418.794899997128 1884.76915255603 144 146 145
-350.831182165294 418.541371633575 1881.56892487662 151 153 152
-359.508746921577 418.993440634401 1874.43822246201 171 173 172
-366.166192594752 421.208354713931 1857.47762505698 169 171 170
-373.924301951544 422.535504385535 1845.42044471823 162 166 165
-382.942511504255 422.800792921799 1839.25565109354 164 168 167
-390.213371260798 424.648493174594 1824.23460420956 168 172 171
-396.78264773709 427.194348016204 1805.2685238132 143 147 148
-401.531501259495 431.490798916718 1776.44717924997 151 155 156
-405.486768505698 436.655090794834 1742.68390837435 152 156 157
-412.045027203244 439.527449187926 1721.70272863104 121 125 124
-419.447180927967 441.691514421572 1704.64908970373 135 140 136
-427.479755442929 443.324415192707 1690.54147835483 151 156 150
-440.755349505619 439.880205951363 1705.01802781754 180 185 178
-5.21030349563945 418.281508059656 1994.23650700527 150 180 206
-19.2137956822969 415.180631931583 2006.60570046474 186 206 217
-32.5329729874067 412.443779751328 2017.0439595353 150 160 161
-44.5790927774496 410.429421961824 2023.60819733273 150 155 158
-54.7844563382542 409.494685883679 2024.35246408441 141 141 149
-63.7918956800425 409.277958888958 2021.21358545243 146 143 152
-71.9281153693983 409.597939682889 2015.15847464956 146 147 151
-78.6337214676882 410.811413202451 2004.24086722416 142 146 149
-86.2616700707484 411.484501555022 1996.23288155542 114 118 119
-93.0695111236122 412.691402399022 1985.30253312101 91 95 94
-101.91828712156 412.644547330765 1981.17508001772 112 116 115
-110.503682073562 412.774715589036 1976.07234202906 91 96 92
-121.616703968565 411.298857588459 1979.72806497529 101 106 102
-131.601732922679 410.536730310218 1979.49168652596 103 108 104
-143.220295360141 408.706749266245 1985.10110830551 107 112 108
-152.370414902859 408.478660776638 1981.94421367932 130 134 133
-161.265129773481 408.427206917149 1977.81103978707 131 135 136
-170.177295029185 408.374283034822 1973.67569206118 134 138 137
-179.893423150341 407.788097392607 1972.46472041184 127 132 128
-189.870345799377 407.024276811411 1972.22935804071 126 131 127
-200.613644354282 405.729352590497 1974.92329696188 131 135 134
-211.844678872061 404.081792905471 1979.57267216768 135 139 138
-221.7878731756 403.318807125234 1979.34151669624 148 152 151
-229.488721667644 404.144029387698 1970.31610554617 144 148 147
-238.46394391163 404.084460636852 1966.17290617996 145 149 148
-247.943160974972 403.671163421117 1963.98335723632 149 153 152
-258.150879243992 402.72905345317 1964.72758982195 151 155 156
-267.397436082033 402.490282467751 1961.55868852341 163 167 168
-275.009456190946 403.480034439878 1951.53624224908 158 162 163
-281.741140775562 405.168217713044 1937.5908286882 151 153 152
-289.233645082095 406.325529359026 1926.5751689188 157 159 158
-297.235571186976 407.128707088218 1917.51248338483 161 163 162
-305.955011622269 407.403650043938 1911.38470868638 162 164 163
-313.372308821803 408.725340312422 1899.37031433587 161 163 162
-321.945161117389 409.169448160878 1892.25270038272 153 155 154
-330.1188764632 409.960009708078 1883.16860979136 151 153 152
-340.473136717229 409.003843617552 1883.89435155116 142 144 143
-350.184886364058 408.570298022164 1881.67583723921 148 150 149
-359.070223709575 408.831748509027 1875.52763538781 168 170 169
-365.722683040525 411.003320820756 1858.56753411908 169 171 170
-373.273942547246 412.474150805518 1845.52810194354 163 167 166
-381.491290777192 413.419845460447 1835.43023032174 162 166 167
-389.560807724729 414.535202258784 1824.34267327261 169 173 174
-396.32227892765 416.858760442639 1806.36088061915 147 151 152
-400.488079418577 421.598316309703 1774.58806943153 149 153 154
-403.686381110376 427.363895436305 1736.88669125189 142 146 147
-409.51146197932 430.871617585912 1711.964105629 118 122 121
-417.122447759935 432.817882936209 1695.89290663089 138 143 139
-425.540136934557 434.06909138265 1683.75361461878 149 154 148
-439.016609203235 430.494723642332 1699.21336580366 179 184 178
-9.22477324133353 405.84421270097 2008.88478590555 154 191 217
-19.4937320769299 404.91145718024 2009.62111112717 159 161 160
-31.5857702380502 402.915913004933 2016.17956903838 148 153 156
-43.3334123021207 401.099743832961 2021.77260580182 144 153 158
-53.5446217918369 400.169893392397 2022.51637041872 131 140 147
-62.2599222801685 400.123777595176 2018.4055723231 136 136 136
-70.6981311572925 400.252928285833 2013.32096469741 132 133 135
-78.5752873570951 400.733176531997 2006.29031459839 131 135 138
-85.9076018058027 401.563601537348 1997.31088061693 121 125 126
-92.1379916353555 403.095286846528 1984.43612490788 127 131 130
-99.8538051652325 403.7433082643 1976.4172402286 132 136 135
-107.046263611236 404.740142625012 1966.4473743869 47 52 48
-117.90886561202 403.451471134582 1969.12616820826 100 105 101
-127.923978315082 402.689935680945 1968.88603392635 97 102 98
-139.846852013716 400.701584921261 1975.46558361878 105 110 106
-150.105438790802 399.765966550845 1976.20321075121 130 135 131
-160.086956056157 399.005496319947 1975.96726617609 123 127 126
-168.739314729781 399.118498611295 1970.85621671682 126 130 129
-178.463861760249 398.531418303084 1969.64419679344 125 130 126
-188.709099959097 397.595100040604 1970.38373186139 126 131 127
-198.94484539168 396.659085406968 1971.12421050212 135 139 138
-209.679632931478 395.37497560363 1973.81918306827 139 143 142
-219.38802377236 394.787312038231 1972.60918087783 142 146 145
-228.848778599482 394.373038470096 1970.42169821458 142 146 145
-238.808605048447 393.610667852007 1970.18870579846 146 150 149
-248.033758230415 393.368422904752 1967.02248469821 150 154 153
-257.271023362353 393.125107745807 1963.85475491658 152 156 157
-265.329946116623 393.746075306029 1955.79312347992 163 167 168
-272.957068159049 394.71002327023 1945.76910079624 158 162 163
-279.470418567347 396.534493752017 1930.84264777534 153 155 154
-287.440482688103 397.318081838872 1921.78399001725 159 161 160
-296.136778505758 397.581121468508 1915.65913497724 161 163 162
-305.085878741288 397.66954601099 1910.51111864998 159 161 160
-311.838714000637 399.47738882674 1895.55506339261 156 158 157
-320.421842085398 399.904299001197 1888.43621237118 154 156 155
-329.687981326098 399.813237452263 1884.25679121882 152 154 153
-339.399021702189 399.377348153802 1882.03837159172 144 146 145
-348.905388224036 399.111932749892 1878.83711774775 150 152 151
-357.381686612063 399.701712477968 1870.72348243154 170 172 171
-365.279639767199 400.80195999873 1859.65737531917 173 175 174
-372.82661438587 402.240215749719 1846.61856365541 163 167 166
-380.839973075852 403.332215442672 1835.53807633493 160 164 165
-387.920403693129 405.273341332582 1819.53310101918 168 172 173
-394.887847735981 407.379338999858 1802.53386420906 148 152 153
-398.867451382591 412.204162545405 1769.7761373705 147 151 152
-401.883914438057 418.038430053033 1731.08958359105 139 143 144
-407.348096939682 421.819697697367 1704.19594138209 119 123 124
-415.715042779081 423.044576300336 1692.06305117692 144 148 147
-424.686527632212 423.756126476487 1682.87961174104 149 154 148
-436.382389235394 421.922174083198 1688.47915723137 177 182 176
2.95256021664358 397.736595319812 2004.37919312461 101 169 214
-11.0682751652906 394.71040179262 2016.74602558187 168 204 228
-21.6244815867106 393.609377230748 2018.45487450044 161 160 158
-33.3883013114691 391.811228828266 2024.04584493042 151 155 158
-42.9956544715222 391.23507832937 2022.84842132597 147 156 163
-52.904689558843 390.484543408211 2022.62173620261 132 145 151
-61.0246139304156 390.777970654593 2016.56872888689 138 140 137
-69.7625155995707 390.721755314561 2012.4551368943 142 143 145
-76.1808733694946 392.053632395934 2000.56537745233 129 133 136
-82.9492285011062 393.208044580684 1989.64009485447 114 118 119
-88.6257599127591 395.052261363328 1974.81801989595 99 103 102
-96.935577505761 395.333056325795 1968.74158856424 112 116 115
-106.117657526469 395.09289844201 1965.58073724367 45 50 46
-116.705292393308 393.987423097903 1967.28567579903 94 99 95
-128.106171396965 392.364458604328 1971.91379064654 97 102 98
-140.569174788046 390.052981804988 1980.44216048387 107 112 108
-151.085667899693 388.950903877342 1982.15596816272 130 135 131
-160.515727340597 388.538110507832 1979.97255247289 127 131 130
-168.361330680733 389.156721913724 1971.93754824282 132 136 135
-177.82095615952 388.741445292099 1969.75020915707 129 134 130
-187.807070843308 387.981998571377 1969.51392842468 128 133 129
-198.303345690416 386.879295049184 1971.23002060215 136 140 139
-208.784863049725 385.777056390012 1972.94819347139 141 145 144
-218.244480561544 385.360230002818 1970.76109972986 144 148 147
-227.461810528041 385.113705663909 1967.59586619029 141 145 144
-237.676627675038 384.182311506641 1968.33918465821 145 149 148
