ply
format ascii 1.0
comment KinectMotionCapture
element vertex 753
property float x
property float y
property float z
property uchar red
property uchar green
property uchar blue
end_header
-1063.96223885762 148.164771807391 2844.21059260786 115 120 116
-1068.09451907907 148.084825315296 2851.70982436679 120 125 121
-1071.18825429955 147.934583871395 2859.20508191806 133 135 132
-1069.07330892857 147.434908057078 2866.6234456823 134 136 133
-1072.16622425933 147.284551950594 2874.11465772931 137 139 136
-1078.39050742677 147.342972286742 2881.67487418597 138 140 137
-1087.75280721136 147.609479445898 2889.32741625887 135 140 136
-1101.30435841624 148.152900740861 2897.12244631347 135 140 136
-1435.60766622236 182.474255683362 2464.97181517418 158 160 155
-1415.79104895275 180.661469457002 2475.97672346945 147 149 144
-1413.11676072153 180.052446205539 2485.14656998123 112 117 113
-1407.40210492141 179.232931251169 2494.58419531649 104 109 105
-1410.78072873962 179.048816755529 2503.11580272286 107 112 108
-1407.0733962646 178.372212813134 2512.30381190249 101 106 102
-1404.3703336347 177.767044499228 2521.36832949487 95 100 96
-1372.25761415322 175.126613537607 2532.95817841354 85 90 86
-1313.71712086749 170.668023770228 2546.58982576005 128 133 129
-1279.45705336287 167.900327571665 2557.91928449792 127 132 128
-1254.28909235206 165.768203529797 2568.33754910412 155 160 156
-1229.08205559281 163.640367727848 2578.6134404852 136 141 137
-1214.01026837118 162.215152227204 2587.99713371007 130 135 131
-1205.02249594834 161.2111833906 2596.8566832114 128 133 129
-1197.03756592659 160.278757507123 2605.58750906473 128 133 129
-1185.97917900125 159.139197599366 2614.46630841218 130 135 131
-1170.82063646887 157.723669185405 2623.53401209119 129 134 130
-1161.76352206504 156.727553933156 2632.14013772729 124 129 125
-1155.75523635471 155.941356177253 2640.50953651326 125 130 126
-1156.89244787592 155.641548644558 2648.43881760733 124 129 125
-1154.95833324392 155.134360655662 2656.52382766978 124 129 125
-1151.99411586552 154.558695859153 2664.63828486479 123 128 124
-1149.0226127918 153.983938593155 2672.72533564576 122 127 123
-1143.99290355133 153.272032500145 2680.8776515285 121 126 122
-1141.00470434175 152.699083555812 2688.90478353151 123 128 124
-1134.9290539872 151.92048181219 2697.02793729863 123 128 124
-1133.97871370025 151.4869483057 2704.9156898898 120 125 121
-1134.05184095265 151.122594098207 2712.75073266396 116 121 117
-1138.23743722857 151.03308025783 2720.44094713809 103 108 104
-1143.45506255574 151.011813301228 2728.10965033274 96 101 97
-1145.58571981546 150.784772771557 2735.87702163584 89 94 90
-1145.65397443681 150.420953224988 2743.69431084283 86 91 87
-1144.68737920953 149.989184150753 2751.52282599661 92 97 93
-1146.81357168092 149.762544463365 2759.27387348655 99 104 100
-1151.00583294441 149.672230900685 2766.98832885044 104 109 105
-1150.03117874796 149.241249470503 2774.78741990845 106 111 107
-1144.91374763272 148.538651237772 2782.6199181589 103 108 104
-1128.39775474165 147.089934798158 2790.52397093392 102 107 103
-1105.64001977729 145.236798365004 2798.37718045485 127 132 128
-1080.7742942239 143.251779907603 2806.11414045862 126 131 127
-1071.43279255262 142.286100391624 2813.68360743964 130 135 131
-1063.11341431313 141.389668977806 2821.19541763436 128 133 129
-1059.97373677361 140.832419617554 2828.67005218278 129 134 130
-1058.90594071362 140.410795232477 2836.12923330519 128 133 129
-1064.07533534024 140.393951069415 2843.62165768192 128 133 129
-1069.24883552998 140.376516544679 2851.12895248641 130 135 131
-1068.17618388978 139.955107133336 2858.57024151434 134 136 133
-1066.05674957068 139.466926103373 2865.97919589914 135 137 134
-1068.10390670041 139.247520957009 2873.44136816646 138 140 137
-1080.58929340502 139.698150028974 2881.11567462655 138 140 137
-1089.95504811968 139.94632114251 2888.76946775835 135 140 136
-1107.6929243688 140.728154259596 2896.67088336625 134 139 135
-1430.89311973838 173.115344196893 2464.93775266587 155 157 154
-1420.15267431814 171.974481332507 2474.9961838883 120 122 119
-1411.41431097601 170.971676732147 2484.78247546128 106 111 107
-1405.69415972066 170.174373103222 2494.21372031643 93 98 94
-1402.99823737461 169.581744763244 2503.31359448884 99 104 100
-1404.34614880446 169.260919184538 2512.01189335366 93 98 94
-1397.58375547753 168.399546574146 2521.43029727684 89 94 90
-1363.42313288902 165.716414589444 2533.18236491519 89 94 90
-1311.95605610452 161.892194665053 2546.20062855317 128 133 129
-1280.72636892331 159.423899535541 2557.28043147934 126 131 127
-1251.48184966167 157.095481598051 2568.02551515389 148 153 149
-1226.26101086124 155.040872401116 2578.29639370614 137 142 138
-1214.23274098766 153.86347688853 2587.44756974526 125 130 126
-1205.23992554757 152.889645950249 2596.30649398069 131 136 132
-1193.17316821914 151.716651074735 2605.31662295266 130 135 131
-1181.08597336634 150.545904368215 2614.25229077849 132 137 133
-1165.91600059068 149.176892986145 2623.30785364571 130 135 131
-1159.9143156664 148.41157246841 2631.71401162932 124 129 125
-1155.94495179627 147.780928458862 2639.95816629121 125 130 126
-1156.05792746424 147.41777110577 2647.94191405351 125 130 126
-1158.2148721787 147.188152431807 2655.80525781853 125 130 126
-1154.2260018914 146.559858223495 2663.97754349561 125 130 126
-1149.20304384096 145.866176465644 2672.1664311149 124 129 125
-1142.11822286076 145.04099666245 2680.41057459938 123 128 124
-1139.12580676726 144.482168291065 2688.43096512944 124 129 125
-1139.20751301296 144.122750072706 2696.30004732691 123 128 124
-1140.31357649477 143.82968609784 2704.11886840739 118 123 119
-1137.30392426048 143.272858309296 2712.07559856564 113 118 114
-1136.34521552106 142.848668783435 2719.93818003318 102 107 103
-1140.53189965672 142.754292282241 2727.62936348785 95 100 96
-1145.75151390396 142.725365178261 2735.30154395933 87 92 88
-1146.84974811323 142.433213834931 2743.09094365065 86 91 87
-1147.94623037221 142.141265113405 2750.87396661869 96 101 97
-1149.04098088399 141.849487793893 2758.6506681631 102 107 103
-1149.10030836462 141.492332939271 2766.43902038385 105 110 106
-1146.05366136785 140.939256745189 2774.26169382267 112 117 113
-1136.7899736047 139.994991669092 2782.13358854971 108 113 109
-1118.18903224256 138.465169321772 2790.03807103478 106 111 107
-1096.45012926822 136.742778508547 2797.86022960453 131 136 132
-1078.82654226893 135.284233761304 2805.54211784365 120 125 121
-1070.51619926231 134.413734284214 2813.10384615446 119 124 120
-1059.07572570216 133.349847289756 2820.61180862976 116 121 117
-1058.00902929555 132.936587384362 2828.08035344422 119 124 120
-1062.13775767166 132.847671778768 2835.55980624628 129 134 130
-1069.39095933283 132.952530896061 2843.07319403868 133 138 134
-1069.3616531981 132.604045522992 2850.53701145166 134 139 135
-1066.20276272071 132.062044557089 2857.9499391653 139 141 138
-1065.12227863322 131.649714952316 2865.3678803661 140 142 139
-1068.21168097578 131.495389336033 2872.84354323573 140 142 139
-1080.70031312843 131.919792593884 2880.5133418022 139 141 138
-1095.29277304763 132.471064382599 2888.28169790705 134 139 135
-1115.13089220693 133.341310990208 2896.24315366239 132 137 133
-1427.18280691395 163.854921805974 2464.7990024082 155 157 154
-1419.46450838143 162.945785771146 2474.53448271391 121 123 120
-1413.75366833578 162.168865470113 2484.01316723187 116 121 117
-1407.01893209823 161.328296116371 2493.54739059449 102 107 103
-1406.34596284604 160.879839883537 2502.45554604629 95 100 96
-1406.68140769924 160.497018329376 2511.25286334346 91 96 92
-1394.84639019438 159.335636238455 2521.13072856479 89 94 90
-1351.53637552946 156.16615380731 2533.67551097028 110 115 111
-1309.17699902198 153.068533137723 2545.89794688179 125 130 126
-1284.02765952844 151.077747149956 2556.47458298014 132 137 133
-1251.72161596367 148.638902462331 2567.47299946576 151 156 152
-1220.38369112882 146.269941313012 2578.21458049539 142 147 143
-1209.36331877783 145.19565823947 2587.27480386004 129 134 130
-1201.38034644114 144.31663490079 2596.04754280794 127 132 128
-1190.32409604338 143.246414652983 2604.97712307235 124 129 125
-1178.22807784286 142.114027248118 2613.90517861487 123 128 124
-1168.15417127094 141.112225771462 2622.62888461652 123 128 124
-1162.14966343286 140.368771466149 2631.03929587876 118 123 119
-1157.15603558249 139.690644901762 2639.3469015172 116 121 117
-1155.22178424644 139.205510603127 2647.44532756984 115 120 116
-1155.32917504939 138.848862456681 2655.41244939526 116 121 117
-1152.35956745338 138.301209474132 2663.5236499391 116 121 117
-1152.45838348511 137.945581926009 2671.45957967192 117 122 118
-1147.42360595375 137.272127878188 2679.61735459231 119 124 120
-1144.43193146786 136.726933255032 2687.64910620096 114 119 115
-1141.43300727309 136.182613117177 2695.65356414319 105 110 106
-1141.51112440753 135.829321733528 2703.51411785917 103 108 104
-1137.47050978703 135.223042190484 2711.50818587589 96 101 97
-1140.62844096015 135.060494903593 2719.23402115221 98 103 99
-1141.72682032767 134.771503923721 2727.0259550757 94 99 95
-1144.88548889781 134.60890023638 2734.75449255433 88 93 89
-1143.91810045898 134.194061805214 2742.59075179079 93 98 94
-1148.10885992467 134.094448244145 2750.29375974165 108 113 109
-1150.2356035343 133.868784609979 2758.04746972876 111 116 112
-1149.26017632941 133.454702603078 2765.8543601691 110 115 111
-1145.17614312869 132.852917601109 2773.6909901477 111 116 112
-1136.94185833241 132.00137836494 2781.54707819004 105 110 106
-1113.15156271097 130.212767686718 2789.50457995807 116 121 117
-1092.43585179598 128.615332604464 2797.30822022675 127 132 128
-1079.98876163476 127.520580593253 2804.95564638224 124 129 125
-1070.63621388875 126.614955918078 2812.52201693529 120 125 121
-1062.3066097568 125.773227744924 2820.03039715797 120 125 121
-1061.24005211583 125.368327917889 2827.50473529788 121 126 122
-1062.24985289967 125.088050684219 2834.97329570429 118 123 119
-1065.34009378645 124.931859073998 2842.45182285586 118 123 119
-1065.30613411316 124.589565875578 2849.90320102963 125 130 126
-1063.18431049274 124.123670176805 2857.31735419838 127 132 128
-1063.1428707857 123.78192436648 2864.74130606504 140 145 141
-1069.36232239522 123.810799900013 2872.26400182994 136 141 137
-1082.89948460247 124.270549947169 2879.9527827109 131 136 132
-1102.72429919073 125.098079099122 2887.83880065892 137 142 138
-1426.49834966416 154.810431455331 2464.34109885838 156 158 155
-1420.79608595519 154.054037240317 2473.86458472972 126 128 125
-1409.01297801345 152.923795341212 2483.95484027183 111 116 112
-1405.30682728346 152.295751795226 2493.17789553126 105 110 106
-1403.61750347521 151.793728150771 2502.17502644132 102 107 103
-1408.00362294517 151.666400766304 2510.58679976379 103 108 104
-1388.04824474952 150.045070593108 2521.1973912662 95 100 96
-1340.65410804589 146.748680000862 2534.08471639844 130 135 131
-1304.36282747726 144.143004634022 2545.76854039886 122 127 123
-1288.34671005682 142.783757660762 2555.58409013817 137 142 138
-1260.09781540819 140.684112827499 2566.27384784102 142 147 143
-1219.5904406883 137.846782847648 2577.74409655399 139 144 140
-1206.52572243076 136.68437304707 2586.95292446013 128 133 129
-1197.51671365263 135.771307789094 2595.79009027464 125 130 126
-1185.43134978929 134.675127918039 2604.77963380178 125 130 126
-1173.32529218631 133.581247594693 2613.69472636601 126 131 127
-1164.26361378766 132.674071659045 2622.34005841234 125 130 126
-1161.3191261096 132.137175184961 2630.5513153845 122 127 123
-1157.34403049729 131.539803210099 2638.79519543197 120 125 121
-1154.38352789083 131.004722922227 2646.94906778123 119 124 120
-1152.44003934655 130.531719217541 2655.0208565121 121 126 122
-1148.44022703005 129.937205852985 2663.17477305815 123 128 124
-1145.45744203504 129.404680888515 2671.24659954089 122 127 123
-1139.38736673662 128.690183353727 2679.43185346277 117 122 118
-1139.46910184882 128.342228426254 2687.30828015765 113 118 114
-1139.54738556809 127.994636649358 2695.17305080379 99 104 100
-1143.73724419318 127.890390430599 2702.86978929254 98 103 99
-1141.75317238186 127.421899947225 2710.79467874121 96 101 97
-1145.94378860708 127.317566108227 2718.49417473192 98 103 99
-1146.0135966749 126.970954582758 2726.32809582488 91 96 92
-1146.08046830436 126.624689808114 2734.15040439551 93 98 94
-1146.14394915021 126.278694524682 2741.96122281634 101 106 102
-1148.27020283716 126.053607450078 2749.7134778261 113 118 114
-1148.32904706412 125.708126668642 2757.50647719687 114 119 115
-1144.24712100516 125.122445855035 2765.36109792131 112 117 113
-1141.19132999045 124.597692950825 2773.16770325615 110 115 111
-1133.98538496869 123.833781796386 2780.99988970884 105 110 106
-1113.29167134078 122.292522158688 2788.92066782794 114 119 115
-1090.49211899296 120.634880102066 2796.74204251514 123 128 124
-1078.03699654659 119.578280369383 2804.38466274401 124 129 125
-1068.67782313957 118.702796196942 2811.94546265189 120 125 121
-1060.34204731588 117.888498768532 2819.44824692896 125 130 126
-1062.39232256931 117.670841469008 2826.92309967748 128 133 129
-1062.36074671994 117.334251391344 2834.38692917409 125 130 126
-1066.49225437382 117.235309594004 2841.87037087722 125 130 126
-1063.33086718695 116.720949773135 2849.29147996987 132 137 133
-1065.37681402581 116.50330206202 2856.75026821702 127 132 128
-1068.46639699491 116.344680842133 2864.22388969836 136 141 137
-1077.82301082049 116.540186397648 2871.8104942243 138 143 139
-1089.27961964151 116.852468533092 2879.47412540868 145 150 146
-1110.16045474447 117.693480080579 2887.39313224786 135 140 136
-1410.65548374199 144.8773401807 2465.49050062472 138 140 137
-1406.96008995153 144.264089852641 2474.76190493319 119 121 118
-1402.24335815867 143.592144209382 2484.10240269553 103 108 104
-1402.57947762903 143.220516216494 2492.90836272006 101 106 102
-1403.92529678548 142.909168105826 2501.60580598347 83 88 84
-1403.24159260619 142.478886111777 2510.48464999537 83 88 84
-1382.25803554595 140.857974116245 2521.17532831338 69 74 70
-1329.76169795079 137.396492799676 2534.49841186519 124 129 125
-1303.60842455126 135.488302443349 2545.29610507828 120 125 121
-1282.49897961402 133.881227929693 2555.52812264401 150 155 151
-1252.19763249862 131.744484535246 2566.36767430913 128 133 129
-1223.88681545948 129.731141297141 2576.88201262171 128 133 129
-1208.78017524022 128.490996602224 2586.25314751553 129 134 130
-1200.78703561502 127.666907929009 2595.02189116334 130 135 131
-1188.69714589114 126.608561450553 2604.01944610329 131 136 132
-1174.54459425106 125.434759995652 2613.07849015969 131 136 132
-1166.50022128893 124.616394531393 2621.66062780345 125 130 126
-1159.46393853263 123.858393835113 2630.12646854874 122 127 123
-1157.53069205038 123.395145179617 2638.24337189844 120 125 121
-1154.5676360162 122.874057981129 2646.39566935261 121 126 122
-1149.54745181085 122.236810897487 2654.63048561399 122 127 123
-1146.56767501792 121.717592634818 2662.72281113886 125 130 126
-1142.55427173939 121.140854606755 2670.83748952355 122 127 123
-1139.55904674241 120.623401259914 2678.87264414749 109 114 110
-1138.61138595285 120.223206781349 2686.79139370424 108 113 109
-1135.60259612645 119.707264508395 2694.77713878813 105 110 106
-1140.8183216988 119.656547086951 2702.42112410619 106 111 107
-1140.88956522425 119.315553320213 2710.26299250824 102 107 103
-1148.17067428075 119.380243198122 2717.85463423493 100 105 101
-1149.27167737448 119.097216425083 2725.66007502757 94 99 95
-1146.24340144365 118.583383401457 2733.57480369447 105 110 106
-1144.23995889413 118.127993323009 2741.4360442986 111 116 112
-1144.29750879946 117.788438875852 2749.22797968405 115 120 116
-1146.41982927247 117.564239945051 2756.96619216885 114 119 115
-1144.40267479548 117.110204653929 2764.77737841554 113 118 114
-1142.37975171918 116.656785900795 2772.56660721094 109 114 110
-1137.24231880892 116.032030537253 2780.37398862921 103 108 104
-1114.46757373317 114.435495678345 2788.32604774113 111 116 112
-1088.54551095517 112.671072004508 2796.17662704874 120 125 121
-1075.04435007231 111.595560685841 2803.81989217976 125 130 126
-1066.71683609802 110.80728463982 2811.369779623 122 127 123
-1059.41453104322 110.077328593577 2818.86656665932 122 127 123
-1060.42295100571 109.803449829473 2826.33404000537 124 129 125
-1060.38842989995 109.47283260895 2833.79070529163 127 132 128
-1061.39291223973 109.199149301803 2841.24368241763 129 134 130
-1063.43826561635 108.982147891512 2848.70067529629 131 136 132
-1064.44026682011 108.708462708163 2856.14443926602 132 137 133
-1069.61667033858 108.660682756668 2863.64335504718 133 138 134
-1080.02073333583 108.894288481978 2871.24666712146 131 136 132
-1092.52698024127 109.23918976976 2878.93167243072 142 147 143
-1114.46275246349 110.088617174371 2886.87551795645 128 133 129
-1399.85302632606 135.32308774073 2466.10967032294 135 137 134
-1401.20393335995 135.013692913008 2474.82723707869 122 124 121
-1403.56537389751 134.76192520187 2483.43585001224 113 118 114
-1402.88742935687 134.339028351908 2492.34167004944 111 116 112
-1400.17744879935 133.802766710789 2501.42400679832 99 104 100
-1398.47422332229 133.32450427632 2510.38452512083 99 104 100
-1377.47700264451 131.766202742902 2521.064002073 101 106 102
-1343.24023732565 129.473019720625 2532.77956003793 140 145 141
-1304.88520958561 126.958587521642 2544.65134220242 129 134 130
-1276.64538666551 125.01706879954 2555.47461400386 157 162 158
-1244.28994229899 122.853959438553 2566.4646288677 143 148 144
-1222.07294013315 121.261256471531 2576.48989734543 136 141 137
-1205.93762119572 120.010929864932 2585.93257085498 132 137 133
-1198.95783735997 119.270772205025 2594.61944617786 132 137 133
-1184.81848246323 118.138133846864 2603.75347538015 133 138 134
-1171.67735901725 117.064278313321 2612.73453432495 131 136 132
-1161.58156454199 116.161218213171 2621.43931496739 123 128 124
-1153.51408436858 115.372242171087 2629.95421500715 121 126 122
-1152.59804315621 114.976709091377 2637.99330481996 120 125 121
-1151.67733702018 114.581773299786 2646.01545178193 119 124 120
-1149.72688200713 114.131584298571 2654.07577938909 119 124 120
-1146.74432461387 113.62632049548 2662.16659120514 120 125 121
-1142.72771833241 113.066243034142 2670.27989607738 117 122 118
-1139.72966538508 112.562749623144 2678.31336464863 105 110 106
-1139.80795776774 112.226652356922 2686.18542449253 105 110 106
-1135.76816766145 111.669140687944 2694.21427227404 101 106 102
-1140.98456182167 111.610987862648 2701.85511658059 100 105 101
-1138.99381826732 111.165314016497 2709.76871136279 95 100 96
-1145.24390082302 111.162103191825 2717.38580520301 101 106 102
-1147.37310913506 110.937685311985 2725.14945265117 99 104 100
-1147.43751144415 110.603201639214 2732.97003109025 109 114 110
-1143.36652589387 110.049037930385 2740.88517002912 116 121 117
-1139.28669662739 109.495723742324 2748.76801032605 119 124 120
-1139.33570334971 109.162753560231 2756.53331253017 116 121 117
-1137.31140316651 108.720556341064 2764.32451308663 110 115 111
-1138.38873752773 108.443010878942 2772.04553712715 113 118 114
-1133.24488745724 107.837829536859 2779.84145089966 103 108 104
-1116.68043355634 106.633639665514 2787.71995871739 121 126 122
-1089.71030709357 104.887393595889 2795.58707975026 126 131 127
-1074.12556259001 103.743666586002 2803.24490924366 122 127 123
-1067.87155513959 103.091347468215 2810.78558630984 124 129 125
-1059.52553069633 102.331698142579 2818.28482142234 129 134 130
-1059.49179424952 102.006795695044 2825.74800800197 130 135 131
-1060.49673741427 101.736236242921 2833.20466831928 138 143 139
-1062.54225934855 101.519764118849 2840.66262118311 139 144 140
-1064.58759819833 101.303168753426 2848.11981648196 136 141 137
-1064.5452964591 100.97870814399 2855.55148076304 133 138 134
-1069.72219758238 100.923389893839 2863.04748476621 124 129 125
-1082.21905884728 101.243555099195 2870.68202596417 134 139 135
-1097.86756194134 101.722963950884 2878.42864349532 136 141 137
-1119.81373045438 102.521712055069 2886.37909215406 124 129 125
-1386.00663723979 125.670230672543 2467.05588372113 128 130 127
-1388.35837607373 125.419758311077 2475.62929394659 127 129 126
-1396.78580944054 125.496620726964 2483.58744886046 114 119 115
-1398.12767372573 125.191773742265 2492.27338391013 105 110 106
-1397.43933415008 124.778599673315 2501.14674767465 88 93 89
-1394.71652226907 124.257534420648 2510.19196746091 85 90 86
-1387.9239619851 123.520671367401 2519.57697620142 87 92 88
-1353.67930533108 121.323809356131 2531.3231182069 135 140 136
-1308.19551054496 118.537964818267 2543.83285974487 155 160 156
-1272.82112207668 116.299341160684 2555.25541223495 146 151 147
-1239.4300408678 114.174287977324 2566.32065754499 151 156 152
-1220.25640853338 112.808315579022 2576.09861735878 134 139 135
-1202.0720591705 111.499474804285 2585.68934048368 128 133 129
-1194.06427873854 110.730571095429 2594.43856658304 129 134 130
-1180.9352908049 109.695344141115 2603.48907036936 130 135 131
-1168.80665174747 108.716062769864 2612.3917451756 128 133 129
-1159.72572138372 107.899380471963 2621.02273139423 124 129 125
-1152.67534600433 107.191266344042 2629.46867378228 124 129 125
-1148.68415190814 106.644539959975 2637.68475828898 125 130 126
-1149.80836651378 106.364951897524 2645.57854989784 123 128 124
-1147.85406966939 105.926182838375 2653.63182349181 121 126 122
-1149.99875827078 105.700407833708 2661.45208940271 118 123 119
-1147.00802237627 105.2097227844 2669.52174030849 115 120 116
-1147.09292788863 104.878637316209 2677.42151759377 110 115 111
-1142.03263133844 104.283721998466 2685.53413064143 106 111 107
-1137.99132188852 103.742712192861 2693.56682678799 103 108 104
-1137.03042557061 103.360714074271 2701.44792365116 103 108 104
-1136.06492051859 102.979248978802 2709.31224571075 100 105 101
-1140.25103503134 102.861015932686 2716.98718151615 108 113 109
-1144.43993361714 102.742525798068 2724.67136270439 106 111 107
-1146.56590318203 102.518915743479 2732.42349533772 115 120 116
-1143.52435063285 102.033761295754 2740.30796569683 119 124 120
-1139.44158152251 101.497113259014 2748.18948404264 121 126 122
-1137.41924409373 101.065686398715 2755.99570078482 118 123 119
-1134.35565853712 100.582769600245 2763.79885061778 111 116 112
-1134.39328223383 100.256603729465 2771.5261857648 111 116 112
-1131.31705359682 99.7749469840144 2779.28318984975 98 103 99
-1119.93177928137 98.8789571353917 2787.10209777017 126 131 127
-1093.99016066587 97.2596514870944 2794.97169001027 130 135 131
-1076.32261323336 96.0581968824608 2802.65267503404 121 126 122
-1070.0658119118 95.4276539685735 2810.19765638189 127 132 128
-1062.75718257927 94.746671433665 2817.70095290324 121 126 122
-1060.64143434197 94.3244305409156 2825.16615316048 125 130 126
-1060.60403028723 94.0055627479478 2832.61860357315 128 133 129
-1061.60599551509 93.738200008605 2840.06715465403 129 134 130
-1063.64989933779 93.5221749759974 2847.51938205689 132 137 133
-1061.51726472812 93.1012587832773 2854.92179384685 132 137 133
-1066.69246957251 93.0386559680794 2862.40690080594 133 138 134
-1079.19047015796 93.3327811770894 2870.02923178735 142 147 143
-1103.21134660077 94.1859544101252 2877.9234557438 137 142 138
-1389.34613370769 116.982621555483 2466.17630819748 126 128 125
-1390.68664953112 116.680551761045 2474.85991906796 127 129 126
-1395.06478598398 116.534427565492 2483.22925666755 110 115 111
-1396.40396768626 116.232981337049 2491.90737887211 108 113 109
-1397.74104462719 115.9319158137 2500.57885589008 89 94 90
-1396.03077818447 115.476447815442 2509.52762370078 99 104 100
-1390.25060660778 114.815713627249 2518.82224766186 79 84 80
-1361.07503732005 112.973014640085 2530.13091561574 137 142 138
-1301.33357189263 109.593894798852 2543.88142996896 150 155 151
-1277.13749048525 108.019785755661 2554.36407413293 151 156 152
-1245.77212554607 106.091181407156 2565.28086464185 135 140 136
-1220.47632008404 104.474706743976 2575.55002188064 126 131 127
-1198.20200048152 103.015653990734 2585.44779072064 122 127 123
-1192.22853671527 102.376408513879 2594.03832551353 121 126 122
-1179.09130548317 101.382080400466 2603.08404493536 128 133 129
-1170.02195711263 100.593577215126 2611.77582364125 125 130 126
-1159.91325541803 99.7560368113498 2620.47497703685 124 129 125
-1149.78721846285 98.9205373373107 2629.11012752119 126 131 127
-1145.79068808936 98.3906315942138 2637.3170191483 126 131 127
-1145.8861273143 98.0639600730742 2645.25869277892 127 132 128
-1148.03037965856 97.838611005292 2653.07760786684 125 130 126
-1150.17425130699 97.6134214996742 2660.89521024498 128 133 129
-1147.18095062119 97.1367019708053 2668.9632266594 122 127 123
-1144.17990989484 96.6608127128366 2677.00395903233 118 123 119
-1140.14262000398 96.1355632451315 2685.06245828865 124 128 127
-1139.18532520821 95.7615896232677 2692.96106412229 113 117 116
-1136.1625571437 95.2880688245014 2700.92262246827 112 116 115
-1135.1943340735 94.9152942087113 2708.782339773 116 120 119
-1137.31657560782 94.6925485674441 2716.52117670481 124 128 127
-1139.43847685252 94.4699000487646 2724.25881152612 124 128 127
-1140.52703306655 94.1975554427649 2732.024783655 124 128 127
-1138.51242730188 93.7763904282155 2739.86525632034 125 129 128
-1135.45712410559 93.3062569983934 2747.70815670612 117 121 120
-1134.46495203839 92.9358767221692 2755.48046773952 119 123 122
-1132.43238168507 92.5165005700582 2763.25537080229 114 118 117
-1133.50380730326 92.245761721471 2770.95875417747 109 114 110
-1129.38658303782 91.72877503476 2778.72568945505 89 94 90
-1115.91763095284 90.7698371256601 2786.56213788797 127 132 128
-1093.07802104253 89.3709711817723 2794.39816438721 136 141 137
-1075.40141699599 88.2208785499818 2802.07795123893 125 130 126
-1070.18034039666 87.6613393858525 2809.61595412764 128 133 129
-1063.90825153739 87.0537719561515 2817.11775233966 131 136 132
-1062.83266203739 86.6915085132497 2824.58547533808 132 137 133
-1061.75265257505 86.3295540786876 2832.03698297433 128 133 129
-1062.75413352348 86.0653089676238 2839.48570432789 127 132 128
-1061.66685983644 85.7039129820176 2846.90966487451 129 134 130
-1060.57495037801 85.3428149438903 2854.31753084149 129 134 130
-1065.74989522709 85.2727614502752 2861.79696852063 134 139 135
-1079.29627896727 85.5890797001961 2869.42943181797 133 138 134
-1111.69786752821 86.7729340551105 2877.47595092398 142 147 143
-1389.320650081 108.486062375502 2456.82108943625 150 152 149
-1392.68669927542 108.285321316228 2465.29551258723 129 131 128
-1389.97735827434 107.789364417434 2474.40567018813 116 118 115
-1391.3142671322 107.491069374561 2483.07734326042 105 110 106
-1389.60648303747 107.045907276811 2492.04276317129 104 109 105
-1390.93753059039 106.748636721504 2500.69332117492 92 97 93
-1386.17289258307 106.158172734756 2509.90646678213 92 97 93
-1383.43031260321 105.666775032775 2518.89702203022 65 70 66
-1348.13430813066 103.615549384498 2530.72891222626 147 152 148
-1298.53603454256 100.888394411467 2543.58473544423 140 145 141
-1278.40048901953 99.5791814002304 2553.72438443095 135 140 136
-1255.17538536483 98.1278352220908 2563.99326434614 141 146 142
-1222.73492141872 96.2442483530691 2574.84316502012 137 142 138
-1198.41042890691 94.7531550418477 2584.90145570846 132 137 133
-1191.4113783028 94.0875998360272 2593.56482640316 132 137 133
-1180.3108759417 93.2305072007663 2602.46559444052 131 136 132
-1171.23704402408 92.4719256551816 2611.15961757178 126 131 127
-1160.0999735692 91.6189467698418 2619.92721265046 124 129 125
-1153.04077646309 90.9601167418444 2628.37151709681 125 130 126
-1146.99343183821 90.3507606383582 2636.70661732744 125 130 126
-1149.13938119971 90.1256774332164 2644.53200095952 118 123 119
-1149.23216179233 89.805032269306 2652.4676083359 119 124 120
-1150.34893729959 89.5326299960131 2660.33831676161 120 125 121
-1143.2414810675 88.8792369610138 2668.60687716449 116 121 117
-1141.26346911084 88.465133020028 2676.58767345897 115 120 116
-1135.16255963506 87.8617408935364 2684.72766323952 118 122 121
-1136.25914646944 87.5915797544599 2692.52575903697 116 120 119
-1135.29283873806 87.2269019810712 2700.39769954178 118 122 121
-1135.35346351758 86.9100118178281 2708.21536037483 120 124 123
-1137.47492408539 86.6878186304004 2715.95164652148 119 123 122
-1136.49765577503 86.324350736326 2723.78365639922 117 121 120
-1133.44871305396 85.867201204624 2731.65836933644 122 126 125
-1132.46088064379 85.5047818022781 2739.45181874486 122 126 125
-1133.53841562548 85.2366290598091 2747.17951772132 116 120 119
-1135.64980579665 85.0153983816721 2754.87902213702 119 123 122
-1135.68835537639 84.700714727185 2762.61611515398 113 117 116
-1135.72349838918 84.3863023893325 2770.34166057318 105 110 106
-1127.45345999688 83.6993155145175 2778.16889226759 89 94 90
-1107.74560303933 82.502025576721 2786.0698780358 125 130 126
-1082.81143380799 81.0755522512923 2793.90535623408 133 138 134
-1070.31880668647 80.2093845636634 2801.52895777884 127 132 128
-1063.00952697548 79.5767699546305 2809.06037654879 128 133 129
-1059.85226892869 79.1303568731604 2816.53971434344 124 129 125
-1060.85612479589 78.8691946788551 2823.99827067468 127 132 128
-1062.9010330538 78.6541221566088 2831.45482871378 130 135 131
-1060.77190137516 78.25498312816 2838.8839951616 132 137 133
-1058.63667491444 77.8562530226704 2846.29172007313 136 141 137
-1058.58573301203 77.5497532653066 2853.70171564096 137 142 138
-1064.80526330517 77.5180733794933 2861.18740104356 139 144 140
-1084.63264831329 78.0797242477722 2868.91510082732 139 144 140
-1131.7071193841 79.8249276574829 2877.2413618222 144 149 145
-1391.64918825074 99.7347809167716 2456.0450739175 151 153 150
-1391.97909497286 99.3918881609069 2464.84610914984 123 125 122
-1392.30547201362 99.0495697924508 2473.63533102772 109 111 108
-1396.68422795123 98.8937558455967 2482.00085105109 100 105 101
-1398.02137108969 98.5987481376647 2490.67639843502 99 104 100
-1395.29569538315 98.1188043127708 2499.73601829265 93 98 94
-1386.46618714878 97.3624084030138 2509.3385472697 87 92 88
-1376.60360853751 96.5617075449404 2518.97476599546 86 91 87
-1342.30429183637 94.6567860450014 2530.70321093716 162 167 163
-1293.69852981793 92.1133020622148 2543.46367494997 157 162 158
-1271.51188280243 90.7720332184337 2553.7613175166 153 158 154
-1242.15343067002 89.1135672164149 2564.50636335185 162 167 163
-1213.7704777299 87.5057108223644 2575.00887836817 154 159 155
-1194.53366720618 86.3140190624734 2584.66230161909 144 149 145
-1188.54905038595 85.7190345529692 2593.24030038865 136 141 137
-1179.48539322062 84.9887082247932 2601.98993924609 123 128 124
-1172.45184050893 84.3511741804514 2610.54290147197 116 121 117
-1165.4050499981 83.7151422705083 2619.04766271321 115 120 116
-1155.27137671994 82.9445600244093 2627.69544636626 113 118 114
-1149.2212180208 82.3570113446111 2636.03479557891 109 114 110
-1146.23765208268 81.9063161492737 2644.15538560531 113 118 114
-1151.46059804626 81.8174825824955 2651.80118525959 117 122 118
-1151.54998071379 81.5030359283101 2659.72809022061 108 113 109
-1147.52342551998 81.0091251861419 2667.84623093385 103 108 104
-1141.43031457766 80.4263779856977 2676.02820926618 110 115 111
-1136.35495607462 79.8897579589072 2684.12170482989 112 116 115
-1136.42081904748 79.5779448253039 2691.96294844138 112 116 115
-1136.4834893667 79.2665298212408 2699.79258971376 110 114 113
-1132.41623642275 78.7770731654522 2707.76151071172 108 112 111
-1133.50212463528 78.511124344785 2715.52254406048 108 112 111
-1131.48692886959 78.1120365633585 2723.37476457693 109 113 112
-1130.49953952823 77.757913161994 2731.1750966737 116 120 119
-1130.54234862484 77.4486290454092 2738.93141342756 112 116 115
-1128.51105586181 77.0510781099021 2746.72576825436 111 115 114
-1131.65432570488 76.8749544046067 2754.38766842337 114 118 117
-1132.72486936254 76.6104914263835 2762.0926685305 105 109 108
-1134.83136543204 76.3901444907258 2769.77456005464 89 94 90
-1125.51777917404 75.686557470757 2777.61314297513 87 92 88
-1103.72143825634 74.4583869009996 2785.53407050768 118 123 119
-1078.7732549007 73.1022186229029 2793.3619039355 124 129 125
-1067.31191154257 72.318024021631 2800.96896407622 131 136 132
-1059.99591355302 71.7101812152068 2808.49200783646 127 132 128
-1058.91732748996 71.3649588279941 2815.95936401401 122 127 123
-1058.87695969534 71.0635326593175 2823.41182236988 122 127 123
-1061.96279663432 70.8924845265427 2830.86461889586 121 126 122
-1058.7868343983 70.4612392539593 2838.28315883983 119 124 120
-1056.64784249891 70.0738336057497 2845.68405308507 118 123 119
-1059.72987365954 69.9028284025447 2853.12181758292 124 129 125
-1068.043125391 69.947029977163 2860.63541811838 122 127 123
-1095.20577080771 70.764666835296 2868.48301754538 136 141 137
-1379.80843083186 90.3629549147413 2456.82166311557 160 162 159
-1382.15362208336 90.114770623364 2465.37220801835 126 128 125
-1382.47140963936 89.7791427987087 2474.13283385942 116 118 115
-1392.92846929635 89.8820459644115 2481.85039339047 99 104 100
-1391.21675281527 89.4593259172054 2490.81445283492 92 97 93
-1391.53013502338 89.1248358863283 2499.56036984862 78 83 79
-1385.74184793635 88.5294209448589 2508.86610166325 67 72 68
-1376.89019018212 87.8050187160521 2518.40659294955 131 136 132
-1336.46838651773 85.7365696726196 2530.67998139192 177 182 178
-1286.818712075 83.2846303791957 2543.51964910581 150 155 151
-1253.40464899099 81.532842609744 2554.73429843695 147 152 148
-1227.07991138768 80.0887860364535 2565.1893374629 145 150 146
-1207.859991338 78.9510297961917 2574.939523797 133 138 134
-1193.71675238845 78.0317386975249 2584.19382856325 124 129 125
-1179.55019450783 77.1150867833253 2593.36322095172 124 129 125
-1171.49768499618 76.4583106966199 2602.01716825551 117 122 118
-1165.47776799643 75.8888184156785 2610.47926981323 115 120 116
-1164.56742140578 75.5344207114233 2618.56547336295 121 126 122
-1157.50224357342 74.9245462074531 2627.01848049996 120 125 121
-1153.50107341798 74.443960799033 2635.23928380344 117 122 118
-1152.57035054054 74.0919197141294 2643.25132204005 117 122 118
-1152.66228233876 73.7829042504257 2651.19019137056 121 126 122
-1150.69492327398 73.3895412255832 2659.22456351582 111 116 112
-1144.60741256163 72.8277220791625 2667.44054728214 108 113 109
-1139.53738664414 72.3093749234346 2675.56537822504 114 119 115
-1136.51690780331 71.8764302058982 2683.56105362334 118 122 121
-1136.58143278643 71.5705267108694 2691.40013155508 115 119 118
-1137.6738786114 71.3069677381029 2699.18702085843 112 116 115
-1134.63625580578 70.8759262931989 2707.11931667978 110 114 113
-1132.62398484013 70.487504742317 2714.98913050511 112 116 115
-1129.57193617501 70.057922400682 2722.86971616149 114 118 117
-1129.61560632324 69.7542575722982 2730.63277755564 118 122 121
-1130.69083632015 69.4924586304638 2738.356859055 114 118 117
-1129.69305321128 69.1477401483438 2746.12453890381 115 119 118
-1130.76370719864 68.8863620491408 2753.83096725207 116 120 119
-1130.79532530332 68.5837373643672 2761.55086748537 106 110 109
-1131.86182574929 68.3227529933804 2769.24212312793 100 105 101
-1123.57943702972 67.6905706447414 2777.05810118653 100 105 101
-1102.81094394652 66.5656748416719 2784.96410817282 124 129 125
-1074.73110501954 65.1563283010795 2792.8201054338 126 131 127
-1063.26099191365 64.4076633860548 2800.41703680381 131 136 132
-1056.97912661185 63.86562904432 2807.92484018439 125 130 126
-1055.89651188548 63.5290465370599 2815.38269349256 129 134 130
-1054.8094008041 63.1928685229256 2822.82410809165 130 135 131
-1057.89232596063 63.0199402831817 2830.26397771644 131 136 132
-1056.79915534574 62.6841453691941 2837.6831363246 131 136 132
-1057.79142816161 62.4297745999193 2845.10390382923 129 134 130
-1060.87385583443 62.2564417654896 2852.54167095462 132 137 133
-1071.28219042639 62.3658178410871 2860.08241052551 128 133 129
-1105.78591823053 63.4020639410678 2868.04699871766 139 144 140
-1211.58652528295 67.1726220390258 2877.48086062278 149 154 150
-1375.04490155283 81.3513678774133 2456.82501956409 157 159 156
-1379.41202101579 81.1866101915816 2465.14261805169 120 122 119
-1382.76768739822 80.9806578865161 2473.57520174893 112 114 111
-1394.24196251955 81.103762588941 2481.18498771621 100 105 101
-1396.59006609415 80.8564256839497 2489.74688049928 90 95 91
-1393.85725527311 80.4045439260104 2498.79772599522 94 99 95
-1390.09988436849 79.9127163533764 2507.91661041969 84 89 85
-1373.1052814156 78.8915614949505 2518.20993822368 164 169 165
-1331.64477905245 76.8956626876762 2530.56896678232 154 159 155
-1280.95136561544 74.5405119045873 2543.49086376044 133 138 134
-1239.36043798582 72.5587154021692 2555.37455232435 134 139 135
-1216.07513039798 71.3128245804806 2565.54869156929 128 133 129
-1208.0702174427 70.6773979509674 2574.39376351035 128 133 129
-1199.02906767923 70.0033613692092 2583.26250633862 133 138 134
-1186.90410645082 69.2102400950487 2592.29636794285 131 136 132
-1174.75869885848 68.4194257786148 2601.25577269756 124 129 125
-1167.71277064545 67.8315001963906 2609.79410729844 118 123 119
-1165.77723240704 67.4453819197687 2617.95026886761 115 120 116
-1159.73368311284 66.9001047936732 2626.34084555142 111 116 112
-1156.7570450126 66.4758452145994 2634.50384734625 107 112 108
-1153.77264224892 66.0524765205805 2642.63951194825 115 120 116
-1153.86370335157 65.749251747093 2650.5788044954 116 121 117
-1150.86645295238 65.3273689462983 2658.66770646 114 119 115
-1148.89088375408 64.9459093333502 2666.6781821573 116 121 117
-1141.76061066093 64.3674209426623 2674.90931889813 115 120 116
-1139.76934588285 63.9877188355241 2682.86262958112 112 116 115
-1135.70970074929 63.5298687586839 2690.88068064978 109 113 112
-1139.89607121239 63.3875535441025 2698.54043350571 109 113 112
-1136.85682956738 62.9702672918655 2706.47633222477 111 115 114
-1132.77696977192 62.5145240760711 2714.42066037752 110 114 113
-1127.65431624964 62.0206621625853 2722.36555403872 108 112 111
-1129.76425875166 61.8010141912995 2730.06068278082 106 110 109
-1131.87389000674 61.5813733340801 2737.75466041546 106 110 109
-1133.98327756798 61.3617028948738 2745.44771458617 112 116 115
-1132.98181997298 61.0256410967416 2753.20721716523 111 115 114
-1129.90088055138 60.6125491073696 2760.99001922785 104 108 107
-1129.92706847214 60.3161269076245 2768.6936741769 103 108 104
-1121.63848533371 59.7113201658395 2776.50393709737 104 109 105
-1102.93847967353 58.7229617750889 2784.38246525611 131 136 132
-1073.80573389196 57.3531706238896 2792.25144833902 130 135 131
-1061.28791728504 56.6014125058046 2799.85282945178 132 137 133
-1056.04268851258 56.1196763252675 2807.35028078616 129 134 130
-1052.87221477722 55.7152570640097 2814.80706401904 130 135 131
-1052.82426586676 55.4258783496562 2822.23991033211 130 135 131
-1053.81737819804 55.1747969574066 2829.66494251086 133 138 134
-1056.89811150927 54.9996311234687 2837.09619056635 132 137 133
-1059.98035233911 54.8242403081381 2844.53196467894 128 133 129
-1066.20197785858 54.7620196246691 2852.00614738543 129 134 130
-1076.61635652 54.8500740703668 2859.55586604073 126 131 127
-1115.32538645133 55.9542709934543 2867.59060684718 132 137 133
-1225.3641340048 59.610483831481 2877.10145160913 151 156 152
-695.136336761375 47.4071055779261 2510.06143460856 118 120 115
-1364.1983890486 72.1410611654581 2457.49869970341 141 143 140
-1375.65333626218 72.2424281829678 2465.02300090111 122 124 121
-1381.03454714727 72.1116351486233 2473.22991617867 120 122 119
-1387.43459585142 72.0191319445857 2481.34743040169 105 110 106
-1389.77683812107 71.772819527161 2489.8882081161 90 95 91
-1393.13507720929 71.5651255159404 2498.32924414362 89 94 90
-1392.42544641018 71.2046417639349 2507.15682367616 83 88 84
-1376.44199202664 70.2728144040168 2517.36349523785 147 152 148
-1343.11478822531 68.6969238136217 2529.01261735463 140 145 141
-1296.48505683643 66.6326755523231 2541.61961938124 135 140 136
-1252.84678358797 64.6895641677165 2553.71897945793 139 144 140
-1227.51820015497 63.4344544266926 2564.09458540897 133 138 134
-1221.55950174486 62.9010262701883 2572.80767761419 134 139 135
-1210.47785898464 62.1805939586584 2581.86474782741 131 136 132
-1194.26253857759 61.274196669103 2591.22660150348 134 139 135
-1178.02085126949 60.3706972903179 2600.49331865535 127 132 128
-1165.85078827729 59.6198782861297 2609.38643368909 120 125 121
-1163.91141704711 59.245121162841 2617.53553694845 117 122 118
-1159.91420106977 58.7965142648565 2625.79121089765 115 120 116
-1157.96119114151 58.4234500579191 2633.89074516294 112 117 113
-1156.00212483199 58.051057418529 2641.96821726425 114 119 115
-1153.0088623596 57.6422596137459 2650.08018680091 113 118 114
-1148.97948878303 57.1973141363533 2658.21877751614 111 116 112
-1143.91189355502 56.716436198486 2666.37628923531 114 119 115
-1138.83397792103 56.2366363343339 2674.49616394911 108 113 109
-1136.83816990105 55.868377524503 2682.43983116421 112 116 115
-1135.8678034501 55.5375003723178 2690.31804238148 104 108 107
-1139.02180679862 55.3536294269859 2698.01583177323 103 107 106
-1138.04510428614 55.0234273055713 2705.87094461499 106 110 109
-1132.92915207988 54.5477088458311 2713.85217377599 109 113 112
-1128.83724114553 54.1095051118968 2721.76283192264 108 112 111
-1128.87708839802 53.8175468675585 2729.51909057851 113 117 116
-1129.94925507215 53.5621965689951 2737.23586989657 115 119 118
-1133.09312225706 53.3794184090825 2744.89578660449 122 126 125
-1131.05159760533 53.0157755054764 2752.67356019017 121 125 124
-1129.00431571786 52.6527767088036 2760.42943592083 116 120 119
-1126.95107846468 52.2902933807372 2768.16352598575 114 119 115
-1116.57677301983 51.6410869866469 2775.99544894786 112 117 113
-1095.7844540566 50.6353531889383 2783.8872987408 136 141 137
-1068.71539048752 49.4182738694927 2791.72210289547 127 132 128
-1057.22913123946 48.7404782954903 2799.30382999602 127 132 128
-1051.97752318899 48.2781673391583 2806.78986039106 127 132 128
-1046.71573425854 47.8168316700684 2814.23870691946 127 132 128
-1047.70576942352 47.5691966696152 2821.65449005416 127 132 128
-1051.8270811843 47.4276977800434 2829.07413710693 130 134 133
-1058.04130510158 47.3564261920706 2836.51512484785 130 135 131
-1059.03228348619 47.1081910891947 2843.93403109898 125 130 126
-1065.25403984627 47.0358172710049 2851.40228943324 128 132 131
-1078.81212173701 47.2082222451662 2858.98639733998 128 133 129
-1121.7274888712 48.3592521950449 2867.0818011228 127 132 128
-1237.05406012239 51.9148729799998 2876.67925938907 165 169 168
-1280.1294065001 53.0486425087256 2885.35773742167 157 162 158
-1372.90411628532 63.3620480919192 2464.79621844585 122 124 123
-1379.29846788894 63.2597840887466 2472.88548897113 118 120 119
-1382.65136151832 63.0499932859704 2481.30535455322 103 108 104
-1384.98915414372 62.8045998568968 2489.83019181176 91 97 93
-1386.30971501478 62.5238502334487 2498.4522452725 78 84 80
-1386.61059150851 62.2079631702734 2507.16347595968 75 81 77
-1368.57798502897 61.2544257706852 2517.54191062034 129 134 130
-1340.32565579859 59.9502748270283 2528.72114959157 148 153 149
-1305.91120901415 58.4390026421008 2540.27066866858 127 132 128
-1266.34219934926 56.7572001457942 2552.05810209242 133 138 134
-1238.96902599894 55.5035729686222 2562.63612319088 131 133 130
-1218.7072074551 54.5000778114483 2572.49995944872 142 144 141
-1204.54942063655 53.7101329798201 2581.7819132903 130 132 129
-1188.32180680811 52.852901411462 2591.1291645647 126 131 127
-1174.1160670625 52.0682137434091 2600.23639768449 124 129 123
-1167.06056836216 51.5296010926153 2608.7703325451 122 127 121
-1166.14492829232 51.2007129219866 2616.8529878282 119 124 118
-1162.14592728829 50.7685159451005 2625.11239468823 118 123 117
-1158.13799291608 50.337352156869 2633.33928600433 117 122 116
-1156.17652547858 49.9761839518083 2641.41492970827 123 128 122
-1154.20899724005 49.6157167086619 2649.46851339655 123 128 122
-1148.11914771834 49.1185487046404 2657.71663096885 124 129 123
-1145.10667608859 48.7254898713295 2665.76721743177 124 129 123
-1138.99543762257 48.2307089559672 2673.93742912881 123 128 122
-1139.05953819677 47.9418596122685 2681.78662743426 130 135 131
-1137.05678092402 47.5852646005246 2689.71185734736 129 134 130
-1138.14569934989 47.33124067952 2697.49167004173 128 133 129
-1134.06642924833 46.907987763415 2705.4577712642 126 131 127
-1131.01207875187 46.5193969486657 2713.35569057608 125 130 126
-1130.01996084703 46.1990938729025 2721.15981882652 132 137 133
-1129.02324304763 45.8792650315284 2728.94716797677 128 133 129
-1126.98584009584 45.5262726008633 2736.74603975505 126 131 127
-1130.12698826983 45.3414622320825 2744.39550730057 121 126 122
-1128.08116333215 44.9892994301678 2752.16363368006 117 122 118
-1128.10624045733 44.7043928163864 2759.86950577846 109 114 110
-1123.97170607325 44.2865423248375 2767.63476138197 108 113 109
-1109.43063867386 43.5371998744766 2775.51930376584 115 119 118
-1083.42119838849 42.4254752256691 2783.4575475093 135 139 138
-1061.53780867339 41.4499911438603 2791.21481293839 129 133 132
-1056.29213549926 41.0059700502462 2798.73442562789 141 145 144
-1051.03604985275 40.5629150084351 2806.21691778532 131 135 134
-1046.8135289701 40.1536591561517 2813.65999394732 142 146 145
-1046.75823937573 39.8762783428272 2821.07316058641 143 147 146
-1047.74483562517 39.6318138571009 2828.47817739879 140 144 145
-1052.91167988571 39.5179571639583 2835.89988413331 138 142 141
-1057.03631253967 39.370875220938 2843.32833616386 128 132 131
-1067.44534937942 39.418338289103 2850.83166538896 131 135 136
-1086.24645900943 39.7237115298451 2858.48352594483 134 138 137
-1141.76145871668 41.1584607297619 2866.77938981351 134 138 137
-1234.06534132545 43.7146995775104 2875.99178262671 153 157 158
-1272.95448020248 44.6161885061578 2884.56725343235 158 162 161
-1351.59932183317 54.2165310074932 2457.85367337826 140 142 141
-1355.94935121708 54.0390843473593 2466.0988795753 130 132 131
-1367.40798296812 54.0936676975859 2473.60732398006 122 124 123
-1373.79952665819 53.9818143698118 2481.68104409764 94 98 97
-1379.17987409978 53.8366507150329 2489.87568072125 87 93 91
-1385.58132024606 53.7242297826852 2497.98580836207 79 85 83
-1389.9521968708 53.5457295452978 2506.30775110486 78 82 81
-1380.06279487945 52.9082593925228 2515.94743519967 94 98 97
-1343.64962610611 51.4224453416942 2527.88573399489 148 152 151
-1305.14139711132 49.8772885774797 2539.8006596944 132 136 135
-1276.78450649957 48.6639085101038 2550.64899072949 139 143 142
-1249.40580034118 47.4877145151382 2561.25628587606 154 156 155
-1218.91846011638 46.2187958623174 2571.95225166782 169 171 170
-1195.5460091841 45.181144085276 2581.93524500832 136 138 135
-1177.25630968662 44.3086951027591 2591.41033866374 125 130 126
-1169.18239192211 43.7612917016921 2600.05385350854 123 128 124
-1166.21961234046 43.3760608376576 2608.2938789767 122 127 123
-1168.3789806568 43.151880735152 2616.16965472979 123 128 124
-1161.29856653974 42.6402454006034 2624.6271865741 124 129 125
-1158.31398133152 42.2575942326024 2632.78788070959 124 129 125
-1153.26594613234 41.8121755357375 2641.0404020906 124 129 125
-1151.29387907168 41.463122195532 2649.08434016267 126 131 127
-1143.13884506714 40.9247248112512 2657.43237223413 129 134 130
-1139.08988324689 40.5143362269866 2665.52005305301 129 134 130
-1136.06288316678 40.136417251606 2673.52625674097 128 133 129
-1136.12351689665 39.85360822636 2681.36546785123 131 136 132
-1137.21299274327 39.6025814558054 2689.14924238348 126 131 127
-1133.13585630211 39.1952563618626 2697.13332146192 123 128 124
-1130.08332257587 38.8200594146243 2705.04644227231 117 122 118
-1130.12700689861 38.539095140187 2712.82388823504 116 121 117
