ply
format ascii 1.0
comment KinectMotionCapture
element vertex 759
property float x
property float y
property float z
property uchar red
property uchar green
property uchar blue
end_header
-617.083676419135 101.65836039303 2371.19656711824 150 154 157
-626.428503170781 100.593040866326 2375.07186922644 151 155 156
-635.902333578342 99.4237610955937 2379.93927358358 151 155 154
-644.885391867022 98.5712751630942 2381.84378757113 149 153 152
-654.903973347093 96.9850926163625 2390.67529677508 144 148 147
-663.836360222329 96.1349687719338 2392.58612803498 141 145 144
-674.200615698261 94.2398623597554 2404.39861427118 145 149 148
-683.074044928606 93.3926284838983 2406.31679548598 157 161 160
-692.767657704888 91.9207104194434 2414.18063058459 156 160 159
-700.636267730581 91.804052554893 2409.16799312495 154 158 159
-709.19650020074 91.1661697827529 2409.10933392876 157 161 162
-716.964034303194 91.1504388393349 2403.1011169924 169 173 174
-725.144384671866 90.8219844600322 2400.06550813592 170 174 175
-733.084054195387 90.6990976151545 2395.04401927485 169 173 174
-740.676134478799 90.8840024817374 2387.04179537418 178 182 183
-748.185789486489 91.1690666753963 2378.04190679642 180 184 185
-755.38568086741 91.7594506457709 2366.05632900715 178 182 183
-762.99012925931 92.037609985014 2357.04462895914 177 181 182
-770.750130499897 92.2100853792894 2349.02148224833 178 182 183
-778.767084023381 92.1750608222838 2342.98219005183 180 184 185
-786.704151451372 92.2400338320006 2335.94491672953 181 185 186
-794.673603663551 92.3025580547344 2328.90384869516 187 191 192
-802.573870635105 92.4643334083515 2320.8629855598 188 192 193
-810.610612138957 92.521615361932 2313.81353402497 187 191 192
-818.487529966182 92.77936849865 2304.76764487252 188 192 193
-826.500809780203 92.932603040142 2296.71294116322 193 197 198
-834.370473146475 93.2852787751605 2286.66002025113 182 186 187
-842.376446848947 93.5334392053923 2277.59829121921 167 171 172
-850.254950414651 93.9799226331833 2266.53633296509 159 163 164
-858.599603136964 93.9196023141997 2260.45621246139 158 162 163
-866.731577941327 94.1583621406526 2251.37878399302 143 147 148
-875.137558023712 94.0932390839686 2245.2910228452 144 148 149
-882.975204365661 94.8264507174279 2231.21010667921 168 172 171
-888.374797956927 99.050902162699 2182.15279990297 194 198 197
-898.030706996399 110.334989276432 2054.94806581205 107 111 110
-906.700774673283 110.726954557094 2043.78746860813 116 120 119
-915.54586017318 110.916609720726 2034.62093718746 120 124 123
-436.353343121459 108.298649412356 2350.39948856638 159 161 150
-448.196721918931 106.170530240747 2364.04337678373 137 138 130
-457.44129719109 105.317807778325 2365.9152556207 132 137 133
-466.256188903388 104.677226323533 2365.82458329476 126 131 127
-475.475720738881 103.825382605453 2367.69958509043 120 125 121
-483.872824967591 103.395738897403 2365.64512047908 104 108 107
-491.280824983349 103.491490150372 2358.67379058861 98 102 101
-497.936677286981 104.005053764007 2347.76423533047 104 109 105
-504.841168213672 104.409959583109 2337.83162468673 106 111 107
-511.604254304843 104.916094567101 2326.9087068489 125 130 124
-518.234022568211 105.522943527176 2314.99447396295 150 155 148
-572.181041240188 101.31114309575 2317.34320128065 140 145 139
-584.786574572631 98.3869164557725 2338.95629123029 121 125 124
-596.601720272245 95.8828760528032 2356.63568140803 133 137 140
-607.495058839088 93.9000081305705 2369.39029968613 138 142 145
-616.539909585587 93.0529023258485 2371.28708817188 148 152 155
-625.569036276755 92.2064399005438 2373.18583723246 150 154 155
-634.738124977163 91.2580638381651 2376.07507534586 148 152 151
-644.345209070327 90.0035422253665 2381.93376201037 147 151 150
-654.516271861361 88.3422700041015 2391.75412729235 147 151 150
-663.742188744018 87.2963532164719 2395.64445782153 141 145 144
-673.521162056505 85.844351770441 2403.49782824891 143 147 146
-682.113721929567 85.2083487179973 2403.43488956503 153 157 156
-691.677876291505 83.8618327781006 2410.30686296818 156 160 159
-699.55704461063 83.7334536840953 2405.29293876339 156 160 161
-708.396909142719 82.8952559853617 2407.21528485765 155 159 160
-716.038017477889 82.9664520442495 2400.21492909226 164 168 169
-724.355284192063 82.5311444494879 2398.17044264637 168 172 173
-731.922129628681 82.6989041522788 2390.17141305658 169 173 174
-739.280398486709 83.0647190789783 2380.1822765542 177 181 182
-746.928632940062 83.226427862494 2372.17310603116 180 184 185
-754.261209817939 83.6856823257317 2361.17924256813 176 180 181
-761.993406133377 83.841176284957 2353.1596104676 176 180 181
-770.100791663282 83.6946128871877 2348.11701372308 180 184 185
-778.449265146701 83.3469401920479 2345.0607149753 182 186 187
-786.808432012359 82.9982552911412 2342.0028441535 183 187 188
-795.178308835228 82.6484426919376 2338.94388003086 191 195 196
-802.949131955761 82.8919921809107 2329.91126827538 191 195 196
-811.158706911889 82.7367712351551 2324.85618196269 188 192 193
-818.523935429378 83.4682765280422 2310.83422524187 189 193 194
-826.333241329923 83.8006994754705 2300.78888991968 195 199 200
-834.009424793036 84.3263434277483 2288.74428445363 187 191 192
-842.009055526516 84.5531093413401 2279.68340332844 181 185 186
-849.795516348594 85.0708296561581 2267.62481649783 171 175 176
-857.723787519905 85.4864613657317 2256.55672878765 162 166 167
-865.945616879553 85.6051490037853 2248.47609030603 146 150 151
-874.513798837087 85.3309500649778 2244.38425238213 148 152 153
-882.650512962363 85.6393499531854 2234.29812171297 157 161 160
-888.680744137595 88.8592087302955 2194.23442507479 185 189 188
-890.981946408041 97.5935400740514 2097.17931786537 181 185 184
-897.653954295961 100.67856368619 2058.04381373813 102 106 105
-906.059845896845 101.430529052618 2042.88424743778 122 126 125
-914.784746640645 101.791377134409 2031.71664906857 129 133 132
-923.388212581655 102.437163909593 2017.5406336431 141 143 142
-432.993814153488 100.926068971161 2337.73725999697 168 170 159
-446.790344259927 97.9060418495312 2360.20965997567 147 148 140
-456.676745708387 96.7509705819382 2365.02554048841 125 130 126
-465.287543518051 96.2156119454067 2363.95237367619 122 127 123
-473.694606055955 95.7826736944636 2361.89643473404 116 121 117
-480.896285829958 95.9650666890039 2353.94293712385 106 110 109
-489.133121313252 95.6320906936188 2350.90053143526 108 112 111
-496.202269760443 95.9121290850197 2341.95538843853 133 138 134
-503.703363331991 95.9846900306276 2334.97250209351 123 128 124
-509.32634438514 97.074794235744 2318.14396190413 120 125 118
-561.165652860949 94.1009212990861 2308.6592527024 165 171 161
-573.003234066157 91.7380780211921 2325.32778412589 138 143 137
-584.405014509485 89.5821839307186 2340.03478171832 122 126 125
-595.72077438935 87.4312920663033 2354.75250099535 120 124 127
-606.458213611454 85.58637764275 2366.51828392745 127 131 134
-615.6734547474 84.6466773717334 2369.40173964235 142 146 149
-625.026233191856 83.6078780724383 2373.27621985496 146 150 151
-634.196392269782 82.6702435376647 2376.16529610415 149 153 152
-643.9583241074 81.3349870532512 2383.0125583962 150 154 153
-653.376271566454 80.2010096922495 2387.8868436473 142 146 145
-662.614281741193 79.1678495690498 2391.7756314109 149 153 152
-672.405985321177 77.7396401712328 2399.6271102519 152 156 155
-681.437232990295 76.808707595431 2402.53374444303 156 160 159
-690.586743087529 75.7799884873704 2406.4333245291 160 164 163
-699.161415976408 75.147006187535 2406.37261008006 161 165 166
-707.865208959699 74.4154312231726 2407.3039692138 160 164 165
-715.505691164791 74.4702435672727 2400.30373473168 163 167 168
-723.565435647144 74.2282558471676 2396.27526197173 167 171 172
-731.136909332753 74.3765200191278 2388.27570614461 171 175 176
-738.746384783958 74.5219452051676 2380.27141539818 178 182 183
-746.273101749911 74.7621162261487 2371.26951581347 182 186 187
-753.725121184453 75.096546910255 2361.26876244267 175 179 180
-761.802516934879 74.9412958483252 2356.23017139272 175 179 180
-770.35198773499 74.3960781289682 2355.16468379228 182 186 187
-778.571654308313 74.141125371877 2351.11628784379 184 188 189
-787.021826732631 73.6912866141838 2349.05501354957 188 192 193
-795.163825921366 73.5303074432601 2344.00837545722 188 192 193
-803.327307908064 73.3675416394628 2338.95906114373 188 192 193
-811.215021842151 73.4915088002146 2330.92010438851 185 189 190
-818.658586313569 74.0927465445374 2317.89640195691 187 191 192
-826.541484173591 74.3060163837595 2308.85012394564 197 201 202
-834.103614101072 74.8988348562527 2295.81164741793 202 206 207
-841.906869620658 75.2960932935723 2284.75920930736 196 200 201
-849.592822274089 75.8800978537782 2271.7053036466 178 182 183
-857.260544616569 76.5546777116795 2257.64574739587 178 182 183
-865.398787441773 76.74953061218 2248.56765234288 166 170 171
-873.812061955705 76.6568289830617 2242.47905352031 153 157 158
-882.326620627725 76.4674274427053 2237.3859970563 138 142 141
-888.990502220622 78.7316853460575 2206.31564582294 145 149 148
-891.520661969614 86.8296562040153 2113.26463056797 175 179 178
-897.477650333585 90.7550145076981 2064.13855187053 101 105 104
-905.673763304267 91.7518515876319 2045.98097801003 118 122 121
-914.450528573781 91.9923651730707 2035.81539178692 124 128 127
-922.866015304237 92.8842925511685 2018.63864502102 144 146 145
-433.727451259113 91.5664061470126 2343.71671762022 155 156 150
-445.382745815976 89.6186680464046 2356.37615578227 120 121 115
-455.281363293029 88.478913678488 2361.19047147035 127 132 128
-463.903269555356 87.9425487588052 2360.11592103892 130 135 131
-471.911646559806 87.7061327462608 2356.09384396364 129 134 130
-479.330818071104 87.768175799631 2349.12120870592 116 121 117
-487.581082348945 87.4286383397133 2346.07690419379 102 107 103
-495.056204127728 87.4864899569071 2339.09729771146 86 91 87
-501.98264400531 87.8402215585161 2329.16232300263 87 92 86
-507.42805326513 88.9847623215093 2311.34763173086 123 128 121
-561.133521999814 85.0114618574958 2311.71050077516 164 170 160
-572.96644584664 82.6979173387979 2328.3794835829 138 143 137
-584.363232966555 80.585938552023 2343.08698866319 130 134 133
-594.672254179216 79.0654317573538 2351.88207975083 121 125 128
-605.091924113447 77.4503731919617 2361.67129862907 126 130 133
-614.806403070064 76.2282772513834 2367.51649765768 137 141 144
-624.483507145996 75.0081766148512 2373.36659586463 140 144 145
-633.810865644552 73.9841629515066 2377.24396913002 145 149 148
-643.418425549933 72.7676540631989 2383.10249631082 148 152 151
-652.837795965009 71.6498304880224 2387.976561445 142 146 145
-662.373017054611 70.4371237478637 2393.84410606953 149 153 152
-672.015988873376 69.1299627763302 2400.70638014886 150 154 153
-681.188129168365 68.113806848871 2404.60310303535 152 156 155
-689.913864978492 67.3870451084946 2405.53171115856 157 161 160
-698.491813169434 66.7565117906746 2405.47058152189 163 167 168
-706.795665479546 66.3172511339662 2403.42777952457 166 170 171
-714.70986073362 66.1638566068308 2398.40955004262 169 173 174
-722.77490732016 65.9133491719207 2394.38043804778 169 173 174
-730.477319313079 65.9469266584436 2387.3725310155 176 180 181
-738.212320838417 65.9780398104582 2380.36056349199 179 183 184
-745.617138191358 66.2912004669252 2370.36575667578 181 185 186
-753.661769132141 66.12755546668 2365.33127658551 177 181 182
-761.728047945337 65.962053595179 2360.29409985875 177 181 182
-770.154280977308 65.5118586651195 2358.23581399713 184 188 189
-778.365741177105 65.2492194035755 2354.18870266642 187 191 192
-786.593299590666 64.9851340341877 2350.13934591333 191 195 196
-795.046271031082 64.5320412702038 2348.07773088776 191 195 196
-802.892797508626 64.6399989843468 2340.04395624392 190 194 195
-811.074745760583 64.4647394180375 2334.99237035158 186 190 191
-818.216249337943 65.3138636243756 2318.9824089703 188 192 193
-826.470781113722 65.1331439603237 2313.92177946227 195 199 200
-834.10887129033 65.6011938703772 2301.88207948503 196 200 201
-841.452562478908 66.4361535383183 2285.846923587 203 207 208
-849.305607740071 66.802558847232 2274.78835326165 192 196 197
-856.963408745295 67.4423256301613 2260.73012681414 181 185 186
-865.57428530868 67.0625280272006 2257.64116631309 180 184 185
-873.342182928264 67.6944449132186 2243.56922113142 179 183 184
-881.853738014717 67.4944250017054 2238.47656746024 147 151 150
-889.087562835981 68.9435234674668 2215.39921469783 131 135 134
-893.592419918536 74.1377837930097 2151.3345039745 147 151 150
-897.303088819701 80.8629448610463 2070.23274938669 105 109 108
-904.904213581116 82.6353110182056 2043.07796005648 114 118 117
-913.749334950668 82.7600160126679 2033.91159520345 120 124 123
-922.461094965164 83.1539933835978 2021.73810264532 148 150 149
-407.886905974889 90.8318321592007 2270.35365373477 0 4 0
-431.657684623675 83.5132500036901 2336.94192973523 142 143 138
-444.613389326181 81.0147184992179 2355.48689775177 154 155 150
-454.305647113635 79.9885132335332 2359.31897978342 135 140 134
-463.348742793332 79.2563150906005 2360.20799758769 135 140 136
-470.741865012978 79.3035940304881 2353.23865200833 124 129 125
-477.359135864239 79.737378045351 2342.33412158409 99 104 100
-484.63033887188 79.8761941138726 2334.37206264364 92 97 93
-492.137188004969 79.9153918859618 2327.3885458993 96 101 97
-499.483247254658 80.0488419603149 2319.41715947354 97 102 96
-506.485052254045 80.3725969631977 2309.47261831664 134 139 132
-504.663529998385 85.2230540746877 2253.2525979519 176 182 172
-562.329309599727 75.2683497668832 2321.66452347916 164 170 160
-573.793573033715 73.196087607315 2336.36350332205 147 152 146
-584.662271056386 71.4143857883406 2348.11249919494 148 152 151
-593.957073810928 70.4920153115655 2350.98622072155 131 135 138
-603.888438844248 69.1911447985794 2357.81224819824 130 134 137
-613.938765700032 67.7978829251702 2365.63160061906 134 138 141
-624.576867166146 66.0292315739281 2377.40957947974 139 143 144
-633.738346176102 65.1137097207028 2380.29968071713 147 151 150
-642.878578183214 64.1991233681573 2383.19243099125 149 153 152
-651.544944740845 63.5675285445081 2383.12051032931 147 151 150
-661.243464252097 62.2790430177819 2389.97556293516 143 147 146
-671.189924086172 60.8055522017961 2398.81577572449 139 143 142
-681.08250668741 59.335165202706 2407.66270390018 144 148 147
-689.800830873057 58.6142804837452 2408.59222147338 154 158 157
-698.645903210631 57.8005357276943 2410.51385326835 166 170 171
-706.532492664099 57.638296655486 2405.49885185017 169 173 174
-714.572878578198 57.3814470564747 2401.47283406332 166 170 171
-722.629698465417 57.1231648286931 2397.4450094553 167 171 172
-730.449835718339 57.0484216795092 2391.4303833633 177 181 182
-737.801988719987 57.3406901473622 2381.44220376561 178 182 183
-744.718625404397 57.9979018385084 2367.47642430308 177 181 182
-753.126214703978 57.5469262927491 2365.4207073935 179 183 184
-761.192209981223 57.370573045127 2360.38359462707 178 182 183
-769.844585426327 56.7344323122638 2360.313191676 175 179 180
-777.719737453548 56.7382226377218 2353.2838061521 177 181 182
-785.949897394449 56.4658194568698 2349.23414664845 184 188 189
-793.776844765541 56.5562717041007 2341.20286146137 187 191 192
-801.74365770696 56.5530581204998 2334.16205564182 188 192 193
-809.643338031168 56.6380706115807 2326.12170813759 185 189 190
-817.484011518315 56.8108811017994 2317.08080602669 182 186 187
-825.555691301725 56.7997625935531 2310.02693426256 182 186 187
-833.477013184441 56.9665992074118 2300.97598344067 195 199 200
-840.732704060186 57.8505629734789 2283.94399331269 196 200 201
-848.761610138165 58.0097669642469 2274.87939645075 199 203 204
-856.750254796883 58.2553981007632 2264.81214954366 203 207 208
-865.269898178477 57.9605219153103 2260.72642339987 188 192 193
-872.950118585597 58.6469739760976 2245.6573488326 187 191 192
-881.456015626239 58.4365346588759 2240.56542869121 180 184 183
-889.332040858663 59.0252521024869 2226.4801035869 150 154 153
-894.632378746486 62.9840787397607 2174.41258128582 143 147 146
-897.397906744401 70.647723213128 2080.32540988101 113 117 116
-904.325993645618 73.2358614054444 2043.17487160203 111 115 114
-912.739684975943 73.9569385850675 2027.00648591757 119 123 122
-401.847006913769 84.2723393648115 2245.9308122849 8 14 4
-432.609824397545 74.0859996191961 2343.90222487361 160 163 156
-444.270575179766 72.2138208320607 2356.56078314824 130 133 126
-453.540106163809 71.3911015872592 2358.4294686475 118 120 115
-461.339119599554 71.2329186941087 2353.42538551678 110 115 109
-467.724493903959 71.7357134009708 2341.54192557523 104 109 103
-474.575318770446 72.0453769945288 2331.61626295555 105 110 104
-482.075188782544 72.0686579998936 2324.63389934922 106 111 105
-489.608356668612 72.0894270414404 2317.64714671151 98 103 96
-497.174949777449 72.1078278156881 2310.65622904034 105 110 104
-504.008193918228 72.4991267179884 2299.72485830942 139 145 135
-561.7744531525 66.5067975560013 2321.7568395194 165 171 161
-573.241834216937 64.4778444025305 2336.45531624771 154 159 153
-584.453145593343 62.5464935580898 2350.17756456007 153 157 156
-594.078161552546 61.4505066639401 2355.02590883999 142 146 149
-604.165051838349 60.0797599221614 2362.84063906811 139 143 146
-613.718035209527 58.9876128859997 2367.69772220828 137 141 144
-624.194167853999 57.3463153144653 2378.48789134051 140 144 147
-633.979875032453 56.075211258646 2385.3322579362 142 146 147
-643.568910709113 54.8979255064853 2391.1929935385 142 146 147
-651.912001418358 54.452818191895 2389.14506994917 144 148 147
-661.596019202984 53.1870576124428 2396.00211270816 144 148 147
-671.382683792167 51.8326598887055 2403.85426627375 144 148 147
-681.263801210659 50.3902067461267 2412.70255167364 151 155 154
-689.548611025343 49.9473192042094 2410.6618953497 160 164 163
-697.839105966531 49.503713657839 2408.62077171517 167 171 172
-706.00041276671 49.1496571988294 2405.58760680562 167 171 172
-714.304853070113 48.7043868643492 2403.54474725648 161 165 166
-722.485456591764 48.3482948438355 2400.50917959075 164 168 169
-730.043663412447 48.4398021368146 2392.51142885716 177 181 182
-737.267993199464 48.7972283100283 2381.53134215229 177 181 182
-744.425313849442 49.2401851928771 2369.55170545129 178 182 183
-753.064766818641 48.6083913052384 2369.48290370157 180 184 185
-761.00379475579 48.5107877597849 2363.45374122582 176 180 181
-769.309221700534 48.1445340496995 2360.40262309528 165 169 170
-777.073329062031 48.2206548531844 2352.37921771124 165 169 170
-785.090641690533 48.1169567591427 2346.34006154987 180 184 185
-792.924925323601 48.1878604039579 2338.30791232122 184 188 189
-800.79694510212 48.2559718454768 2330.27106119788 188 192 193
-808.806232342316 48.2332406081511 2323.22500623599 188 192 193
-816.944679789147 48.1202752578339 2317.17099783916 185 189 190
-825.204065730432 47.9175074776023 2312.1098206229 185 189 190
-833.210452082375 47.9754763591203 2304.05622805563 175 179 180
-840.721935037069 48.5545401712344 2290.01642109492 192 196 197
-848.647591752455 48.7801433149855 2279.95684718504 198 202 203
-856.621554538981 49.0022808905091 2269.89125408951 198 202 203
-864.805083370263 49.0473522802165 2261.81558915317 195 199 200
-873.103915258461 49.0030101108207 2254.7334576426 196 200 201
-881.209118039102 49.2155327794473 2244.6515118922 193 197 196
-889.145050523525 49.6834008549937 2231.56695633645 193 197 196
-895.191316665269 52.5572925307664 2190.4944826231 185 189 188
-903.61871740072 64.0067066859953 2041.27182568136 117 119 118
-911.419067071178 65.5424105477508 2015.10024433149 125 127 126
-431.835270534042 65.4367559235568 2343.01397499389 144 149 142
-441.793640665038 64.3418685553211 2347.82071574837 120 125 118
-451.509843259193 63.340863549051 2351.64974324572 121 123 118
-459.535485852277 63.0781747153858 2347.62558071559 121 126 120
-466.140835587465 63.4576841736084 2336.72268090627 116 121 115
-471.990581798285 64.2005778377793 2321.88189006009 94 99 93
-479.316777746365 64.297071115411 2313.91307978135 93 98 92
-487.470736575347 64.0250432183162 2309.87292873767 100 105 98
-495.25281495464 63.9341535399159 2303.86333495814 97 103 93
-502.103629955616 64.296711563663 2292.92984717583 167 171 157
-561.922112043728 57.3837177415164 2325.79342653021 158 166 155
-573.208843633633 55.4888003703564 2339.50616689956 132 139 132
-584.755395711385 53.4190525403087 2355.20279835172 129 135 133
-595.205596352218 51.8922295039688 2364.98797481315 148 153 156
-604.937761885644 50.7263401314932 2370.83081864354 148 153 156
-613.660173762545 50.0978911420814 2370.75165530391 145 148 153
-623.493188493647 48.8459003958697 2377.59006786248 142 145 150
-632.813370292954 47.8629848812796 2381.468228507 136 139 144
-642.722670664168 46.5264550970403 2389.30503079742 133 137 140
-651.222610081192 45.98958864179 2388.245702428 136 140 141
-660.762533076045 44.833706640163 2394.11251063663 139 143 144
-670.84812725614 43.3269483556817 2403.94337525776 147 151 152
-680.731324895369 41.9116557329589 2412.79132953214 158 162 163
-689.2971088774 41.2901987297833 2412.73169401467 160 164 165
-697.444667239851 40.9318222944391 2409.70025620536 159 163 164
-705.738282111222 40.4847929922284 2407.65875223833 158 162 163
-714.037489866399 40.0370490580662 2405.61655219441 160 164 165
-722.083156104141 39.7630214139199 2401.58992069216 164 168 169
-729.510960061685 39.9225656065347 2392.60033692527 173 177 178
-736.858106109168 40.1658250191982 2382.61315149821 175 179 180
-743.889766931632 40.6655874819104 2369.6411194384 166 167 171
-752.173614781112 40.2959605697603 2366.59270313458 179 180 184
-760.468312816769 39.9252866092118 2363.54317581778 181 182 186
-768.887053362252 39.4673870532061 2361.48584526403 171 172 176
-777.089974364058 39.1807136015872 2357.43962259919 176 177 181
-785.201167616635 38.9784580784182 2352.39693760536 178 179 183
-793.123528280172 38.9456770707535 2345.36175703205 188 189 193
-800.565950391235 39.3377435928787 2333.34667537217 192 193 197
-808.267233768787 39.5550954784386 2323.31512365776 189 190 194
-816.405201883157 39.4285141434223 2317.261210936 184 185 189
-824.852943858884 39.0451017920157 2314.19237791762 188 189 191
-833.402831957655 38.5758339173408 2312.11895113137 181 185 186
-841.157567718715 38.8671306187121 2301.07284704627 197 201 200
-848.707485201729 39.4078827543392 2287.02834457608 204 208 207
-856.327366923399 39.9436999888754 2272.97512397842 199 203 202
-864.4211696596 40.0543986050988 2263.90279640313 188 190 189
-873.2605269741 39.4070029981119 2263.8090888595 193 195 194
-881.264861628936 39.6803981239693 2252.73188345124 189 191 190
-888.886803676257 40.4512372723163 2235.65448525195 198 200 199
-894.426212810306 43.8004417438883 2187.5897223525 187 189 188
-897.0588455461 51.0428610354521 2092.51255767407 148 150 149
-902.845975038689 54.848501745338 2038.36907560316 115 115 115
-909.908654031595 57.3097931437778 2000.19414770643 122 124 123
-429.76251516281 57.3205145171744 2336.23972621826 137 142 135
-439.527473829877 56.3301395734469 2340.06264125206 129 134 127
-449.477375611197 55.2514961203611 2344.87015576 120 122 119
-456.897032593865 55.2472489780109 2337.89787475993 118 120 117
-463.939038739199 55.4190380728007 2328.95640403267 113 115 112
-470.01113791476 56.0330628101669 2315.09613158969 87 92 88
-477.755609509333 55.9311911287297 2309.09125983528 87 92 86
-485.528044255084 55.8272667803187 2303.0826635818 94 99 92
-493.52320271241 55.6327019505349 2298.05443879127 90 96 86
-501.156869600012 55.613146423688 2291.05525066562 178 182 168
-558.731661102928 49.9412880474091 2311.09466750299 138 146 135
-570.927227362346 47.6485198399455 2329.73395443301 117 124 117
-583.355874107472 45.1880867419038 2350.36021030103 101 107 105
-595.163054317603 42.9953804397578 2368.04001490623 153 157 160
-604.39381150969 42.108919457471 2370.92139410529 154 158 161
-612.792308762107 41.6560147952243 2368.86681690971 142 146 149
-622.153825607856 40.6843514106358 2372.73978955272 137 141 144
-632.116057125755 39.3693239016312 2380.56992972348 139 143 146
-642.184047690295 37.9710151445371 2389.39477820686 139 143 146
-651.289905671064 37.0907192930866 2392.29172785344 137 141 142
-660.969243702195 35.8687943189374 2399.1492391785 137 141 142
-670.897531889875 34.4782805444962 2407.99150116479 141 145 146
-680.485387193983 33.2614345138206 2414.86017534938 150 154 155
-688.76517365801 32.8131958837955 2412.82040027055 154 158 159
-696.774899366331 32.5342314723877 2408.7982669347 155 159 160
-705.611960370046 31.7450651277582 2410.7208337704 160 164 165
-714.03564773732 31.210428589257 2409.67101533358 172 176 177
-722.07031289134 30.928800392561 2405.64577671733 176 180 181
-729.359267007369 31.1514276680155 2395.66566736454 176 180 181
-736.324191983793 31.6229552184487 2382.70227816815 175 179 180
-743.475752519358 32.0060168577822 2370.72327775863 175 176 178
-751.400282071548 31.8823425117674 2364.69599325214 173 174 176
-759.816557133706 31.4222708557025 2362.63897609629 173 174 176
-768.238229197387 30.9614696893032 2360.58152761643 177 178 180
-776.44371297709 30.666451033686 2356.53500710886 186 187 189
-784.773395064459 30.2869490860139 2353.48113723742 187 188 190
-792.797728907281 30.1551523253134 2347.44117886684 198 199 201
-800.643735273851 30.186698767437 2339.40767035615 204 205 207
-808.027840461931 30.6282349080968 2326.39180866008 199 200 202
-816.254407141853 30.4062072194483 2321.33477781389 190 191 193
-824.974842767904 29.7714938539881 2321.25587759569 186 187 189
-833.689554238087 29.1366997375555 2321.1779321997 187 191 190
-841.774907822428 29.0749914046671 2314.12248725256 191 195 194
-848.942289247715 29.9093477622088 2296.09396116307 197 201 200
-855.866654530933 31.0635044063375 2274.06369093849 198 202 201
-863.875818473693 31.2339818559816 2263.99408126061 192 196 195
-872.559212419259 30.7517570854167 2261.90378758674 194 198 197
-880.869787671881 30.6737300072845 2254.82027928173 180 184 183
-888.265521185285 31.6438793850297 2234.74752439917 186 188 187
-893.659846013759 35.0262026724061 2184.68516548098 186 188 187
-901.748376008944 46.074239049468 2030.46717885863 117 119 118
-908.516883528973 48.8340237410243 1987.28925972268 140 142 139
-412.615197515505 52.240903910504 2302.11360856942 147 153 143
-426.82153814391 49.5137384387722 2325.54202274394 143 148 141
-436.403520355114 48.6217739262671 2328.37958563039 113 118 112
-446.598324258719 47.4702777845628 2334.16465702321 117 119 118
-454.672168752352 47.1874973883944 2330.13453209127 124 126 125
-462.763229370214 46.9032917542456 2326.10226244213 127 129 128
-469.856525157255 47.0493902251883 2317.15469899489 92 94 91
-478.195936517516 46.6754173489066 2314.09936013836 80 82 79
-484.96627172888 46.9883670079626 2303.17604639986 68 70 65
-492.571277280367 46.9542137698569 2296.18047348207 76 79 72
-555.360233069239 42.5006328548475 2295.41080157575 144 152 141
-569.681751091628 39.2458561710348 2325.88052196261 100 107 100
-582.636930892051 36.5916482171949 2349.46488148066 112 118 114
-594.953837917624 34.1979636856729 2370.10466575636 133 137 138
-604.015080033769 33.4064900170687 2371.99926219083 142 146 147
-612.735848457071 32.7832843375045 2371.92053040516 141 145 146
-621.611341740872 32.0764227234307 2372.830157006 136 140 141
-631.418466608917 30.869200732888 2379.6716825695 139 143 144
-641.336904033904 29.5811481429238 2387.50697667792 138 142 143
-650.600798665096 28.628128573567 2391.39232316709 138 142 141
-660.135672714477 27.5106411163005 2397.25966034359 142 146 145
-670.21756193768 26.0641670192518 2407.09058829644 149 153 152
-679.953306947393 24.7862624337613 2414.94889488255 153 157 156
-688.796172811302 24.0055353095774 2416.87071508163 153 157 156
-697.208960299422 23.4722202389551 2415.82225340526 165 169 168
-705.62196717612 22.938562719964 2414.77376525231 167 171 170
-714.167749275358 22.3226799493622 2414.71661117202 167 171 170
-721.799045575421 22.2787918476146 2407.71802322939 180 184 185
-729.335738039683 22.3140950313648 2399.72286510307 179 183 184
-736.039163446452 22.9162785061719 2384.77615096415 180 184 185
-743.305564972267 23.1884286762843 2373.79103852632 180 181 183
-750.507132090707 23.5378487951252 2361.80612645339 174 175 177
-759.280755116233 22.8319227372957 2362.72846339646 176 178 177
-767.361698805107 22.6104526288932 2357.68960397027 175 177 176
-776.129795169451 21.9041346275853 2358.6128719089 171 172 174
-784.670492055685 21.3588786349765 2357.54847934183 185 186 188
-793.316535841436 20.7331148712588 2357.47883921704 189 191 190
-800.826224581628 20.9873475007144 2346.46341315836 187 189 188
-808.089598511378 21.4771958066439 2332.45480368301 191 192 194
-816.202219690339 21.3250257583209 2326.40412149591 189 191 190
-824.814966636067 20.7734179587293 2325.33075423462 183 185 184
-833.703260488424 19.9835831990721 2327.24668900521 170 174 173
-841.503964700737 20.1439893528052 2317.20312039169 196 200 199
-848.833767754365 20.7746880442903 2301.17023556481 186 190 189
-855.489918584817 22.1088830302853 2276.14990149912 185 189 188
-863.330260271536 22.4125032955273 2264.08539474874 193 197 196
-871.386529218989 22.5551628112541 2254.00973963356 176 180 179
-879.94524831951 22.2247709059243 2249.91923060045 175 179 178
-887.497658940883 22.9862237181324 2231.84284713245 180 182 181
-894.227781168228 24.7542702931774 2200.76553621439 199 201 200
-897.132286045249 31.0980053834561 2110.69572618133 178 182 181
-901.037077338996 36.7898885260813 2028.56478026901 124 126 125
-908.177318707191 38.970700621668 1991.38859877683 138 140 137
-424.960456048804 41.2237976486662 2319.74950292418 156 161 155
-435.843620243025 39.8356687327143 2328.47259574959 126 131 125
-445.617303256786 38.8711327031147 2332.29411372189 98 100 99
-453.69634087946 38.5794538441217 2328.26360442068 102 104 103
-461.380842923882 38.4539278548961 2322.26603853563 132 134 133
-469.09333949976 38.3263795645768 2316.26498442421 164 166 165
-476.833974477399 38.1967425894952 2310.26066457582 142 144 141
-483.41595765103 38.5647011332593 2298.35302409597 96 98 93
-489.083060715007 39.3440345248549 2281.51955587563 50 53 46
-556.91470086528 32.6782460695234 2307.33588634399 167 175 164
-570.862720441006 29.6760164737513 2335.83593759 134 141 134
-581.747022361354 28.0702799564477 2347.58276305909 142 148 144
-593.569510737173 25.9801865787368 2365.26038706824 146 150 149
-602.975666223141 25.0334204148665 2369.1277235069 153 157 158
-612.517901780822 24.0069383251604 2373.9862152531 145 149 150
-621.068955238721 23.4674426951627 2372.9205150774 140 144 145
-631.349239128805 22.0397460961821 2382.72687536759 144 148 149
-641.415902224426 20.6960184069005 2391.55174577394 142 146 145
-650.518366967726 19.8375581577444 2394.44906137322 136 140 139
-659.599538626066 18.9801259282517 2397.34903151636 133 137 136
-669.244713509832 17.8035863487538 2404.21068667942 143 147 146
-679.27765122774 16.3898828119927 2414.04763719062 163 167 166
-687.842253993367 15.7764441106501 2413.98812796606 162 166 165
-695.987120119393 15.4015791984693 2410.9573098225 155 159 158
-704.820431654301 14.6289533711174 2412.88006074214 162 166 165
-713.504923609819 13.9361433908258 2413.81372644383 178 182 181
-721.268300077721 13.7966965453784 2407.80659442585 181 185 184
-728.549441495893 13.970491003732 2397.82758865105 177 181 180
-735.256235244114 14.5340883873392 2382.88055577813 175 180 176
-742.89246735377 14.5431628343655 2374.87304476498 164 166 163
-750.566684671024 14.549491437487 2366.86104092232 161 163 160
-759.327466554659 13.8498206574781 2367.78520415967 163 165 162
-767.394522171052 13.6183061378206 2362.74810433443 177 179 176
-775.816436412979 13.1516939867416 2360.69040066644 176 178 175
-784.243683462051 12.6844161370709 2358.63227351748 184 186 183
-792.676193211539 12.216474551122 2356.57349136254 197 199 196
-800.187227237868 12.4432388529853 2345.55796975697 212 214 211
-807.351192148271 12.9746634739953 2330.55372908286 216 218 215
-815.566265579835 12.7316290932541 2325.4981878465 211 213 210
-824.182074714068 12.1799456590641 2324.42443864137 209 211 208
-832.705439029588 11.7044543111398 2322.35433825576 171 173 170
-840.250232941213 12.0687453581591 2309.31862697917 99 104 100
-848.119803636422 12.1998601675156 2299.26654137344 157 162 158
-854.861674081688 13.3923582010932 2275.24357025867 207 212 208
-862.784491386793 13.5900228794948 2264.17673716717 195 200 196
-869.896554743109 14.6167193592971 2242.12337899453 201 206 202
-878.032372612163 14.729377136895 2232.03787565273 197 202 198
-885.704217775271 15.366128628841 2214.95484322343 185 190 186
-892.827949020687 16.6736489093617 2188.86830076622 189 194 190
-896.698840393026 21.722668061373 2112.78988144975 197 203 199
-900.129669793975 27.7180379218216 2023.66299373332 182 188 184
-907.277805372563 29.8000443824633 1986.48608729148 150 156 152
-423.531417145113 32.7367349656873 2315.91920024696 123 125 120
-434.427358664119 31.3748163528036 2324.64062951387 112 114 109
-444.847374059771 30.1787138556457 2331.40540041136 103 105 104
-453.763852441426 29.5534593471418 2331.3020103067 108 110 109
-461.233642701925 29.4954934526212 2324.32361443636 110 112 111
-468.533411629096 29.5160886515453 2316.35806169975 97 97 97
-476.474088059056 29.2917891007089 2311.33671424946 81 81 79
-483.249661105483 29.5490724684946 2300.4128934553 64 65 60
-481.489970588584 33.3388788378202 2246.20356450622 159 160 154
-559.883757075914 22.286905533258 2327.14791448352 171 179 166
-571.179418871749 20.5547918175002 2340.85935194707 127 134 126
-581.881818777186 19.0639701917115 2351.62064772102 136 141 135
-593.024386072251 17.3408629469156 2365.35116675496 140 144 143
-603.093583299734 16.0935245431204 2373.1677799807 148 152 151
-612.789053439217 15.0055662426812 2379.01499795061 143 147 146
-621.326860306238 14.4667651910688 2377.95094904199 142 144 143
-630.651779754459 13.5376860283219 2381.82837667982 147 149 148
-639.795482573503 12.6877393698017 2384.72076385954 141 143 140
-649.069815531808 11.761196051586 2388.60449771418 134 136 133
-657.720638398138 11.1459524803509 2388.53423348384 138 140 137
-667.831357918968 9.75762024332541 2398.36165074021 150 152 149
-678.026527351167 8.29567808381054 2409.18616982546 173 175 172
-686.887323154161 7.53006808643908 2411.10571266373 174 176 173
-694.763558088202 7.30269223512872 2406.09241523249 176 178 175
-703.068669201506 6.8437177147318 2404.04950805973 180 182 179
-711.51231669419 6.3076453656547 2402.99720249842 194 196 193
-719.435189893037 6.07631297302999 2397.97809530686 197 199 196
-726.997247390884 6.07161381949603 2389.97987711904 190 192 189
-734.722196353626 5.98818070303897 2382.96970601817 186 188 185
-742.846007895024 5.6751032438695 2378.93342528031 177 179 176
-750.269722184171 5.81417924104266 2368.93671868393 180 182 177
-759.142431200528 5.0448839161856 2370.85478452878 186 188 183
-767.201008216367 4.80296544031633 2365.81877018121 186 188 183
-776.060037296206 4.03388466181501 2367.73854263626 164 166 161
-783.817108115448 4.01446273605346 2359.71602671073 85 87 82
-792.247069337563 3.54396614617786 2357.65756932546 62 64 59
-799.444630725604 3.96734080476288 2343.65734792222 19 21 16
-806.712406344534 4.38586915015343 2329.64837696067 28 30 25
-814.343543978186 4.57698738529663 2318.6179610076 26 28 23
-823.168670690583 3.87606920507658 2319.53409767571 0 1 0
-831.336543571761 3.6924865385464 2313.47636285808 1 3 0
-838.545688579307 4.31729484179885 2296.45086385596 0 1 0
-845.580502326839 5.15671195724318 2276.42349390521 0 2 0
-854.317046058259 4.5959932869466 2275.3347015301 5 7 2
-862.401431466881 4.62024424190147 2266.26353656971 10 15 9
-868.323599677916 6.68485607473523 2229.23966941563 16 21 15
-874.972540353726 8.2269396960897 2199.18077163886 85 90 84
-888.528086479653 11.4973291524323 2136.00726934062 115 122 115
-893.888638769974 14.8870834311666 2079.90250233964 147 154 147
-899.024653421842 18.8341797529253 2015.76231124504 171 178 171
-412.018541240977 25.2490391209203 2307.29806588874 160 163 152
-423.403524019822 23.7529253904416 2317.97419329205 167 169 164
-433.652976745839 22.6547286793767 2323.75230447276 156 158 153
-443.865779555687 21.5585109490534 2329.5352244035 137 139 138
-452.370209643336 21.0922858121803 2327.46722222661 126 126 126
-460.262432746847 20.860308091178 2322.45194168519 116 116 116
-467.566715448361 20.8611189448902 2314.48611802634 112 110 111
-474.307435901452 21.0931504144706 2303.56671312976 88 87 85
-482.093750515469 20.9324418668481 2297.55653428995 84 83 79
-483.264210925119 23.4095311841939 2258.10126436958 156 157 151
-702.520265500643 -55.4046390970734 3233.66842342885 156 162 150
-559.683578115303 13.3798031010725 2329.21196663671 156 162 150
-570.629175167255 11.8412759325061 2340.95096584233 123 128 121
-581.505021639699 10.3068339430252 2352.69865874973 153 158 152
-592.647738395992 8.62457958284688 2366.42881127844 151 156 152
-602.550433154759 7.47753101405008 2373.25825182001 158 163 159
-611.921559510957 6.55966236562847 2377.1298835864 153 155 152
-620.304881646765 6.09578000695646 2375.07722906503 154 156 153
-629.166587461015 5.40539915654847 2375.98853285906 152 154 151
-637.39877366372 5.01572944507117 2372.94685667408 138 140 135
-646.706765917394 4.10065849638916 2376.82635983558 81 83 78
-655.689338898672 3.33642808925039 2378.73070196884 38 40 35
-665.976004401883 1.90167105053349 2389.54397156304 6 8 3
-675.334215923174 0.917176569047273 2394.42531784817 0 1 0
-684.801452087962 -0.139818314417561 2400.30093652776 4 6 1
-691.875907512418 0.0642186448833182 2389.33995720232 6 8 3
-700.227213481355 -0.400475834886116 2387.29130024799 5 7 2
-708.584109586351 -0.865812622707268 2385.24170710049 10 12 7
-716.685779579902 -1.18478057620239 2381.20820500931 11 13 8
-724.931554216437 -1.57845136399654 2378.16484360481 6 8 3
-733.563180487375 -2.19272582124594 2378.09697244396 5 7 2
-741.822613694585 -2.58788139474189 2375.05167017198 9 12 5
-749.973379412806 -2.91122868982635 2371.01229302619 12 15 8
-758.958345335661 -3.7446751263272 2373.92420591063 12 15 6
-767.693282040703 -4.43202658214878 2374.85132176223 14 17 8
-775.860135164685 -4.75734186572732 2370.8097019172 16 19 12
-782.520982514142 -4.07373503850397 2352.84478527929 17 20 13
-789.90990601918 -3.82829742559407 2340.83676607118 30 33 24
-798.391332221985 -4.30505873972833 2338.7719026585 30 33 24
-803.860034813108 -2.6332586505414 2306.84433554837 28 31 24
-812.335234498266 -3.04509860112631 2303.772391102 32 35 26
-820.820945883485 -3.45789439163655 2300.69889710603 22 25 18
-829.132256962483 -3.72947041550253 2295.63142114362 13 15 10
-836.118493751648 -2.93853128590035 2275.6100007064 22 24 19
-843.99075115976 -2.79144041654306 2264.54961037546 23 25 20
-852.507108777983 -3.14229093236532 2260.46444168192 26 28 23
-861.692346489757 -4.05790031522116 2264.35950557122 31 33 28
-865.48325795787 -0.194920827602502 2200.38715665173 30 32 27
-869.538752587944 3.71587970206633 2135.37421655337 13 18 12
-890.454226899562 8.49647075991769 2038.02194447035 87 92 86
-897.91668676637 9.90565816763445 2007.8621145542 105 110 104
-410.355285823084 16.7776661286808 2302.48902336264 60 64 50
-423.059421966362 14.8554195411104 2319.04849382591 132 135 128
-431.8060884203 14.3087625851316 2317.95840116385 112 114 109
-441.401018865068 13.4580922719144 2320.79423944049 107 109 106
-449.511694578069 13.1387297689799 2316.7596145278 116 116 114
-457.845984766197 12.7425230826349 2313.70497331522 110 110 108
-465.377342461929 12.6469193077217 2306.71875304223 130 126 125
-472.540244634054 12.6994928721566 2297.76274942416 150 146 145
-480.143915765507 12.5988493304608 2290.76751813394 101 97 94
-474.677069997825 17.5152876018701 2217.87035682057 158 157 152
-550.122715471244 8.39022492741079 2279.02235934033 162 168 154
-565.730977895425 4.96573946639833 2316.38623877984 37 43 33
-580.786220544941 1.70103733744015 2351.80309656898 67 72 65
-591.597527407934 0.205748887797508 2363.55874052863 62 67 63
-601.510012778536 -0.920214382284068 2370.38690373235 57 62 58
-609.911840492208 -1.38789100227485 2368.33170954758 19 21 16
-619.763103990369 -2.51056624017759 2375.16750422012 6 8 3
-627.837096475558 -2.83299666936004 2371.13746523666 1 3 0
-632.518591617657 -1.56486995929644 2345.35580314835 0 1 0
-641.294635196803 -2.18254907140727 2345.270158796 8 10 5
-653.206038255584 -4.31255704229261 2365.95985318661 5 7 2
-665.732824354796 -6.79457505621897 2391.61283471497 9 11 6
-675.231061111407 -7.83415007337521 2397.48453882938 14 16 11
-684.691653679866 -8.87165541174967 2403.36093526549 10 12 7
-691.201751416614 -8.40914883404664 2388.43871511098 12 14 9
-698.603905710987 -8.3787174200472 2379.45267228433 10 12 7
-706.716050339025 -8.70629571944545 2375.41788569573 13 15 10
-718.109033638066 -10.805574176747 2396.17243515114 13 15 10
-724.907572468963 -10.4251166096105 2382.22212242467 13 15 10
-734.404925433449 -11.5292943977076 2389.1017940584 15 18 11
-741.654958567937 -11.3656916898928 2378.11901015492 24 27 18
-749.438179776678 -11.4863860243595 2371.10166514834 24 27 18
-758.073059589312 -12.0990312934767 2371.03338367431 23 26 17
-765.787956098749 -12.1534785341646 2363.01646335998 18 21 12
-772.982671536996 -11.8625902922341 2350.0246331109 18 21 12
-780.786803445677 -11.9233195619312 2341.99659328979 19 22 13
-793.300871453568 -15.0341818468851 2377.73016951918 25 28 19
-798.164002129737 -13.1583336767309 2341.8468884578 15 18 9
-805.634950640174 -12.9488063075903 2329.82848731355 11 14 5
-812.282782003424 -12.1247129043619 2308.84152346406 16 19 10
-821.136329127349 -12.8163183696059 2309.75408890813 22 25 16
-828.311237754008 -12.276448760333 2292.73308608696 22 25 18
-836.561693957254 -12.4928094585319 2286.66513167875 28 30 25
-844.402771578862 -12.3709954385818 2275.60869896652 26 28 23
-850.691923710063 -10.963359198542 2245.59505473545 24 26 21
-859.864758813803 -4.87051355820931 2136.60408574536 24 26 21
-867.13842478347 -3.83925665675033 2111.50748721767 21 23 18
-872.03657293371 -0.532698529091435 2052.43734305046 40 42 37
-880.157861657292 0.00635940977763982 2034.29055262745 94 96 91
-888.575333288234 0.338725466519335 2019.13064620766 158 160 155
-897.002370558875 0.732600513624837 2002.96145670391 140 142 137
-410.231340167661 7.76214891607116 2304.54384755649 109 113 99
-420.759419890163 6.6243936655514 2311.29497900947 150 153 146
-429.313231318983 6.14938141054858 2309.22107774244 145 147 142
-439.145423643278 5.23447978083227 2313.03516338827 114 116 111
-446.440319715612 5.1974125943427 2305.07061087571 96 96 94
-455.220181403988 4.64755098140202 2303.976384084 94 93 89
-462.57390272764 4.60630330288991 2296.00450153703 78 74 71
-469.96659431156 4.56227438417278 2288.02776305626 88 84 81
-477.398058834164 4.51562610124864 2280.04619283997 87 84 79
-560.302091911094 -1.83460206337607 2288.86447921351 0 4 0
-572.18343787634 -3.66092708114718 2305.52613615194 6 12 2
-589.028322346742 -7.59601981475477 2351.80694182695 15 17 12
-596.983249173466 -7.85858593279024 2346.7836765163 14 16 11
-605.776785306784 -8.47361692288662 2346.69584222286 15 18 11
-615.20760239494 -9.36850281029922 2350.55996441451 13 16 9
-623.506956919156 -9.77336575999324 2347.50994603095 6 9 2
-628.559756258085 -8.71697553874365 2323.69811943965 7 10 3
-637.090948729426 -9.19689482315036 2321.62681353853 15 18 11
-650.269194091567 -11.8254803381001 2350.22194407715 17 20 13
-663.579255045868 -14.5822830774971 2380.81657692977 16 19 12
-675.273247687765 -16.6389400191167 2401.5334499565 10 13 6
-684.441303533406 -17.5192215756702 2405.4303247378 10 13 6
-692.888145217296 -18.0550942882622 2404.37762003458 13 16 9
-698.748072305116 -17.2911359768189 2384.49706771118 12 15 8
-705.912259421328 -17.1483122884297 2373.52505160407 12 15 8
-717.968423767713 -19.5283563967659 2399.23625513151 11 14 7
-725.909246559879 -19.7941423342289 2394.21499866901 19 22 15
-733.119870906991 -19.6551727968521 2383.23719761979 26 29 22
-740.50736508895 -19.5874865562007 2373.24519908104 33 36 27
-750.94132627979 -21.2081130905693 2388.07156518644 35 38 29
-758.241454557648 -21.0756965085165 2377.08261183278 35 38 29
-764.90881931552 -20.5447465461137 2360.12497097544 28 31 22
-772.33348963423 -20.4208612287784 2349.12049797815 25 28 19
-780.466636307907 -20.7009895780398 2344.07527840247 16 19 10
-788.408603116793 -20.8496712882524 2337.03795631851 13 16 7
-807.720353635099 -23.3382839134657 2355.79738837097 21 24 15
-816.553830170596 -24.0824451932614 2357.72028400787 17 20 11
-822.505272386283 -22.8507386274205 2329.7648617474 22 25 16
-828.231496336425 -21.3660002911527 2297.80565011459 12 15 8
-836.19759185951 -21.3985916109321 2288.74963699344 19 22 15
-842.633664625574 -20.258520993151 2261.74166412359 17 20 13
-861.595548627506 -15.9222167535247 2165.64228594217 25 26 20
-870.052633487467 -8.7042240851887 2033.55894990803 31 32 26
-878.293994610293 -8.27893665282881 2016.40516186823 68 69 63
-886.826588878645 -8.05181397292526 2002.23885307677 161 162 156
-895.757494171046 -8.14909421079008 1993.06260775627 162 163 157
-417.804311471058 -1.43873550464718 2300.5997141471 130 131 123
-426.387862321584 -1.91867573664237 2298.52187428497 125 126 120
-436.463059245094 -2.89267758148712 2303.31371739869 104 105 99
-444.412432808208 -3.16184505626715 2298.29140275568 95 94 89
-453.211399556923 -3.71325224325969 2297.1947958356 101 100 95
-459.970968268784 -3.56522633548759 2286.27326001341 83 80 75
-467.389696276982 -3.63030870579537 2278.29332778434 64 59 55
-474.052804558976 -3.41963072068865 2266.37597756333 43 39 30
-548.067199554248 -6.13269836501862 2222.88255910891 0 3 0
-570.08385051729 -11.8614718567907 2296.73984339455 17 20 11
-585.273131326008 -14.9898043828809 2333.14754225628 17 20 13
-598.59569776462 -17.4295728838287 2359.70855066976 12 15 8
-607.681303293303 -18.1746566518176 2361.59998452823 12 15 8
-616.269022830488 -18.7172943711013 2360.52971691718 15 16 10
-616.956428303377 -15.9065398737042 2310.04857181542 13 14 6
-632.514021384179 -19.4020636595902 2352.45763732604 13 14 6
-641.729794268286 -20.213586685927 2355.34092940044 10 11 5
-650.474591112299 -20.8243804857971 2355.25892605494 13 14 8
-662.45225088716 -22.8956247040769 2376.94812461377 16 17 11
-673.583224524414 -24.6282054015072 2393.70317671024 17 18 12
-684.475237503224 -26.2888742687167 2409.48041347747 16 17 11
-691.521038460809 -26.1654434112636 2398.52322233339 12 13 7
-700.802648533586 -27.096924357774 2403.41374814844 13 14 8
-706.043134844246 -26.0608123191801 2378.57086563633 15 16 10
-715.734142032945 -27.189995394147 2386.43436358521 15 16 10
-724.094420562406 -27.6645482784127 2384.38461287013 20 21 15
-731.330729611283 -27.5546125596446 2373.40368298151 27 28 22
-740.463082764634 -28.4210036833968 2377.30497666777 30 33 24
-750.889216172701 -29.9972805234204 2392.13220284085 33 36 27
-761.932807322483 -31.9553042274758 2412.92998238154 35 38 29
-767.582907017164 -30.9472154569539 2388.03581607025 32 35 26
-773.027207627079 -29.7552708156442 2360.14378679561 30 33 24
-780.0378029798 -29.404631754583 2345.15940209666 24 27 18
-788.189385533509 -29.6971175557106 2340.11191437506 14 17 8
-795.012846002573 -29.1640555371375 2322.12686076684 16 19 10
-805.466931263293 -30.858140526082 2338.96652342264 19 22 13
-814.839232675023 -31.9134271803156 2345.86167199779 15 18 9
-823.019681024869 -32.2088716894333 2340.81058978714 24 27 18
-830.84958778308 -32.2542869924609 2331.77160599021 18 23 16
-836.104772661292 -30.4826068894278 2293.82381847125 23 26 19
-842.873419230924 -29.6628908561946 2270.80641492952 20 23 16
-850.52446893614 -29.412754544806 2256.75005708231 19 20 14
-854.302903297181 -26.1798726686803 2194.79653903678 25 24 19
-869.246228866936 -17.9678442150125 2030.66067828784 46 43 38
