ply
format ascii 1.0
comment KinectMotionCapture
element vertex 782
property float x
property float y
property float z
property uchar red
property uchar green
property uchar blue
end_header
-747.341108508004 -148.347364994162 2079.13055390465 139 117 103
-755.555535577799 -148.539417039055 2070.76934617268 139 115 103
-752.785955745643 -148.54910320843 2061.66990975456 124 106 94
-738.036382755018 -148.360510032937 2051.66776264573 119 105 94
-533.029808010396 -151.663186909648 2472.95516340656 20 23 16
-568.325121085911 -152.24065953785 2461.76025062786 19 22 15
-560.550741379095 -152.188785431522 2452.77237073183 16 19 12
-630.889600914312 -153.274782640497 2440.29648779138 15 18 11
-675.183021578226 -153.979354342823 2429.27999635785 17 20 13
-689.431548282466 -154.245798458101 2419.66369107303 18 21 14
-631.590213225139 -153.465660707786 2412.70918146113 17 20 13
-640.834011771696 -153.659767713983 2403.21320108416 13 16 9
-646.072529002321 -153.795516498865 2393.88750274185 24 27 20
-653.312256125803 -153.959965953061 2384.53309635261 24 27 20
-711.599369722603 -154.861160275377 2373.94437994425 15 18 11
-705.822231822364 -154.836378379946 2365.09393038633 14 17 10
-735.074250498196 -155.316271312807 2355.52905073602 13 16 9
-699.274313745283 -154.85931169802 2347.2088454939 12 15 8
-690.497366410626 -154.79181637287 2338.31339258759 11 14 7
-703.734898799485 -155.040482122681 2329.12117461112 13 16 9
-735.980705607082 -155.561050305036 2319.83882011677 17 20 13
-734.206346232381 -155.593460792634 2310.92648281857 18 21 14
-753.440570989556 -155.92623036153 2301.940069896 17 20 13
-747.664106765693 -155.901158919099 2293.06360162482 16 19 12
-720.883363382471 -155.57671258446 2284.1012237806 16 19 12
-678.103502698191 -155.025284527002 2274.90627595137 16 19 12
-702.336863899244 -155.42859930111 2266.01068088735 18 21 12
-735.567302246712 -155.958824477836 2257.34330778003 19 22 13
-754.793631899676 -156.289117026255 2248.66812251403 20 23 14
-768.017876573065 -156.533611256862 2239.99971354538 21 22 14
-751.245439163372 -156.353008335883 2230.83321249502 20 21 13
-719.478867561253 -155.960964000852 2221.24739598798 19 20 12
-713.708740083289 -155.937046911448 2212.12202628001 21 22 14
-734.929164795849 -156.293887125945 2203.69851702709 22 23 15
-747.150876825954 -156.523193336148 2195.12070259539 27 27 19
-729.386503248005 -156.3302122244 2185.62763215102 26 26 18
-697.632699847463 -155.941267052738 2175.5394624519 20 20 12
-723.845274016907 -156.366735453907 2167.49122984861 19 19 11
-719.076645784863 -156.357063553196 2158.31666669264 20 21 13
-716.307209532494 -156.375483207352 2149.20224133574 22 23 15
-764.494070098372 -157.106269530757 2142.43978066435 16 19 12
-590.35762628352 -154.849804617616 2106.29552690624 16 13 6
-675.497454072282 -156.093195504332 2101.83726098623 119 115 106
-735.882817199502 -157.046190591085 2087.40238822801 49 31 19
-749.092290282525 -157.285698119416 2079.31665851934 132 113 99
-755.309945851704 -157.42792340687 2070.82404986822 119 97 86
-754.537008127591 -157.473253010755 2061.86697565082 122 105 95
-550.799362914168 -161.344056460102 2472.06769060176 22 25 18
-573.074385857907 -161.671067348882 2461.56701943094 21 24 17
-596.348117125836 -162.009036480446 2451.13908775918 17 20 13
-642.653381187391 -162.618393950555 2439.82066914119 14 17 10
-631.870298260938 -162.552111505218 2431.11431879474 13 16 9
-635.107886055283 -162.65142867463 2421.80534339114 15 18 11
-650.360526079035 -162.891963454005 2412.0807924426 19 22 15
-607.539886947379 -162.449525801119 2404.36258209892 15 18 11
-607.775154775567 -162.513713785087 2395.09858024688 22 25 18
-653.05961836795 -163.105525614985 2384.58725751528 25 28 21
-661.30009981327 -163.26239195711 2375.24553422818 17 20 13
-732.599167907815 -164.155244881052 2364.54759496674 14 17 10
-681.78101200027 -163.621670961545 2356.61395584804 13 16 9
-705.029975035727 -163.952108287131 2347.16213957643 12 15 8
-732.505492299946 -164.389526599896 2328.84904671204 11 14 7
-726.728669824915 -164.381285152691 2319.9685093849 12 15 8
-723.954319292392 -164.407928260875 2311.03732140886 15 18 11
-730.411721722478 -164.599808987374 2293.12125871825 14 17 10
-721.635836664811 -164.557249295057 2284.15751438517 17 20 13
-721.863571125202 -164.618448870204 2275.1911513669 15 18 11
-728.092465195711 -164.748473844699 2266.27240290791 17 20 11
-736.320616105881 -164.901124016925 2257.40780186008 19 22 13
-757.548497954963 -165.202184333779 2248.76205882525 21 24 15
-757.7738213953 -165.2624531851 2239.89092616245 23 24 16
-761.998722336664 -165.368273791534 2231.09551169595 23 24 16
-747.226128694975 -165.257507259904 2221.90952712244 22 23 15
-727.456922589096 -165.090371764355 2212.51885746454 24 25 17
-741.680353938111 -165.309850130402 2203.94311858965 26 27 19
-744.905781567136 -165.404061824848 2195.1148864377 22 22 14
-720.143072676598 -165.181322096238 2185.38784874951 20 20 12
-726.368099350005 -165.309578475025 2176.62215054849 21 21 13
-692.615378793943 -164.986462200349 2166.3622574226 20 20 12
-717.829182447548 -165.328771025373 2158.33056500452 15 16 10
-727.05101133416 -165.490256219828 2149.73758662259 20 21 15
-742.266635346643 -165.718659310928 2141.47277569759 18 21 14
-581.869660951954 -164.037291453555 2115.27653103252 15 18 11
-712.434905102009 -165.671541618749 2095.01378725746 129 119 109
-749.61878002481 -166.14259768491 2088.33792076383 128 114 103
-748.846242286367 -166.190681501 2079.37158124811 95 78 68
-747.075015593026 -166.227650929768 2070.33191287025 77 60 50
-745.304293513324 -166.264615291085 2061.28185267256 96 83 74
-565.566020038715 -170.898459670206 2471.336520299 22 25 18
-612.885090384498 -171.393540116021 2459.6352285841 22 25 18
-617.126281748637 -171.494766111825 2450.20806130143 17 20 13
-622.368454723858 -171.60485532277 2440.75771028215 13 16 9
-584.545059110328 -171.32437373118 2433.11547474396 13 16 9
-654.882900660486 -172.023536599373 2421.08540632014 14 17 10
-643.098176387562 -171.97874685457 2412.38610582224 19 22 15
-656.347897852196 -172.159842707523 2402.79004789042 16 19 12
-625.541511212031 -171.944333907042 2394.60481318738 22 25 18
-625.775537223194 -172.008371341127 2385.38950749541 25 28 21
-694.084273838406 -172.681767874343 2374.47523133487 18 21 14
-663.281611180236 -172.467101072133 2366.13422165375 14 17 10
-645.495990164589 -172.369542869089 2357.36911690966 13 16 9
-673.753515370001 -172.682248482073 2347.73451342449 12 15 8
-702.007393546979 -172.993809981624 2338.25300169361 12 15 8
-695.231091708453 -172.993869331021 2329.31850566946 10 13 6
-712.472006852941 -173.206483681751 2320.14090253945 9 12 5
-716.702633833941 -173.303580470232 2311.13106157172 13 16 9
-711.927795956662 -173.321150806257 2302.16994224724 14 17 10
-694.1477861156 -173.224527530174 2293.18452950962 13 16 9
-723.389036654555 -173.540852674263 2284.21613244537 16 19 12
-751.625756750628 -173.847242878624 2275.40144570544 14 17 10
-737.847814809407 -173.785599556911 2266.40576893666 18 21 12
-750.076821814744 -173.951044512028 2257.61141089901 19 22 13
-714.298245685972 -173.698431005005 2248.2369473558 19 22 13
-739.52770916313 -173.976540337166 2239.65282246738 19 20 12
-760.75405407627 -174.21899550733 2231.13007390633 18 19 11
-773.978042891353 -174.391440025202 2222.5490261991 20 21 13
-755.205204214928 -174.287348154343 2213.25733625605 23 24 16
-740.434056831113 -174.21830852906 2203.97002377635 25 26 18
-745.659279116888 -174.321464850263 2195.19893321234 20 20 12
-739.887684458625 -174.330111364926 2186.09594170294 17 17 9
-695.133923292111 -174.005440067261 2175.57874024749 22 22 14
-687.367879193678 -173.998007922317 2166.22668233259 20 20 12
-730.573443834167 -174.424956258539 2158.91730157063 13 14 8
-708.814934985628 -174.298071609771 2149.00660766559 20 21 15
-737.023898872583 -174.595732530438 2141.29542735156 19 22 15
-577.852557299299 -173.427233665594 2105.75468882893 21 22 16
-707.961439895322 -174.582003778958 2103.84296426081 62 59 50
-712.18612245435 -174.675466091899 2095.06935431629 122 112 103
-744.37860056918 -175.002961135981 2088.07857694198 127 114 105
-738.612242956186 -175.011970323719 2078.77051415095 80 66 55
-737.840219108553 -175.062753631241 2069.77186670793 75 61 50
-675.973262784435 -181.107095758457 2447.49260153913 18 21 14
-625.118706530357 -180.846930248358 2440.67872437961 18 21 14
-650.85665953031 -181.198117324168 2412.15192697051 14 17 10
-636.067986422407 -181.167940667838 2403.50785243768 13 16 9
-587.473548929612 -180.990549405212 2386.49747648781 21 24 17
-667.804240899999 -181.552880086592 2375.178034053 14 17 10
-621.217770674277 -181.388931835044 2357.89123096131 16 19 12
-611.442584746059 -181.391324576876 2348.82719810307 13 16 9
-676.735929251023 -181.854641075443 2338.65664891725 10 13 6
-649.944359600608 -181.752106326873 2329.87912752906 11 14 7
-679.198836427884 -181.992311158175 2320.47553342812 12 15 8
-704.90398054353 -182.330851699453 2293.23527496053 11 14 7
-776.166705924848 -182.820648689611 2284.39983003779 11 14 7
-745.377863088696 -182.694726866008 2275.42340631454 17 20 13
-737.601334698334 -182.707644598858 2266.4592607164 19 22 13
-737.82796136421 -182.768564252341 2257.53649470367 17 20 11
-675.042216710426 -182.454313638727 2247.76694792924 16 19 10
-706.277098143191 -182.700180875733 2239.17252519833 17 18 10
-747.508466738523 -183.003955630649 2230.93749547092 17 18 10
-771.734129853974 -183.205845176159 2222.55904315713 18 19 11
-763.959242745395 -183.218629683959 2213.53089362797 21 22 14
-760.184577943314 -183.255062471806 2204.5674545399 23 24 16
-743.413577974141 -183.215598162402 2195.19322956347 18 18 10
-740.64081406511 -183.258186101518 2186.18291051352 16 16 8
-705.880188901638 -183.115054670111 2176.02333009099 18 18 10
-688.116847083437 -183.071462434687 2166.32020784336 16 16 8
-684.349186867732 -183.109185494693 2157.09094464786 16 17 11
-725.556266811059 -183.405688029181 2149.8036831433 18 19 13
-701.799393161045 -183.328063408646 2139.72679306532 20 23 16
-619.322862385967 -182.975844300604 2117.36296239583 19 22 15
-649.532508907956 -183.207711822976 2109.74514154922 14 15 7
-706.713108297358 -183.59113891355 2103.84128547711 27 27 17
-715.933337814117 -183.701688529123 2095.36550671125 91 84 76
-719.158610244652 -183.778085764362 2086.56246804821 63 54 45
-723.382254412928 -183.859868008781 2077.84198316947 69 60 51
-719.615013295045 -183.896734837386 2068.59725953457 86 77 68
-649.443625938775 -190.022315147277 2457.9034307393 18 21 14
-559.226467407369 -189.955744435705 2424.87017135701 15 18 11
-605.535201570038 -190.185129854343 2413.82411389087 15 18 11
-607.773497735808 -190.257277777167 2404.49192745977 14 17 10
-604.002927351835 -190.30819236599 2395.35291488566 17 20 13
-639.284633043051 -190.495335835914 2385.10893121206 20 23 16
-591.457883580963 -190.392782184636 2377.13177938304 18 21 14
-686.806113451441 -190.785880946444 2365.70704256529 17 20 13
-620.962720797582 -190.622227372271 2357.94546205865 17 20 13
-621.431611279195 -190.750525462162 2339.48184110292 11 14 7
-655.696853814751 -190.929365575045 2329.86551242658 11 14 7
-656.929728782252 -190.995959129307 2320.71714660611 12 15 8
-619.132766360432 -190.93215820924 2311.79983056112 12 15 8
-791.709306175727 -191.627459276816 2293.26230836598 12 15 8
-740.903802394207 -191.520279841723 2284.36702598697 12 15 8
-726.123028988786 -191.532429711644 2275.37808153926 15 18 11
-719.347553546212 -191.571004975756 2266.36993167566 17 20 11
-716.574382044907 -191.622644809597 2257.36582351638 16 19 10
-689.794919364285 -191.59728861905 2248.02292662804 16 19 10
-693.025534990046 -191.668513771881 2239.01661076944 17 18 10
-702.25658089735 -191.758550593993 2230.14011504885 17 18 10
-715.486580228986 -191.860744978114 2221.39958471632 18 19 11
-740.714782387688 -191.999945164409 2213.02323125328 18 19 11
-763.939558853354 -192.131882379304 2204.72984404695 19 20 12
-684.406449896135 -192.005049320887 2184.40937553993 18 18 10
-687.636113259599 -192.075233204374 2175.44139542554 19 19 11
-689.865784380327 -192.14217397087 2166.45189667691 15 16 10
-677.101437707273 -192.163574456858 2156.86040134938 15 16 10
-697.552238110966 -192.344829139543 2139.59684457963 19 22 15
-569.862979024299 -192.025203290967 2124.27023526846 21 24 15
-614.306003224526 -192.278970491783 2107.8907585345 17 18 10
-668.496113908886 -192.497704227996 2101.71791015797 16 16 8
-693.704869245237 -192.630403562405 2094.09926120578 104 100 91
-699.928979008037 -192.707422148798 2085.42441424295 70 63 55
-699.159637592755 -192.764114379185 2076.32390829315 58 51 43
-591.313833655485 -199.181031320228 2451.54192812051 19 22 15
-595.557110374743 -199.250537253188 2442.06731649623 24 27 20
-551.716354902678 -199.279234887464 2434.60475597399 19 22 15
-582.005430650082 -199.37060992808 2424.03341584669 16 19 12
-630.319339817827 -199.475209476461 2412.97780682549 13 16 9
-621.539009447088 -199.533007293016 2404.08004456293 12 15 8
-585.720477689066 -199.570324356571 2395.95588030774 14 17 10
-597.974008874381 -199.64481615679 2386.30069085282 17 20 13
-611.227142041156 -199.719461227643 2376.68559043386 14 17 10
-620.47327704315 -199.790659807891 2367.23026288625 11 14 7
-719.825007420106 -199.923517989006 2356.06558066883 12 15 8
-635.191380224101 -199.992986650797 2339.3394511658 11 14 7
-632.421917462194 -200.05499183305 2330.17926311021 11 14 7
-651.672668674011 -200.130486278152 2320.81385651454 13 16 9
-756.667732492318 -200.43916160091 2284.45883376319 12 15 8
-715.87017108339 -200.47878163178 2275.37978976922 12 15 8
-728.103947417158 -200.546360469203 2266.49478616617 13 16 7
-726.330500727429 -200.606614583866 2257.52620642347 13 16 7
-725.557379068941 -200.667286354121 2248.55984776199 14 17 8
-713.781655560045 -200.722989637701 2239.41018933953 15 16 8
-654.997605658862 -200.759023490908 2229.30641271913 16 17 9
-623.225509210998 -200.808107509647 2219.4628766711 16 17 9
-716.466607132394 -200.906807007495 2212.49193547945 13 14 6
-739.694798639683 -200.97605571862 2204.13238670339 13 14 6
-724.922563990995 -201.030976702042 2194.76379373513 17 17 9
-643.161613344603 -201.064024893775 2183.12710422999 19 19 11
-678.387495276986 -201.136754259676 2175.17843070059 18 18 10
-676.619111384904 -201.197125844639 2166.01185315681 17 18 12
-674.850767339192 -201.257437381129 2156.83445796603 16 17 11
-718.063949728921 -201.329364206339 2149.60854393021 15 16 10
-690.305926683066 -201.382502940382 2139.32805716509 17 18 12
-649.55880727961 -201.433635826103 2128.25587845142 17 20 11
-572.840219984616 -201.478769633431 2115.09264370579 17 20 11
-572.079344435387 -201.540746680268 2105.65558795437 23 24 16
-698.450664480182 -201.683601390108 2094.45597535263 53 50 43
-702.676601535258 -201.74365197517 2085.66921029687 79 76 69
-562.238144683795 -208.60593737073 2443.58022178435 22 25 18
-526.410784218235 -208.741128290916 2435.69602459479 18 21 14
-627.828122481531 -208.614739271955 2422.3042386916 14 17 10
-648.095324042655 -208.641286129384 2412.38247405867 12 15 8
-592.473666900898 -208.881465218589 2395.79604818497 12 15 8
-628.762822215379 -208.875226636157 2385.49324384404 15 18 11
-679.757393889593 -209.030039641299 2347.83046610754 11 14 7
-640.943938818804 -209.17497139899 2339.3089211818 11 14 7
-646.18237372499 -209.228385891944 2330.07484458527 12 15 8
-678.446602366335 -209.223924046753 2320.63623781852 13 16 9
-693.920155101902 -209.317234183098 2302.43573129116 11 14 7
-696.151291090703 -209.375307000819 2293.39850214407 11 14 7
-712.391949417142 -209.402254920776 2284.4055930042 11 14 7
-730.085139397356 -209.548911053303 2257.62234338211 13 16 7
-765.327195536246 -209.530151683595 2249.14908417821 14 17 8
-684.52303854438 -209.776847728545 2238.99634738176 15 16 8
-685.753583094873 -209.836233768828 2229.94680120438 15 16 8
-666.979705152762 -209.942220729828 2220.47016289458 15 16 8
-701.445644374054 -209.984891835341 2203.15612028067 13 14 6
-676.674628721962 -210.105616573231 2193.38495391872 16 16 8
-698.904284742538 -210.113739002858 2185.00910192065 17 17 9
-662.138723064502 -210.264335534424 2174.66835501005 18 18 10
-690.364943186275 -210.256964150408 2166.60093666822 18 19 13
-692.824498096205 -210.37295266611 2148.57411938052 17 18 12
-718.043979024043 -210.370591185463 2140.68129505871 18 19 13
-646.540040738233 -210.67265297102 2118.98577707563 16 19 10
-605.798826141281 -210.838256851141 2107.56923271906 23 24 16
-703.967184381179 -210.64702213058 2103.89465718852 23 23 15
-513.124257255327 -218.284093160577 2436.28962141617 14 17 10
-595.515423977242 -217.969711379749 2423.597357841 10 13 6
-604.767136732546 -217.993790124449 2413.98395081022 12 15 8
-596.989012939726 -218.097309506293 2404.98487799408 11 14 7
-566.174628478432 -218.309569767778 2396.64359558533 9 12 5
-591.451389760383 -218.257452950058 2386.57480483183 11 14 7
-606.709699362899 -218.251813521257 2376.89299000985 10 13 6
-594.928251193904 -218.374481974954 2367.89516909314 9 12 5
-626.20572614851 -218.291148236674 2357.98951462969 11 14 7
-666.490369211687 -218.163112332166 2348.10195672423 12 15 8
-640.690433500556 -218.35265035918 2339.36250238139 11 14 7
-647.931588923309 -218.382785451347 2330.1058143144 12 15 8
-692.210639402638 -218.23211617406 2320.56925137115 13 16 9
-694.44224035761 -218.285196155062 2311.51921065893 12 15 8
-737.711134939492 -218.136597952118 2302.35265394707 11 14 7
-673.883089163498 -218.514006386909 2293.45970890025 12 15 8
-679.117997067983 -218.55203980792 2284.37999475887 13 16 9
-698.361853990742 -218.520162801399 2275.39932805802 13 16 9
-750.850050641925 -218.383691141353 2257.898919555 14 17 8
-730.065272539987 -218.550057949946 2248.73407069594 15 18 9
-715.28581929992 -218.686780577305 2239.550448192 16 17 9
-689.504577121303 -218.879614821273 2230.07684661662 15 16 8
-636.719154156521 -219.210510508884 2219.87696970278 15 16 8
-670.191530984332 -219.166090016309 2202.37081292447 15 16 8
-701.4256032772 -219.068233446674 2194.18640312296 16 16 8
-685.654608027315 -219.211457528293 2184.64053463899 17 17 9
-644.120598311542 -219.551160706363 2164.90474886005 16 17 11
-703.342273410947 -219.304981459372 2158.13025465536 16 17 11
-707.799203025014 -219.404029196101 2140.27362805369 19 20 12
-671.043170417419 -219.65863984487 2129.44876971156 18 19 11
-633.526705098034 -219.980526446502 2109.15453365141 23 24 16
-540.154424941552 -227.670196447166 2425.78324890183 11 14 5
-583.472800237268 -227.418462003342 2414.79355423484 13 16 7
-611.75869252065 -227.276561807148 2404.53838777906 13 16 9
-572.927474623741 -227.633583410357 2396.48334989038 11 14 7
-594.435278457086 -227.60882861349 2377.24712118288 9 12 5
-587.661033623512 -227.727286750485 2368.10510277995 8 11 4
-607.159606717791 -227.71496712191 2349.14824650425 13 16 9
-608.396372415359 -227.77247141996 2339.86690160608 14 17 10
-624.650937227144 -227.715778920681 2330.4202854846 12 15 8
-661.927010665317 -227.498290780378 2320.88028735608 11 14 7
-659.155410940013 -227.584792497594 2311.77731674031 12 15 8
-666.394179890098 -227.594677883209 2302.62631807947 12 15 8
-696.653261001179 -227.427555488973 2293.50482688368 14 17 10
-671.861312752337 -227.682412348643 2284.4170829636 15 18 11
-695.110420281229 -227.567756863922 2275.43752576793 16 19 12
-695.339869249205 -227.629953061222 2266.40308375769 16 19 12
-668.551699148249 -227.901308615585 2257.08191680041 14 17 10
-705.804550636706 -227.676163297616 2248.46705938796 13 16 9
-696.02827580316 -227.815589726486 2239.29844850292 14 17 10
-667.245050351895 -228.103618256839 2229.7167300235 16 19 12
-700.488670276031 -227.90722476177 2221.31436240417 17 20 13
-690.714925303733 -228.046859564069 2212.04665204221 15 18 11
-745.957191180331 -227.675492817828 2204.48437540215 15 18 11
-687.17395264772 -228.200620343514 2193.82373657032 16 19 12
-716.406758303123 -228.032402895666 2185.70565932712 16 19 12
-702.634748292872 -228.20353970278 2176.22820077241 11 14 5
-710.092197109242 -228.268365351385 2158.4714447651 15 16 8
-700.322789478796 -228.40801451558 2149.03420063757 18 17 12
-676.558484230591 -228.659776562887 2138.89409312585 19 18 14
-639.321999253933 -236.174804682706 2412.82708320005 12 15 6
-564.129630228901 -237.215698497316 2378.05294280085 11 14 7
-529.553830596784 -237.708748545836 2359.97733287739 9 12 5
-594.121411221472 -237.181589681611 2340.11815983624 14 17 10
-590.352585709054 -237.288324508325 2330.86034095311 12 15 8
-598.598936357932 -237.270676264991 2321.47660918014 11 14 7
-645.888447405042 -236.847582631823 2311.90713707908 12 15 8
-705.184349825283 -236.297714651335 2302.55765961125 12 15 8
-679.386948663117 -236.631230429816 2293.56455409396 14 17 10
-679.617412360306 -236.694146919778 2284.48967955609 14 17 10
-729.890903092478 -236.233883370262 2275.66966483015 15 18 11
-681.079097027206 -236.808947093768 2266.34687748691 18 21 14
-669.301019733395 -236.99728102686 2257.14680455627 16 19 12
-682.540784139754 -236.923000816024 2248.21410610397 15 18 11
-706.785068224803 -236.732169075773 2239.52955566206 14 17 10
-689.004428189335 -236.983534139703 2230.18580523825 14 17 10
-721.248640645885 -236.706763680791 2221.82188433018 15 18 11
-739.483232941999 -236.576913836672 2213.29313414597 16 19 12
-728.706239113242 -236.75388603932 2204.07828787328 16 19 12
-770.943379626122 -236.367819661324 2196.38306755473 16 19 12
-718.159062727652 -236.99146013499 2185.82563493285 15 18 11
-682.614257412788 -237.496223699349 2166.50138498703 9 15 1
-695.844235820334 -237.417597624713 2157.95582352271 15 17 6
-727.070218235508 -237.145344497624 2150.26552296996 18 17 12
-650.312026535338 -238.031522267538 2137.7471173437 21 17 14
-645.546037695103 -238.145847179907 2128.33625938447 17 16 14
-506.081327927832 -246.844180351719 2446.22777966844 14 17 8
-617.728042810703 -245.829451686984 2385.98245591126 11 14 7
-633.989720697573 -245.68749772886 2376.34938336233 11 14 7
-535.061276379486 -247.041076350576 2369.37455869731 8 11 4
-671.514150389655 -245.336048088051 2357.24660001927 10 13 6
-615.661215967213 -246.131245280938 2349.10335576976 11 14 7
-588.857472152316 -246.549413215917 2340.24255246462 12 15 8
-590.095334893128 -246.601939771249 2330.91435124463 12 15 8
-624.37573081454 -246.22167041257 2321.30610444434 12 15 8
-651.642685102775 -245.931818873395 2311.9252615383 11 14 7
-695.925336361837 -245.417244923528 2302.63870045984 11 14 7
-646.100819238685 -246.138382885491 2293.63116436233 12 15 8
-688.375915032364 -245.648257549361 2284.56425068067 12 15 8
-699.615982400903 -245.565673895958 2275.56990690025 12 15 8
-685.832988453855 -245.813051592445 2266.4398770509 12 15 8
-660.042302023347 -246.219695165964 2257.10581756508 14 17 10
-711.311201423534 -245.606050132206 2248.65463488582 15 18 11
-686.523241837692 -245.999532548296 2239.26215475232 16 19 12
-722.774540803506 -245.582595877349 2230.87988363562 16 19 12
-731.006186494911 -245.537006996133 2222.09154825832 16 19 12
-736.235593685494 -245.530932436091 2213.27418082472 15 18 11
-714.453880715826 -245.885052314874 2203.75391874083 15 18 11
-739.689956708632 -245.611294507352 2195.51323105344 14 17 10
-692.90502107541 -246.300594195432 2185.06699168623 13 16 9
-706.137026698303 -246.186856507972 2176.47989976919 10 13 4
-743.369795147097 -245.75019907924 2168.87706253274 11 14 3
-691.054252138949 -246.642127909438 2139.70093019177 21 18 13
-488.779362630031 -256.641724324264 2447.03397243763 10 13 4
-527.106025709659 -256.118057921217 2435.87952895736 10 13 4
-632.803049152757 -254.611609654967 2413.14659411512 12 15 6
-598.968715739884 -255.211003537723 2405.09521858627 11 14 7
-625.487761512085 -254.935982044858 2385.81182138105 10 13 6
-575.632659279592 -255.78874674121 2377.85832665941 9 12 5
-657.008561024619 -254.579381571288 2366.69893783324 9 12 5
-682.281122680162 -254.250018419889 2357.08264400018 10 13 6
-661.478217586662 -254.646053732793 2348.37966041525 10 13 6
-586.597080822637 -255.896646881371 2340.32448794781 11 14 7
-596.848091245434 -255.804143355119 2330.88840523085 12 15 8
-625.122356703466 -255.425721815227 2321.35093857818 12 15 8
-681.889216985968 -254.728306505006 2293.66980354739 12 15 8
-656.091287251557 -255.20552471636 2284.54305985962 12 15 8
-691.358888023751 -254.710697799211 2275.58259256175 13 16 9
-696.593118001338 -254.693345080985 2266.57951873442 11 14 7
-695.821617636911 -254.771549547786 2257.54029381357 12 15 8
-676.034943885417 -255.153679473174 2248.24256135146 13 16 9
-677.266390653335 -255.199861442385 2239.17193090622 14 17 10
-697.51038030909 -254.941012510672 2230.4638039636 15 18 11
-726.757002372702 -254.536659770318 2222.0592775155 15 18 11
-743.993205348467 -254.323992527249 2213.5224768845 12 15 8
-715.206106766242 -254.85102860491 2203.83550588368 13 16 9
-700.42862990008 -255.153287905606 2194.40622409854 13 16 9
-723.892726427286 -254.902787328997 2177.17001208291 11 14 7
-619.571722539966 -256.783433654938 2145.72155083297 18 17 12
-675.804805793702 -255.935854152179 2139.06350593702 19 18 13
-586.75685825583 -257.641091924557 2097.53916092047 18 28 17
-526.844396477915 -265.592573962918 2435.93190004259 18 21 12
-559.155401450446 -265.073530534621 2425.21763028321 17 20 11
-578.433988363499 -264.792255049605 2415.14738012859 16 19 10
-624.765877004752 -264.012672660314 2404.27971735212 15 18 11
-623.997714099572 -264.097722544379 2395.10270288045 13 16 9
-609.202828591533 -264.441066679942 2386.30969739531 12 15 8
-613.445120023 -264.433688482537 2376.95614648891 11 14 7
-593.644094161206 -264.869930854998 2368.1612424377 10 13 6
-592.878294071226 -264.954901428601 2358.88264133201 9 12 5
-601.363405925841 -264.93878852548 2340.16564599419 9 12 5
-583.571811747245 -265.338882915024 2331.09032733598 12 15 8
-594.824704408428 -265.200177957952 2321.66431021157 13 16 9
-595.060883029342 -265.265606237557 2312.36337969067 13 16 9
-677.864517785226 -263.929458538377 2284.64753002925 15 18 11
-676.092771293547 -264.029872262306 2275.56005557329 16 19 12
-692.339782919756 -263.793354954372 2266.60172613971 15 18 11
-652.531425110011 -264.604913243218 2257.14049270431 13 16 9
-720.823442890532 -263.392877364844 2248.89475384541 12 15 8
-643.988828556316 -264.899405102842 2238.69712548218 11 14 7
-653.460970351591 -264.855235544181 2220.54186773274 12 15 8
-680.709542987 -264.409062224729 2212.04728978491 12 15 8
-696.948598881605 -264.16894140317 2203.40376707804 14 17 10
-699.17879596878 -264.192047605684 2194.43145312918 12 15 8
-710.41254214699 -264.044959267033 2185.7627483159 11 14 7
-736.649448366229 -263.613816619688 2177.68329788588 12 15 8
-654.855482694713 -265.224423757481 2165.64308863581 12 14 9
-641.318827911525 -265.611132356393 2146.73566810453 17 18 12
-642.785538269516 -265.713166035804 2128.41015229622 15 17 6
-487.248054368254 -275.819037303479 2447.18352050414 19 22 13
-572.928052603205 -274.164223941774 2424.72539080352 21 24 15
-592.207331531746 -273.830799215331 2414.69341291364 17 20 11
-626.515954229434 -273.178982923121 2404.26420730875 17 20 13
-638.774488539807 -272.991608161998 2394.69465054015 15 18 11
-638.005118242518 -273.079199378244 2385.55277165977 14 17 10
-623.209178914271 -273.463736119892 2376.75672367113 13 16 9
-633.461740113554 -273.317598300645 2367.31761960994 10 13 6
-555.555209793636 -275.041882859912 2359.66288414409 9 12 5
-561.804322523566 -274.981384689066 2350.15848951352 8 11 4
-621.140164390009 -273.791475710725 2339.93526685958 9 12 5
-625.380693641628 -273.771699584863 2330.66389998689 12 15 8
-633.626923601388 -273.66616632735 2321.37924932232 13 16 9
-595.805425692484 -274.542626361526 2312.41128531173 13 16 9
-633.325857532693 -273.88137438957 2293.79739375227 16 19 12
-711.883904111102 -272.337519213507 2275.79488568358 18 21 14
-678.074922851804 -273.129241461213 2266.54615278263 14 17 10
-717.345474197147 -272.354435702998 2257.87910202025 12 15 8
-675.533129253043 -273.318884926881 2248.35081698328 11 14 7
-712.79660849861 -272.585248599914 2239.85724370106 13 16 9
-679.227731327816 -273.44047325547 2221.15622725998 15 18 11
-676.456268690162 -273.566766587049 2212.00517361308 14 17 10
-651.671809963666 -274.167838487485 2202.24364938013 16 19 12
-686.923240994898 -273.473329715149 2194.1295545713 13 16 9
-661.141186651291 -274.096329334909 2184.22581676686 11 14 7
-668.375871751522 -274.005870980821 2175.34217048502 12 14 9
-659.604306040249 -274.261521754378 2165.88941570091 12 14 11
-689.073964578371 -273.753355875826 2148.87931774028 17 18 10
-712.306748009064 -273.3135976478 2140.88683313927 16 18 7
-633.765303750891 -275.149688991201 2118.81852247579 11 17 5
-663.996509475886 -274.556632545677 2111.24383311396 6 16 7
-423.579006263095 -286.827667038105 2459.77889568027 22 25 16
-445.881394324279 -286.375720641534 2449.05441004983 19 22 13
-588.707653362272 -283.129718647043 2424.15468547193 16 19 10
-547.849951914619 -284.177257035017 2416.33457263487 19 22 13
-611.228734446104 -282.740075851971 2404.81602211303 19 22 15
-646.538330111676 -281.970030137106 2394.50043286374 18 21 14
-627.731053757922 -282.491475173259 2385.88303329578 17 20 13
-634.978885116715 -282.390310352689 2376.50640625557 14 17 10
-622.186802818287 -282.768379871358 2367.61595151154 13 15 10
-579.577378401512 -283.93381667226 2349.90700187922 8 10 5
-607.86295712471 -283.327258682182 2340.17232898232 8 10 5
-676.210951469775 -281.756810007365 2330.13299291264 9 11 6
-612.339571936834 -283.362517769842 2321.61482798583 10 12 7
-633.606523452212 -282.921719536678 2312.23865762248 14 16 11
-634.073458192847 -283.050937409847 2293.8504862068 14 16 11
-694.844145417782 -281.791146870204 2266.73173165647 10 13 6
-699.077844940496 -281.756723404378 2257.74302143442 12 15 8
-698.305967745382 -281.843080167394 2248.70977105444 12 15 8
-697.534001272364 -281.929259979189 2239.67087517258 13 16 9
-717.781294354023 -281.505476020496 2231.02005821928 13 16 9
-718.009149102142 -281.566572576799 2222.04910455357 13 16 9
-653.188061070713 -283.20767720093 2211.50266944166 13 16 9
-642.412798041097 -283.537175955155 2202.05640627883 12 15 8
-629.637995336303 -283.915509417082 2192.4903217538 11 14 7
-645.880802169217 -283.587438971094 2183.79463291689 10 13 6
-660.120580169444 -283.30730432931 2175.11645625372 11 13 8
-625.338370781197 -284.222223563341 2164.65508400261 11 13 10
-731.608145849783 -281.694710802898 2159.74153378367 18 19 14
-689.283962807387 -282.92357613852 2130.82558322253 12 15 4
-656.976900778692 -283.909667000283 2101.77610765982 19 26 18
-701.202360988972 -282.888596243036 2095.26860815132 34 32 17
-508.498091721054 -294.631253111067 2417.79601054399 18 21 12
-590.927458657694 -292.515985876016 2405.53507755788 18 21 14
-626.241322918388 -291.650614101062 2395.16433539385 18 21 14
-615.451340703984 -292.011278458973 2386.26921052587 17 20 13
-595.644110724923 -292.612512009033 2377.53963005037 15 18 11
-600.889866357614 -292.546101203939 2368.13876848984 12 14 9
-637.195321589556 -291.65009084472 2358.15427531476 11 13 8
-602.36266879271 -292.652922772489 2349.57001233753 10 12 7
-607.607265892679 -292.585396411131 2340.22495283576 9 11 6
-601.831954448997 -292.812321754512 2331.03285518118 9 11 6
-643.135898762271 -291.778372523169 2321.39765996909 9 11 6
-569.964276099202 -294.02747462992 2284.56479418917 9 11 6
-604.48249845583 -293.241904569453 2266.0873223145 10 13 6
-678.805300900076 -291.310982995099 2257.58645658822 11 14 7
-637.990496881239 -292.479734880464 2247.96893869839 12 15 8
-618.202871268325 -293.082793459128 2238.46186731715 12 15 8
-669.487070272941 -291.768120960456 2230.17475718503 12 15 8
-705.75059661762 -290.85682162861 2221.84540629513 12 15 8
-693.969269511987 -291.242575167907 2212.55104851182 12 15 8
-620.377514388527 -293.369295849796 2192.27914324015 11 14 7
-641.625125423762 -292.861946007793 2183.72099904366 11 14 7
-656.866715195992 -292.51630692019 2175.06704334597 11 13 8
-665.02912908467 -292.627251902825 2129.70829078979 12 15 4
-659.26002261198 -292.850112371625 2120.27804592285 11 17 7
-656.491954956502 -292.991143934919 2110.97847983356 12 19 11
-672.724189124884 -292.613864019708 2102.74884469042 19 22 13
-654.898999843854 -299.63244902189 2439.88154458776 21 24 15
-527.281287727393 -303.594911543531 2417.16085513091 16 19 10
-563.606880830267 -302.606611465547 2406.4883977904 16 19 12
-588.902298638399 -301.940132479457 2396.35010014392 17 20 13
-617.200725641742 -301.184138418295 2386.26440010584 17 20 13
-561.314120934919 -302.900681891035 2378.44783653442 16 19 12
-629.694389685836 -300.964756857225 2367.53952524565 13 15 10
-656.982307812674 -300.235040109891 2357.81163628758 13 15 10
-644.188556505416 -300.684433069023 2348.90983057313 12 14 9
-566.274648541345 -303.053551908709 2340.86039039957 11 13 8
-577.532456167357 -302.795544040448 2331.36105291267 9 11 6
-551.963486780544 -303.69776355511 2312.82941201115 9 11 6
-590.972916035745 -302.835113657433 2275.3540755255 9 11 6
-645.74621508896 -301.423643917331 2248.12926756879 12 15 8
-716.968483837622 -299.648811530731 2204.18910596644 12 15 8
-665.156625554784 -301.260629817606 2193.6717544879 11 14 7
-651.378526267143 -301.739678727403 2184.1016736867 11 14 7
-752.674255790719 -298.78368870021 2178.50098624255 11 13 8
-628.533047644789 -302.761195241487 2137.22413558304 15 17 6
-696.786137094973 -300.783984101237 2131.33076178174 12 15 6
-692.014475770159 -300.992619248871 2122.0403411033 11 16 9
-507.972291605942 -313.673868451283 2417.89960677101 15 18 9
-572.370193913446 -311.687757676351 2406.23856036104 16 19 12
-622.72604956206 -310.148957739229 2395.35748867984 17 20 13
-613.939045872419 -310.50614701501 2386.399079347 16 19 12
-603.148999611916 -310.927803685563 2377.44096877457 14 17 10
-644.473094520877 -309.674567814987 2367.25367158189 14 16 11
-656.730477688118 -309.354181333688 2357.86259842741 13 15 10
-563.773809261368 -312.419687803677 2350.31956897993 13 15 10
-550.986466708046 -312.906753370733 2341.12683701553 11 13 8
-560.242515107416 -312.683620059195 2331.60941526159 9 11 6
-583.522692390966 -312.007490397818 2322.01841215002 8 10 5
-542.687790576712 -313.399456087032 2312.93739114818 8 10 5
-559.955953614088 -312.916343985844 2303.44186345341 9 11 6
-581.228379184091 -312.302827820953 2294.037199285 9 11 6
-618.522284075257 -311.169987393893 2284.78312098961 9 11 6
-548.131499509304 -313.666750078827 2256.33336051497 10 13 6
-619.460460388172 -311.42679386035 2247.84020165307 11 14 7
-595.666577906385 -312.269941803354 2238.22109026306 12 15 8
-611.92077453464 -311.81356696055 2229.21801214743 12 15 8
-706.940276027896 -309.002031851522 2194.97384627386 11 14 7
-725.18289887688 -308.475590917968 2186.55706323162 11 14 7
-725.410278708512 -308.53528563319 2177.60617613642 10 15 8
-698.620437708318 -309.47582137644 2167.63179956119 15 20 14
-618.039316712568 -312.241089599339 2146.06711935396 13 16 7
-619.274586607614 -312.268993269463 2136.86669368635 13 16 5
-706.540196056861 -309.483905540247 2131.87663493226 13 16 9
-728.775027255742 -308.822449663056 2124.00813586678 14 16 13
-729.002275142593 -308.880263665059 2115.06442499572 19 20 15
-546.332360945285 -321.694031674407 2435.36466177064 20 23 14
-548.576658309161 -321.694771615947 2425.87460011894 19 22 13
-611.978447847742 -319.569051941919 2414.18683087315 15 18 9
-593.164964552819 -320.300261614588 2405.58679095687 16 19 12
-620.467044168185 -319.426761361267 2395.4691304122 16 19 12
-581.608137871517 -320.856341779582 2387.34462005379 15 18 11
-580.842320594519 -320.959703616099 2378.04694355467 14 17 10
-641.21365249041 -318.930521007303 2367.37181744248 15 17 12
-597.350607672767 -320.536118819103 2359.07792300948 14 16 11
-516.416286356259 -323.438068290528 2351.17077709325 12 14 9
-546.718537575809 -322.456246785598 2341.23680966814 11 13 8
-587.036236913174 -321.122570955222 2331.35182135156 10 12 7
-580.259541063537 -321.434635717186 2322.09771726429 9 11 6
-566.471116180162 -321.992216456968 2312.84687508345 8 10 5
-558.694978485125 -322.339518665787 2303.49909867334 8 10 5
-618.032865149859 -320.334210101501 2294.07147149421 8 10 5
-640.302923797995 -319.626258174249 2284.88541034305 9 11 6
-627.515829135176 -320.147525571058 2275.64626666842 9 11 6
-619.737806329304 -320.493125528743 2266.3739946663 9 12 5
-628.984977122864 -320.240530145177 2257.23517460497 10 13 6
-585.160219991904 -321.853398435385 2247.44638304903 11 14 7
-620.441262273477 -320.684621858101 2238.67488545181 11 14 7
-653.715190908757 -319.584750591984 2230.05803325297 11 14 7
-576.335163042491 -322.524584532509 2200.52991947376 11 14 7
-695.681795994902 -318.384301678507 2194.70253398849 11 14 7
-737.94678240681 -316.960484450456 2187.03325641054 11 14 7
-716.156092834708 -317.797798619966 2177.3450142313 10 15 8
-727.61903269199 -317.527271482724 2159.84184075584 11 17 7
-571.996005905961 -323.171697032788 2134.75677177433 12 15 4
-555.22689743527 -323.835326786708 2124.55369222978 14 16 11
-700.518111409925 -318.753803801712 2122.61964107529 14 16 13
-696.746206086406 -318.953948602348 2113.38189544315 12 11 7
-681.972296109969 -319.544420549663 2103.49442192036 23 19 7
-542.825034012051 -331.147474477441 2444.95895921828 24 30 20
-533.515650399742 -331.735738640022 2417.0606946163 15 18 11
-582.882627150155 -329.96289508252 2405.97157210263 15 18 11
-588.13181802258 -329.84383496985 2396.50230503277 16 19 12
-642.732815743673 -327.946494061957 2376.53332105976 17 20 13
-563.782302278304 -330.991757881203 2369.15453583017 14 16 11
-600.101121480335 -329.7023243948 2359.07015986224 12 17 11
-558.245119916066 -331.354763031306 2350.5094167319 15 18 11
-545.456133154524 -331.913578774798 2341.3039063072 15 16 10
-521.887684396548 -332.956272875113 2322.65980674973 12 13 7
-579.236832144465 -330.868528777474 2312.82185024231 13 14 8
-607.525236980737 -329.875495278288 2303.39169069272 11 13 8
-598.980327288361 -330.347207757421 2284.8484430912 3 8 4
-614.71015506747 -329.972801136232 2257.1433430966 5 10 6
-628.964658444994 -329.505468016164 2248.08132219738 9 11 6
-690.73963661953 -327.37634085781 2221.76231163025 6 7 0
-609.111873976339 -330.618534771112 2201.47444005476 9 12 3
-680.647947745852 -328.039044499886 2185.24183267534 7 12 5
-701.896426580793 -327.299385019922 2176.90853284578 15 21 11
-719.13866551838 -326.711104997286 2168.53912999108 15 17 4
-558.729735815256 -333.033474333344 2134.21634362202 14 14 6
-609.994325364331 -331.146923255797 2127.30035332863 13 14 8
-661.252041135424 -329.258260227734 2120.6646065289 13 14 6
-657.482548453607 -329.469925794922 2111.32019638938 11 15 1
-661.715864487675 -329.375471212854 2102.41093102132 14 17 0
-587.931024505182 -332.264942477943 2088.85714330408 30 31 13
-501.444243697423 -342.217640101546 2446.8307709592 14 20 10
-498.677475816752 -342.410694103264 2437.42454748003 27 30 23
-481.871890180642 -343.168055429028 2428.54648018111 23 26 19
-551.542829998101 -340.527021104268 2407.05952638538 15 18 11
-638.237653384323 -337.192399371086 2385.85032493385 13 16 9
-603.384092771702 -338.674829027709 2377.56825672184 14 17 10
-599.609704857075 -338.90468253085 2368.39564043377 12 14 9
-584.810440433171 -339.579456435671 2359.41791438957 10 15 9
-574.022006249847 -340.092648068488 2350.2891902755 14 17 10
-559.226688621188 -340.767932551077 2341.15666158163 16 17 11
-533.410083107273 -341.889284755815 2332.06821058064 16 17 9
-535.654208254531 -341.8762463556 2322.59034908493 16 17 9
-566.955590860745 -340.68657999387 2312.94752032865 14 15 9
-598.252433766952 -339.495416809043 2303.47440116013 0 1 0
-620.762911675421 -338.733248808488 2284.95013550069 13 18 14
-640.262427340624 -338.090090454184 2266.64311111452 16 20 19
-658.523301944486 -337.421803960838 2257.65596431342 12 14 11
-644.734312037472 -338.054723234409 2248.34631249853 13 15 12
-655.982543522891 -337.67004653121 2239.35725099889 10 11 6
-678.474679050987 -336.898508843086 2221.55992955479 10 11 3
-632.64962770008 -338.835510265127 2211.37588782676 10 11 3
-643.12767065967 -338.55147428761 2193.27223988259 9 14 7
-673.390576326211 -337.388123586492 2185.07094503963 8 13 6
-666.615027341522 -337.734554486978 2175.73511778448 15 21 11
-623.512216449072 -339.774329902873 2137.27178627497 14 13 8
-642.757529150374 -339.056485126244 2128.97076206583 14 15 9
-622.980519160131 -339.934754471182 2118.76262003945 14 15 7
-632.219099403887 -339.62534473257 2110.02055130255 19 23 9
-594.439092002918 -341.241635161172 2098.64594640117 15 19 4
-542.659997067083 -343.432972146276 2086.22584727797 9 13 0
-477.352189320243 -352.853324412314 2438.35077880748 26 29 22
-488.62741345883 -352.452366473294 2428.32423245141 27 30 23
-534.999752566065 -350.542846104385 2417.08886571412 20 23 16
-516.428219500081 -351.503612227311 2398.7860926524 15 18 11
-606.903990186344 -347.691597300378 2386.76825782727 15 18 11
-617.164157240496 -347.328489870287 2377.26485586743 10 13 6
-587.32430916675 -348.691978315665 2368.71670193561 13 15 10
-545.459810516486 -350.57475861134 2360.24073122813 11 16 10
-539.685000570272 -350.902949565561 2350.92030210146 14 17 10
-550.949399016304 -350.495973523785 2341.32332308794 15 16 10
-564.216757300607 -350.001733967566 2331.76308029611 17 18 12
-612.556575619365 -347.991782950623 2321.96529343938 17 18 12
-562.688851517854 -350.223110949877 2313.02490998193 20 21 15
-600.235861395062 -348.753170895429 2294.24056364524 20 24 23
-630.459601361884 -347.818383831158 2248.21642414041 1 3 0
-655.730455924266 -346.795496232063 2239.4115025605 8 9 4
-674.989502054789 -346.032170223844 2230.63188739401 10 11 5
-668.210725656555 -346.39864352889 2221.40067865019 7 8 2
-687.466308243572 -345.633720212521 2212.75814582876 12 13 5
-700.940874650319 -345.189588750288 2195.045689591 6 11 4
-702.170827193132 -345.206308689667 2186.06509269769 11 16 9
-648.3456105211 -347.619837869555 2175.15962260801 11 17 7
-612.779802562383 -349.311093283359 2155.38226517343 12 12 2
-640.036384055974 -348.193458360427 2147.29563705932 12 13 8
-677.29644206813 -346.637985653238 2139.81820204022 13 13 11
-643.5049648038 -348.181755172994 2129.07786193852 14 16 13
-627.728654688997 -348.939982428998 2119.07937374442 14 16 11
-608.953007227405 -349.829572147858 2108.83052209536 23 28 21
-581.17617026461 -351.113036660085 2097.96431931492 24 29 22
-547.400696492654 -352.659668186761 2086.58610950123 10 15 9
-473.074988066595 -362.631929690747 2438.56781062348 27 30 23
-517.44923090696 -360.689762322767 2427.24369790826 30 33 26
-515.684161532819 -360.853218129897 2417.82756883448 21 24 17
-536.984529870436 -359.962080650643 2407.62889289433 17 20 13
-492.100172630958 -362.096620016673 2399.57532737093 15 18 11
-506.380362269857 -361.525660250261 2389.62066470685 16 19 12
-597.859928425551 -357.419321202368 2377.79521002388 11 14 7
-559.998641010111 -359.23300896293 2369.37603481729 12 14 9
-546.202194297944 -359.945268834464 2360.27263095607 11 16 10
-537.419615965346 -360.427965726694 2351.0065029274 13 16 9
-544.67568969108 -360.174968238412 2341.46143707062 15 16 10
-640.130125498596 -355.873093582961 2330.9362299658 15 16 10
-573.215881329429 -359.022815773763 2322.36142674831 15 16 10
-673.124676893392 -354.661372060157 2294.2503424782 0 1 0
-544.347683652874 -360.739170098906 2275.45892910598 0 6 6
-650.775523615606 -355.914496267951 2266.83416989337 0 2 2
-652.00936133077 -355.932115507911 2257.70076140594 9 13 12
-642.225147010166 -356.457316329761 2248.4282383471 5 10 6
-599.390619277272 -358.507077049166 2238.57691198244 12 14 9
-662.720812955754 -355.659233377105 2230.46271810427 9 10 4
-627.902470457339 -357.339667100189 2220.60092725817 9 10 4
-681.208375648302 -354.950858960415 2212.66818361918 12 13 5
-716.483817646953 -353.392631429541 2204.54305170677 11 14 5
-680.667743707777 -355.119321310533 2194.50890895605 7 12 5
-586.025842253185 -359.641281929015 2173.04114741709 14 19 12
-629.306222267926 -357.710114741678 2165.3396854884 12 13 5
-660.569244676812 -356.333461563764 2157.38755338455 12 13 5
-620.766291346829 -358.248378413155 2146.53039271312 11 13 10
-660.032166323881 -356.498908722778 2139.09262968792 12 14 13
-652.258080850623 -356.929313493644 2129.57541621062 13 15 14
-627.474151451392 -358.14898073931 2119.13832878344 12 16 15
-648.720680144201 -357.2325079884 2111.06177094846 17 22 18
-601.92896053933 -359.474828205129 2099.22248364807 17 21 20
-510.166160722453 -370.514672860696 2427.56629586376 25 28 21
-522.442881574949 -370.004147640107 2417.62359531434 27 30 23
-533.715376985825 -369.541366979286 2407.77940235553 23 26 19
-552.005892308292 -368.737601184907 2397.77926082944 15 18 11
-534.194878186985 -369.683188340203 2388.88655747544 16 19 12
-631.695298754684 -365.03523571498 2376.9850938381 14 15 9
-586.81069445352 -367.293231644742 2368.8179509796 11 14 7
-572.008580191549 -368.092188362012 2359.80894375143 13 16 9
-639.411893862731 -364.89769985724 2349.31728321982 16 19 12
-600.550535935635 -366.864938434259 2340.71129514958 17 18 12
-589.760266518448 -367.468618484736 2331.56646362699 14 15 9
-496.785369751003 -372.070981369115 2323.08570282693 13 14 8
-633.560476137344 -365.57105147129 2303.51218269954 2 4 1
-526.573281194438 -370.860588702071 2294.39117587948 10 15 11
-539.839898617024 -370.292868648277 2284.93878622907 3 9 9
-676.801780847029 -363.841313366658 2258.0134781668 0 3 1
-564.840339414649 -369.383292830773 2247.47274402236 0 5 3
-574.093408041705 -369.00757804356 2238.23561233011 7 12 8
-590.356217772536 -368.288527156209 2229.17794563452 14 17 10
-647.678354938828 -365.560541151386 2221.08309867716 9 12 5
-722.016897205332 -361.997162381825 2213.71054819196 11 12 4
-740.2689686948 -361.175437427768 2205.24153278701 10 13 4
-651.37989375146 -365.599034277583 2193.70661843669 14 20 10
-604.790136928278 -368.027161507227 2173.76509594174 10 15 8
-636.059569048551 -366.5667807956 2165.66167507791 9 15 5
-680.337662286135 -364.466610509284 2158.25574849657 10 15 9
-647.2343908628 -366.373582132601 2120.22796160583 15 20 16
-679.488607852007 -364.857913610357 2112.80326222783 21 27 25
-671.714260584353 -365.309210337046 2103.27384840932 15 21 21
-515.642083660208 -379.977649190722 2398.93777669838 19 22 15
-567.027705990356 -377.429458395785 2388.01114859903 15 18 11
-660.753185820528 -372.788436390557 2367.19803233068 15 18 11
-587.792698805511 -376.609808317765 2359.5425584118 16 19 12
-646.176897180004 -373.69456924935 2349.24790002674 18 21 14
-617.337169631524 -375.254059266518 2340.51860660862 18 19 13
-570.457655986238 -377.741138178391 2331.83848671861 11 12 6
-472.709758694023 -382.925911555884 2313.72763942301 10 12 7
-532.324591112978 -380.021440049478 2294.441464692 6 12 10
-605.654753753044 -376.634434593238 2248.06485865113 13 19 17
-588.860919362962 -377.577022230456 2238.52863020122 6 11 7
-614.138791478136 -376.34858020478 2229.67947164827 9 11 6
-640.414698199124 -375.067117425468 2220.98875477314 11 14 7
-728.780400233999 -370.576738515279 2213.93311424073 10 11 3
-699.965719985718 -372.137975274516 2204.2230100451 10 13 4
-636.573588971038 -375.634377216162 2174.94407102222 9 14 7
-652.825607248058 -374.865758516409 2166.36139382461 8 14 4
-597.469183969707 -377.950165715538 2136.35479665798 12 17 11
-637.74065213887 -375.934159176535 2129.00931671209 16 21 15
-618.958578572533 -376.979468049554 2118.84442026304 17 22 16
-656.220995373295 -375.11680375559 2111.61395906898 21 27 23
-532.95446622429 -388.349974770108 2417.32319639706 27 30 23
-515.139149040227 -389.395005118861 2408.48257241167 28 31 24
-621.929397954248 -383.803500860061 2386.51697938293 27 30 23
-640.214271797889 -382.898304561796 2376.85555944394 25 26 20
-619.62250695417 -384.172077158798 2358.95803677241 14 17 10
-565.714238988911 -387.166143858952 2350.66583766149 13 16 9
-610.064776600618 -384.849928769907 2340.66983103649 12 13 7
-579.458921721613 -386.666309546193 2322.45610910146 11 14 7
