ply
format ascii 1.0
comment KinectMotionCapture
element vertex 755
property float x
property float y
property float z
property uchar red
property uchar green
property uchar blue
end_header
-1176.04109711733 240.425113978762 2636.68047118726 125 130 126
-1167.03141024945 239.128218987518 2645.27371841012 124 129 125
-1162.07949144233 238.217567875785 2653.58937772501 126 131 127
-1151.00225947253 236.731971661495 2662.17973990716 129 134 130
-1143.98568612386 235.63227057737 2670.50302608341 123 128 124
-1134.91437827406 234.342314619712 2678.87186762033 117 122 118
-1132.97616924225 233.724659806689 2686.87193300904 115 120 116
-1128.98777972588 232.916273887223 2694.93323223836 116 121 117
-1130.10411479776 232.587080419638 2702.76645042682 116 121 117
-1126.10139843207 231.780322588665 2710.77558476244 116 121 117
-1122.08978910442 230.97453550677 2718.75231415342 115 120 116
-1114.99463695092 229.883568718515 2726.79029602803 108 113 109
-1119.16771442998 229.842553468392 2734.46465013401 105 110 106
-1123.34331282303 229.801275545171 2742.14819806149 101 106 102
-1127.52122516056 229.759665099259 2749.8410562964 100 105 101
-1123.48001261009 228.95715736197 2757.70994512964 112 117 113
-1122.51551017299 228.44061226383 2765.49177823727 117 122 118
-1119.48774770931 227.73471166217 2773.28808091565 116 121 117
-1118.51234383055 227.219290258766 2781.03107757156 105 110 106
-1118.56315833365 226.799107502133 2788.74710123499 93 98 94
-1120.67317770761 226.568633882729 2796.43568064005 81 86 82
-1123.81487944546 226.432745394624 2804.11809017402 84 89 85
-1123.8595499207 226.01309278926 2811.81256599848 91 96 92
-1116.66723966739 224.932510766249 2819.49637528809 95 100 96
-1090.8476228585 222.154424996169 2827.08734321843 124 128 127
-1060.84993225514 219.003323245954 2834.51664982747 129 133 132
-1045.30555756304 217.17616481797 2841.89195267672 122 126 125
-1040.09940869867 216.293111482451 2849.28112940795 117 121 120
-1041.10474095655 215.975506930238 2856.71046156094 109 113 112
-1043.14630959489 215.752011276415 2864.14930232277 110 114 115
-1044.14933864359 215.434564706116 2871.56925383053 125 129 130
-1043.07243688688 214.929510087419 2878.94195380379 151 155 156
-1037.83184689859 214.049833492774 2886.20538928958 146 150 151
-1038.82438571614 213.733253571739 2893.58693978205 143 147 148
-1039.81513228679 213.416729379964 2900.96280022012 148 152 153
-1041.84644208185 213.193799223863 2908.36390893322 146 150 151
-1043.8776252961 212.970782616274 2915.76449309562 142 146 147
-1051.12578354505 213.214496033273 2923.34589200011 149 153 154
-1075.08632851959 214.949973950882 2931.57408705063 169 173 174
-1423.39184886426 260.621014273616 2515.71328357649 133 138 132
-1420.72782515052 259.887718132932 2524.8427808334 119 124 118
-1415.02568344949 258.872343057561 2534.20321273885 114 119 115
-1404.25675283286 257.386948741532 2543.93836488794 112 117 113
-1375.25852969928 254.208210227031 2555.06197893824 82 87 83
-1323.94310828235 248.963839202389 2567.74670017353 100 105 101
-1281.66929605615 244.574327429928 2579.4711870803 105 110 106
-1260.62217806121 242.16502003898 2589.42812452574 118 122 121
-1241.57083421217 239.947277194972 2599.12235424918 125 130 126
-1219.44298752191 237.451476177491 2608.90939972493 123 128 124
-1195.24859505084 234.772086219248 2618.70049807084 137 142 138
-1181.18362781195 233.03343163512 2627.7271781249 111 116 112
-1173.19955757016 231.858778468455 2636.30826654689 125 130 126
-1165.20052072982 230.685776918623 2644.83575868871 124 129 125
-1160.24353139406 229.794717382865 2653.14496122 127 132 128
-1150.1785323326 228.438167628927 2661.6777695712 129 134 130
-1138.05517357368 226.897010132283 2670.24623894241 122 127 123
-1129.99549137049 225.730856359475 2678.55196104357 116 121 117
-1128.0512876581 225.125014892275 2686.53722768637 113 118 114
-1129.16819403831 224.798932501763 2694.37453120184 112 117 113
-1131.30637339671 224.566010769023 2702.16611749933 113 118 114
-1129.34891610186 223.961673261643 2710.10312570954 119 124 120
-1127.38517525313 223.357968692004 2718.01813294203 119 124 120
-1120.28940359918 222.291443666291 2726.06831695971 108 113 109
-1121.38790482346 221.967396137349 2733.83949946612 103 108 104
-1122.48484970339 221.643593510859 2741.60412916706 102 107 103
-1125.63469440813 221.504914723311 2749.31501029216 105 110 106
-1124.67324949595 220.996500530172 2757.1142578408 116 121 117
-1124.73618393139 220.580909306321 2764.878179291 116 121 117
-1123.76624727031 220.073376135169 2772.64645487149 112 117 113
-1122.79172428811 219.566330070168 2780.39800987388 95 100 96
-1122.84351137819 219.151847656249 2788.12217248258 85 90 86
-1123.92400024007 218.829702743269 2795.82675080734 77 82 78
-1123.97046066424 218.415785755532 2803.53056450755 84 89 85
-1124.01357765482 218.002132782743 2811.22306040183 95 100 96
-1109.58016467691 216.303816320743 2818.90817004141 96 101 97
-1083.74391587578 213.599212245657 2826.48377913979 129 134 130
-1051.65744341721 210.348969995849 2833.88882578018 132 137 133
-1044.38661670534 209.301051924306 2841.30174115694 129 134 130
-1040.21275571982 208.528876020689 2848.69728228111 125 130 126
-1043.29200683714 208.397401284099 2856.14968249021 131 136 132
-1044.29598673211 208.083014758356 2863.57602527821 129 130 132
-1044.25980215356 207.677544074909 2870.97832683565 136 137 139
-1043.18095134236 207.181119884596 2878.34923915228 144 145 147
-1041.05748337075 206.59403272541 2885.68077322371 138 139 141
-1042.05074954384 206.280452047156 2893.06784683213 139 143 144
-1042.00116113251 205.876040569568 2900.42105131265 149 153 154
-1039.86346712263 205.290115012951 2907.70142928976 153 157 158
-1040.84947128091 204.97707808647 2915.06095473439 146 150 151
-1043.9213807436 204.845434399936 2922.48691917515 157 161 162
-1061.61781787191 205.982182279447 2930.45855405028 157 163 163
-1418.6742435408 251.147118812205 2515.59619835691 115 120 114
-1412.97424551915 250.153071558199 2524.97805459367 116 121 115
-1408.27264267832 249.252094294284 2534.23012461436 109 114 110
-1398.50413307733 247.894469730423 2543.86306164324 112 117 113
-1368.47633300339 244.708534203341 2555.05583487289 89 94 90
-1316.12102345539 239.516156167578 2567.8088013256 112 117 113
-1279.90380351074 235.794114717919 2579.06278280519 104 109 105
-1258.84515769665 233.44734407252 2589.01640214481 134 138 137
-1234.70833072896 230.83068825845 2599.06083697669 123 128 124
-1209.51823918446 228.127142379379 2609.03616941508 123 128 124
-1187.33827231619 225.70103502537 2618.67277479327 130 135 131
-1178.3453824348 224.461379050582 2627.3645236533 113 118 114
-1170.35428661949 223.314472008336 2635.9370449482 124 129 125
-1164.38566317376 222.350828312931 2644.34074284977 126 131 127
-1157.38576901995 221.297801481079 2652.75635230943 127 132 128
-1144.25314420897 219.702350538567 2661.43872796245 128 133 129
-1133.13986267102 218.290445493491 2669.94176991008 122 127 123
-1127.11437418517 217.333154762992 2678.13927901486 117 122 118
-1127.2098881762 216.919759931096 2686.02554865641 114 119 115
-1127.30190121439 216.506748423226 2693.8999909795 112 117 113
-1126.36726290429 216.003855547128 2701.80225205828 112 117 113
-1126.45215986784 215.591652607239 2709.65078427838 118 123 119
-1122.43433161485 214.819388783038 2717.62465982593 119 124 120
-1119.43293668585 214.138123189163 2725.53441324696 106 111 107
-1119.50317755991 213.727571974438 2733.3295730921 99 104 100
-1121.62452903298 213.497130809852 2741.0602468504 104 109 105
-1123.74555568565 213.266683887571 2748.78971097912 108 113 109
-1120.72376542464 212.587697603188 2756.62425054396 118 123 119
-1119.75287658325 212.088766216534 2764.39442158202 116 121 117
-1120.8373396385 211.769483235962 2772.11556218211 110 115 111
-1121.91982578071 211.450349550204 2779.83038617103 95 100 96
-1124.03215992089 211.220777986025 2787.52812935984 83 88 84
-1123.04814492161 210.72322742617 2795.24950830553 77 82 78
-1119.99367348276 210.047566056635 2802.96573726206 86 91 87
-1115.89839020508 209.283473309553 2810.65812529651 93 98 94
-1100.41789685859 207.54016870601 2818.32354797661 92 97 93
-1071.45884096085 204.642052199124 2825.87250293516 126 131 127
-1048.67066203802 202.282272842932 2833.29281218659 130 135 131
-1042.42957447181 201.348155347995 2840.70447453009 135 140 136
-1038.25113733313 200.592798822786 2848.09364416951 135 140 136
-1039.25289004242 200.281984145374 2855.51304390915 139 144 140
-1039.2144311034 199.882560447135 2862.9116479843 146 147 149
-1037.09464395032 199.306268705159 2870.26366387479 151 152 154
-1036.00883161345 198.819011335765 2877.61451686186 158 159 161
-1038.04049051564 198.597369430769 2885.01773507563 152 153 155
-1042.15475944988 198.552324483525 2892.47120044104 146 150 151
-1044.18752255735 198.33035268929 2899.87831007777 152 156 157
-1041.00623488483 197.667379751622 2907.13170602565 153 157 158
-1043.03522041285 197.445570462945 2914.52489284774 154 158 159
-1048.19667608304 197.487714148592 2922.02508327488 159 163 164
-1064.85639237508 198.49665183853 2929.96320459825 151 157 157
-1417.62967663035 242.500650190878 2506.25899850887 152 157 151
-1409.91318834436 241.349566869826 2515.84844705468 113 118 112
-1405.21294247454 240.467416063305 2525.11651225992 116 121 115
-1402.52410504246 239.764544323592 2534.17308941801 110 115 111
-1397.80433329024 238.884767315698 2543.37015754102 114 119 115
-1368.77472742665 235.874314175566 2554.48257121872 99 104 100
-1312.34391552338 230.472428899023 2567.55886388112 113 118 114
-1272.05215496528 226.498592205326 2579.11211487532 116 121 117
-1248.94860470047 224.037605528421 2589.1939355253 136 140 139
-1226.82386064475 221.669181617068 2599.07291971157 129 134 130
-1203.64858332908 219.216230583112 2608.8935051641 138 143 139
-1181.45385649114 216.85558995199 2618.51664192938 121 126 122
-1174.48649079025 215.823149577632 2627.06602037091 120 125 121
-1168.52396674947 214.88041239191 2635.50649246582 126 131 127
-1167.64430356233 214.379710794712 2643.61424886011 129 134 130
-1157.58346400616 213.08708950382 2652.20286172409 126 131 127
-1144.44375134214 211.53248328171 2660.88563780865 126 131 127
-1130.26123083699 209.892405991862 2669.53903119047 124 129 125
-1125.25150974549 209.045296577497 2677.68019885367 122 127 123
-1126.36638187203 208.725832645249 2685.51412813202 120 125 121
-1128.50261197192 208.494219473903 2693.29930337186 117 122 118
-1126.54283134723 207.912347408567 2701.24186901777 115 120 116
-1125.60153170896 207.418687725239 2709.12522724521 118 123 119
-1121.57953398766 206.663217990452 2717.09515430545 119 124 120
-1117.54862752106 205.908720830165 2725.0326189731 106 111 107
-1117.61609443592 205.504346422246 2732.8204503414 98 103 99
-1117.68014594429 205.100302119695 2740.59673840855 107 112 108
-1117.740979862 204.696615505978 2748.36130601822 114 119 115
-1114.71214308016 204.032105939386 2756.17882307403 119 124 120
-1112.70539030513 203.455363164299 2763.95022869736 115 120 116
-1117.90499722467 203.487505568651 2771.58575295047 105 110 106
-1120.01537390605 203.258781383108 2779.27676346891 82 87 83
-1125.2205663404 203.29018400812 2786.93348760833 75 80 76
-1124.23530590709 202.801225824226 2794.65566727795 87 92 88
-1122.21186773151 202.226116830026 2802.36708378551 97 102 98
-1113.97921925092 201.132549332409 2810.0764431734 96 101 97
-1090.21288447116 198.744057814979 2817.74324447014 95 100 96
-1065.37512866748 196.2730796351 2825.27724114422 131 136 132
-1046.7164261631 194.323708305676 2832.70238656543 131 136 132
-1042.54353503767 193.584173778953 2840.1221366466 132 137 133
-1036.28686583627 192.673231944172 2847.49057933108 133 138 134
-1037.28606001945 192.365818116825 2854.90262688343 133 138 134
-1036.20576035449 191.886559255464 2862.27899718014 123 124 126
-1033.04192556952 191.235929890427 2869.60405634184 131 132 134
-1028.83033592509 190.500134519197 2876.88248711372 145 146 148
-1030.85623769016 190.279649470227 2884.26506058403 141 142 144
-1030.79839957558 189.887709370806 2891.5964383311 140 144 145
-1031.78021410694 189.581597948667 2898.94478091302 147 151 152
-1032.76047461345 189.275507399677 2906.2873668835 144 148 149
-1041.04606558361 189.567411651594 2913.85558395915 150 154 155
-1054.56345547502 190.285014135118 2921.63281961377 143 147 148
-1078.54916758781 191.853423694009 2929.84897710041 153 159 159
-1414.92740493044 233.248521839195 2505.97089439126 149 154 148
-1414.27396227044 232.730437200071 2514.90758852214 115 120 114
-1408.56202960005 231.781001257533 2524.27422801635 115 120 114
-1404.86138401755 231.00567371507 2533.42380638198 112 117 113
-1402.16353219566 230.31767958621 2542.45630782212 112 117 113
-1378.1877666849 227.821483248067 2553.17478408333 104 109 105
-1324.78005094305 222.833352456795 2566.04657302876 113 118 114
-1272.30762090144 217.939972632878 2578.55346586192 131 136 132
-1244.1179493075 215.117117291048 2589.00650990488 135 139 138
-1216.90056312942 212.384914318365 2599.23037191008 141 146 142
-1191.67427031832 209.828888164616 2609.16443237267 155 160 156
-1176.58062069738 208.134020347236 2618.29671043746 123 128 124
-1169.60526952165 207.126736535705 2626.83232291281 126 131 127
-1163.63537580466 206.206506783497 2635.25871383715 127 132 128
-1160.71137372578 205.543989306391 2643.46764832153 128 133 129
-1147.57954201716 204.028561490667 2652.20442004365 128 133 129
-1137.48833357056 202.771541746168 2660.70275612224 127 132 128
-1126.3580147547 201.431172328767 2669.18770584658 123 128 124
-1123.3860082931 200.77404794073 2677.22181438064 121 126 122
-1120.40673633929 200.117799863416 2685.22857180033 118 123 119
-1122.53782958606 199.887344017147 2692.99540558578 118 123 119
-1120.57136644367 199.317321524635 2700.92064155319 117 122 118
-1120.64873931368 198.917614270776 2708.74912741068 118 123 119
-1117.64561695302 198.264030825501 2716.66994427597 117 122 118
-1117.71468705041 197.865290965828 2724.46728530559 106 111 107
-1117.78034174131 197.466881211522 2732.25308303406 99 104 100
-1116.81494429425 196.984341362659 2740.05399130179 110 115 111
-1113.78788198063 196.333403855199 2747.88666529799 117 122 118
-1112.81188002753 195.851974937641 2755.64890249711 117 122 118
-1110.80131951185 195.286734811455 2763.41343289605 112 117 113
-1119.09217022398 195.564289482948 2770.99118976642 101 106 102
-1119.13944806374 195.167831804088 2778.70999028662 81 86 82
-1125.37667057512 195.276037757782 2786.3496800239 78 83 79
-1123.35635090976 194.711753026821 2794.07857979935 93 98 94
-1124.43087384163 194.399786233854 2801.7674337274 99 104 100
-1115.16038008944 193.249627447022 2809.4849976633 96 101 97
-1091.38394706737 190.92860522181 2817.15690274462 100 105 101
-1064.46415043055 188.360378605238 2824.69286209327 125 130 126
-1047.86893011528 186.632404738985 2832.12552142803 124 129 125
-1042.6564894876 185.825955237373 2839.53970172569 119 124 120
-1034.32024037473 184.770147924234 2846.88825207479 119 124 120
-1032.20084094371 184.216029823748 2854.25663580022 119 124 120
-1031.11501824655 183.745756972752 2861.61817345733 119 121 120
-1028.98479229079 183.19268152701 2868.94608967346 120 121 123
-1024.76716085285 182.473860601219 2876.21280522638 134 135 137
-1023.66514319644 182.005056413391 2883.51514141098 141 142 144
-1022.55896431698 181.536596212865 2890.80131594306 143 147 148
-1024.57669315214 181.31724414485 2898.15426023132 145 149 150
-1031.81205262414 181.511885071507 2905.6580870066 146 150 151
-1043.2317056932 182.036631412448 2913.3186475038 145 149 150
-1060.93380303518 183.055899430289 2921.23805603093 137 141 142
-1082.8402075584 184.403059282623 2929.38710725709 147 153 153
-1421.30874562401 224.773342115732 2504.83024593776 152 157 151
-1423.68880520197 224.51481414955 2513.50371964795 121 126 120
-1417.97952337798 223.586842249821 2522.89282346578 109 114 108
-1413.2700569324 222.743941436151 2532.1514348711 106 111 107
-1406.52488701966 221.735222160034 2541.54075898447 108 113 109
-1385.58056435869 219.559518713084 2552.0268406585 100 105 101
-1330.12709168018 214.552267321414 2565.08370407799 119 124 120
-1278.65032571542 209.887294997564 2577.53518663764 141 146 142
-1243.3438893783 206.562407692951 2588.52515109488 142 146 145
-1210.01664890354 203.409794725015 2599.17774806117 146 151 147
-1185.79045037527 201.010423289042 2609.02754578634 168 173 169
-1171.70236215506 199.445236413748 2618.07882962107 125 130 126
-1165.73719911256 198.54604258854 2626.53699461814 131 136 132
-1160.7793477952 197.731059996502 2634.89102778027 131 136 132
-1152.75190993526 196.668969097711 2643.38216665909 130 135 131
-1144.70978662904 195.608518877742 2651.81981719287 125 130 126
-1136.65299145 194.54972220836 2660.20403790373 123 128 124
-1128.58149283145 193.492582740407 2668.53471389576 121 126 122
-1121.51783857545 192.519513558397 2676.76407566692 120 125 121
-1119.55754497066 191.959825351119 2684.71874244491 118 123 119
-1120.66319006208 191.647782875043 2692.52309906923 117 122 118
-1121.76706300008 191.335974240559 2700.32102367063 116 121 117
-1118.76723914746 190.695728825205 2708.26250818361 114 119 115
-1117.81228508869 190.220472806408 2716.10678933423 110 115 111
-1116.85270651247 189.745751636155 2723.9342382333 102 107 103
-1117.94375201807 189.435397675106 2731.68545549695 99 104 100
-1115.94815740617 188.879647789651 2739.51154300456 118 123 119
-1109.83032468947 187.99747554454 2747.41362195837 121 126 122
-1108.84944934495 187.525044152738 2755.16344577704 112 117 113
-1108.89458234907 187.134704961001 2762.87721681285 106 111 107
-1120.27907647721 187.64160970372 2770.39597480227 94 99 95
-1119.2937025678 187.169597502228 2778.12936098602 83 88 84
-1125.53175764447 187.267728020822 2785.7657807728 83 88 84
-1124.54225039679 186.796078327757 2793.4840495505 97 102 98
-1128.71833875071 186.7310161913 2801.15440049953 96 101 97
-1116.34131458809 185.367179428533 2808.8930109724 102 107 103
-1089.44851284186 182.870370946438 2816.57335770781 116 121 117
-1060.44319898269 180.215847459127 2824.10435780217 120 125 121
-1046.94743801726 178.779725879957 2831.54000132797 126 131 127
-1041.73072013339 177.99264623401 2838.95053012456 122 127 123
-1035.46563417728 177.125822031602 2846.31464758948 123 128 124
-1031.26673541019 176.421557950253 2853.6601043073 127 132 128
-1029.1383664594 175.879337301825 2861.00269739217 125 127 126
-1030.12559520417 175.579300600699 2868.37497714817 117 119 118
-1029.02890050552 175.118415771102 2875.70207629988 125 127 126
-1025.8442590848 174.49714082077 2882.96841734176 138 140 139
-1019.52444516547 173.635555923721 2890.13357745125 139 143 142
-1023.62591372028 173.577448714315 2897.53127068813 134 138 137
-1032.94982892336 173.9196645321 2905.0890968167 149 153 152
-1045.41765596892 174.500898020392 2912.78066449555 142 146 145
-1057.89965171631 175.080420619546 2920.52375762149 140 144 143
-1417.59313503768 215.460380049346 2504.63772630541 164 169 163
-1421.99096776052 215.365000295487 2513.11315870156 124 129 123
-1418.2993121827 214.621372118537 2522.31612851244 119 124 118
-1410.54944564184 213.555094320619 2531.83519190759 106 111 107
-1403.79769276128 212.571383841986 2541.21586399715 101 106 102
-1384.86834645999 210.619821226058 2551.53202798833 103 108 104
-1331.41928046086 205.927637008892 2564.43620768431 119 124 120
-1281.95118199759 201.566617362013 2576.74473802845 145 150 146
-1240.53643788334 197.858068367546 2588.192380327 136 140 139
-1206.1754540861 194.719673431121 2598.91311687268 165 170 166
-1178.88334220223 192.149742587531 2608.96198710537 127 132 128
-1169.87299025545 191.030245603005 2617.66383581266 128 133 129
-1162.88371112416 190.073096401047 2626.17938888674 128 133 129
-1159.95899984879 189.438092679222 2634.40213198579 129 134 130
-1148.86563475599 188.163245626116 2643.06565103176 128 133 129
-1138.77404947721 186.970513000106 2651.60410454998 123 128 124
-1132.75134784887 186.099484477428 2659.86549313014 123 128 124
-1126.71654776935 185.22980473921 2668.08374310669 123 128 124
-1122.71601021658 184.520983347823 2676.16279888855 119 124 120
-1120.75400142517 183.972599099917 2684.11823424296 119 124 120
-1121.85915592162 183.663819398531 2691.92282932946 116 121 117
-1120.91218526061 183.196117278394 2699.80152040743 112 117 113
-1120.98635646126 182.808420242215 2707.62570171682 113 118 114
-1117.97790038667 182.182885400764 2715.54349494525 109 114 110
-1118.04350565564 181.796150174174 2723.33647986542 104 109 105
-1118.10617448625 181.409761698409 2731.11785226325 111 116 112
-1118.16540991713 181.023719850616 2738.88762498614 122 127 123
-1111.01565246597 180.084365363245 2746.81858816266 122 127 123
-1106.94310786794 179.383482023168 2754.63530756849 107 112 108
-1104.92346623059 178.841402261815 2762.38074378446 99 104 100
-1114.24474397403 179.167430809163 2769.91855774714 82 87 83
-1118.41451811722 179.098463189505 2777.56299955168 80 85 81
-1124.65268856529 179.186543453661 2785.19350248531 86 91 87
-1123.66050401977 178.72362285556 2792.90734207449 95 100 96
-1124.73261831768 178.418288936611 2800.59144086614 96 101 97
-1110.27630804334 176.935894192273 2808.32785900075 93 98 94
-1080.25974347158 174.279881519141 2815.9996635893 131 136 132
-1048.12556016684 171.47195786407 2823.50682601398 122 127 123
-1037.7262279692 170.312261543513 2830.92353293301 122 127 123
-1035.61343815277 169.779683973675 2838.32912740287 127 132 128
-1032.45586756674 169.169597075027 2845.70396972086 129 134 130
-1027.21240043361 168.404154126225 2853.02884407552 126 131 127
-1022.99878061983 167.717651665317 2860.33085818954 129 131 130
-1027.10302047817 167.654934785973 2867.73593042901 131 133 132
-1029.12682998132 167.43619364382 2875.11183675235 136 138 137
-1023.85489224505 166.673408032142 2882.33268304118 139 141 140
-1018.57277141891 165.91161240489 2889.51634653752 140 144 143
-1024.7607616158 166.003878806693 2896.96318294175 140 144 143
-1038.2648908081 166.637730178387 2904.63923717452 137 141 140
-1051.78481838188 167.269761525405 2912.37186961048 134 138 137
-1063.22835908224 167.745279382091 2920.09096893553 136 140 139
-1420.94642632726 206.724550874292 2503.77985365317 152 157 151
-1420.29043111538 206.232106456423 2512.72325855263 115 120 114
-1416.59409142506 205.505396793511 2521.91951863593 110 115 109
-1410.86307823456 204.623241452591 2531.25779334833 96 101 97
-1404.10686650687 203.664337431068 2540.63757211081 95 100 96
-1384.15446534896 201.691703214755 2551.03742178901 83 88 84
-1327.63713562264 196.913592105266 2564.18630908558 122 127 123
-1272.05195525358 192.222622934332 2576.95385170064 131 136 132
-1231.62807855287 188.708679634477 2588.30693396456 129 133 132
-1200.29624318028 185.901498668499 2598.79352590037 155 160 156
-1178.07578656054 183.799031307416 2608.4841301159 126 131 127
-1169.05923394494 182.709734068887 2617.18295251631 129 134 130
-1159.00777940829 181.54468755724 2625.88695415535 129 134 130
-1154.03765154939 180.769062888582 2634.2202554573 128 133 129
-1143.95441200766 179.607569801699 2642.80941807103 126 131 127
-1139.98107962491 178.912036535927 2650.997870744 124 129 125
-1133.95506979538 178.063009696633 2659.2608673326 124 129 125
-1128.93978549803 177.292506504458 2667.42974506114 123 128 124
-1123.9139065862 176.523149287318 2675.56093959374 120 125 121
-1120.92619433983 175.909007045358 2683.5629432816 119 124 120
-1121.00516137667 175.526546427883 2691.40823659141 118 123 119
-1121.08118534547 175.144476652782 2699.24192060135 114 119 115
-1122.17987473014 174.839600246945 2707.02590535391 115 120 116
-1118.14242465062 174.151316350961 2714.97994943558 112 117 113
-1118.20645149792 173.77054031624 2722.7708363072 111 116 112
-1118.26727211811 173.390149539297 2730.55006231759 117 122 118
-1121.41245293012 173.239583074741 2738.2351930436 123 128 124
-1114.26044156497 172.324707824955 2746.17324278835 121 126 122
-1106.06482735048 171.334909171627 2754.08561736365 104 109 105
-1103.01067558044 170.727981724242 2761.846428188 97 102 98
-1109.23694070377 170.807466890968 2769.42637346719 83 88 84
-1114.43546923021 170.810266018276 2777.04029707157 85 90 86
-1119.63829229605 170.81256115611 2784.66891824399 89 94 90
-1119.67483173132 170.434610274985 2792.3586043737 93 98 94
-1119.70798732676 170.056985848384 2800.03686209818 93 98 94
-1103.17004695567 168.466774375178 2807.76916660213 92 97 93
-1073.13503683415 165.894858399698 2815.42650975454 127 132 128
-1044.09266759539 163.403333722856 2822.92283940301 130 135 131
-1035.76032646873 162.427774085639 2830.33656352049 134 139 135
-1030.52865045784 161.680145877845 2837.7164632959 137 142 138
-1028.40401855448 161.159797986806 2845.08581159694 135 140 136
-1023.1540938549 160.41399149904 2852.39910770654 133 138 134
-1024.13681299588 160.120736872936 2859.75985505715 134 136 135
-1027.20070681132 159.977939754918 2867.1480882554 134 136 135
-1028.18165980031 159.684672769133 2874.50227042655 135 137 136
-1023.94825775251 159.01627891014 2881.74134078365 136 138 137
-1018.66234274769 158.273732364773 2888.92399912328 137 141 140
-1024.85144634804 158.355811338605 2896.36760854512 138 142 141
-1036.26960558652 158.811172571676 2903.97974563992 145 149 148
-1056.0647020476 159.862856864877 2911.89601680531 139 143 142
-1074.83731050476 160.837089235078 2919.86526975411 140 144 143
-1467.38024420475 201.650638686914 2489.83512272118 142 147 141
-1421.26858874389 197.751339916358 2503.20708430294 154 159 153
-1414.54077844639 196.813239714346 2512.70544645173 124 129 123
-1408.81214936722 195.952362641497 2522.06507786425 118 123 117
-1408.13670453349 195.470861512023 2530.94317914918 101 106 102
-1403.40150596066 194.688009945832 2540.14416416064 97 102 98
-1383.43849130324 192.775026805406 2550.54319758441 83 88 84
-1319.78990723253 187.625804532537 2564.2569357623 126 131 127
-1270.27084110336 183.540527961294 2576.54939387247 127 132 128
-1226.77794147731 179.914353468644 2588.12682880228 163 167 166
-1200.51527742773 177.572280452793 2598.24444517454 149 154 150
-1181.33833183018 175.759861046252 2607.72916924503 127 132 128
-1176.39399901822 175.000301520369 2616.16838519067 130 135 131
-1159.20524707876 173.343324005943 2625.33945072047 129 134 130
-1152.19120936153 172.437482517531 2633.79454399932 129 134 130
-1143.12175434375 171.383677918017 2642.31935834323 126 131 127
-1143.23126825359 171.00352594506 2650.27859474029 123 128 124
-1133.11370483375 169.878048493854 2658.76305790885 123 128 124
-1125.02490771335 168.903464922111 2667.0816294249 122 127 123
-1119.99277820458 168.153814015601 2675.20112922653 120 125 121
-1119.04824770601 167.702683024278 2683.09934229262 119 124 120
-1121.17468704551 167.474917223851 2690.85059538665 117 122 118
-1119.19715532146 166.950452809995 2698.76349886558 115 120 116
-1118.24010863744 166.500769378042 2706.61615570139 116 121 117
-1116.25114062445 165.977584303332 2714.48740618868 115 120 116
-1116.31213477326 165.602950096455 2722.27091087381 116 121 117
-1117.39889180225 165.302551366358 2730.01249107594 121 126 122
-1118.48364950521 165.002347848047 2737.7477004414 120 125 121
-1114.41598829672 164.333660402693 2745.60194869545 113 118 114
-1109.30809794235 163.592259023405 2753.44630066823 94 99 95
-1105.22196960247 162.92550521166 2761.23320487795 88 93 89
-1108.35315768188 162.774239283661 2768.86687074821 84 89 85
-1113.55167611274 162.769681500248 2776.4751830789 86 91 87
-1117.72025097515 162.691256224748 2784.11013014266 89 94 90
-1119.82258379841 162.466004072965 2791.77346745282 96 101 97
-1116.74880450849 161.874712262239 2799.47034764267 100 105 101
-1102.27239822424 160.47976050511 2807.18736015561 110 115 111
-1070.15039761877 157.845373387775 2814.84931644009 134 139 135
-1046.27966565424 155.799776934312 2822.34592646621 119 124 120
-1035.86804504552 154.705615223975 2829.75745502297 120 125 121
-1027.51645636698 153.758839762455 2837.11788957443 120 125 121
-1024.34768519542 153.177241797998 2844.46913273524 121 126 122
-1020.13147010355 152.523677507234 2851.78230652669 125 130 126
-1021.11113848724 152.233902238846 2859.13299467524 132 134 133
-1022.08923264298 151.944179063396 2866.4778709127 132 134 133
-1022.02323631319 151.582051258302 2873.79778072756 133 135 134
-1020.91126391333 151.147787362687 2881.0849638331 134 136 135
-1017.70749973072 150.569319389492 2888.30733189246 135 139 138
-1023.89648931995 150.641324176264 2895.74508672156 136 140 139
-1034.27170324121 151.001092239044 2903.32094012611 126 130 129
-1058.254945539 152.296198492328 2911.3544492517 143 147 146
-1090.64064408898 154.163750693329 2919.77362288935 134 138 137
-1439.42493073158 190.504567646416 2492.00712948311 149 154 148
-1422.60086586549 188.857517538694 2502.53847428444 144 149 143
-1411.82132175913 187.651885841664 2512.41084809819 113 118 112
-1404.06088736134 186.667443273644 2521.94234159183 106 111 105
-1405.40685437668 186.340777104696 2530.62973378373 98 103 99
-1405.73658023919 185.941633660197 2539.39551280229 91 96 92
-1382.72084520563 183.869988660511 2550.04918414726 88 93 89
-1317.01332828719 178.750386538167 2563.93077860485 130 135 131
-1269.50329678705 174.947848799934 2576.06825426158 132 137 133
-1223.95684902071 171.298053640557 2587.79899534709 155 159 158
-1193.60878970452 168.742129740998 2598.20046513946 137 142 138
-1175.43622543941 167.059506011196 2607.59895703253 126 131 127
-1172.52241066799 166.464357286018 2615.88731907353 127 132 128
-1159.40187361495 165.148072578184 2624.79175417117 126 131 127
-1152.38320827741 164.266919954895 2633.2461822823 127 132 128
-1144.32999869495 163.315269621157 2641.71136219765 125 130 126
-1143.41638257148 162.869054888019 2649.72745814748 123 128 124
-1133.29347526459 161.776335178415 2658.21183301143 123 128 124
-1122.12938598172 160.613733892068 2666.68363310226 121 126 122
-1117.09152273007 159.883650174381 2674.79419833904 120 125 121
-1114.09294019035 159.298067062405 2682.77480252026 118 123 119
-1114.16392467903 158.928162290584 2690.59745627445 116 121 117
-1114.23150260077 158.558528835398 2698.40856243088 115 120 116
-1115.32303403935 158.26082728071 2706.16957193544 117 122 118
-1113.32931170929 157.749146102942 2714.03136255611 117 122 118
-1113.38677871856 157.380746928743 2721.80477911412 120 125 121
-1114.47021520153 157.083866063317 2729.5362517753 123 128 124
-1114.5218046039 156.716081760264 2737.2891631508 116 121 117
-1111.47836267097 156.135398029219 2745.10630640991 108 113 109
-1109.45900020745 155.626530540437 2752.87374763376 90 95 91
-1110.52973742047 155.330973993029 2760.55890649968 85 90 86
-1114.69678705263 155.248046040017 2768.1853479276 85 90 86
-1117.83321480887 155.09411610565 2775.83585675434 89 94 90
-1118.90216198488 154.798600590319 2783.5153244917 92 97 93
-1117.89994253422 154.36209163087 2791.20765234833 97 102 98
-1111.71489991036 153.573331228086 2798.91916943671 101 106 102
-1095.15526609501 152.081289860469 2806.63290989931 109 114 110
-1064.05122011613 149.606690798503 2814.27889362754 124 129 125
-1045.35425047252 147.980514665011 2821.76600918816 110 115 111
-1033.89770959089 146.84886298877 2829.17153377534 110 115 111
-1025.53992680761 145.929564188965 2836.52631815569 112 117 113
-1024.44685039522 145.502169760451 2843.88799538111 112 117 113
-1020.22747270665 144.865203596836 2851.19990625941 110 115 111
-1024.3299207428 144.788411209474 2858.58943927535 123 125 122
-1023.22484773855 144.36199988197 2865.90719618494 129 131 128
-1023.15800786007 144.005688510615 2873.22764626067 132 134 131
-1022.04478971206 143.579915936098 2880.5155651231 135 137 134
-1018.83902715213 143.015254188087 2887.73923012695 135 140 136
-1023.98481833442 143.007479743137 2895.14974568622 136 141 137
-1032.27150091089 143.207445197272 2902.66304131584 129 134 130
-1055.21451822329 144.37772444246 2910.65283911784 142 147 143
-1441.7756254847 181.630685098986 2491.23597310667 158 163 157
-1423.9328999105 179.964589769978 2501.86952657948 153 158 152
-1410.11069733691 178.583297374327 2512.02409305539 123 128 122
-1400.3178424349 177.485881081404 2521.73092263328 111 116 110
-1402.67347157457 177.233052495607 2530.31728920473 101 106 102
-1402.99940934836 176.840123802008 2539.07292746068 87 92 88
-1386.06220875906 175.256704001586 2549.22439434069 83 88 84
-1308.13722497938 169.477344198586 2564.0870241187 129 134 130
-1265.68394244634 166.157034694281 2575.82021129005 130 135 131
-1228.25430258087 163.192771923438 2586.94745740334 146 150 149
-1189.75037410162 160.164889849546 2597.9422349353 136 141 137
-1171.56607001131 158.53682673912 2607.33158587714 127 132 128
-1166.60732517354 157.816799908044 2615.74225166961 128 133 129
-1157.55677043158 156.819861094679 2624.37314111369 126 131 127
-1152.57434364601 156.102515432769 2632.69757322536 128 133 129
-1145.53799050176 155.247612612257 2641.10290272814 124 129 125
-1142.5783337696 154.671427491287 2649.23303518062 124 129 125
-1131.42574369467 153.542300517188 2657.7686635051 124 129 125
-1122.3020722304 152.553565206274 2666.13233512923 121 126 122
-1118.28508839299 151.911936377995 2674.1927509464 122 127 123
-1117.33509281542 151.478276354551 2682.08170349976 119 124 120
-1116.38044115372 151.045154830493 2689.95370890566 117 122 118
-1113.36761931172 150.474851434213 2697.89109216093 119 124 120
-1115.4846347211 150.249215353492 2705.60870064301 120 125 121
-1116.57323104339 149.954943761806 2713.36097813514 120 125 121
-1117.66007541539 149.660874791922 2721.106878904 119 124 120
-1113.59710714815 149.024304343879 2728.99975714238 117 122 118
-1110.55545546679 148.457190846544 2736.83211478983 106 111 107
-1107.50665067234 147.890825129937 2744.63745741742 100 105 101
-1108.57721737688 147.59846545442 2752.32400155634 89 94 90
-1112.74315656531 147.510957968567 2759.94342884702 85 90 86
-1117.944954998 147.491290405791 2767.55437965793 90 95 91
-1121.08289430562 147.335041159276 2775.20996530895 94 99 95
-1120.08375700276 146.906602490674 2782.91976075795 96 101 97
-1118.04487891287 146.410664423074 2790.62290724573 102 107 103
-1108.7480548068 145.440366504258 2798.35533745202 109 114 110
-1088.03125472946 143.726195971649 2806.08123322218 127 132 128
-1055.87128023056 141.270611913384 2813.7150867741 129 134 130
-1041.31233686027 139.969617127486 2821.18497477631 131 136 132
-1031.92478668344 139.008700128845 2828.5864794856 131 136 132
-1024.60032930162 138.184301890797 2835.94139341761 133 138 134
-1024.54495581355 137.833011373042 2843.30665683517 133 138 134
-1022.4042664985 137.347252569279 2850.63915387518 132 137 133
-1025.46656661021 137.198242142793 2858.01754720617 129 131 128
-1023.31792554746 136.71317906985 2865.32003119098 133 135 132
-1022.20650814927 136.295646564914 2872.61983823313 136 138 135
-1023.17818829073 136.01247802951 2879.94596777174 138 140 137
-1019.97035980035 135.461659202736 2887.17070207655 136 141 137
-1028.25313718026 135.646854867236 2894.66017360472 136 141 137
-1037.5902006392 135.897809928661 2902.20919936633 140 145 141
-1056.3573924733 136.747886040278 2910.07902667079 133 138 134
-1436.03583173544 172.209580562085 2491.25335241597 154 159 155
-1426.27667766151 171.140319812309 2501.10401152184 118 123 119
-1410.42313257928 169.667042633614 2511.45116778745 111 116 112
-1401.63810727075 168.669988458186 2521.06691411943 114 119 115
-1396.8935730424 167.94499383658 2530.27069454014 111 116 112
-1396.19893707288 167.491078842362 2539.09403031837 103 108 104
-1360.9657488438 164.746893934062 2550.72257573741 93 98 94
-1297.22014169501 160.124118480373 2564.40752818171 140 145 141
-1260.84302432087 157.326563667355 2575.6515143095 128 133 129
-1220.33979958961 154.266381982395 2586.9964742167 138 142 141
-1186.90611981102 151.682311870694 2597.61283110527 138 143 139
-1168.71059053969 150.10868495502 2606.99580233616 129 134 130
-1162.72614985789 149.341312288109 2615.46468919273 130 135 131
-1154.68840586247 148.441624912677 2624.02009649319 128 133 129
-1144.59302003181 147.410009067632 2632.64616000806 130 135 131
-1137.54675952762 146.58046333942 2641.02978554331 126 131 127
-1134.57832274129 146.018832758181 2649.13743737248 126 131 127
-1131.60260025965 145.458109707453 2657.21768278763 126 131 127
-1128.61911753433 144.898248147414 2665.27058886163 122 127 123
-1124.60320355828 144.272814590959 2673.34520171114 124 129 125
-1119.55273452492 143.582112433323 2681.43382760647 120 125 121
-1117.5711794395 143.091213485737 2689.3529846114 118 123 119
-1119.6920251405 142.865683193412 2697.08488100478 121 126 122
-1124.89608259609 142.838418031166 2704.69942239844 121 126 122
-1124.96116467882 142.480742044053 2712.50881131316 120 125 121
-1119.87685996459 141.793722086347 2720.47413670526 116 121 117
-1113.75229988473 141.042006146998 2728.43267253766 113 118 114
-1111.73850397323 140.554597809359 2736.23525848532 104 109 105
-1112.81319323671 140.264938491044 2743.9388137417 99 104 100
-1113.88614633321 139.97547996911 2751.63604972276 91 96 92
-1115.99011018022 139.75175773154 2759.30640861213 87 92 88
-1119.12729886453 139.593486824937 2766.95793097556 93 98 94
-1122.26560122191 139.435029350085 2774.61347039941 101 106 102
-1120.23031335619 138.949767202998 2782.33668690317 100 105 101
-1117.1534215975 138.399907271797 2790.04816902626 102 107 103
-1105.77780427802 137.329328058666 2797.79270489514 106 111 107
-1080.90086329882 135.41446426432 2805.53231620268 125 130 126
-1052.8731825208 133.308365449194 2813.14300255986 125 130 126
-1037.26648100268 131.985971833143 2820.60558019733 120 125 121
-1028.91009170039 131.120220176208 2827.99934516226 119 124 120
-1023.65913519403 130.450279207712 2835.3567078928 119 124 120
-1023.60127269432 130.104916084656 2842.71740136717 124 129 125
-1024.5819488585 129.824425742234 2850.07769322333 138 143 139
-1025.56077406222 129.543969036392 2857.43206308496 140 142 139
-1024.45277825394 129.134626254232 2864.74881535954 140 142 139
-1021.2529641213 128.596722883136 2872.01238856891 140 142 139
-1020.13445609261 128.188184389953 2879.29154783792 140 142 139
-1023.19126911921 128.036985323447 2886.64911592707 138 143 139
-1034.61483956107 128.399012796634 2894.22148868703 138 143 139
-1046.0511130644 128.759484447713 2901.84004315987 131 136 132
-1061.68839468274 129.374584637478 2909.63066595834 134 139 135
-1436.36092760381 163.217891687722 2490.67980840798 151 156 152
-1431.65875292941 162.506894720383 2500.04876991389 115 120 116
-1418.84018333525 161.277082046968 2510.12894491801 103 108 104
-1408.02764288817 160.179708184029 2519.94715811483 100 105 101
-1398.21062345672 159.149344617207 2529.60753213457 91 96 92
-1386.34537644362 157.991487603114 2539.37538666563 80 84 83
-1342.96071228666 154.830292160245 2551.64824210865 93 97 96
-1298.49468839469 151.611559103839 2563.76528592101 130 134 133
-1254.97958571194 148.464554148926 2575.56280781423 145 149 148
-1222.6001693192 146.033755010348 2586.2948139313 142 146 145
-1188.13419699084 143.479526945586 2596.99363199684 139 144 140
-1177.06840472821 142.41025870907 2605.88931525973 129 134 130
-1164.96307183543 141.2788619453 2614.78341261445 126 131 127
-1153.85862555466 140.213862056685 2623.53827589539 125 130 126
-1140.69165830536 139.022877406403 2632.34850364868 122 127 123
-1135.68302239821 138.346371065961 2640.60141023835 120 125 121
-1132.71034852486 137.798892277458 2648.70226529493 116 121 117
-1129.73035738952 137.252324670311 2656.77559904156 114 119 115
-1128.79210056918 136.834145905144 2664.71790935584 117 122 118
-1124.77297917043 136.225402309781 2672.79115084121 117 122 118
-1117.66661862128 135.426715602523 2680.97204848165 113 118 114
-1113.62750163157 134.820169064347 2688.97243736369 115 120 116
-1115.74467801557 134.595525278024 2696.69126999569 114 119 115
-1121.9746772913 134.624596197953 2704.25325053467 111 116 112
-1122.0360432582 134.27306887132 2712.052724182 109 114 110
-1116.9460025912 133.605630799621 2720.00911608341 105 110 106
-1111.84562573487 132.939272627059 2727.92781353148 101 106 102
-1112.92131319461 132.652667877034 2735.63793241197 98 103 99
-1117.09098549514 132.555290969568 2743.26405995757 91 96 92
-1118.16560336993 132.268788176246 2750.9693430264 87 92 88
-1116.13850888482 131.793806850565 2758.73039974146 92 97 93
-1115.13979547342 131.38225184764 2766.4514994565 100 105 101
-1118.27485786018 131.222031734955 2774.09389666717 106 111 107
-1118.30494441838 130.873688780222 2781.77924644632 106 111 107
-1120.40416505328 130.650775067603 2789.43250517914 107 112 108
-1106.95126124559 129.490318687235 2797.20038048462 104 109 105
-1079.98876163476 127.520580593253 2804.95564638224 130 135 131
-1049.87168159571 125.368030566058 2812.57211669928 125 130 126
-1036.33301757631 124.216416967198 2820.02809303908 120 125 121
-1030.05050199218 123.502436646116 2827.42399533645 120 125 121
-1024.79670230333 122.851714117098 2834.7829354042 119 124 120
-1023.69705206578 122.450092833409 2842.13647711963 120 125 121
-1021.55117211727 121.986892719555 2849.4630157083 122 127 123
-1021.48427578501 121.647975562308 2856.79423797835 122 127 123
-1019.32807480226 121.185651412447 2864.08300962757 131 136 132
-1016.12198942801 120.662019561435 2871.33230923664 136 141 137
-1016.0427933586 120.324041052929 2878.61752858455 140 144 143
-1021.18696025058 120.294163941272 2886.00898802811 139 143 142
-1033.6582114565 120.694300819693 2893.59800500183 136 140 139
-1052.42379034631 121.461343847079 2901.41035004023 137 141 140
-1073.30736651571 122.348489695312 2909.36773168167 134 138 137
-1430.6117393318 153.857719659698 2490.70077729181 144 149 145
-1428.94009170199 153.353760072641 2499.76324315769 114 119 115
-1418.13987309207 152.289649847979 2509.64820584076 114 119 115
-1408.33506999689 151.290056420011 2519.37243435504 110 115 111
-1397.49739311085 150.230307315294 2529.12107518331 106 111 107
-1380.54600099041 148.80016562365 2539.31662346334 96 100 99
-1341.20428651271 146.008760348856 2551.24648524015 113 117 116
-1294.68276667051 142.790186314783 2563.52647466746 129 133 132
-1262.3432579049 140.445183205273 2574.45988808113 156 160 159
-1220.78683263264 137.549460076219 2585.89467170823 148 152 151
-1193.43935311812 135.524445553027 2596.08200441806 136 141 137
-1184.41110708703 134.613482509603 2604.85000233345 126 131 127
-1171.28388103299 133.458135885804 2613.83028133995 123 128 124
-1159.15624876757 132.366642384208 2622.66584930288 122 127 123
-1142.91914140827 131.031762653118 2631.6772199356 121 126 122
-1135.86236225872 130.251747911282 2640.05399209656 120 125 121
-1132.88708318787 129.718297082795 2648.15310206249 117 122 118
-1130.92859542635 129.246854813322 2656.17018744799 115 120 116
-1129.9890164652 128.837262854039 2664.11301017225 118 123 119
-1126.99312257138 128.306102446153 2672.13795641507 118 123 119
-1119.88376408157 127.531995468481 2680.32324164389 115 120 116
-1113.78859191277 126.820205466793 2688.41609617706 117 122 118
-1115.90498733025 126.596114134309 2696.1323780239 112 117 113
-1120.07842623787 126.493593638712 2703.7692428511 106 111 107
-1119.10747632026 126.087485471261 2711.59779084639 103 108 104
-1112.98143647562 125.379027267836 2719.57907229459 99 104 100
-1110.96698479614 124.913826439448 2727.39231514048 95 100 96
-1115.13553528937 124.811842430196 2735.01136895255 92 97 93
-1120.33879370231 124.769881484062 2742.61366550883 89 94 90
-1119.34842081361 124.365875264252 2750.37142687896 92 97 93
-1115.25255996472 123.781690545918 2758.17525501575 98 103 99
-1114.25088557919 123.378789218288 2765.89175371425 108 113 109
-1114.27963046576 123.036378074099 2773.57586716421 109 114 110
-1114.30555381708 122.694271508416 2781.24876807922 108 113 109
-1114.32809080457 122.352405039579 2788.91017669612 108 113 109
-1101.90127281806 121.292914373351 2796.65513163035 106 111 107
-1075.96130967474 119.458786220186 2804.39524263073 130 135 131
-1051.02119474918 117.688366230432 2811.99149571366 123 128 124
-1036.43719812363 116.517788295981 2819.450704262 124 129 125
-1030.15052435767 115.82568420175 2826.84590857212 125 130 126
-1023.85249216745 115.134756487093 2834.19875496111 127 132 128
-1021.70873459286 114.682402057966 2841.54002090571 127 132 128
-1019.55908036613 114.230585190125 2848.85973312472 126 131 127
-1017.40332251777 113.779236033977 2856.15800810405 123 128 124
-1014.19842689045 113.269251005096 2863.41941187684 129 134 130
-1013.0747555619 112.878033044735 2870.69033610311 130 135 131
-1012.99165661027 112.546102127326 2877.96581196919 131 135 134
-1017.08873514305 112.450044668315 2885.32324611383 139 143 142
-1026.42075854214 112.647672149549 2892.81989087861 144 148 147
-1045.18729632461 113.372961842351 2900.6085062054 140 144 143
-1439.03287877483 145.373213621442 2489.33404386742 124 129 125
-1429.25816212378 144.402193758179 2499.18894632742 107 112 108
-1417.43791352413 143.313911051335 2509.1677967235 111 116 112
-1406.61181918249 142.287597737391 2518.9805508769 103 108 104
-1396.78203447211 141.322946770269 2528.63501741324 102 107 103
-1374.74069358262 139.6473666932 2539.26015751273 89 93 92
-1328.25896222101 136.551479174342 2551.76533161314 135 139 138
-1292.90191757464 134.114992654306 2563.12735806161 123 127 126
-1258.50973900193 131.74351625362 2574.21646673475 157 161 160
-1228.14173318229 129.614106789726 2584.81315795559 125 129 128
-1201.80671152736 127.725925615098 2594.94868826791 124 129 125
-1187.67674836512 126.549598339493 2604.09000424436 125 130 126
-1170.45991577078 125.19922871729 2613.35038797825 126 131 127
-1156.28121745848 124.028306839654 2622.31417257961 129 134 130
-1144.12460768314 122.977395173514 2631.06777397408 129 134 130
-1140.13412622827 122.397977238847 2639.26586464473 128 133 129
-1136.13469562188 121.819594318255 2647.43138232348 124 129 125
-1132.12657207925 121.242195033025 2655.56431682711 123 128 124
-1127.08385558562 120.60740950509 2663.71702921571 122 127 123
-1123.05688053388 120.032125587602 2671.78223631577 122 127 123
-1117.99417981285 119.399564685799 2679.86215569731 120 125 121
-1112.92085954032 118.768109318325 2687.90427376452 117 122 118
-1111.95097002776 118.370319540486 2695.74108160913 111 116 112
-1114.06337604175 118.147180616804 2703.44315288374 106 111 107
-1115.14550679501 117.866098321573 2711.1806810391 107 112 108
-1115.19573765221 117.527361475696 2718.94595842397 108 113 109
-1115.24255752269 117.18892534082 2726.69969035939 106 111 107
-1120.44582236126 117.139598436145 2734.29736029218 101 106 102
-1120.48986878438 116.801454181113 2742.04097923877 99 104 100
-1119.49750833074 116.406025077219 2749.79677631179 101 106 102
-1114.36448401925 115.780933136393 2757.62031349596 104 109 105
-1114.39506147085 115.44418047307 2765.31387434681 107 112 108
-1112.35121864018 114.992914108193 2773.02772012214 111 116 112
-1108.22946330059 114.427674879182 2780.74643925781 109 114 110
-1106.17230754563 113.977688271722 2788.41166472634 108 113 109
-1094.77093213212 113.013952089342 2796.12802093687 105 110 106
-1072.96762720911 111.481407075922 2803.83092639308 127 132 128
-1046.97524715619 109.724307216649 2811.42505531383 119 124 120
-1036.54040001604 108.825049450609 2818.87340045875 120 125 121
-1030.24975925442 108.154893258244 2826.26773284775 121 126 122
-1023.94778469143 107.485852831299 2833.61976046696 124 129 125
-1021.80168912219 107.044715534815 2840.95942780603 125 130 126
-1018.60691177019 106.547474841026 2848.26737388046 123 128 124
-1015.40489365848 106.050840511686 2855.54881926004 131 136 132
-1012.19582597324 105.554884221811 2862.80359001087 132 137 133
-1014.20302851372 105.34148641676 2870.12121144002 130 135 131
-1012.02834870573 104.902730767951 2877.35625475062 130 134 133
-1016.12453787111 104.801858888076 2884.70827629758 137 141 140
-1020.22374723132 104.700500428652 2892.07027501268 141 145 144
-1040.03918030017 105.440038818841 2899.86590845724 133 137 136
-1477.46190889501 138.937041455641 2475.98239539474 146 149 142
