ply
format ascii 1.0
comment KinectMotionCapture
element vertex 753
property float x
property float y
property float z
property uchar red
property uchar green
property uchar blue
end_header
-641.976579173764 350.613876148032 2266.42628973509 161 165 166
-630.341232664788 348.265034570059 2276.29579447387 157 161 162
-613.840139451164 345.159247504741 2287.10529957091 154 158 159
-607.009364777001 343.574495190988 2295.81218385641 150 154 155
-600.165183646949 341.991255575371 2304.47117665971 153 157 158
-597.192634907553 341.016005768694 2312.30242408735 155 159 160
-589.353119343756 339.284011075471 2321.06833943408 156 160 161
-587.334966467409 338.462411675646 2328.64282906114 154 158 159
-587.257469681466 337.944231217322 2335.82151646057 150 154 153
-587.177103219451 337.426469217221 2342.9888844853 133 138 134
-583.194159309754 336.304280195547 2350.87228333395 109 114 110
-583.104485639438 335.78758567832 2358.00669849373 92 97 93
-586.916958925488 335.875422127134 2364.42355012481 93 98 94
-592.685934218825 336.264848468407 2370.50227754611 98 103 99
-594.549647764073 336.050219533909 2377.28637518837 107 112 108
-593.477811839682 335.383291640695 2384.57568529281 103 108 104
-591.422297120421 334.566237169416 2392.01432714981 121 126 122
-591.32039294083 334.05110158767 2399.10431705601 119 124 120
-591.215575680993 333.536389484057 2406.18282960563 73 78 74
-583.256943591707 331.818452823199 2414.51536414512 74 79 75
-573.319440392813 329.801486374049 2423.10551613994 122 126 125
-562.381692604432 327.636291211734 2431.78469255124 122 126 127
-550.441522402432 325.323117407295 2440.54496542662 148 152 153
-537.496524237591 322.862180076261 2449.3784682685 142 146 147
-532.409145119475 321.604076066137 2456.9718264275 130 134 135
-528.296965908492 320.497126194994 2464.38502113378 135 139 140
-530.094083833942 320.290443078568 2470.92687886568 151 155 158
-528.929867341152 319.634490012987 2477.87919793489 152 156 159
-532.699700508098 319.72754872549 2484.14196124737 152 156 159
-532.518311574335 319.221891090445 2490.94189469679 153 157 160
-533.322673736166 318.866113224475 2497.60096364033 150 154 155
-537.09543180207 318.958958132852 2503.87352252214 145 149 148
-541.861381120742 319.200887222415 2510.03140942836 146 150 149
-541.674204741139 318.69591526493 2516.81121714911 143 147 146
-545.452509701769 318.788176413619 2523.10400200857 160 164 163
-553.204675601214 319.476656479793 2528.94116453078 171 173 170
-809.938252246293 375.882274742333 2134.46009985984 200 204 205
-793.762703306627 372.788860748571 2146.48609875078 138 142 143
-754.500946084698 366.094596211097 2164.04233491687 153 157 158
-719.022900104925 360.007898895062 2180.44412491537 156 160 161
-695.035174316769 355.727819991235 2193.88826533047 151 155 156
-686.415307149446 353.85098135153 2203.5626906397 138 142 143
-682.597904193708 352.725238202707 2212.05846671544 153 157 158
-679.736273803698 351.750319958017 2220.30081254331 149 153 154
-671.076556326421 349.878268836764 2229.82937502815 157 161 162
-661.434808651141 347.858494624909 2239.51583664124 154 158 159
-653.708804109002 346.139794525204 2248.7115896742 146 150 151
-652.739178228533 345.4687483176 2256.37778555099 155 159 160
-641.117064374849 343.15557065463 2266.31893687424 161 165 166
-628.50567068189 340.695502942684 2276.39159676747 157 161 162
-611.994686189791 337.641316994109 2287.19695572994 153 157 158
-606.128166892689 336.230327486724 2295.69731559664 149 153 154
-600.249911106381 334.82073146694 2304.15497995432 153 157 158
-595.331248299238 333.561392304883 2312.3748979207 153 157 158
-587.485472144635 331.856800728827 2321.13486981442 153 157 158
-586.436486226138 331.195200075622 2328.51238085273 147 151 152
-588.304354141477 330.980171901465 2335.31165079789 142 146 145
-587.24869152663 330.319476942593 2342.66401535673 126 131 127
-587.163424479503 329.80779668892 2349.81795718824 110 115 111
-584.147179958292 328.85123880254 2357.49877184208 89 94 90
-586.00696948667 328.637282129377 2364.2687248094 97 102 98
-589.821419948219 328.719911166785 2370.68962961863 102 107 103
-592.660247378211 328.654068871987 2377.29174970879 115 120 116
-591.584965273585 327.995774868442 2384.5737158074 119 124 120
-589.525631255161 327.190042057679 2392.00532525892 121 126 122
-592.361554865452 327.124636695326 2398.59693989193 118 123 119
-593.236805127515 326.763465463284 2405.51486834643 82 87 83
-587.23831835183 325.368222447567 2413.53520034058 65 70 66
-576.315701005727 323.23597150992 2422.29135237738 125 129 128
-564.39098204139 320.958353056738 2431.13144045728 128 132 133
-547.526264019691 317.945551120208 2440.64958385296 148 152 153
-535.557039795937 315.67310700059 2449.32769943077 140 144 145
-529.479111255746 314.287077178308 2457.059825474 138 142 143
-526.347772680861 313.344258242783 2464.32106349619 143 147 148
-527.155734385033 312.990997521515 2470.99508602834 154 158 161
-528.949611472615 312.785084562943 2477.52539740177 151 155 158
-532.719704755815 312.873269756767 2483.78512056785 154 158 161
-529.569665480111 311.932646228044 2490.97924164057 154 158 161
-532.350318576212 311.874030236973 2497.36900511822 148 152 153
-536.122144068237 311.962038643532 2503.63597704445 148 152 151
-542.870055541973 312.489866432408 2509.53943265914 145 149 148
-543.673736289737 312.137279539918 2516.1979862594 143 147 146
-546.461056502012 312.078004385948 2522.61208727174 146 150 149
-552.228986612096 312.457904619892 2528.680919847 176 178 175
-820.692469553916 369.664427037425 2131.49678651119 201 205 206
-799.714010697386 365.883607811098 2144.73999051416 130 134 135
-755.632625957107 358.567443349319 2163.4917902144 155 159 160
-715.329113879696 351.848887021269 2181.06210762237 153 157 158
-696.140077106059 348.378610274647 2193.35064655298 148 152 153
-690.405806327404 346.973197369885 2202.34646904612 116 120 121
-684.660102070977 345.569215032189 2211.29981543985 150 154 155
-679.867448888746 344.313680883484 2219.98905571004 150 154 155
-668.305699958429 342.030512149434 2230.17420525179 153 157 158
-658.656400704724 340.04357048973 2239.85242906638 158 162 163
-651.890321421504 338.49909247659 2248.82587076602 148 152 153
-650.917272919384 337.836549264799 2256.48472746586 156 160 161
-643.16088725795 336.148065409467 2265.58675831227 162 166 167
-631.513407239703 333.875071769022 2275.45910012629 157 161 162
-616.935933598643 331.16504583469 2285.86692074581 153 157 158
-609.127772753502 329.482665570774 2294.78057397087 146 150 151
-605.190148153145 328.387252169114 2302.84913925751 150 154 155
-598.327589041635 326.854217751632 2311.47159515148 153 157 158
-590.47916750888 325.176605759742 2320.23877877164 150 154 155
-584.563136821181 323.792867695 2328.57251768328 140 144 145
-584.480313424733 323.286363745263 2335.73880035814 136 140 139
-586.344310235817 323.072068505226 2342.52416038814 113 118 114
-588.20810312554 322.857840174509 2349.30880554114 105 110 106
-588.118867589023 322.35220779519 2356.45183146061 93 98 94
-589.003762611574 321.992646950192 2363.40658573456 96 101 97
-590.864722232668 321.778876275534 2370.18100045653 107 112 108
-590.768314667535 321.274192520341 2377.29799695104 112 117 113
-589.689606664316 320.624526450392 2384.57269058523 120 125 121
-590.566332624256 320.266072866278 2391.49781379735 129 134 130
-595.364065517761 320.488777840346 2397.76156978739 123 128 124
-595.258731842359 319.98528529198 2404.84617744958 88 93 89
-589.257668109529 318.611822192432 2412.87069240578 54 59 55
-578.330459098652 316.514801855249 2421.632039248 125 129 128
-561.482775102656 313.550597106726 2431.24410836295 131 135 136
-544.607674318727 310.589624539735 2440.75549592556 146 150 151
-534.599711080233 308.64498380596 2449.12970627352 137 141 142
-532.460153075755 307.859651136193 2456.27633936936 139 143 144
-528.341565177846 306.785885513391 2463.68669067433 148 152 153
-525.201146112945 305.857659474903 2470.92435683057 154 158 161
-526.004963156572 305.50798476953 2477.58432605065 150 154 157
-528.78414065341 305.447163879624 2483.96814788225 155 159 162
-530.575196423534 305.242015884073 2490.48846721453 156 160 163
-534.346147012799 305.325273016572 2496.74826207007 150 154 155
-536.138045691045 305.120088911281 2503.27168815721 152 156 155
-543.87859694768 305.778956701904 2509.04703214651 146 150 149
-544.681809751821 305.429481937975 2515.70581319886 145 149 148
-550.448264641195 305.799443585668 2521.7619648432 143 147 146
-555.226324386173 306.025037625584 2527.95450229352 178 180 177
-821.853313899258 361.943369535412 2130.93210254183 209 213 214
-805.669554905516 358.951617174987 2142.99180294435 121 125 126
-761.572089731772 351.764358934375 2161.76621280904 142 146 147
-719.329858724733 344.874598109423 2179.82299802172 146 150 151
-703.022953129872 341.897243515753 2191.43456922656 145 149 150
-695.362370497084 340.223941609001 2200.901883029 116 120 121
-688.65187389278 338.69685290446 2210.09174199816 148 152 153
-679.032383616956 336.738202795047 2219.89943153149 143 147 148
-668.429578625356 334.637344931337 2229.86280410247 154 158 159
-653.941301218468 331.961930820806 2240.62364495107 155 159 160
-649.10204050525 330.730593637902 2249.15511729101 150 154 155
-643.284258187967 329.356447501934 2257.86061801003 158 162 163
-636.486262552094 327.839788991849 2266.73219530307 160 164 165
-623.857589507095 325.461453595409 2276.79230185411 155 159 160
-614.117885684022 323.517053381602 2286.16265868582 152 156 157
-608.244808153885 322.149551447053 2294.66612489552 146 150 151
-605.274898089697 321.214281304237 2302.53241027384 153 157 158
-596.463210376183 319.418729828204 2311.54503492807 152 156 157
-591.52800228392 318.198879362134 2319.72752556647 147 151 152
-586.582486725361 316.980278772425 2327.87253570923 135 139 140
-585.525003637541 316.336046658327 2335.22946400958 132 136 135
-584.462976210957 315.692383444504 2342.56987924461 119 124 120
-586.324551222339 315.478671571274 2349.34661591425 109 114 110
-589.162590743322 315.408064414495 2355.94280236827 100 105 101
-590.047026978678 315.051477443883 2362.89773080389 104 109 105
-590.929794835786 314.695130364746 2369.84661633298 111 116 112
-590.831795278277 314.196212409356 2376.96134229597 113 118 114
-589.751098212513 313.555004485338 2384.23399096133 123 128 124
-590.626642823694 313.199637226662 2391.15667660137 128 133 129
-593.46252941416 313.129578730226 2397.74521604176 122 127 123
-594.336138592386 312.774525574032 2404.66091410643 86 91 87
-588.33010896523 311.423050169318 2412.68180257225 75 80 76
-579.362722262684 309.646127047869 2421.12810836426 111 115 114
-557.587555612961 306.022340687608 2431.51150578995 122 126 127
-539.716251567522 302.971095579336 2441.16444194313 143 147 148
-531.669966561165 301.343698212258 2449.22870015134 135 139 140
-530.511916386528 300.711765108052 2456.22000751994 143 147 148
-530.336035292515 300.222284178961 2463.05153264663 151 155 156
-524.231738662805 298.882433708998 2470.7139853445 152 156 159
-524.045185980825 298.394251989556 2477.5067092096 148 152 155
-524.844661929255 298.048126530872 2484.1528016026 149 153 156
-525.642371406058 297.702248698252 2490.79249177079 151 155 158
-529.409503557078 297.780986846764 2497.03618548611 150 154 155
-531.19700838522 297.576711666553 2503.54387191669 155 159 158
-535.95991608617 297.796425731087 2509.67644048863 147 151 150
-538.741492444764 297.733265862609 2516.06769211514 149 153 152
-544.504442878147 298.093476763793 2522.10467629035 141 145 144
-553.254782551435 298.876243775038 2527.81106985496 157 159 156
-564.999167584308 300.080880038306 2533.21022300809 176 178 173
-818.357738034385 352.988086308 2139.57684721229 98 102 103
-773.287791833038 345.787128634739 2158.62736787973 140 144 145
-725.258507613984 338.16836417986 2178.11748437026 139 143 144
-707.984119706906 335.099949740502 2189.97581333595 113 117 118
-697.429835717656 333.027833133622 2200.13748060373 105 109 110
-689.751330463872 331.383245206886 2209.55637973093 154 158 159
-680.126948051549 329.457040726829 2219.36639019211 142 146 147
-670.485102955441 327.532910049376 2229.11287442138 158 162 163
-657.92482533812 325.18637508261 2239.44606789427 151 155 156
-652.116918172048 323.832355700696 2248.20094009312 153 157 158
-640.486500069395 321.631716063065 2258.18230998529 161 165 166
-628.835701654213 319.433498497577 2268.08954094103 157 161 162
-619.104259684761 317.520018978061 2277.51009412362 152 156 157
-613.238177241047 316.173012995442 2286.05247178928 150 154 155
-607.360134607402 314.827390352273 2294.55224600448 148 152 153
-604.386945006259 313.905991484218 2302.41418367906 155 159 160
-598.487593525713 312.562945238028 2310.83646892431 154 158 159
-593.550227249934 311.362089571894 2319.02293897261 148 152 153
-588.602558558639 310.162475977173 2327.17194235017 133 137 138
-586.569594018272 309.385903585456 2334.71986686745 130 134 133
-586.481951799788 308.891076987628 2341.87563066924 119 124 120
-586.391446218017 308.396704221916 2349.02012086768 110 115 111
-589.229120391104 308.323756455645 2355.61347311827 102 107 103
-590.112372358279 307.97022365452 2362.56593284097 104 109 105
-591.972491587004 307.757117008191 2369.3376465835 111 116 112
-592.852886560355 307.403965262009 2376.28066844874 112 117 113
-592.751840862393 306.911100345361 2383.38697723853 126 131 127
-593.628139821703 306.558527025256 2390.31515659437 132 137 133
-593.521549988622 306.06640801712 2397.40135202467 121 126 122
-596.358242905543 305.993978102792 2403.99138800804 87 92 88
-592.315602587282 304.943673242729 2411.69852968834 84 89 85
-583.345877213936 303.196434526579 2420.15489363354 114 118 117
-559.594249853588 299.358256204237 2430.85829374618 119 123 124
-539.745221723689 296.082197609465 2440.81996232193 144 148 149
-531.694113000464 294.482136463897 2448.88356967402 137 141 142
-530.534051981288 293.858729012013 2455.87279382151 149 153 154
-526.407841156183 292.81833492196 2463.27498270812 154 158 159
-518.320580463482 291.222559633842 2471.20707074917 151 155 158
-519.116744972136 290.879734446406 2477.8438810563 148 152 155
-518.922076462544 290.398239035547 2484.60976480684 150 154 157
-522.684480238208 290.472581407102 2490.83312772775 150 154 157
-524.467899386705 290.269125354521 2497.32616198488 149 153 154
-528.234265065493 290.343164675635 2503.56311432289 155 159 158
-532.995411539729 290.555561972267 2509.68452438101 148 152 151
-536.76738230268 290.628989225136 2515.94282989261 150 154 153
-545.510952672079 291.394479837161 2521.6122539221 145 149 148
-551.280659108224 291.743742571069 2527.66833873425 143 145 142
-563.026850624481 292.922182248485 2533.05765985322 174 176 171
-837.62813950808 348.455799586424 2126.43339119337 205 209 210
-832.97925762312 347.239161905969 2135.68098330571 93 97 98
-797.523318508306 341.563029611204 2152.42406102205 117 121 122
-727.338471836138 330.878142087207 2177.34099889959 139 143 144
-706.201341622661 327.306689328989 2190.12634125794 102 106 107
-693.710359930669 324.991634188344 2200.73762065666 105 109 110
-687.954829731643 323.65265263025 2209.69552334076 152 156 157
-677.357438082389 321.620174255883 2219.72216582074 142 146 147
-669.641366661093 320.006644391437 2229.02119756536 163 167 168
-656.105910925815 317.561978789767 2239.56904067708 145 149 150
-652.229008903489 316.507387535429 2247.8888299614 157 161 162
-637.685422862759 313.92874928032 2258.50541990158 163 167 168
-626.995575424988 311.907292426108 2268.19575057047 154 158 159
-619.197859800341 310.303533667985 2277.19782235489 151 155 156
-615.269765076012 309.255130274932 2285.33144986186 152 156 157
-608.417433337354 307.792857445472 2294.03655314896 147 151 152
-604.469727629879 306.746906207225 2302.09798805882 153 157 158
-598.566366540318 305.425704479357 2310.51917789695 152 156 157
-594.599284367998 304.382059296996 2318.51105673599 142 146 147
-591.598183702228 303.477517741847 2326.28000892291 120 124 125
-595.417232306997 303.539182007674 2332.70567869996 119 123 122
-594.358434453508 302.911532881818 2340.06819516371 113 118 114
-594.272119105058 302.422221068627 2347.23143809769 109 114 110
-592.227466284004 301.658015814436 2354.74377428282 103 108 104
-593.111459578332 301.307260405824 2361.70166893069 100 105 101
-592.035905658093 300.681794709968 2369.00335190609 105 110 106
-593.895006225137 300.469145254522 2375.77157220385 121 126 122
-593.793103012394 299.981957581275 2382.8782815236 136 141 137
-594.668917378149 299.632400834587 2389.80656618509 136 141 137
-592.597567038731 298.871644321725 2397.22195707184 116 121 117
-597.398495142582 299.071190910862 2403.48295525977 82 87 83
-596.303392450246 298.44835438892 2410.71371739861 90 95 91
-588.31530049856 296.867707555105 2419.02355085257 104 108 107
-561.601629484394 292.688994567695 2430.20435783833 117 121 122
-537.802641248808 288.925422006428 2440.77808945307 143 147 148
-526.78657054656 286.942864271821 2449.28177594672 137 141 142
-523.646922666935 286.055202142502 2456.54791529144 155 159 160
-520.500039913888 285.168470549085 2463.78685143829 160 164 165
-515.368574081619 284.009761890728 2471.28020631261 152 156 159
-517.150646750088 283.806699851668 2477.76849011281 151 155 158
-514.973202870583 283.058690159441 2484.79802415424 152 156 159
-516.751804624199 282.856123419415 2491.27373383376 152 156 159
-517.538906896086 282.517563107319 2497.87866142844 149 153 154
-524.275981276505 282.99528821341 2503.71117785116 152 156 155
-530.027552157123 283.336391185624 2509.69384823124 148 152 151
-536.77766901652 283.81272700706 2515.57391170055 149 153 152
-541.546523474829 284.01682068625 2521.71869752346 153 157 156
-547.314160081145 284.356177583166 2527.76084343623 142 144 141
-553.087225207167 284.694964411057 2533.82278446697 152 154 149
-846.485257546084 341.792706441302 2123.93898520694 181 185 186
-838.95302426458 340.183960201093 2133.92359206322 101 105 106
-803.484871850123 334.612519529198 2150.68742100174 100 104 105
-732.309782139093 323.992664590405 2175.8651591124 138 142 143
-703.451888038552 319.393305912734 2190.50827351976 104 108 109
-694.811747079362 317.664903251706 2200.20114091956 113 117 118
-686.155828673197 315.938469663481 2209.83574389801 146 150 151
-676.517312258364 314.077655899681 2219.63456185305 140 144 145
-662.992815351667 311.674119778396 2230.24905994818 157 161 162
-655.252280931077 310.090100035785 2239.47589651709 145 149 150
-649.434424928653 308.779931399978 2248.22058667945 158 162 163
-636.819499163042 306.519459746411 2258.40614718147 164 168 169
-629.033017001719 304.940963492719 2267.4658760363 154 158 159
-623.173525818157 303.63583401837 2276.05916439412 153 157 158
-618.273714318462 302.467829292475 2284.40580832937 153 157 158
-611.419137586651 301.029821655278 2293.117896169 151 155 156
-606.49730880441 299.864514974878 2301.38449765411 156 160 161
-601.565188339211 298.700456345417 2309.61367609154 154 158 159
-595.648243546993 297.402267804421 2317.99896162547 142 146 147
-592.645060143784 296.511423087935 2325.76882848338 114 118 119
-595.489123487256 296.43275403061 2332.38229034771 113 117 116
-597.357951404465 296.218896519334 2339.18586368691 109 114 110
-598.249391205994 295.870113964989 2346.17172229093 105 110 106
-597.183125498072 295.251646894706 2353.51230914404 100 105 101
-597.090919829068 294.76865585458 2360.65860209999 97 102 98
-595.036911189163 294.016519093854 2368.1438213784 106 111 107
-593.956947909783 293.399852840115 2375.43468877463 125 130 126
-594.834235104184 293.053060924651 2382.3692583074 137 142 138
-595.709591313746 292.706499641769 2389.29773310377 133 138 134
-598.548175985794 292.629200657959 2395.89078970508 111 116 112
-599.421576637822 292.283009961063 2402.81223786819 83 88 84
-601.277173057668 292.07141203929 2409.56811183751 90 95 91
-590.334669585162 290.115048965231 2418.36054795126 104 108 107
-559.669232594475 285.478054956222 2430.1660983051 116 120 121
-533.885361210148 281.516856501935 2441.04007598561 138 142 143
-522.860366317392 279.570030446034 2449.53318782036 138 142 143
-520.702546327054 278.8304957025 2456.64093215502 157 161 162
-515.574466415297 277.690270531401 2464.1575987723 157 161 162
-513.402150878244 276.952452068391 2471.21353657524 149 153 156
-516.171667663658 276.883682690636 2477.55554279715 149 153 156
-513.991088178574 276.146985989141 2484.58057737973 149 153 156
-513.786195868017 275.677991698728 2491.31732373661 151 155 158
-514.569955814649 275.342836237391 2497.91199157722 150 154 155
-526.268135773452 276.474474285237 2503.09350709456 150 154 153
-533.01475216398 276.93835109926 2508.95270804399 148 152 151
-538.774497337713 277.268356313433 2514.95965045134 147 151 150
-541.556268930153 277.198588412395 2521.34652595453 152 156 155
-544.338899794864 277.128724826367 2527.73746037926 149 151 148
-550.110620572042 277.457525522165 2533.78810538521 142 144 139
-845.731392374079 333.745059649092 2123.85180946038 153 157 158
-838.19362453729 332.163497166427 2133.83302999906 144 148 149
-794.039254619258 325.491197014806 2152.72128128023 87 91 92
-735.356541381547 316.818085531192 2174.85395561599 143 147 148
-705.522281963836 312.170961404733 2189.73910976606 107 111 112
-694.947749453808 310.204707630965 2199.89243449563 128 132 133
-684.354322868757 308.240725700947 2209.97704355098 150 154 155
-671.808243648998 306.011811035539 2220.43814121449 154 158 159
-656.337936534998 303.384994593064 2231.47990064092 148 152 153
-648.587532468045 301.828696086932 2240.68759488477 144 148 149
-642.760378126847 300.540860967614 2249.41279137334 162 166 167
-634.98222782041 298.987959193462 2258.51961378685 164 168 169
-631.071406889346 297.969567719912 2266.73539443496 155 159 160
-623.266939209275 296.41986853907 2275.746527548 156 160 161
-620.307148682287 295.536995521545 2283.68346558645 151 155 156
-614.422361060397 294.256295247251 2292.19825654475 148 152 153
-613.392340720136 293.641275824905 2299.6755920085 154 158 159
-603.591312660805 291.831931461843 2308.90353116411 155 159 160
-598.646737278355 290.688123488204 2317.09925213883 143 147 148
-595.642682537087 289.810781433736 2324.87533778573 115 119 120
-599.464904349195 289.862045317782 2331.3052937806 116 120 121
-599.381879134271 289.383314241438 2338.48836148135 105 110 106
-600.273571425137 289.037390805198 2345.47696262629 96 101 97
-600.18505976225 288.559460342353 2352.64016568652 92 97 93
-600.093656010294 288.081994254703 2359.79199514655 94 99 95
-597.059417683476 287.20861965544 2367.45851989965 118 123 119
-596.959612617173 286.732284079348 2374.57987067194 140 145 141
-596.85643917751 286.2563525978 2381.68989948077 145 150 146
-596.750128482938 285.780863384248 2388.78855950187 131 136 132
-598.606188772497 285.569377892012 2395.54622671064 109 114 110
-600.461991161024 285.358008876911 2402.30300992099 87 92 88
-601.333434525725 285.015142189271 2409.2183606428 89 94 90
-587.430033343641 282.699532882865 2418.48157381453 112 116 115
-555.762777731547 278.020547696472 2430.43737733132 122 126 127
-529.963914358827 274.135435711909 2441.30372971108 141 145 146
-519.917190456349 272.355648102983 2449.63717992091 154 158 159
-519.730166299933 271.889941494039 2456.44234290202 148 152 153
-514.597732425193 270.769080608531 2463.95506970429 143 147 148
-513.411649434407 270.173612537563 2470.86531883383 139 143 146
-513.211021194734 269.709731953042 2477.62019635385 140 144 147
-513.007000275693 269.246236611779 2484.36364976526 138 142 145
-511.808491850881 268.652386124309 2491.22878695112 143 147 150
-515.5658450751 268.712719298048 2497.42362446778 154 158 159
-523.296648804131 269.295311163547 2503.11555019403 150 154 153
-530.042557400042 269.746517822079 2508.96319494538 151 155 154
-533.812656296339 269.805579077557 2515.20455162178 145 149 148
-537.585063769462 269.864395080733 2521.4552537745 146 150 149
-542.355869434169 270.053294376009 2527.59769110577 153 155 152
-545.137798525929 269.981342103309 2533.98470129766 138 140 135
-844.975608520592 325.708494928013 2123.7654356876 151 155 156
-838.395130369201 324.285483330492 2133.50466554886 142 146 147
-791.329929012803 317.348674333871 2153.10753432208 106 110 111
-737.440349236869 309.501785065309 2174.07527628231 140 144 145
-708.558400827475 305.074687854973 2188.7387676504 109 113 114
-694.116927599804 302.61910983407 2199.81217624148 137 141 142
-677.71767112552 299.90448530463 2211.24674073977 150 154 155
-665.159923202388 297.716793353579 2221.68961163596 160 164 165
-652.580142874095 295.53167852718 2232.05323661412 152 156 157
-648.696903240305 294.525852923106 2240.37935464537 150 154 155
-640.927091418418 292.998501536945 2249.53326739512 163 167 168
-633.142445260562 291.472902003577 2258.63413821351 162 166 167
-624.372658655588 289.818631772408 2267.8915310532 154 158 159
-618.501530241094 288.557530347176 2276.46940965871 152 156 157
-616.507538474583 287.819125567654 2284.18705850161 147 151 152
-614.507826087026 287.081533959578 2291.88305217115 147 151 152
-614.449705844503 286.605063624198 2299.15908544417 152 156 157
-603.66939163027 284.698171969476 2308.58586117247 154 158 159
-597.745850961153 283.443515069412 2316.97414110741 131 135 136
-593.762453684989 282.450125335061 2324.93717382252 121 125 126
-596.60670891995 282.366675493984 2331.54740078325 121 125 126
-597.497198585095 282.023642355727 2338.53429061994 113 117 116
-598.386256750755 281.680926330583 2345.51513676571 114 118 117
-598.294938776692 281.208923688234 2352.6707340356 111 115 114
-598.20026095194 280.737345817138 2359.81505403923 111 115 114
-595.161772598404 279.877951207965 2367.47462550998 133 137 136
-595.05892852359 279.407541565522 2374.58843436358 142 147 143
-592.989527483197 278.679049593372 2382.0314327575 141 146 142
-596.808230889249 278.726351898759 2388.4467534894 124 129 125
-601.612853748233 278.902537912128 2394.70672093438 102 107 103
-603.470020127814 278.691328859822 2401.46866936831 87 92 88
-601.388757273902 277.96454814323 2408.86870757066 90 95 91
-584.522243315336 275.305870566955 2418.60375858717 120 124 123
-552.838306498616 270.719002429657 2430.55578594302 130 134 133
-529.985334499197 267.295927406478 2440.96147138703 148 152 151
-520.920335247792 265.677431893192 2449.14538381467 156 160 161
-518.756261329983 264.960459755382 2456.24415339046 149 153 154
-513.619256421201 263.858908915763 2463.75302921381 147 151 152
-514.409721435199 263.528772671407 2470.37576052624 148 152 153
-516.188689899269 263.327170821001 2476.85344091059 140 144 145
-514.003302476437 262.612909203692 2483.87478890031 128 132 135
-510.819915507032 261.771276534366 2491.00759416867 135 139 142
-512.591514886379 261.570721917001 2497.45857575387 148 152 153
-520.322015230158 262.137954042468 2503.13874871187 148 152 151
-529.054686288048 262.832147095325 2508.72362121005 147 151 150
-533.818628370019 263.01419337167 2514.83624876645 148 152 151
-534.605206729268 262.685048198305 2521.4451754019 149 153 152
-540.37026456585 262.994264062969 2527.45871737821 155 157 154
-544.147304886725 263.047850650812 2533.72238978504 144 146 141
-547.926669567761 263.10119016093 2539.99546511615 131 133 128
-849.828880800987 318.954337179946 2114.14068248117 162 166 167
-848.068609608952 318.198245079171 2122.7139941379 148 152 153
-839.559200968034 316.541957049996 2132.9377744159 146 150 151
-791.509136173091 309.613900622927 2152.78681359077 110 114 115
-737.595542522998 301.923382219073 2173.76319209819 137 141 142
-708.699872604025 297.582629713171 2188.43025171673 116 120 121
-692.318282045484 294.916254900122 2199.96086864277 150 154 155
-673.008601483939 291.868303520046 2212.06811496184 154 158 159
-658.505043419174 289.465180332894 2222.94413195708 163 167 168
-648.818447925168 287.705638850759 2232.62837973137 143 147 148
-644.928881088364 286.716517511324 2240.94248131865 150 154 155
-639.091046748049 285.472599648741 2249.65482309802 165 169 170
-631.300364134785 283.974371810822 2258.74963377367 164 168 169
-622.523679241944 282.350093176801 2268.00127876939 154 158 159
-614.703060451325 280.855515348116 2276.98724671061 151 155 156
-613.676629470094 280.256154297923 2284.4877946374 146 150 151
-612.645702762112 279.657399850578 2291.97203378918 142 146 147
-612.584544932899 279.186768634813 2299.24047561261 146 150 151
-602.771522299777 277.442730020378 2308.46511189749 152 156 157
-600.745742617019 276.719222710679 2316.07321489767 137 141 142
-598.713989255707 275.996507377936 2323.65963881299 126 130 131
-598.630158765684 275.528830609162 2330.84669579622 122 126 127
-598.54322716426 275.061613590604 2338.02252922285 121 125 124
-596.496390926877 274.340938720597 2345.55424161682 116 120 119
-596.40203946902 273.874825268938 2352.70229428263 122 126 125
-596.304325950588 273.409151285715 2359.83907075633 131 135 134
-594.242370693625 272.690499396223 2367.31592639785 150 154 153
-593.155688703673 272.099254783261 2374.5978984317 147 152 148
-591.082434785261 271.38207571879 2382.03373422235 132 137 133
-595.882675203031 271.551049548823 2388.27287712704 113 118 114
-600.686754707278 271.719629998664 2394.52695447023 95 100 96
-604.510974670836 271.761550137675 2400.95843005834 92 97 93
-601.443133410534 270.919630813876 2408.51912389712 100 105 101
-583.582543198367 268.18634564496 2418.41258167368 120 124 123
-553.85600766574 263.9435643055 2430.05665397962 134 138 137
-532.967201154412 260.840066135622 2440.16309521903 152 156 155
-520.93557441613 258.873616000325 2448.80271107367 162 166 167
-516.791873106674 257.916175575525 2456.19326284399 156 160 161
-512.639253264492 256.959824389981 2463.55138953892 154 158 159
-514.417727705741 256.758568507758 2470.02745413956 146 150 151
-515.205269914895 256.431831919326 2476.64148001523 142 146 147
-514.00809587663 255.854377175602 2483.52192293108 137 141 144
-509.829805223743 254.901247675527 2490.78677294075 135 139 142
-511.599887187441 254.701244036431 2497.23246851789 147 151 152
-516.350488680069 254.877121404818 2503.29167035521 148 152 151
-524.088053879555 255.428156141718 2508.98784755458 148 152 151
-528.848579722758 255.603008546717 2515.08417847474 149 153 152
-532.617650798024 255.652505582842 2521.31568070569 151 155 154
-539.378720464334 256.076577677973 2527.20248419713 158 160 157
-544.152166277506 256.25023901374 2533.34510343227 151 153 148
-550.925291044752 256.67303971356 2539.27679148081 134 136 131
-857.734795529598 312.053961271621 2111.86115750723 146 150 151
-852.126054622688 310.803729743397 2121.42009218577 150 154 155
-839.75956451756 308.672812408252 2132.60983941749 140 144 145
-783.007808517036 300.751499706736 2154.59378514293 123 127 128
-735.819457666639 294.099042007257 2173.91894850461 136 140 141
-707.874648439253 289.970584515572 2188.35315005882 121 125 126
-691.483878234912 287.3556292294 2199.88214835659 156 160 161
-671.1963210684 284.24157305887 2212.21424480273 157 161 162
-654.747500145498 281.633548252259 2223.53208770209 163 167 168
-648.927601745541 280.408647963615 2232.32302881326 141 145 146
-645.034832699384 279.435898267148 2240.63557742313 153 157 158
-639.192752660733 278.213729557948 2249.34681605607 164 168 169
-629.455526783014 276.49231340136 2258.86622445108 163 167 168
-621.643977324208 275.023208655328 2267.90194741464 152 156 157
-615.762412898075 273.805931448748 2276.46967649427 149 153 154
-613.761688787464 273.089895404903 2284.17552288921 143 147 148
-610.781039651263 272.249770175152 2292.06200571515 139 143 144
-607.793204410716 271.410663711309 2299.92152211706 143 147 148
-597.970939516171 269.699624385503 2309.13267772001 148 152 153
-596.915059698533 269.11221144603 2316.53143130065 138 142 143
-597.808151685975 268.77448781359 2323.5304061715 126 130 131
-597.722004118 268.312602937993 2330.71251699658 119 123 124
-597.632972509686 267.851232052312 2337.88331542896 121 125 124
-594.603985791003 267.017426606173 2345.59432026558 121 125 124
-594.506586801965 266.557218411454 2352.7347863155 130 134 133
-595.386073021378 266.22155945215 2359.68547818535 137 141 140
-594.301951753832 265.638142078171 2366.98189938854 147 151 150
-591.249895524371 264.807459562812 2374.60829428565 143 148 144
-591.137602849288 264.349320579393 2381.69569841255 125 130 126
-593.972007133245 264.263053051939 2388.26757178327 109 114 110
-602.710922177983 264.91896857887 2393.85146055481 93 98 94
-603.582414917516 264.584847873392 2400.77344537348 90 95 91
-601.496325818509 263.88041770873 2408.16967564214 97 102 98
-582.640853848845 261.07788207048 2418.22193170786 119 123 122
-556.847021644142 257.415209816343 2429.24740062931 138 142 141
-533.975392082816 254.127155258539 2439.66813003367 157 161 160
-521.938043789411 252.198705603348 2448.31049438932 163 167 168
-511.858019002593 250.518936098136 2456.58438015957 159 163 164
-510.667639883497 249.948739458595 2463.49463366554 159 163 164
-512.443892183694 249.748079955656 2469.96282441464 156 160 161
-516.202159490971 249.793360356373 2476.15155220968 151 155 156
-513.01993676073 248.978692697104 2483.30570436559 142 146 147
-511.815406613391 248.410450409841 2490.16465175293 141 145 148
-512.592919567911 248.088115893735 2496.74422020984 143 147 146
-517.344641950061 248.256332331879 2502.80274697997 144 148 147
-523.095024912767 248.546644478336 2508.74986920772 145 149 148
-528.85082755563 248.8364453445 2514.71679085006 144 148 147
-534.61208697004 249.12569453657 2520.70362411752 146 150 149
-539.381960183097 249.292172780422 2526.82844396045 154 156 153
-548.146159947533 249.94691865747 2532.50547148486 164 166 161
-551.928632565704 249.990266088998 2538.78284847958 140 142 137
-857.945114866534 304.128389973957 2111.53456155961 144 148 149
-853.295683324895 303.023225577921 2120.85049130052 156 160 161
-834.174358919804 300.069506535099 2133.71748949882 145 149 150
-774.498303570042 291.94334125543 2156.40464186924 137 141 142
-730.178707607383 285.798595606129 2175.01158250256 125 129 130
-707.047495254474 282.369651468003 2188.27683098 134 138 139
-695.482627068629 280.421123094924 2198.6607447201 157 161 162
-674.220001940228 277.245915704695 2211.23124665982 161 165 166
-657.765111606884 274.689037276558 2222.5579171511 156 160 161
-650.004946609236 273.240150617126 2231.7971851893 150 154 155
-644.169826619819 272.038362768893 2240.54713252958 160 164 165
-637.352470302872 270.715482426798 2249.47009782174 165 169 170
-623.722888304616 268.536795704539 2259.83546468505 163 167 168
-618.818123783973 267.462584424199 2268.22386431817 152 156 157
-614.876259996936 266.512048326631 2276.3672292584 149 153 154
-613.84583779386 265.929381238223 2283.86349825426 143 147 148
-609.888218552833 264.980869603736 2291.95057344433 143 147 148
-604.946880929575 263.911400778421 2300.2052494309 147 151 152
-597.06823688459 262.477206062163 2309.01390371139 150 154 155
-596.009628792912 261.898268164528 2316.40787844299 143 147 148
-596.900569101649 261.563609579983 2323.40172868581 132 136 137
-599.745842471881 261.472821187081 2330.0111026058 121 125 126
-598.677949196287 260.895296544919 2337.37149552489 123 127 126
-596.626307707738 260.1968326036 2344.89938978071 126 130 129
-596.528513368778 259.742165245156 2352.04281519031 132 136 135
-596.427598189248 259.287959918704 2359.17494523336 137 141 140
-595.342200871637 258.712900175201 2366.47190528311 145 149 148
-591.305963919744 257.774701303048 2374.27267023714 144 149 145
-593.157911845692 257.564702338121 2381.01600756135 118 123 119
-595.009601396669 257.354848788341 2387.75847739743 103 108 104
-600.798280590471 257.629192946937 2393.83770467379 90 95 91
-599.697193997607 257.056467644047 2401.07788736313 90 95 91
-596.619876116917 256.242657433014 2408.62207201256 98 103 99
-577.751522515674 253.497428399132 2418.66268149493 121 125 124
-550.954843130182 249.790219450664 2429.83297763379 161 165 164
-526.092042974347 246.329080287016 2440.54517411155 163 167 166
-512.065093235564 244.198286386879 2449.46635847943 163 167 166
-502.961758860871 242.672498794709 2457.56647103585 160 164 163
-505.723178289877 242.593011630187 2463.87257573348 162 166 167
-507.495028138766 242.393215111903 2470.32496588707 160 164 165
-509.266573841559 242.193533198428 2476.77629916129 155 159 160
-509.053481787284 241.75375298483 2483.50011669306 144 148 149
-512.808768749257 241.794561887913 2489.6758850031 141 145 146
-514.579411167436 241.595266054992 2496.12410830964 143 147 146
-517.344084796292 241.515951306756 2502.44240406812 144 148 147
-520.110108738634 241.436631941067 2508.7647813382 143 147 146
-527.856374024886 241.955849318452 2514.47317243942 141 145 144
-534.614210026857 242.354546116112 2520.33287835704 142 146 145
-537.389824973955 242.274355872935 2526.69124434405 150 152 149
-543.160826066028 242.55255692921 2532.70634231427 165 167 162
-543.943302300542 242.233208322823 2539.30715262661 145 147 142
-864.895967087554 297.0542513207 2109.49569236585 143 147 148
-859.284034328952 295.846789563861 2119.07070794177 149 153 154
-835.334941928046 292.348775310802 2133.15204123069 146 150 151
-768.876327655215 283.551156735013 2157.50906193985 139 143 144
-728.395973599861 278.01815423665 2175.17036734483 126 130 131
-707.185462395091 274.900347028982 2187.96966851677 142 146 147
-691.744366629757 272.508474715915 2199.26914440186 155 159 160
-670.468590616927 269.398439554094 2211.8310369959 162 166 167
-654.970888071305 267.013345163513 2222.92462222584 151 155 156
-649.142959486543 265.83196188069 2231.71322319403 156 160 161
-645.243774815177 264.891978428647 2240.02263873633 162 166 167
-633.567763273784 262.994061899867 2250.02585264971 164 168 169
-621.871373786812 261.098603273478 2259.95495903602 162 166 167
-616.961554052431 260.043649641095 2268.33674792209 152 156 157
-614.961247084615 259.348975022811 2276.05762957229 149 153 154
-610.033256989155 258.296433294086 2284.37254919617 143 147 148
-606.069541663566 257.364664097688 2292.44756111799 140 144 145
-603.072482705829 256.553456893367 2300.29044579768 145 149 150
-597.13955185976 255.385257525431 2308.6984466057 147 151 152
-595.102226962085 254.695470762798 2316.28497387383 141 145 146
-595.991483984739 254.363938419511 2323.2736191279 132 136 137
-601.770142512465 254.62803265515 2329.30917037035 125 129 130
-601.680570894867 254.17772880626 2336.48588002426 123 127 126
-598.649077737726 253.371218948248 2344.20388292904 121 125 124
-596.590463004529 252.684501008591 2351.71330270473 129 133 132
-595.506904164639 252.117301489681 2359.02205119625 141 145 144
-594.418771943327 251.550760879567 2366.31423561942 150 154 153
-592.343573338253 250.866293104305 2373.76350336519 148 153 149
-595.178658853798 250.775080053963 2380.33571269353 108 113 109
-596.0470581814 250.447043127208 2387.24912423689 94 99 95
-600.852618404156 250.592627293926 2393.49325152588 88 93 89
-598.763899420332 249.910120445711 2400.89448780446 99 104 100
-592.724763796434 248.755771020578 2408.91598619431 111 116 112
-567.922858604028 245.359255484228 2419.89507371137 124 129 125
-537.15607543282 241.259252498493 2431.66337358051 154 159 155
-518.201280333453 238.57979439394 2441.42549606655 148 152 151
-511.084866616008 237.31801622572 2449.27576753566 135 139 138
-503.954970247712 236.057819139559 2457.07790779964 133 137 136
-503.745224601846 235.622959268409 2463.81818535911 122 126 125
-504.523694255877 235.306175211952 2470.40481012345 122 126 127
-508.276229679742 235.342233259245 2476.56643404763 127 131 132
-509.053154880851 235.025765105413 2483.14845302786 143 147 148
-511.815384074361 234.944350120794 2489.45541807519 144 148 149
-511.596240865465 234.511032035113 2496.16177772763 140 144 143
-515.35331414999 234.546976841719 2502.34017834481 143 147 146
-518.117276456811 234.46558534241 2508.65452195209 144 148 147
-524.86729453798 234.852275532344 2514.47762111848 142 146 145
-530.627530763719 235.121359752052 2520.44699535653 142 146 145
-534.397494084352 235.156153222905 2526.67345628079 153 155 152
-540.166899427488 235.424335929711 2532.67723350909 158 160 155
-539.947211892497 234.991752248665 2539.38110682756 161 163 158
-874.562342116769 290.781552607742 2098.56248340956 213 217 218
-866.070730856792 289.239634308275 2108.92361991231 150 154 155
-861.4196272818 288.171792725483 2118.257834414 149 153 154
-829.741056331334 283.802932753362 2134.26374350643 138 142 143
-769.042469130604 275.904247592027 2157.19437494724 127 131 132
-731.442632466023 270.843211304888 2174.15856144085 123 127 128
-710.223566699114 267.78991493109 2186.96775898604 144 148 149
-687.03423081938 264.505567012845 2200.10849668381 151 155 156
-662.83874606733 261.108170610351 2213.33854830796 158 162 163
-652.17356251597 259.359652466596 2223.29277036637 147 151 152
-645.369318189673 258.082869608501 2232.29352144809 160 164 165
-641.464258056608 257.159646319466 2240.59077501967 162 166 167
-630.750255062582 255.417171532087 2250.36755551466 162 166 167
-620.017323112029 253.676994285076 2260.07550705075 161 165 166
-613.156848433055 252.407270749706 2268.87194274064 151 155 156
-611.151253568403 251.723937811008 2276.58035200902 148 152 153
-607.190990762411 250.807705617739 2284.67799170984 142 146 147
-606.147009635163 250.242961797273 2292.13523489081 139 143 144
-605.09849411089 249.67890126006 2299.57607413363 145 149 150
-604.045463761701 249.115471196893 2307.00054876472 147 151 152
-600.056304343047 248.203079276382 2314.99332555348 141 145 146
-598.014192192763 247.524785694512 2322.5693348836 134 138 139
-601.83797985844 247.545548343107 2328.98584770256 128 132 133
-601.746809304679 247.10095333071 2336.16022508038 118 122 121
-598.712496722616 246.308243564946 2343.87647266882 116 120 119
-595.670508178469 245.516479412677 2351.56574694785 132 136 135
-594.584209384101 244.957806832102 2358.86970598787 145 149 148
-591.528999028654 244.167853375792 2366.51010442908 148 152 151
-590.432115451914 243.610650485351 2373.77569213214 142 147 143
-592.281750636939 243.401489443617 2380.51097172342 107 112 108
-597.084376382496 243.539643417132 2386.73951283871 96 101 97
-599.920709602681 243.446192031691 2393.31494148222 91 96 92
-598.814877183044 242.890486250795 2400.54824908212 99 104 100
-589.811953447419 241.41163912894 2409.05080241704 110 115 111
-563.021517655175 237.857590533648 2420.34097722288 123 128 124
-530.260891287339 233.616511351203 2432.41102975144 155 160 156
-512.280659197941 231.10977367163 2442.00331091187 153 157 156
-505.155253453665 229.873088042759 2449.83696788599 148 152 151
-500.987385499767 228.983234760345 2457.17953560299 150 154 153
-501.764695615374 228.669415447403 2463.76465603478 149 153 152
-503.532060618877 228.470823599834 2470.20115540248 143 147 148
-505.29911705651 228.272375751439 2476.63660003912 134 138 139
-506.072906744807 227.959331770529 2483.20821029584 128 132 133
-507.838648112021 227.761223757383 2489.63898688794 135 139 140
-507.615009564989 227.334079465939 2496.33255404143 136 140 139
-510.374077861615 227.250943243809 2502.62669659889 139 143 142
-513.134055699942 227.167738016376 2508.92510156259 143 147 146
-518.885108497773 227.4275514652 2514.85545547582 141 145 144
-522.647006187026 227.458331435285 2521.0485073548 151 153 150
-527.409474518661 227.603093871752 2527.1321241004 156 158 155
-532.175919460153 227.747504705415 2533.23028323538 154 156 151
-531.948642529036 227.321402200014 2539.91099951103 165 167 162
-873.815121290074 282.706810412951 2098.48379921867 204 208 209
-867.245396208893 281.42555579664 2108.35152203643 150 154 155
-858.733069375409 279.915284898822 2118.65665521003 146 150 151
-828.967885244698 275.871535292818 2134.17921144749 135 139 140
-769.207695478459 268.263257031625 2156.88002694867 128 132 133
-734.490572884301 263.657989457411 2173.14595314193 123 127 128
-712.295997319897 260.554272359233 2186.19683235968 155 159 160
-682.319134051876 256.535459496951 2200.95013822533 157 161 162
-658.108330876287 253.211356764675 2214.16958933161 153 157 158
-651.312294282491 251.957489299579 2223.21435267244 137 141 142
-641.591745140297 250.361230548329 2232.87562537406 167 171 172
-636.709322239152 249.340107627692 2241.37956325013 162 166 167
-624.04192922837 247.404235196863 2251.57525811039 162 166 167
-618.160729650606 246.272012830884 2260.19711195168 160 164 165
-611.294385257383 245.026912328085 2268.98730023674 146 150 151
-610.258845569779 244.4690484427 2276.48022845947 142 146 147
-606.294654047036 243.569300799806 2284.57368908713 134 138 139
-605.247941173853 243.013003539523 2292.02612254677 134 138 139
-603.220616430697 242.343376008883 2299.66250591238 140 144 145
-605.094792983785 242.130279073835 2306.4864178763 144 148 149
-603.058416808801 241.461979997676 2314.09003376618 145 149 150
-603.951051851222 241.135804725848 2321.09460312005 136 140 141
-601.904648468277 240.468874833303 2328.6627834054 127 131 132
-598.872785414444 239.689218583847 2336.3963669189 118 122 121
-593.87242640116 238.683482997153 2344.47214588256 124 128 127
-592.786519068378 238.132830775016 2351.78262197718 139 143 142
-593.659998023589 237.809535313908 2358.71788669546 149 153 152
-593.54898014809 237.373293994105 2365.82384894183 145 149 148
-592.451532981293 236.824351892984 2373.09255957538 127 132 128
-594.301815594468 236.615397584127 2379.8303734608 95 100 96
-599.106285738991 236.745720300325 2386.06081822206 89 94 90
-600.958210130484 236.536857722781 2392.80478562295 94 99 95
-600.837250795114 236.102423275217 2399.87497794182 105 110 106
-590.843631875735 234.54061298137 2408.54321601108 117 122 118
-561.078293958214 230.726750699235 2420.31401970557 138 143 139
-529.289862734041 226.693015140062 2432.22729875987 151 156 152
-511.300041772918 224.240560428154 2441.81824974299 146 151 147
-506.149051739145 223.253473691057 2449.34746818032 152 156 155
-503.959685448059 222.604868847482 2456.39549566181 158 162 161
-502.755502823982 222.069332692677 2463.27638227476 151 155 154
-501.546703888247 221.534431528567 2470.14053032718 156 160 159
-503.311519086661 221.336603930654 2476.56804527556 163 167 166
-504.082666441207 221.026847738992 2483.13192080296 159 163 164
-503.857713689064 220.60540101587 2489.82420571681 153 157 158
-503.629832861404 220.184451713155 2496.50500428285 146 150 149
-505.389837608724 219.987570391107 2502.91525639818 146 150 149
-510.138562404761 220.126058885576 2508.94388505122 147 151 150
-515.888270144212 220.375839349173 2514.86291072467 149 153 152
-521.643423448713 220.625091097162 2520.8018209105 154 156 153
-530.399497477727 221.208352138161 2526.40354738868 154 156 153
-536.167884209029 221.456391005668 2532.38989592279 156 158 153
-534.941985117157 220.924543459145 2539.1924823413 132 134 129
-873.066419828524 274.643381070704 2098.4058310411 193 197 198
-866.491319160034 273.386555227267 2108.26994742761 150 154 155
-857.008099983113 271.793514815045 2118.81441166566 144 148 149
-827.227342247741 267.838880280508 2134.33540875225 134 138 139
-776.137107358357 261.415515050181 2154.90448897708 132 136 137
-740.441790986785 256.799721673301 2171.42824833906 127 131 132
-716.304551303944 253.538308121404 2184.96133396504 161 165 166
-679.536396726099 248.82263813922 2201.33511886197 160 164 165
-654.34244819457 245.459518561501 2214.77603114351 151 155 156
-647.538869039688 244.230373815416 2223.80932808636 138 142 143
-642.663809572105 243.226884523359 2232.35173789801 167 171 172
-632.920852339492 241.665241625021 2241.95166838914 163 167 168
-618.299405748541 239.546691669733 2252.56965303318 161 165 166
-611.436729749641 238.324988316012 2261.38823308244 160 164 165
-607.482171554372 237.439925556013 2269.52580261071 147 151 152
-606.441743328519 236.890721570619 2277.00604805656 141 145 146
-604.42152545357 236.23068457164 2284.67580181304 130 134 135
-606.298902868851 236.017109128898 2291.51129584623 131 135 136
-605.246377024567 235.469766424667 2298.9478003214 136 140 141
