ply
format ascii 1.0
comment KinectMotionCapture
element vertex 775
property float x
property float y
property float z
property uchar red
property uchar green
property uchar blue
end_header
-764.185771736059 -33.3740869648042 2052.67561610148 170 174 173
-759.424637471861 -33.1751250946171 2043.42073250045 155 159 158
-766.630839026685 -33.6025278789766 2035.09428243935 139 144 140
-596.413815142922 -31.8025719613582 2431.93508292187 39 42 35
-633.661443499631 -33.7213613596498 2421.21304682529 27 30 23
-640.830048601009 -34.3226705788272 2375.06110721577 24 26 21
-667.060601333059 -35.6860265385184 2365.30317867774 24 27 20
-687.28857893082 -36.7479552910226 2355.8027090756 28 31 24
-691.517739434425 -37.0079547384737 2346.67527079572 23 26 19
-721.738316255891 -38.5695689717168 2337.21180116437 17 20 13
-715.968469548057 -38.3285702088372 2328.308543569 19 22 15
-744.183795238297 -39.7887951326333 2319.09112546669 21 22 16
-706.430351063469 -37.9475203195919 2310.3908049322 20 21 15
-694.666448436501 -37.407482445136 2301.40948167915 18 19 13
-687.901001454325 -37.1178575571835 2292.36178088891 15 16 10
-678.138728737556 -36.6787294395801 2283.26712608756 14 15 9
-668.377855949059 -36.2400715536765 2274.11725234113 15 16 10
-673.60509324748 -36.5506318512227 2265.03538889817 13 15 10
-694.816758083693 -37.659526253519 2256.15607288122 6 8 3
-718.023318326868 -38.867504351452 2247.41926892776 0 2 0
-723.246098831019 -39.1772082283036 2238.51251200266 9 11 6
-729.467192134279 -39.5366761477572 2229.65228638783 6 8 3
-717.709386046635 -38.9991616313019 2220.42997987093 0 1 0
-718.936660048204 -39.109701604584 2211.46265771001 0 1 0
-712.174579231275 -38.8219782046882 2202.2813538495 12 14 9
-715.39887358898 -39.0323145078916 2193.36340341705 177 179 174
-704.644110244685 -38.5461383798069 2184.00107519291 198 200 195
-703.875122217723 -38.5577828648243 2174.93512640292 7 9 4
-687.132541698395 -37.774161034954 2165.24918990868 8 9 3
-703.335757414286 -38.6312122936776 2156.82836666444 200 201 196
-701.568714306311 -38.5935664765669 2147.70530538209 183 185 180
-691.816870553268 -38.1588578673653 2138.19830522265 152 157 151
-678.074155080171 -37.5260660826954 2128.43911127963 131 137 133
-664.333142882528 -36.8938971779092 2118.60335384272 125 131 127
-651.592173894076 -36.3119530001322 2108.74600264821 10 16 12
-700.720840833633 -38.8046810597443 2102.3908108135 48 54 52
-724.897853188005 -40.0566038994886 2094.7956786857 57 63 61
-740.09165016312 -40.8617896693392 2086.7646391758 68 72 71
-754.285754518472 -41.6169747248231 2078.75057543484 86 90 89
-768.478128648599 -42.3717397922997 2070.81391062851 83 87 88
-767.705403447645 -42.3837441309572 2061.88431237305 148 152 153
-762.9432913991 -42.1980037256836 2052.65344778075 167 171 170
-758.18161869404 -42.0125497056344 2043.3957798365 178 182 181
-761.399240321947 -42.222815714076 2034.74802306554 183 188 184
-596.156665247884 -41.1081265254118 2431.99380383311 34 37 30
-645.411786158575 -43.4954485913087 2420.80952958363 32 35 28
-655.64780371679 -44.0300388356704 2411.28609495883 25 28 21
-626.872871877833 -42.7139930496315 2403.10256483942 18 21 14
-654.576566417292 -44.1752805781998 2374.77216170039 24 26 21
-674.808512302115 -45.1830214021181 2365.1841053055 23 26 19
-694.037383718669 -46.1427433135407 2355.72442155189 28 31 24
-741.485565748923 -48.4863102387043 2336.99223552392 21 24 17
-688.728411407624 -46.038449376172 2328.66181285975 20 23 16
-704.952489447019 -46.8550876897836 2319.46901004989 19 22 15
-704.18207875449 -46.8677488636359 2310.45757231642 20 21 15
-639.445110114381 -43.8567998576226 2301.61847688608 18 19 13
-699.643453967593 -46.751770384787 2292.41714635248 17 18 12
-742.844487165199 -48.8420693795707 2283.49889224561 17 18 12
-720.087820203055 -47.8162854872163 2274.45668215391 15 16 10
-700.331983282019 -46.9329533084531 2265.31249527793 22 24 19
-698.563149774705 -46.8992272314433 2256.255200289 12 14 9
-701.790009130154 -47.1013292141293 2247.25516702653 17 19 14
-707.014285923021 -47.3976495714404 2238.30430014745 20 22 17
-704.246610344456 -47.3170901536942 2229.22733766333 21 23 18
-721.456573742098 -48.17834588811 2220.5722996498 25 27 22
-730.673548720155 -48.6625447847424 2211.81319892196 25 27 22
-720.913949653935 -48.252690034051 2202.58261710825 17 19 14
-706.162661843563 -47.6081814026024 2193.14634278711 12 14 9
-695.407457114503 -47.1523292927713 2183.75938102506 13 15 10
-666.681107044877 -45.8512311296879 2173.67038224556 13 16 9
-653.933496424043 -45.3027874541651 2164.03663879321 23 24 18
-682.120420356371 -46.6798420244932 2156.01856169924 12 13 7
-687.342946972173 -46.9765473392136 2147.14500925346 9 12 5
-673.598249481882 -46.3818019937715 2137.41310328402 9 14 7
-646.11515776185 -45.1941682355496 2117.71959383232 19 24 18
-655.330830041967 -45.6789612498428 2109.02009392322 30 35 29
-663.547125695028 -46.1166629384349 2100.31277102769 26 31 25
-725.647620020923 -49.0823121417428 2094.9092449977 171 173 170
-740.842490839391 -49.8461530862352 2086.88062885875 134 134 132
-757.033156134083 -50.6562892359416 2079.00069338282 108 108 106
-762.247344629877 -50.9515324463276 2070.45459344685 90 90 88
-759.479924109858 -50.8727139634221 2061.36579310938 102 102 102
-752.722853851902 -50.6072036436635 2051.96480855196 113 113 111
-752.948900453465 -50.6689666842127 2043.063807898 112 112 110
-710.732178813392 -55.5018313444209 2436.29595132622 40 43 34
-638.92226776756 -52.3383879239192 2430.27990133997 30 33 26
-643.157332506397 -52.5776021509744 2420.94402266268 30 33 26
-656.395434392723 -53.2192291896278 2411.3076151852 23 26 19
-654.627069701343 -53.1899599339664 2402.23653664225 18 21 14
-626.852220091715 -51.9990724085029 2393.94010507768 21 23 18
-698.328756599042 -55.29069945103 2373.73979134655 29 31 26
-693.55777299164 -55.1272431223216 2364.82240629377 29 32 25
-660.788408216556 -53.7149711926909 2356.41650081562 26 29 22
-719.014841483101 -56.3618436159065 2346.32500722436 24 27 20
-709.244510696188 -55.9756714490943 2337.48842969746 25 28 21
-669.48273086241 -54.2532769430255 2328.92753095953 22 25 18
-679.711144344996 -54.7592805855873 2319.73198404364 18 21 14
-694.936166453749 -55.4875860854281 2310.56310625412 21 22 16
-681.172245008042 -54.9249114634477 2301.5574287732 18 19 13
-670.4087566023 -54.4962777261203 2292.47432158826 15 16 10
-714.614414458158 -56.5136360476156 2283.47833555617 15 16 10
-731.831692410075 -57.3294171891774 2274.57692174985 16 17 11
-668.105506370965 -54.5460761834646 2265.10603942941 16 19 12
-658.345216743311 -54.1632262149661 2255.87345149351 14 17 10
-724.520572779642 -57.1544860319994 2247.62468721897 16 19 12
-705.766125864975 -56.3717861365633 2238.34282054617 21 24 17
-711.989317644608 -56.6986934685455 2229.43554025626 22 25 18
-721.208471373396 -57.1584663583314 2220.62683795541 19 22 15
-729.427347028371 -57.5736538031385 2211.84285370845 12 15 8
-734.648962594539 -57.855749510612 2203.02059490945 15 18 11
-713.902982898114 -56.9864604432344 2193.44205268593 17 20 13
-682.174893840487 -55.6311710342121 2183.38646340327 19 22 15
-661.43576950432 -54.7638077250589 2173.54724700996 20 23 16
-677.644286317789 -55.5335658832523 2165.01296711667 25 28 21
-677.875528312873 -55.5955342115653 2155.90869206388 24 27 18
-677.108467342551 -55.6133897923861 2146.76075822834 24 27 18
-660.600966257297 -54.9872022673482 2127.70873747064 15 20 13
-674.807828560116 -55.6676234287481 2119.28564944633 0 5 0
-630.125215567864 -53.7450556375048 2107.70342905909 30 33 26
-631.357762151122 -53.8524722509629 2098.52406497557 20 23 16
-716.418038808051 -57.6620793162564 2094.4195275781 161 160 156
-741.593710150502 -58.8252899999719 2086.99675678525 180 179 175
-750.800884442963 -59.2830665015027 2078.65839592305 118 114 111
-758.011213860024 -59.6525395053477 2070.23281524274 120 116 113
-755.243851661517 -59.5818466233149 2061.13301085414 146 145 143
-753.474419241954 -59.5553059299694 2052.09140831908 126 125 121
-751.705485877101 -59.5289199904226 2043.03945962267 119 118 114
-640.669684822541 -61.6104487624106 2430.25481312031 49 52 45
-667.917228765014 -62.8047760849821 2420.03899681332 63 66 59
-671.149917479057 -62.9908069154884 2410.8283879884 19 22 15
-644.370347702601 -61.9181154464438 2402.62354952377 17 20 13
-621.595813612055 -61.0142187611032 2394.1487756097 18 20 15
-580.819752719161 -59.3566654806141 2386.04238616922 18 20 15
-639.068173401336 -61.8489381538642 2375.2575455112 30 32 27
-640.301666190085 -61.9518089014038 2366.04608143994 32 35 28
-638.535108254987 -61.9291163403677 2356.89732705436 27 30 23
-663.767962821431 -63.0364251170084 2347.29033614837 12 15 8
-725.994133448176 -65.6905546867053 2337.30943070456 18 21 14
-721.222569100162 -65.5411939054089 2328.40893308176 22 25 18
-669.462404796604 -63.4278429149557 2319.87100168305 22 25 18
-691.687122956532 -64.4077176993972 2310.63542075958 28 29 23
-693.916450521454 -64.551755250054 2301.57656877294 31 32 26
-704.141881954016 -65.0296750745925 2292.52772494326 27 28 22
-725.360233418939 -65.9661974899434 2283.56282728831 25 26 20
-705.599543045004 -65.1923083297184 2274.49081868062 28 29 23
-698.833215546623 -64.9610838831962 2265.41482561776 18 21 14
-711.054256317186 -65.5217903736371 2256.50741423692 23 26 19
-720.275972576646 -65.9571800265798 2247.62474020209 20 23 16
-746.481797450705 -67.0999510555739 2239.07010912613 23 26 19
-734.719172248062 -66.6607251562273 2229.9306155706 27 30 23
-710.97035440454 -65.7229365356651 2220.46245452389 30 33 26
-729.179846483805 -66.5320725573917 2211.89717227317 21 24 17
-732.404025503142 -66.7173195852777 2203.01999338348 23 26 19
-676.699007530866 -64.4520399946247 2192.38176611146 28 31 24
-636.981394561299 -62.8531519319753 2181.96206161084 19 22 15
-669.172404567546 -64.2435573510198 2173.8873917075 22 25 18
-688.377113187877 -65.0936099226118 2165.48982822548 15 18 9
-712.572086049624 -66.15032713733 2157.40233401685 19 22 13
-682.847358211509 -64.9684206303764 2147.07860675042 18 21 12
-622.177547389815 -62.5036352444343 2135.145762925 11 14 5
-704.503050508388 -66.023475671766 2120.90296793361 8 11 2
-600.923191307465 -61.7831869205954 2106.16835539514 15 16 8
-667.034087953558 -64.5758069646735 2100.6521714803 34 34 26
-730.141672184407 -67.2420147169689 2095.3177622346 113 108 102
-739.35094372498 -67.6752353447205 2086.92379985694 157 150 144
-755.544118633042 -68.3972039296908 2079.04044753737 145 138 132
-757.765678359213 -68.5408352380418 2070.28562579012 152 145 139
-757.991357589129 -68.6019340440269 2061.39969649668 146 139 133
-750.235468274361 -68.3332122193744 2051.92198240408 153 146 140
-745.47375652496 -68.1885113766952 2042.631407613 156 149 143
-630.175348972221 -70.3395763418712 2439.92755473079 36 39 30
-643.418015703141 -70.9109885011028 2430.18812864288 37 40 33
-645.652009566379 -71.0502558105804 2420.94269868241 26 29 22
-639.881751230099 -70.8756779606487 2411.9935360802 19 22 15
-631.11067315542 -70.583724713724 2403.10969779099 21 24 17
-588.327265156074 -68.9595920980496 2395.20517886105 21 23 18
-602.56875771003 -69.5700533030247 2385.49441348129 16 18 13
-640.81479677132 -71.1198311372259 2375.26473120359 21 23 18
-650.049665198217 -71.5332448009368 2365.88229624018 26 29 22
-626.279459651919 -70.6554305074813 2357.18564489562 25 28 21
-698.517746605367 -73.5323263923715 2346.76695311065 14 17 10
-687.747136321323 -73.1626940520968 2337.889517657 13 16 9
-703.975951544104 -73.8482890471019 2328.65227353285 20 23 16
-705.205008903658 -73.9476563542899 2319.62724791236 21 24 17
-685.438515186608 -73.2274322018824 2310.72443270523 28 29 23
-684.669035366424 -73.2491871237333 2301.65752430136 34 35 29
-714.88854284911 -74.4797748113415 2292.58195415565 29 30 24
-733.109238515385 -75.2416419818865 2283.63887535329 24 25 19
-685.360465235532 -73.4318699885712 2274.43789898043 25 26 20
-681.593300506061 -73.3371316278056 2265.33149733825 23 26 19
-701.811186620784 -74.1766177427999 2256.46427962431 23 26 19
-711.034212969909 -74.5875270484677 2247.55668785848 28 31 24
-690.279263406246 -73.8317242240772 2238.20686633261 30 33 26
-747.461047290782 -76.1080279682872 2230.23361570893 22 25 18
-714.717741542376 -74.886318223052 2220.60462219767 18 21 14
-718.94227165932 -75.102418888186 2211.70529060054 20 23 16
-695.196096669073 -74.2318349769161 2202.06167845154 26 29 22
-664.460980629003 -73.0906762433177 2192.0755086208 19 22 15
-639.723257655857 -72.1833484711369 2182.11631742928 14 17 10
-650.943034147964 -72.6720295851307 2173.30163128127 20 23 16
-740.056756473983 -76.1814678661671 2167.53866555132 18 21 12
-713.32174664779 -75.1968599652853 2157.49769251463 16 19 10
-695.576997631946 -74.5615645434306 2147.7032244521 15 18 9
-680.830360542877 -74.0430249042019 2137.94992802936 20 23 14
-618.398857114038 -71.7326874225468 2116.47865137051 16 19 10
-702.486345562296 -75.0399775267303 2111.81590971592 24 24 16
-687.973986523842 -74.5846646430657 2092.83832747048 23 16 10
-738.106061644804 -76.5749169428696 2086.91414953417 69 62 56
-751.306619064518 -77.1371740575559 2078.83033118461 105 96 89
-758.517953896707 -77.4678273257124 2070.40713704057 115 104 98
-756.747831011604 -77.4516961729793 2061.38134332769 114 104 95
-746.996050968666 -77.1277771829449 2051.7528957963 107 97 88
-742.234176548648 -76.9966348497486 2042.45412065321 101 92 83
-414.494236687007 -71.6283825053478 2459.23852803033 46 49 40
-644.165197681292 -80.1221726673904 2430.20357027114 44 47 40
-633.390557367791 -79.7816901451527 2421.46166828818 43 46 39
-634.624729058483 -79.8794674617591 2412.22913931096 23 26 19
-631.856640378456 -79.8313865327814 2403.13344936318 21 24 17
-604.077174913203 -78.8722559659903 2394.77790344192 19 21 16
-622.320190571746 -79.5899650682252 2385.00057076562 17 19 14
-671.571357923862 -81.4358343186766 2374.55218561321 22 24 19
-672.802692367124 -81.5330588435662 2365.43113963955 28 31 24
-710.041097100671 -82.9397915354736 2355.61940174265 18 21 14
-680.265751033891 -81.909306986208 2347.12074975591 17 20 13
-681.496600181 -82.0064598389948 2338.02807258128 15 18 11
-700.726797234847 -82.757366410648 2328.74078815945 14 17 10
-701.956136037612 -82.8542034441729 2319.70747957626 18 21 14
-685.187905104321 -82.2979433230333 2310.77992662558 21 22 16
-689.417367082423 -82.5039046051274 2301.69872769808 21 22 16
-717.639283144724 -83.5796671185415 2292.63654115141 20 21 15
-715.868318481677 -83.5676138602452 2283.64859329594 21 22 16
-737.08755801381 -84.3884852982844 2274.77316401031 21 22 16
-671.347289369602 -82.0600135978416 2265.30555494101 21 22 16
-685.57075220269 -82.6278121359513 2256.34526139711 20 21 15
-710.014948585338 -83.6174536466717 2238.58926935855 20 21 15
-734.225064191073 -84.5450581483566 2230.03925075659 21 22 16
-723.461613528163 -84.2083817670615 2220.85593172439 22 23 17
-675.733419696316 -82.5371977304638 2210.701834158 20 21 15
-661.978554717798 -82.0939225782862 2201.2139966111 20 21 15
-633.475636889765 -81.173017090555 2181.97494541639 19 20 14
-618.727721601744 -80.6954252533813 2172.21831405224 18 19 13
-660.909950920945 -82.2696817724605 2164.56436965718 18 21 12
-710.076942977655 -84.0941896215971 2157.42878287611 17 20 11
-664.370487692205 -82.5017050846992 2146.39928626218 19 22 13
-705.542080740838 -84.0369555331079 2139.16890343058 17 20 11
-626.129792373587 -81.288241630234 2116.95084623111 18 21 12
-718.438176846427 -84.7128961227196 2103.75426153514 23 20 11
-686.724839356218 -83.6273827524939 2092.83246516246 29 22 14
-719.892994160808 -84.871315561469 2085.83302438515 45 36 29
-748.066469911151 -85.9350515456384 2078.6862909854 126 113 105
-756.276446546967 -86.2821395814219 2070.32323113566 145 128 118
-762.489640305133 -86.557443372116 2061.86211606804 145 127 115
-747.747671005717 -86.0819384455406 2051.88017889554 141 124 114
-736.998521109858 -85.7499214715742 2042.12360864542 139 125 114
-775.137925077598 -87.1679572065077 2036.20304974785 147 137 127
-430.239052835661 -81.9692560230339 2458.5505499332 23 26 17
-627.898418067345 -88.753775830049 2430.92050452054 55 58 51
-640.141606063088 -89.2205256001382 2421.24838634745 44 47 40
-651.382283173765 -89.6531202364558 2411.67705296212 22 25 18
-663.622238225464 -90.1190711994824 2402.13214713932 21 24 17
-646.844425604633 -89.6071988081298 2393.53141960486 20 22 17
-658.082443513732 -90.0391698911004 2384.06468655272 18 20 15
-667.3182613336 -90.4034381412208 2374.7072393714 19 21 16
-681.554441242685 -90.9356418299852 2365.28813745096 28 31 24
-691.78763592182 -91.3328415512582 2356.02255008185 20 23 16
-675.013949015248 -90.8221913317391 2347.25926306792 18 21 14
-679.245408643001 -91.0176521935334 2338.11126361445 15 18 11
-711.478292376507 -92.1530923797203 2328.67378542152 12 15 8
-685.706843802531 -91.3411123431247 2319.89630803638 14 17 10
-682.937348659503 -91.3014891518836 2310.84650626755 20 21 15
-662.170968587381 -90.6586669094753 2301.83144355049 20 21 15
-701.394466653949 -92.0266882999943 2292.6932703782 20 21 15
-715.619976849873 -92.556251480264 2283.70333777291 20 21 15
-683.859500603806 -91.5459794204209 2274.54309895263 21 22 16
-678.092546661299 -91.406500270497 2265.41777812556 21 22 14
-682.321508439437 -91.6015399610277 2256.36785550937 20 21 13
-708.537639658543 -92.5314439004124 2247.63897705222 20 21 13
-706.767942437404 -92.5255030291132 2238.59493016592 20 21 13
-711.99335151316 -92.7532529733667 2229.67343537757 21 22 14
-676.249772102507 -91.6133920313259 2219.88383681735 22 23 15
-679.478473606818 -91.774922038817 2210.85536905799 20 21 13
-648.737781081608 -90.8036455849718 2200.91406586459 20 21 13
-593.025813271043 -89.001117582848 2190.05059533252 20 21 13
-613.477515610246 -89.7926797634629 2172.09648661147 18 19 11
-606.721523158576 -89.6228472871752 2162.55064615115 19 22 15
-652.899756356732 -91.2140916476398 2155.14275921335 18 21 14
-638.152502339886 -90.7782109173297 2145.31549690681 18 21 14
-605.432615688719 -89.7455784089113 2134.5681873725 17 20 11
-661.586652922473 -91.6660360724148 2128.02742964529 15 18 9
-599.626043529293 -89.8297971667987 2087.64293226842 29 25 16
-732.848410781532 -94.3528532905321 2077.75332108893 112 99 91
-753.036656067576 -95.0745120311933 2070.1710836011 138 120 108
-763.24236518794 -95.465273968733 2061.98663948037 142 123 109
-753.488594139946 -95.1957067102229 2052.37764862049 143 124 110
-743.736199521531 -94.9265359059617 2042.71443644237 140 122 110
-746.95613921633 -95.0862565615039 2034.03035329415 144 132 120
-623.640205351179 -97.8456796652041 2431.142050422 35 38 31
-650.897025395605 -98.745074658806 2420.88036753646 15 18 11
-655.132408181532 -98.9305889885614 2411.58971729104 22 25 18
-649.360506026297 -98.8062117666347 2402.65089925999 22 25 18
-655.596626355313 -99.0535684463811 2393.31441704859 22 24 19
-650.826086278094 -98.9603871616734 2384.31356615821 21 23 18
-622.044319759643 -98.1252784473047 2375.88076580292 15 17 12
-651.291110782605 -99.0836628760744 2366.00643362012 27 30 23
-670.530372739844 -99.7321410794422 2356.48416585251 22 25 18
-662.759213114571 -99.5465380971553 2347.51402178239 18 21 14
-688.996540746023 -100.410081959391 2338.02796644231 12 15 8
-739.233594366557 -102.012587774919 2328.4171973888 11 14 7
-735.459882593209 -101.949471369341 2319.53272368151 15 16 10
-680.686490101823 -100.316101212491 2310.91301145934 16 17 11
-651.919293456208 -99.4849158112742 2301.91588223753 18 19 13
-683.147642326077 -100.500137691244 2292.75070093259 20 21 15
-711.372275053534 -101.422012511837 2283.74757045307 20 21 15
-702.603532568722 -101.206299762524 2274.69991283469 19 20 14
-689.837249648587 -100.868130180431 2265.57017139661 19 20 12
-694.065676503711 -101.052039284236 2256.55310659166 19 20 12
-724.280948100471 -102.03304759081 2247.91106865931 19 20 12
-736.502147156304 -102.461366064777 2239.13961899771 20 21 13
-712.74392546766 -101.786723489795 2229.74712204987 20 21 13
-675.998312652316 -100.715103563422 2219.93902637946 21 22 14
-675.230351527584 -100.746056855617 2210.81221038288 20 21 13
-659.474939369606 -100.318509940636 2201.27015062135 20 21 13
-592.767983724615 -98.3334566378194 2190.10712025105 19 20 12
-574.023489411347 -97.8164755276407 2180.15096307113 18 19 11
-614.220090094215 -99.1005517979057 2172.18818908742 17 18 10
-636.431258509914 -99.8342385223205 2163.7558416737 18 21 14
-585.963116937434 -98.4056391010717 2143.0941144871 22 25 18
-588.198155882962 -98.529881043328 2133.83329696079 20 23 16
-636.368631876048 -100.053430189416 2126.8506697025 11 14 7
-657.804777868989 -100.816420047965 2109.56925809338 19 20 12
-595.13830382302 -98.9654879896464 2096.78817297374 21 21 13
-707.646422590718 -102.550001895689 2076.16353737466 78 65 56
-745.803975888682 -103.76227171118 2069.74525058772 124 101 87
-758.007131027466 -104.186061155647 2061.68388263508 150 122 108
-753.242734248391 -104.095095566585 2052.43122654006 156 130 115
-744.487664268431 -103.883393257223 2042.84489396631 144 122 108
-731.742281153556 -103.551163854907 2032.89193763024 134 118 105
-462.737036869489 -102.416097645661 2457.12509994699 29 32 23
-527.049938138035 -104.292989219956 2444.64771898254 29 32 23
-595.35759611972 -106.280661156664 2432.35510706211 23 26 19
-640.634999103024 -107.615626120975 2421.3217967925 25 28 21
-642.869829308846 -107.734134594945 2412.07529369367 23 26 19
-626.089614710581 -107.316156482563 2403.46762731297 22 25 18
-645.336971708173 -107.914513019503 2393.67346932251 22 24 19
-638.565377441331 -107.779096285857 2384.70044887298 22 24 19
-624.790842770557 -107.446708115701 2375.86230913796 14 16 11
-620.022570949983 -107.368265573016 2366.74765680592 26 29 22
-662.275252566648 -108.612591033096 2356.6944471265 22 25 18
-667.508933357961 -108.814879020935 2347.48632891538 17 20 13
-698.749193454169 -109.747651786763 2337.9441431311 13 16 9
-679.974298554522 -109.275072625756 2329.12847078702 12 15 8
-729.212218052446 -110.711667040034 2319.63730546742 12 13 7
-724.439180663832 -110.631910020097 2310.71964421588 14 15 9
-689.666380343326 -109.711482469249 2301.86118702699 16 17 11
-679.897040099892 -109.49260902011 2292.80626315137 20 21 15
-721.122553013359 -110.701674678848 2283.82806210685 19 20 14
-738.346999738661 -111.237869853144 2274.94666568134 18 19 13
-706.58229893901 -110.403678519177 2265.76247512756 18 19 11
-712.80925515537 -110.63223741725 2256.81366658346 18 19 11
-738.027410087443 -111.390997022122 2248.15543356744 18 19 11
-713.266340842977 -110.753911278509 2238.81853045807 18 19 11
-680.513020217427 -109.894712870028 2229.19171628522 19 20 12
-687.969873838139 -110.212526108824 2211.18658399618 19 20 12
-690.198577325721 -110.329500567889 2202.17185658909 19 20 12
-651.461305203811 -109.306377632668 2191.93631006605 18 19 11
-668.678943998947 -109.840778043146 2183.32291821459 18 19 11
-670.908619062347 -109.958016672903 2174.26993461268 16 17 11
-679.132067303796 -110.241689547659 2165.45777285067 16 18 13
-693.347556043128 -110.691449263406 2156.93587551099 21 23 18
-670.604690445236 -110.115314514524 2146.8714616742 24 26 21
-593.932442883284 -108.044544373313 2134.16900433059 21 24 17
-637.112850028273 -109.297718919115 2126.95572757294 11 14 7
-670.301122159751 -110.272724346463 2119.45878548095 11 14 7
-602.631749788381 -108.455003333662 2106.61317960533 15 16 8
-651.793464602307 -109.871353031134 2100.12209454173 27 27 19
-542.202061764704 -106.89725192755 2084.32160177166 30 30 22
-697.414482495594 -111.297914232691 2075.56077425696 92 79 70
-737.572105293995 -112.460958985664 2069.25134534687 106 83 69
-746.78233538033 -112.769176222092 2060.95413869444 147 118 102
-746.010504923222 -112.801964272261 2051.9672548012 152 126 109
-736.257094238682 -112.587381193846 2042.28514191125 139 116 100
-727.503143126162 -112.400642478024 2032.62827613788 129 111 97
-576.844199765374 -115.061317649159 2442.50124054259 22 25 16
-589.0943884142 -115.431313329863 2432.65939968491 22 25 18
-607.348676563296 -115.954002828327 2422.6508960584 16 19 12
-620.595998440275 -116.348489647889 2412.91949953958 24 27 20
-612.823744623361 -116.207245166171 2403.95381631597 22 25 18
-624.067291886629 -116.550203977083 2394.36655147042 21 23 18
-643.315155683574 -117.096355280981 2384.61796475242 23 25 20
-633.541721510996 -116.90426689135 2375.69428607587 14 16 11
-580.745096021368 -115.619774017426 2367.66672246543 24 27 20
-620.001907033245 -116.673553586096 2357.56397265431 24 27 20
-671.258817355416 -118.030394708735 2347.47493319122 14 17 10
-645.480507355046 -117.432802838812 2338.73543061704 12 15 8
-698.958341639759 -118.899129749796 2319.94375529305 12 15 8
-667.18265837981 -118.150653681763 2311.09676288204 12 13 7
-643.412260232185 -117.605629376612 2302.0503148057 15 16 10
-742.646948437539 -120.169016407195 2292.85033142496 19 20 14
-744.873282320486 -120.279865892787 2283.94411768882 19 20 14
-738.10040410818 -120.163585745062 2275.00073088375 17 18 12
-732.328242660544 -120.072763435864 2266.02669342874 17 18 10
-728.556489294214 -120.032539107868 2257.04109864107 16 17 9
-711.789389897407 -119.665216970373 2247.85712948113 16 17 9
-676.03275779666 -118.820621012292 2238.26996725577 16 17 9
-732.237372127385 -120.289710269045 2230.23712600223 17 18 10
-730.465589243627 -120.299990544071 2221.24785223038 18 19 11
-704.708865528748 -119.708002543503 2211.65866583686 19 20 12
-752.131796456602 -121.007839327829 2195.02473261719 18 19 11
-680.647777754114 -119.326410244847 2174.68040804442 16 17 9
-681.877898070052 -119.412849785861 2165.62771924582 14 15 10
-682.108740300298 -119.474250288957 2156.53967807471 17 17 15
-663.360443628537 -119.061258333763 2146.62047469115 22 24 19
-630.631242762715 -118.299677306395 2135.94616272705 19 24 18
-616.883120946548 -118.012981814892 2126.02665585558 11 16 9
-679.037340740604 -119.62008197972 2119.98205774042 12 17 10
-699.240808517105 -120.17935680585 2111.97922793299 15 18 11
-572.654508330743 -117.081301100909 2095.6365897842 24 25 17
-626.810886274775 -118.486895005889 2089.49844992752 30 30 22
-724.347544078384 -121.079566505115 2068.4156098339 86 60 45
-734.557497933639 -121.387902148484 2060.15376977547 135 106 88
-738.777208388446 -121.547268176601 2051.50372455463 140 113 96
-732.017740905227 -121.434278414003 2042.03266703733 126 100 85
-727.255311409286 -121.370988948773 2032.6827310004 118 100 86
-761.412351821149 -122.271479815198 2026.51113836302 130 116 103
-605.385493838204 -125.012746031957 2450.54413516861 14 19 12
-580.590581461327 -124.505553383489 2442.38114492318 17 22 15
-554.798113318508 -123.976485157927 2434.1214161906 27 30 23
-561.043482898691 -124.177346847423 2424.48268873031 12 15 8
-591.311892427996 -124.924247253678 2414.01520334713 23 26 19
-588.54555571331 -124.919491975663 2404.80452077749 25 28 21
-604.796003404817 -125.346593529293 2394.99935518542 22 25 18
-617.041141270446 -125.682257515644 2385.39177916118 19 22 15
-611.271573892329 -125.60908823646 2376.29740201902 18 19 13
-592.494420984554 -125.241437008853 2367.45731692115 21 24 17
-620.74730242134 -125.939010121822 2357.60029170891 25 28 21
-652.998042291588 -126.726037645269 2347.82970773029 16 19 12
-738.267829518136 -128.71030534562 2337.49668031497 15 18 11
-647.460857419319 -126.71491276788 2329.59572353011 12 15 8
-624.686815870321 -126.257987156995 2320.62177627081 12 15 8
-601.915994593523 -125.801898242663 2311.52107123796 11 14 7
-632.156866266918 -126.541142810024 2302.13808091035 12 15 8
-689.395963411417 -127.887259269242 2292.91426822118 19 22 15
-727.854309314083 -128.864452681603 2275.0016961642 13 16 9
-723.082196240985 -128.812837499269 2266.00836813425 17 18 10
-686.547335448615 -128.104603597228 2247.57317739467 16 17 9
-707.770716004092 -128.636576701246 2238.84609935241 20 21 13
-658.019532515989 -127.578144656134 2228.88319597158 19 20 12
-733.216921956713 -129.317820567908 2221.36739765876 18 19 11
-694.464985279313 -128.506604106113 2211.46813912614 19 20 12
-742.11947354095 -129.738031451624 2185.85759592992 19 20 12
-709.37300352049 -129.063128728552 2175.7651538653 19 20 12
-696.613400738272 -128.834604949897 2166.25660027706 16 16 8
-672.866199086362 -128.361897204272 2156.22590483902 18 19 11
-649.12234030556 -127.890055043327 2146.06362901963 23 24 16
-632.374128541537 -127.574496798662 2136.09521044693 22 23 15
-616.62704337014 -127.281723523676 2126.08299364878 17 20 11
-699.759955522123 -129.183979656514 2121.12885590011 17 20 9
-671.027355981283 -128.602589150478 2110.50201666453 14 17 6
-638.538265764617 -127.995716849675 2090.27723442672 22 22 12
-718.109407817362 -129.923905586422 2068.05959417188 77 54 40
-733.312045085174 -130.314885817903 2060.1371121933 134 106 92
-738.530269679102 -130.485098519175 2051.55819090339 132 106 93
-733.766647265649 -130.435105473756 2042.24060154375 116 94 80
-731.997693185471 -130.451208121961 2033.13451671258 106 90 77
-578.092888556494 -133.743243409524 2451.86459233303 19 24 17
-564.311967618167 -133.52629607007 2443.14277379586 16 21 14
-533.512698047161 -132.96892855829 2435.04644093041 14 17 10
-540.761045812297 -133.174055254597 2425.31143391203 17 20 13
-590.053548071212 -134.219606530889 2414.10685721231 21 24 17
-603.303124290435 -134.543353378125 2404.36330832321 24 27 20
-597.533125497038 -134.486972108655 2395.26776671283 22 25 18
-606.777041558737 -134.730195989104 2385.72378030857 19 22 15
-615.018762865874 -134.953110141349 2376.2533570866 18 19 13
-622.25873597631 -135.15576906565 2366.84831028885 19 22 15
-647.509658595772 -135.716419302831 2357.13144190552 21 24 17
-668.754585948664 -136.196555504528 2347.61789885143 16 19 12
-677.990574966183 -136.437472042725 2338.3862062409 17 20 13
-686.224711409842 -136.658171826553 2329.21460337733 11 14 7
-643.438707151199 -135.867226424357 2320.51694299458 12 15 8
-592.656366300423 -134.919374229655 2311.62834749254 11 14 7
-660.909220368646 -136.328673400909 2302.10799928062 11 14 7
-720.378917771452 -137.618419398684 2283.99077602702 19 22 15
-716.606508600593 -137.6004208584 2274.99762322484 15 18 11
-708.835125762683 -137.503673242679 2265.95012181684 17 18 10
-688.066077333792 -137.151100445145 2256.71837543808 15 16 8
-656.534733059709 -136.644820445274 2238.07104232586 17 18 10
-725.744994960928 -138.062193183172 2230.23137243655 18 19 11
-700.982324642096 -137.632246080407 2220.72531055235 18 19 11
-661.230194027024 -136.909106180347 2210.71436428444 18 19 11
-695.444241752741 -137.636887195819 2202.50017087371 17 18 10
-718.660236066011 -138.148111849531 2194.14277096595 17 18 10
-713.891913565991 -138.111037629716 2184.9950060314 17 18 10
-703.128447484535 -137.956918826858 2175.60694855351 17 18 10
-703.357761039154 -138.017818573235 2166.57919099555 21 21 11
-672.614439401066 -137.474350052254 2156.28129543142 23 23 13
-650.866718078544 -137.10726582733 2146.20689544492 24 26 15
-623.12837047296 -136.624220258417 2135.73313772366 21 23 12
-648.3359504717 -137.172448667057 2127.71426191986 17 20 9
-675.53805085874 -137.758565933548 2119.9369110882 17 20 9
-655.027755264902 -137.473880811954 2100.51931498822 12 14 3
-665.47885198635 -137.790358225623 2082.82403434798 14 14 4
-721.854579812859 -138.994213811811 2068.38827239719 78 56 43
-737.058080841113 -139.343748273598 2060.47653294375 147 121 108
-742.276410798717 -139.499952070542 2051.90853535888 134 111 97
-741.504940411601 -139.540408785004 2042.90866945014 122 100 87
-546.028369609958 -142.600097661958 2443.99283521327 25 30 23
-530.247176043901 -142.388111034306 2435.22695015654 24 27 20
-542.502459085937 -142.660847000594 2425.29043275492 13 16 9
-604.813230486905 -143.79670629293 2413.62391288387 16 19 12
-644.090811357993 -144.533356115837 2403.05923930882 19 22 15
-663.342814526841 -144.923803107652 2393.31605489567 20 23 16
-657.568610227183 -144.883090666161 2384.36805505794 19 22 15
-659.802355024925 -144.980142674088 2375.18701176764 16 17 11
-666.038988002781 -145.145793619231 2365.92754757697 17 20 13
-665.26948187426 -145.191050248396 2356.83643307078 22 25 18
-653.493185186156 -145.047765327661 2347.92283468567 17 20 13
-680.741420376585 -145.572636645534 2338.39881231219 17 20 13
-674.96871256065 -145.532045022495 2329.39219498085 12 15 8
-593.1625638849 -144.193227370256 2320.99500492372 14 17 10
-603.402996884657 -144.42747243227 2311.62148707255 12 15 8
-640.650662844257 -145.121567521429 2302.22228853963 11 14 7
-708.900354423546 -146.342092591754 2293.01890765325 15 18 11
-723.131350041834 -146.641527635253 2284.05235482062 17 20 13
-718.358632208686 -146.617569661988 2275.06229151565 18 21 14
-712.586420970899 -146.576780137412 2266.03647868148 18 19 11
-715.814787816308 -146.688744721071 2257.07431008609 18 19 11
-667.048224683613 -145.919940552575 2247.42621404909 17 18 10
-718.499163608548 -146.905407409405 2230.15261772212 18 19 11
-722.725976843924 -147.033749109228 2221.25828276553 21 22 14
-699.962686696305 -146.706661752771 2211.72472317754 21 22 14
-695.19430369885 -146.683532098458 2202.55502530366 21 22 14
-679.432473094008 -146.475488807552 2193.02813459432 20 21 13
-646.683020829134 -145.982300676863 2182.85713783831 19 20 12
-702.109159732541 -147.028346127718 2166.59588307518 28 28 18
-700.340292750294 -147.055672403023 2157.48366787696 24 26 15
-653.610692403054 -146.330121439052 2146.39389150394 22 24 13
-668.829438017092 -146.642432591107 2137.92630835108 19 21 10
-701.028825164004 -147.237936494692 2130.37773479671 16 19 8
-727.229958560629 -147.73214618653 2122.69351333632 16 19 8
-648.548680459222 -146.476366529565 2109.41020663073 15 17 6
-620.052684210902 -146.117393412396 2089.30660121025 19 16 7
-706.399902871258 -147.667444108899 2076.43821156372 110 100 91
-731.591392401649 -148.141852957248 2069.1274687619 85 63 52
-739.806364348366 -148.333993796026 2060.74487001222 133 110 96
-743.028294657611 -148.44315694532 2052.03727151199 105 83 70
-740.260010652793 -148.453094321045 2042.88691994646 113 95 83
-547.770460084827 -152.064246195041 2443.96035443606 20 25 18
-556.020798473346 -152.246026310358 2434.20663717151 24 27 20
-538.236142723976 -152.049232876916 2425.5010328368 12 15 8
-638.063952495015 -153.679600136659 2394.13093354186 19 22 15
-668.32758982582 -154.177036274563 2384.11781772621 18 21 14
-683.572777399142 -154.45649748398 2374.64273815468 16 17 11
-631.757295817722 -153.768313962746 2366.73656253844 16 19 12
-615.978355792004 -153.600958150739 2357.84400497427 24 27 20
-635.227048696101 -153.937992798951 2348.27822244764 18 21 14
-627.455394939014 -153.886086061608 2339.19316281792 18 21 14
-627.689545377373 -153.949282594349 2329.97389697523 13 16 9
-587.902653106006 -153.438862978913 2321.09315399785 16 19 12
-615.151927584091 -153.88934353631 2311.6083877317 13 16 9
-665.406373883701 -154.667690794193 2302.20277051316 11 14 7
-655.634823960258 -154.587141161963 2293.08568712573 13 16 9
-713.881654764812 -155.476860820507 2284.08368239589 15 18 11
-706.108385503312 -155.424153237959 2275.0532973727 18 21 14
-694.336094729291 -155.314787732622 2265.94671393208 18 19 11
-686.565352651041 -155.262632920075 2256.81696431098 19 20 12
-685.795727541454 -155.310051703671 2247.73750323038 18 19 11
-699.024784163785 -155.555834514405 2238.87964304948 16 17 9
-708.252763596855 -155.744465255279 2230.0171332082 19 20 12
-712.480575833063 -155.862029412494 2221.09532593356 22 23 15
-695.714422137628 -155.682979356973 2211.6815682147 23 24 16
-684.948170505628 -155.589072056968 2202.33772922731 24 25 17
-665.187669855333 -155.368815355904 2192.66385766706 22 23 15
-665.419567144332 -155.430417970662 2183.53436413308 21 22 14
-664.652124409385 -155.477922607338 2174.36951610888 22 23 15
-682.872129951941 -155.79181954172 2165.9250808822 25 27 16
-694.094985616974 -156.006968978068 2157.29307202645 21 23 12
-730.523640372587 -156.631393743301 2140.86098854247 17 19 8
-679.798728345399 -155.980065611548 2129.40016618054 17 19 8
-706.003538237553 -156.403174348283 2121.65792205664 17 19 8
-622.793217507331 -155.418651849259 2089.54390165181 19 16 7
-681.952108363465 -156.297928275036 2084.00548076056 17 10 2
-732.342723041617 -157.110062282221 2069.25097877422 122 102 91
-738.560894095065 -157.252425422167 2060.72875040851 104 82 69
-741.78312642573 -157.35315377555 2052.01840449912 95 75 64
-739.014689404959 -157.371126727384 2042.86540534441 111 95 82
-552.99555032282 -161.683635194444 2424.97662702025 24 27 20
-542.220316010227 -161.619367249659 2415.96136263953 14 17 10
-627.265213937133 -162.864339052763 2376.09410046712 17 18 12
-596.469817299544 -162.565628768083 2367.56867373768 14 17 10
-559.673188067095 -162.197995494345 2358.98926494165 23 26 19
-599.944661715095 -162.728804372119 2348.918321406 20 23 16
-608.186509811862 -162.885806349037 2339.51371422359 19 22 15
-594.412618580615 -162.78696054176 2330.39966684035 14 17 10
-643.678659012342 -163.418991666928 2320.67331610613 17 20 13
-658.919585214357 -163.655545119774 2311.41085673183 13 16 9
-630.13811615296 -163.382994432516 2302.36239924155 12 15 8
-619.367921256407 -163.319145330811 2293.149727303 11 14 7
-631.606733598466 -163.520560083398 2283.93352114045 11 14 7
-611.070733117522 -163.405164991681 2265.3387904794 14 15 7
-663.312257452708 -164.064355516781 2256.62486983095 15 16 8
-688.545359989923 -164.412556243132 2247.83258391653 17 18 10
-714.774885498075 -164.771163669963 2239.1936244386 20 21 13
-709.003735643574 -164.763719709564 2230.09052517018 19 20 12
-695.234840303111 -164.665329923182 2220.7807314283 19 20 12
-675.469260697986 -164.499163656527 2211.24728487468 20 21 13
-664.703567745976 -164.435830999799 2201.84878204075 20 21 13
-665.935256623294 -164.50880779356 2192.74924369078 17 18 10
-682.159792185149 -164.751396294177 2184.14560500749 17 18 10
-668.397738919327 -164.654449192527 2174.56685024262 24 25 17
-673.626627061409 -164.772202041985 2165.63681268701 21 23 12
-697.842241888931 -165.103604652022 2157.51202112072 16 18 7
-765.023452802995 -165.917372005336 2151.39714930793 15 17 6
-710.292136873352 -165.359568838291 2139.98740308329 16 18 7
-681.545879563812 -165.094997078533 2129.55418119232 16 18 7
-708.980456753877 -165.517967352208 2112.85668144177 16 16 6
-673.247907974766 -165.176760628043 2101.77843419961 22 19 10
-672.712039350749 -165.287004728406 2083.49550289909 20 11 4
-697.911384914234 -165.62491734048 2076.02427825518 121 108 100
-730.097994307211 -166.039374310209 2069.16949784307 111 93 83
-733.321238308342 -166.131931820263 2060.42838556951 70 52 42
-736.544050623481 -166.224318135363 2051.70432889592 82 65 55
-730.780393743307 -166.217327278636 2042.30789172589 79 67 55
-526.457090335429 -170.79789953152 2435.51857602877 31 34 27
-518.686389147008 -170.791654556993 2426.34725863154 16 19 12
-430.300447123789 -170.189211998774 2400.54474083898 13 16 9
-619.76849397776 -171.954481037967 2385.55580963025 17 20 13
-637.021571954306 -172.170903661686 2375.89875185884 18 19 13
-610.227178450734 -171.993088468671 2367.31242677773 13 16 9
-589.442356394909 -171.869769136788 2358.46033845573 22 25 18
-633.718027697568 -172.326028142764 2348.40417259619 19 22 15
-618.939278895858 -172.25621770137 2339.41477750355 18 21 14
-595.156073823425 -172.107099940843 2330.44377445837 14 17 10
-654.432534991594 -172.693250845366 2320.63435888398 17 20 13
-654.664819222552 -172.756126846545 2311.48837505344 13 16 9
-670.905782853731 -172.959897142515 2302.29367529773 12 15 8
-579.09373952643 -172.213418989772 2293.21590911707 11 14 7
-604.577346776034 -172.560302114222 2274.63444598555 12 15 8
-644.823633933918 -172.973157188557 2265.66520265592 13 14 6
-692.065657679212 -173.445441777594 2256.99031063942 13 14 6
-698.296273549971 -173.559251102203 2248.02167937799 16 17 9
-699.525687242696 -173.629345820308 2239.00483288621 19 20 12
-718.75476473585 -173.855224050125 2230.33436456015 19 20 12
-654.988315705094 -173.36297006771 2219.96778185118 17 18 10
-663.219706726202 -173.493937578398 2211.00915200378 16 17 9
-701.442893542802 -173.882693048808 2202.90990622047 16 17 9
-690.90564008652 -173.910257668052 2184.4949228292 14 15 7
-679.140877939311 -173.868640479375 2175.01202685924 22 23 15
-664.37952523671 -173.80178397652 2165.34888502659 20 22 11
-667.609778925919 -173.888637762437 2156.3399340797 18 20 9
-666.074611179155 -173.993922036364 2138.00091309685 16 18 7
-698.281423190221 -174.32558953464 2130.44543734233 15 17 6
-677.529114397093 -174.208709204912 2120.31570437729 14 16 5
-686.751714901228 -174.345151178051 2111.7101332036 24 24 14
-681.449843827321 -174.475869281662 2084.1176457344 34 25 18
-715.639927598017 -174.819956290297 2077.26135256338 104 91 85
-720.861908257543 -174.921139861844 2068.60974938121 68 54 45
-726.08341734616 -175.022058477833 2059.98618610088 85 68 60
-730.305464345309 -175.114414001149 2051.31677135194 81 67 58
-505.161732967515 -180.151679711272 2436.44419673919 19 22 15
-522.670820995824 -180.392430585558 2416.75525747522 22 25 18
-616.509631693712 -181.171418643278 2385.69318892486 16 19 12
-635.766638913415 -181.353907679999 2375.97771810516 18 19 13
-608.970259244962 -181.25045248204 2367.38917719242 14 17 10
-607.203360556207 -181.302416042022 2358.16425585897 16 19 12
-673.502387659025 -181.773288980217 2347.78819520325 19 22 15
-664.725113942915 -181.780944392429 2338.82480734092 18 21 14
-629.927887205542 -181.629651582872 2330.1045062806 14 17 10
-666.189011672279 -181.912962158541 2320.58634898805 13 16 9
-624.391620671704 -181.720196500026 2311.71614024994 13 16 9
-612.088607470056 -181.832006798059 2283.99705961917 12 15 8
-623.328318451719 -181.961570627146 2274.78885704479 13 16 9
-626.563916990916 -182.042675087851 2265.57718402742 14 15 7
-655.806065437283 -182.278862519963 2256.65973933413 13 14 6
-636.034496042048 -182.22214059298 2247.24288162497 14 15 7
-688.274918500861 -182.59335896192 2238.88122844477 16 17 9
-657.503129335832 -182.47152716801 2229.23389661796 18 19 11
-672.735353874161 -182.62201054244 2220.41326861432 18 19 11
-686.965405847586 -182.765966343576 2211.6505383278 16 17 9
-656.432942654753 -182.707380419423 2192.59093468082 17 18 10
-703.880817295118 -183.103439287955 2175.95252188599 19 20 12
-675.122433318698 -182.996238786527 2165.82427900892 19 20 12
-670.35625240991 -183.028439650247 2156.51843102081 18 19 11
-631.609990260227 -182.865244102695 2145.7015973384 17 18 10
-639.839024873872 -182.972736384767 2136.85094516195 17 18 10
-664.055856831198 -183.17124263135 2128.83060261457 16 17 9
-695.263612263045 -183.40862025255 2121.3054734648 14 15 7
-678.202107349242 -183.547596249455 2083.98543077692 36 29 23
-711.395944071398 -183.792630859078 2077.05479164822 90 81 76
-715.619855186696 -183.874394143817 2068.32389391255 64 53 47
-717.845638789536 -183.94477572869 2059.47331355612 70 60 51
-714.079349142422 -183.981693301598 2050.19134866216 109 100 91
-556.460328988224 -190.011177285739 2415.58711333431 24 27 20
-528.65833164126 -189.978342738381 2407.1176060801 23 26 19
-569.955809416562 -190.1887917977 2396.3896817406 16 19 12
-574.19887219792 -190.268331476954 2386.91265808659 14 17 10
-602.471538422514 -190.430991042474 2376.85672379823 16 17 11
-649.762543651962 -190.65807643483 2366.5307417126 13 16 9
-673.020459895499 -190.800847039827 2356.93050512462 17 20 13
-661.238949294744 -190.823064495917 2348.04298080218 18 21 14
-674.482999863549 -190.93055707924 2338.73826585841 17 20 13
-687.725492844426 -191.037458066463 2329.50438684519 14 17 10
-632.90986291547 -190.915344769709 2320.92211356645 14 17 10
-658.162479121012 -191.062414470514 2311.57380011117 13 16 9
-670.402864363024 -191.165254054516 2302.40196199366 13 16 9
-656.625405727229 -191.181681640261 2293.30356944693 12 15 8
-647.85254673072 -191.214940129498 2284.14014843691 12 15 8
-638.080544152503 -191.245166434699 2274.92181369617 13 16 9
-628.309946696279 -191.275654287643 2265.64828109055 16 17 9
-612.538654549807 -191.287057513894 2256.25555543574 14 15 7
-555.758523614665 -191.167406402691 2246.22449468447 12 13 5
-641.015162092734 -191.502665020148 2238.17594486065 14 15 7
-666.251763327165 -191.644405741769 2229.45927380273 16 17 9
-705.485952787123 -191.829219557475 2221.18300589449 16 17 9
-682.945606550284 -191.879572170687 2202.53075998273 16 17 9
-658.179713635945 -191.863421852022 2192.7063451773 17 18 10
-618.42067167363 -191.801913156317 2182.25510967162 17 18 10
-742.620505121017 -192.243509255932 2177.38762653743 16 17 9
-661.875600521206 -192.057029983262 2165.38421129198 18 18 10
-662.107700000973 -192.118236284087 2156.24724097368 17 17 9
-620.360737196853 -192.053160446786 2145.27834491766 17 18 10
-610.601170949452 -192.085051500407 2135.56284301995 18 19 11
-646.814087055959 -192.253712824051 2128.05193698505 15 18 9
-705.006575856999 -192.485823470463 2121.87989591367 13 16 7
-692.167032604152 -192.744110833856 2075.86483068074 82 75 69
-696.392574954156 -192.815047325585 2067.08180361833 45 38 30
-503.115627870046 -199.372858218115 2417.54920243162 19 22 15
-537.410072524025 -199.466935261529 2406.87324107311 20 23 16
-547.664738908668 -199.541170167937 2397.11523981505 17 20 13
-582.188682948117 -199.698330242716 2377.41123853015 10 11 5
-674.541185351417 -199.828972856688 2366.02722853854 12 15 8
-599.68288644563 -199.840670954988 2358.4097035452 13 16 9
-643.967775052091 -199.935008221699 2348.38189721205 15 18 11
-603.15784576325 -199.972123320995 2339.7889224124 15 18 11
-665.454125128859 -200.075881205078 2329.80631727725 15 18 11
-668.688277844511 -200.140928272181 2320.66839324522 16 19 12
-697.943569016697 -200.221215946662 2311.39535366257 13 16 9
-652.137489295623 -200.257085660238 2302.51112372802 13 16 9
-658.374146298108 -200.323550269006 2293.35721922062 12 15 8
-669.613232703585 -200.392339216084 2284.248007423 12 15 8
-675.847652921619 -200.458010131987 2275.1730516186 13 16 9
-618.050348647936 -200.491302830501 2265.62426748297 17 18 10
-608.28108839219 -200.549777954053 2256.26842187466 16 17 9
-577.505761217825 -200.598763755491 2246.57595693105 13 14 6
-732.240687779642 -200.852467296433 2221.82177875458 14 15 7
-701.465693458549 -200.900982169578 2212.12613518681 15 16 8
-629.694895620174 -200.935375942747 2201.14781426729 16 17 9
-616.930048134029 -200.993037149011 2191.5369584815 16 17 9
-655.159786038688 -201.06801656372 2183.5185820451 15 16 8
-638.395899182626 -201.124188219958 2173.7636654328 14 15 7
-608.110075494838 -201.300856076831 2144.81193813064 17 17 9
-646.327254964464 -201.371899390638 2137.28861512212 17 18 10
-660.552827450411 -201.436078317434 2128.79594177573 14 17 8
-647.793198520428 -201.494101025639 2118.98073858418 10 16 6
-624.04289108566 -201.550428343862 2108.49406600425 17 20 11
-643.730070884827 -201.735866150495 2081.96279441676 18 19 11
-622.9841040695 -201.793847948702 2071.39744150386 24 25 17
-620.222114716215 -201.854196607766 2061.9469453971 43 40 33
-591.235934894283 -208.817667380024 2405.1312420955 16 19 12
-541.395258019979 -208.98229039159 2397.35282794602 16 19 12
-555.655549038881 -209.02095821509 2387.52130112981 12 15 8
-581.930800705681 -209.034779702549 2377.46540955503 10 11 5
-579.163814461731 -209.106469568885 2368.19803193071 10 13 6
-626.460274302239 -209.07544725318 2357.93600092721 11 14 7
-599.662156307838 -209.19591047891 2349.17497345658 12 15 8
-592.890236934529 -209.275420161404 2339.98388786139 11 14 7
-676.444544222039 -209.228181196518 2320.65338611418 13 16 9
-675.674357193226 -209.29336606742 2311.5768109272 13 16 9
-643.878056711934 -209.425674743207 2302.58989212596 13 16 9
-650.115719852284 -209.475939487877 2293.41405843168 12 15 8
-669.361716321919 -209.497144390591 2284.30210034945 12 15 8
-661.587773976291 -209.577601185317 2275.15504013332 13 16 9
-624.798795104768 -209.723321324563 2265.73475416035 17 18 10
-622.031712791614 -209.793342593071 2256.47292286511 16 17 9
-707.302481444454 -209.662511440695 2248.37256815957 14 15 7
-657.513507135991 -209.838963532293 2238.56073747433 15 16 8
