ply
format ascii 1.0
comment KinectMotionCapture
element vertex 755
property float x
property float y
property float z
property uchar red
property uchar green
property uchar blue
end_header
-824.611292544231 364.856232842838 2645.67345656992 154 158 157
-1013.58760396478 414.375031679569 2229.07091438826 156 160 161
-987.603552127074 409.649830506439 2242.6156303433 133 137 138
-965.466592559566 405.546089873134 2255.24906395692 136 140 141
-951.076799357031 402.678947996448 2266.25543950193 124 128 129
-945.425791034749 401.200477787055 2275.51334559653 137 141 142
-943.660638331769 400.338934480676 2284.0019567891 132 136 135
-942.864539938084 399.631898894945 2292.28970440457 131 135 134
-936.208627932584 398.003074428615 2301.61892367924 139 143 142
-928.562956247894 396.222173025091 2311.07366622014 138 142 141
-920.9026044033 394.442980286589 2320.4749829662 146 151 147
-915.183684369894 392.972467302215 2329.48576996305 135 140 136
-911.410302053266 391.810090689624 2338.12185759275 136 141 137
-906.648600839331 390.495466895817 2346.88871034627 142 147 143
-898.935917843846 388.722387893118 2356.09959167842 140 145 141
-893.170200680812 387.257281898691 2364.94097281785 138 143 137
-890.337813700375 386.2527645902 2373.27320639456 144 148 147
-878.656418360192 383.872327120811 2382.95272187913 144 148 147
-861.056268721415 380.576957186329 2393.45827356424 144 148 147
-848.346076985445 378.049015253673 2403.12033443547 145 149 148
-843.489993393717 376.745397513314 2411.54371256466 142 146 145
-839.608690345127 375.595619810455 2419.78706596053 140 144 143
-832.760512524335 373.989219586864 2428.41659743903 140 144 143
-828.859105530036 372.841792278549 2436.58679274081 139 143 142
-829.88582595056 372.457394724127 2444.0524363223 139 143 142
-824.982028109959 371.15935494659 2452.30218243088 141 145 144
-819.078818753771 369.710276975097 2460.64320125948 140 144 143
-810.195287747232 367.806182143356 2469.32055725513 138 143 139
-809.217710381363 367.120433365265 2476.94794839177 128 133 129
-809.226622003254 366.587242608822 2484.43704753496 133 138 134
-813.198895908915 366.661969676226 2491.43985999194 118 123 119
-817.173928002735 366.736457090445 2498.45183273397 88 93 89
-818.171750582436 366.355441513804 2505.81324852254 70 75 71
-816.186395280439 365.519735803937 2513.50060312932 85 90 86
-810.216590633634 364.078500632312 2521.59838920693 128 133 129
-808.216127640481 363.244562059592 2529.23076759536 115 120 116
-806.209320327065 362.411299556548 2536.84094662361 127 132 128
-804.196630654051 361.578791307228 2544.42883277739 128 133 129
-802.177831725057 360.746996844679 2551.99448710871 114 119 115
-801.151008178842 360.067060971333 2559.44270679345 112 117 113
-799.120692820106 359.236614688209 2566.96645404821 112 117 113
-791.086513328275 357.500962063247 2575.00731095664 131 135 134
-785.038133185966 356.068800182324 2582.82001904309 138 142 141
-783.983290351032 355.392130152479 2590.16627048307 141 145 144
-785.9291230119 355.168220356037 2597.24940085634 140 144 143
-790.882078108857 355.396328782548 2604.09287792207 153 157 156
-796.84232352549 355.774596673561 2610.8737799394 159 163 162
-799.795911590315 355.700742090445 2617.89692523482 146 150 151
-800.74142863733 355.325981618981 2625.06716095557 149 153 154
-806.71181211333 355.70304097253 2631.88586961554 162 166 165
-816.711817827569 356.680450447059 2638.45859493971 167 171 170
-826.723128406415 357.656631802577 2645.07158861792 167 171 170
-1022.32953553366 407.978932243403 2218.52383967751 148 152 153
-1015.78635713989 406.361017352941 2228.27850449238 131 135 136
-990.763340357368 401.865629127691 2241.63919770724 124 128 129
-968.617428010591 397.82926691142 2254.28285963384 132 136 135
-953.249065742124 394.856690845463 2265.48482576557 123 127 126
-944.672933492315 392.946085950883 2275.30031200607 143 147 146
-942.904660455261 392.095779855816 2283.78443259674 135 139 138
-938.203713080376 390.792851304676 2292.78423621119 144 148 147
-930.563576795723 389.038053740249 2302.27601120497 136 140 139
-919.97776603138 386.832128225093 2312.2361457962 135 139 138
-914.261597850381 385.382766217046 2321.27050350088 142 146 145
-910.490355428414 384.236327536794 2329.92459851616 127 132 128
-908.668557624307 383.392363485194 2338.21399617157 134 139 135
-901.941231691083 381.796025983508 2347.29858009811 142 147 143
-894.220114895385 380.05072419409 2356.49568546136 134 139 135
-888.446771922159 378.608021755303 2365.32289789436 134 139 135
-888.554104082118 378.068943200338 2373.17369595774 144 148 147
-877.847742956943 375.877122404578 2382.69515566787 143 147 146
-864.171872778758 373.236915803956 2392.59821312352 143 147 146
-850.472625546293 370.599425512835 2402.41619109403 144 148 147
-842.659586363331 368.86485970827 2411.27878478847 142 146 145
-834.831811502553 367.132010794852 2420.08775175449 141 145 144
-829.948428606241 365.85049051225 2428.42372409429 139 143 142
-829.002909002845 365.1693253767 2436.17303329178 139 143 142
-830.028440851836 364.788139541856 2443.63629165172 140 144 143
-822.155437341371 363.060582924498 2452.28067478471 142 146 145
-813.278291614473 361.185188886147 2461.00078727313 141 145 144
-806.365221629578 359.610631386109 2469.40856167101 144 149 145
-807.363975853252 359.232548016735 2476.77528771321 137 142 138
-809.352510443361 359.004008218043 2484.01403883937 136 141 137
-810.348645314451 358.62632879733 2491.37036574834 132 137 133
-816.307061232814 358.994482619562 2498.13901872611 117 122 118
-817.303205533815 358.61684362783 2505.49540617124 87 92 88
-815.314715769072 357.792546452112 2513.1783258834 68 73 69
-811.330018833766 356.671211853751 2521.0557555297 116 121 117
-813.310660965052 356.443693169338 2528.26584818123 120 125 121
-813.298000888308 355.918795673254 2535.68102078826 127 132 128
-807.299360861261 354.502550634782 2543.68752421244 128 133 129
-801.288631379643 353.087646119466 2551.65091721991 111 116 112
-798.262056081923 352.119550880719 2559.28516262255 111 116 112
-796.227173172522 351.300709563919 2566.79927822511 111 116 112
-788.185994268293 349.592783790913 2574.83165296996 130 134 133
-781.130755555115 348.034771794601 2582.72295773143 138 142 141
-780.071030332148 347.367107551815 2590.05676760406 139 143 142
-787.023940532986 347.884395230522 2596.71561786254 139 143 142
-790.975195969269 347.957036495139 2603.63814697303 152 156 155
-793.9251924103 347.881488827833 2610.64688834852 160 164 163
-793.863433304202 347.362459341999 2617.88254161469 145 149 150
-796.81339486373 347.286937371311 2624.8911697055 147 151 152
-805.799024810991 348.097156948863 2631.48848205493 165 169 168
-814.79432690463 348.906277751571 2638.12101147927 167 171 170
-821.785027550732 349.419369797154 2644.91659232868 169 173 172
-1020.6484414944 399.339232283993 2218.51750291011 131 135 136
-1013.1278554075 397.597146384992 2228.46116983703 133 137 138
-990.035107280971 393.475394860545 2241.43182613344 118 122 121
-973.716011848667 390.399304815646 2252.93580246595 131 135 134
-958.343201500467 387.475135144323 2264.1518150129 125 129 128
-950.740119702265 385.74272026081 2273.79529730537 142 146 145
-941.171811644208 383.715008391927 2283.74941440234 139 143 144
-933.537931663738 381.986213238432 2293.28083438837 146 150 151
-922.959323253923 379.814129013697 2303.2890755295 133 137 136
-914.316583151106 377.940794934625 2312.87986168582 137 141 140
-906.635750270021 376.217516768221 2322.24043789122 136 140 139
-901.876737646601 374.940245715139 2331.04085541943 126 130 129
-900.04606435109 374.108224201941 2339.30484000835 134 139 135
-895.26824662069 372.83312091636 2348.03773549746 142 147 143
-889.499339592474 371.411459440829 2356.89377286504 133 138 134
-881.755067168432 369.695662790452 2366.02353391881 134 139 135
-881.855520734858 369.162979592862 2373.85375982891 144 148 147
-871.138065920008 367.007188324421 2383.35677800097 143 147 146
-860.401565195433 364.853621472978 2392.79048682356 143 147 146
-848.661487110705 362.554857782924 2402.30276030523 144 148 147
-838.871655399608 360.553184953705 2411.44991415989 143 147 146
-832.022150488459 358.995321181094 2420.10516178624 142 146 145
-828.119679161778 357.880552085013 2428.29202411601 137 141 140
-827.170712034857 357.208132916881 2436.03405508032 137 141 140
-824.240831641162 356.242274285146 2444.0287217865 141 145 144
-812.402770948955 353.954889792031 2453.18531830241 142 146 145
-804.503006303638 352.257300438549 2461.74926234833 142 146 145
-803.521030024759 351.588791008922 2469.37120520525 142 147 143
-807.489939871082 351.654279932057 2476.35476606607 119 124 120
-811.461379075532 351.719501595089 2483.34754920384 92 97 93
-814.442672567114 351.637918910152 2490.46868019977 78 83 79
-820.404771562449 351.995553893779 2497.24436667645 80 85 81
-820.408466920207 351.474463825918 2504.72266761707 79 84 80
-818.419705987024 350.66125305606 2512.41157991024 99 104 100
-814.433945676592 349.556376695777 2520.29545232304 83 88 84
-815.419911452912 349.183101079002 2527.61680370748 122 127 123
-814.410298352223 348.517995583853 2535.13828552773 113 118 114
-809.40582931548 347.269692260239 2543.04566020932 124 129 125
-801.396094628534 345.585025478982 2551.20946567982 106 111 107
-800.364543676563 344.922502335915 2558.65112691987 111 116 112
-794.329902910963 343.532074334877 2566.54026618365 113 118 114
-787.282787155581 341.997397400289 2574.47646243172 130 134 133
-780.222404953811 340.464258406895 2582.36437394006 136 140 139
-781.16378035767 340.096259032624 2589.52350115434 135 139 138
-786.113599097066 340.309951023391 2596.34623175633 142 146 145
-787.054226606943 339.942077861192 2603.50266187053 147 151 150
-787.992817542344 339.574389777149 2610.65257645402 154 158 157
-787.925165639117 339.061854566253 2617.87045106462 152 156 157
-791.87579149928 339.129810221432 2624.78861345638 151 155 156
-801.866186746881 340.067271840128 2631.29950699414 162 166 165
-808.846774362916 340.568817764161 2638.05117955082 163 167 166
-813.819112093382 340.780033490311 2644.95595536921 175 179 178
-1024.7926842323 391.593708599974 2217.32425560034 121 125 124
-1018.2421222126 390.024770680306 2227.08242795471 141 145 144
-996.114600213307 386.119115270428 2239.87596204956 112 116 115
-979.791365935387 383.094042278671 2251.39678115608 138 142 141
-962.466352846799 379.926225301648 2263.0043911866 136 140 139
-952.91141349669 377.928966247433 2273.02736998893 140 144 143
-941.387796514349 375.642167125715 2283.35087492063 143 147 148
-931.79628456941 373.649206472376 2293.24078063168 146 150 151
-924.141444699421 371.949624600563 2302.71282439268 130 134 133
-913.538494699238 369.81508764744 2312.65439536127 139 143 142
-902.916533749365 367.682774678411 2322.52678650683 132 136 135
-897.171855236201 366.279706282697 2331.48451829938 127 131 130
-895.335162404396 365.459302418027 2339.73348830492 136 141 137
-888.588885038384 363.913451255769 2348.77958370762 144 149 145
-880.84801367295 362.224028759336 2357.93862348551 134 139 135
-873.092419374441 360.536341537254 2367.04409545989 136 141 137
-870.236235778068 359.5752855718 2375.31634510491 144 148 147
-862.454801553215 357.890655463871 2384.3278085991 143 147 146
-847.768668943459 355.19401243238 2394.34064902867 143 147 146
-838.96781297917 353.368686052828 2403.37469152947 144 148 147
-833.107769904522 351.979191294246 2411.91359602247 143 147 146
-831.181887488249 351.169398703319 2419.8381219843 142 146 145
-826.288375927385 349.926876009002 2428.16110961348 137 141 140
-825.335952832799 349.263207395295 2435.89583388916 137 141 140
-820.424509901876 348.022819930293 2444.15359392777 141 145 144
-808.577351963841 345.773970665024 2453.29981425595 142 146 145
-804.630011598711 344.680771280801 2461.33370462694 142 146 145
-810.58140017857 345.029391442337 2468.0639339434 133 138 134
-815.546771897184 345.23345550162 2474.93833113703 89 94 90
-819.523975091547 345.293194257229 2481.94905321891 73 78 74
-819.531816368461 344.77733092983 2489.44604703509 71 76 72
-822.517375418161 344.693113944769 2496.5813520531 53 58 54
-821.526604179223 344.034154875892 2504.17667054489 51 56 52
-821.52640523717 343.519369382627 2511.64356406943 42 47 43
-818.535311832054 342.574443528818 2519.42510374426 51 56 52
-817.529787355376 341.917266563975 2526.96677148308 117 122 118
-816.519855432308 341.260678687377 2534.49151813426 107 112 108
-813.508959779344 340.318108049643 2542.20102290411 125 130 126
-807.49472610361 338.946933524515 2550.17808532964 105 110 106
-801.46835341341 337.577119695993 2558.11186606874 111 116 112
-794.43011959713 336.06568101715 2566.09571063403 114 119 115
-788.379587167997 334.698737117771 2573.94067389817 131 135 134
-782.317184012769 333.333176958361 2581.7424371039 135 139 138
-780.251720501106 332.539997054061 2589.16014321885 134 138 137
-781.18935670514 332.175618119861 2596.30767327337 140 144 143
-781.121318879151 331.668844694522 2603.52868174067 146 150 149
-783.058979416792 331.447506530017 2610.58309421587 155 159 158
-788.011671348021 331.653538915608 2617.41165654229 157 161 162
-794.980129201367 332.143856640203 2624.11027574764 150 154 155
-801.955141744334 332.633383872345 2630.83366117783 159 163 162
-803.900633340648 332.411226656378 2637.91663173282 162 166 165
-804.837830292349 332.047035719094 2645.06264962093 176 180 179
-1028.9392631434 383.83220948717 2216.12959599436 121 125 124
-1024.33212297236 382.574600457614 2225.50629974441 139 143 142
-1007.06367213103 379.45334353291 2237.35330989268 111 115 114
-984.896631067165 375.618639592843 2250.0458415125 135 139 138
-963.668027298803 371.931474426749 2262.41850573318 132 136 135
-954.108180737018 369.966799940598 2272.4438372108 142 146 145
-939.650698263713 367.288625750903 2283.31727104266 145 149 150
-931.029029912928 365.471588600735 2293.02183541805 139 143 144
-921.413577393624 363.513482416526 2302.84485975587 135 139 140
-913.737057834912 361.843207905966 2312.25491421537 132 136 137
-903.10904415674 359.746301737496 2322.12718676737 135 139 138
-894.421387885234 357.937062498371 2331.59167411922 130 134 133
-888.65846819181 356.557578527417 2340.49749897827 139 143 142
-880.921694561656 354.894435169191 2349.68834411625 145 149 148
-875.133934945497 353.517961170831 2358.5029145273 133 138 134
-870.316800557087 352.285263620635 2367.11567870993 140 145 141
-864.505850985959 350.911497012946 2375.84678769052 146 150 149
-852.779424347359 348.685889738701 2385.45593344721 145 149 148
-840.047664005586 346.320523918993 2395.14148538167 141 145 144
-835.177404484301 345.094114971776 2403.56097665288 140 144 143
-833.255190737684 344.294837591962 2411.50576241992 143 147 146
-832.313662438105 343.638183976898 2419.28536583706 143 147 146
-823.467001519308 341.847717121869 2428.17135199815 136 140 139
-819.545505962108 340.767724909552 2436.30953739247 137 141 140
-812.647997268368 339.263882630133 2444.82066272529 136 140 139
-806.727070325964 337.903192800625 2453.15077425198 135 139 138
-805.746451751116 337.251233470347 2460.78820686419 128 132 131
-813.681818455672 337.87234482574 2467.26302499219 101 106 102
-820.633416070879 338.351225242758 2473.89275354311 93 98 94
-823.621685125162 338.264510456571 2481.03561427361 85 90 86
-822.637521452681 337.613127212929 2488.66024834407 88 93 89
-822.642686261119 337.103357292795 2496.15115201572 89 94 90
-824.634210823501 336.875973615149 2503.40173423721 90 95 91
-826.625399516052 336.648657665724 2510.6511121999 94 99 95
-826.623722009984 336.139783795033 2518.11717741756 74 79 75
-821.63428921843 334.927681339779 2526.10323406366 74 79 75
-818.629814226273 333.99810921806 2533.84385504869 99 104 100
-814.61925858484 332.928846886926 2541.65815209083 111 116 112
-810.599712123663 331.860638830606 2549.43973359533 103 108 104
-804.571708814381 330.512708399369 2557.38034717431 122 127 123
-793.529159535429 328.464532410971 2565.74429597203 122 127 123
-787.473629011544 327.119738788153 2573.5856158375 132 136 135
-780.404608610389 325.636212793859 2581.47184943243 132 136 135
-780.340723371108 325.134724909442 2588.71161265412 132 136 135
-779.270285059074 324.4936483052 2596.02243296985 140 144 143
-777.191132462198 323.713225715308 2603.39643947236 148 152 151
-782.139622745538 323.912339112686 2610.20503361672 157 161 160
-787.092006540625 324.111034699578 2617.02781982343 164 168 169
-794.060705784798 324.588605151724 2623.72021632762 155 159 160
-798.015512253077 324.646706422534 2630.64674993302 146 150 149
-800.964958976228 324.565016055767 2637.64957213489 150 154 153
-802.907128250586 324.343809915683 2644.72080801915 184 188 187
-794.757716648929 322.729256696017 2652.41028651355 178 182 181
-1029.19977697457 375.4910706318 2215.7269947653 120 124 123
-1029.45306507251 374.956849843844 2224.12369458207 137 141 140
-1014.12655768618 372.17091059967 2235.59889240657 112 116 115
-992.927887176225 368.543945764331 2248.12162930877 134 139 135
-962.919498062441 363.655722916104 2262.20805691457 133 138 134
-948.474805242031 361.021264522582 2273.15657608607 142 146 145
-934.981704327968 358.530144673743 2283.83234556789 141 145 146
-927.328288720327 356.883853656802 2293.34332239179 137 141 142
-919.660181824816 355.239319527085 2302.80086254985 135 139 140
-911.977376302236 353.596539523007 2312.20493704957 117 121 122
-902.32113465444 351.67528697297 2321.89978680305 137 141 142
-894.607493858202 350.036167092713 2331.19168678579 132 136 135
-887.860092428258 348.538742167082 2340.26325352758 140 144 143
-878.154687817397 346.623316364893 2349.77924953844 144 148 147
-871.378349640761 345.129274306301 2358.74644459887 133 137 136
-869.503537902215 344.33526280737 2366.87054933285 140 144 143
-861.720676599328 342.704372469261 2375.91064284335 146 150 149
-855.891937430813 341.354285917423 2384.58972386061 145 149 148
-844.140498318588 339.168931960511 2394.13234606482 142 146 145
-841.241236108096 338.240232218737 2402.26415226205 142 146 145
-834.388112234618 336.755327147928 2410.95202569545 142 146 145
-831.470939566712 335.828778268814 2419.01869181675 143 147 146
-822.618070482837 334.068457870766 2427.90159019493 136 140 139
-817.704007730937 332.866174285982 2436.17368014693 138 142 141
-813.768898403299 331.804057528857 2444.27260590646 131 135 134
-812.795236285715 331.159622841651 2451.94061714678 129 133 132
-812.807951413758 330.654564893931 2459.4615995455 121 125 124
-816.783482856421 330.704687623736 2466.4609727082 101 106 102
-820.761767514997 330.754603769017 2473.4695085728 94 99 95
-824.742577111924 330.804282048561 2480.48726886266 90 95 91
-825.744456324739 330.438318410338 2487.87324914084 94 99 95
-825.75039661011 329.934275072596 2495.36971844818 100 105 101
-825.752843281845 329.430617820464 2502.85438942957 102 107 103
-828.739770180181 329.341996806831 2509.99199252838 96 101 97
-830.731233336908 329.115176232609 2517.24270227674 89 94 90
-828.733055479927 328.336281085448 2524.91831646524 62 67 63
-822.736616540827 327.006272215322 2532.98743709973 100 105 101
-815.72937635316 325.53975829885 2541.11471807659 103 108 104
-808.708861274966 324.074786910578 2549.19368585828 107 112 108
-800.674893319416 322.473671222329 2557.32026773821 124 129 125
-788.622561836389 320.323730655341 2565.76716468092 122 127 123
-782.559657216529 319.001473860402 2573.59440552412 133 137 136
-779.491744000921 318.092987171906 2581.11373408023 132 136 135
-779.425519424999 317.597568145371 2588.34864336264 132 136 135
-779.356314689654 317.102580355012 2595.57183113464 139 143 142
-776.270059184778 316.196280031088 2603.02443872183 145 149 148
-780.213074548962 316.250903455992 2609.90499853888 154 158 157
-784.158334094621 316.305245751441 2616.79464209399 167 171 172
-794.146335793328 317.181268023588 2623.25785926681 157 161 162
-798.101141071165 317.234632587675 2630.18139794368 143 147 146
-801.050165306229 317.15090427274 2637.18136487631 143 147 146
-798.956338060577 316.383396391144 2644.50904095479 192 196 195
-1033.0914650231 368.237730152626 2206.11415933423 138 142 141
-1030.43182412504 367.293780108859 2215.12600425769 113 117 116
-1026.79133602504 366.212611808194 2224.30677274401 125 129 128
-1013.40238183322 363.751836573541 2235.38837659413 111 116 112
-992.192724095026 360.189952586551 2247.91047968945 129 134 130
-963.144812795579 355.528903028258 2261.81007810968 135 140 136
-942.835649873761 352.113653290266 2273.87179877017 136 140 141
-930.307740995083 349.804197590311 2284.34950995598 136 140 143
-922.645887760569 348.185631878428 2293.8466638312 139 143 144
-916.926007912765 346.84398578061 2302.93524703121 133 137 138
-908.257270072868 345.091285291854 2312.50567041886 106 110 111
-901.531714730642 343.615299673987 2321.67281208169 145 149 150
-892.832151244702 341.866272637168 2331.13110511248 132 136 137
-887.059725460611 340.530877122288 2340.02947086314 140 144 143
-876.366135616991 338.511102294302 2349.70696865591 141 145 144
-870.566711065026 337.178995316437 2358.50624046067 133 137 136
-866.721989741074 336.122278000249 2366.94416808666 141 145 144
-860.900099610181 334.792805466546 2375.66262187264 148 152 151
-854.081909072713 333.327966735968 2384.49193575012 145 149 148
-845.279110676075 331.591161027173 2393.57558272021 144 148 147
-841.391591779029 330.539660549934 2401.8569759619 143 147 146
-833.54715729796 328.942879195197 2410.6899949563 139 143 142
-827.663194854215 327.620820310523 2419.18266700039 141 145 144
-817.813898598233 325.754493789151 2428.19542025044 133 137 136
-814.87090418343 324.844650842905 2436.17676253787 130 134 133
-811.92016365088 323.935678584812 2444.13082373774 118 122 121
-811.933763348478 323.43618665973 2451.65860446516 115 119 118
-812.935097992162 323.073174323406 2459.0444261624 110 114 113
-817.902765660874 323.254490885674 2465.91298618997 97 102 98
-821.88179797087 323.299486236138 2472.92119120553 95 100 96
-824.869749638353 323.208381891031 2480.06103122585 99 104 100
-826.864718190522 322.981455563491 2487.32468905333 102 107 103
-827.864544072703 322.618938964803 2494.70429297511 101 106 102
-827.866835585358 322.121058245113 2502.19203488142 101 106 102
-829.858561133165 321.894658624014 2509.44398460419 101 106 102
-830.852990690563 321.532910553231 2516.80403823798 96 101 97
-830.847725218817 321.036037421325 2524.26435868052 89 94 90
-824.84867088789 319.727960938919 2532.3376158392 75 80 76
-815.84024367848 318.015684498484 2540.67236080304 101 106 102
-807.815466265148 316.440396135069 2548.84937138575 109 114 110
-799.775946111039 314.866820064067 2556.97272611325 127 132 128
-789.718937751557 313.025054434593 2565.22979149484 125 130 126
-781.648534738187 311.455068172531 2573.24075063621 133 137 136
-777.574392902681 310.425927890029 2580.8442955634 132 136 135
-777.505127184141 309.936655278345 2588.07179420387 133 137 136
-779.441116085214 309.71704847723 2595.12109331234 137 141 140
-775.347447629428 308.690289215752 2602.65271395506 141 145 144
-778.283935194831 308.605772381474 2609.60563686052 150 154 153
-780.215223185785 308.386795913689 2616.63788037054 168 172 173
-788.188544612232 308.973684883198 2623.23201071912 159 163 164
-794.154463385013 309.291217849801 2629.99656096662 142 146 145
-795.083399745789 308.937510135924 2637.11852745811 141 145 144
-796.010272542253 308.584012284111 2644.23389385818 183 187 186
-786.836318067635 306.891031535535 2651.96625081846 185 189 188
-1038.21423512645 360.56950413656 2204.70647366293 138 142 141
-1033.60945678462 359.367846704154 2214.12727133124 108 112 111
-1026.07340927868 357.761079628325 2224.09896626056 118 122 121
-1013.65099171671 355.479217072367 2234.98483787363 107 112 108
-996.331138825011 352.523466666202 2246.74549443486 121 126 122
-971.175570483289 348.489421306523 2259.90624644602 129 134 130
-948.908943079569 344.865518256244 2272.36212215059 134 138 139
-932.469779059103 342.056179833639 2283.58779133526 136 140 143
-922.848490370475 340.194803315527 2293.45021716755 142 146 147
-916.145731955089 338.740175835588 2302.71548376183 120 124 125
-908.450381494609 337.152360060565 2312.10768290268 104 108 109
-900.740322857979 335.56631034678 2321.44638846681 139 143 144
-894.977395840801 334.25129082572 2330.3919565906 131 135 136
-888.220886955006 332.803139804958 2339.46174712035 141 145 144
-879.486649081274 331.087663324623 2348.81248301023 141 145 144
-870.736027737696 329.374081758156 2358.10451565958 134 138 137
-866.888326954479 328.333984629412 2366.54094523104 142 146 145
-859.093616599545 326.758071908076 2375.57175552276 149 153 152
-854.239543396694 325.586308212889 2384.08677259581 144 148 147
-842.473993523751 323.477422517139 2393.62435334553 144 148 147
-836.607749097678 322.174814301675 2402.19416002837 142 146 145
-829.742151626725 320.739705947876 2410.86716047934 138 142 141
-825.827493930628 319.70763441549 2419.06098812038 141 145 144
-820.915156747401 318.54291965131 2427.36320375723 129 133 132
-818.960947543635 317.780417577573 2435.21241466587 123 127 126
-815.020097872619 316.751526914709 2443.31100487202 113 117 116
-817.015997560329 316.524648143879 2450.57814984808 111 115 114
-817.028139449495 316.031032947288 2458.10515729974 109 113 112
-821.006791850269 316.071180144561 2465.1088909167 97 102 98
-823.994693124289 315.977832348698 2472.2471274386 97 102 98
-826.983924351622 315.884460627739 2479.38935768894 104 109 105
-827.984822298724 315.524816754879 2486.77568468886 107 112 108
-825.998338691329 314.766495066703 2494.50770633902 103 108 104
-825.001661210406 314.141813853404 2502.10273735547 103 108 104
-826.990450813864 313.916219530495 2509.34429491542 104 109 105
-829.976199866902 313.823467248111 2516.47491663868 104 109 105
-831.964956007926 313.597992328091 2523.71642534391 85 90 86
-828.95919388926 312.709677079942 2531.47831491063 57 62 58
-817.94913735505 310.762210058564 2540.02648527077 99 104 100
-809.920953724385 309.214216729347 2548.2080818918 107 112 108
-799.875902013997 307.403244135787 2556.52898107888 127 132 128
-788.811604940648 305.462057524505 2564.87973207021 127 132 128
-777.72828105574 303.523071459023 2573.16122954879 133 137 136
-774.651373654251 302.643100051012 2580.66423848834 131 135 134
-774.578349756246 302.160049562271 2587.88171206774 133 137 136
-777.516123668222 302.073271788022 2594.83705446428 140 144 143
-774.422806911995 301.195212729194 2602.2812750655 141 145 144
-777.358180284886 301.108719893822 2609.2288136489 143 147 146
-781.301521403411 301.1538536172 2616.10459162722 166 170 171
-790.28458030737 301.856780637756 2622.62461929314 167 171 172
-793.228142230944 301.769463509183 2629.60203994474 143 147 146
-791.128428488821 301.024807894854 2636.92228834077 144 148 147
-791.041934822976 300.543618441882 2644.08999725024 139 143 142
-789.94170475925 299.931520149205 2651.30850201984 189 193 192
-1055.70976181417 355.1284099379 2192.19305175634 162 166 165
-1043.34035750536 352.88009442708 2203.29693103619 140 144 143
-1036.78882802813 351.431487487848 2213.12748209201 104 108 107
-1026.32795011659 349.45342483992 2223.69532856511 111 115 114
-1020.72204408923 348.141077063286 2233.22557164839 107 112 108
-1003.39812707422 345.23891297738 2245.00589953615 119 124 120
-983.116674355125 341.9426415626 2257.24561943296 131 136 132
-957.917211472138 337.988126404711 2270.29268179895 137 141 140
-938.54284082507 334.83245620635 2282.09266750917 135 139 140
-923.050161047227 332.209656992485 2293.05389788752 139 143 144
-915.36393452648 330.647466842024 2302.49615110618 91 95 96
-906.683041939359 328.954920618125 2312.06035357587 105 109 110
-901.908359160015 327.792438524199 2320.87506262592 133 137 138
-893.198294281488 326.103453878567 2330.3322736668 128 132 133
-888.399977532602 324.943849587264 2339.061051314 141 145 144
-879.660268024213 323.258365782893 2348.41133692479 141 145 144
-871.888006690437 321.70653757389 2357.54070173242 136 140 139
-863.116938898605 320.024868168685 2366.77603937229 143 147 146
-853.344684155677 318.213560758938 2376.10956884737 146 150 149
-844.540573159091 316.535821277413 2385.22470469236 140 144 143
-836.70653994832 314.99136836013 2394.12937900076 141 145 144
-831.818902137685 313.842527743763 2402.53332067301 141 145 144
-828.896232250767 312.957332817022 2410.60661444067 140 144 143
-825.96625772742 312.07311981942 2418.65247844108 146 150 149
-822.03941410032 311.058762215862 2426.81224575601 124 128 127
-821.073338967743 310.438390697053 2434.52361820945 117 121 120
-818.121516358773 309.556885059675 2442.49007383557 113 117 116
-819.127237966749 309.199456093307 2449.8957085189 113 117 116
-818.147204206665 308.58089392108 2457.55639765094 111 115 114
-821.133865626901 308.485479872145 2464.68779729223 102 107 103
-825.114795743148 308.520533009191 2471.69770051986 101 106 102
-826.115796128272 308.163974928062 2479.08542703692 103 108 104
-827.114994055322 307.807697518206 2486.46663858158 103 108 104
-825.125151851158 307.060725525747 2494.19428504643 102 107 103
-826.118603853082 306.705220972825 2501.55465103867 102 107 103
-826.113223354996 306.219842131588 2509.02087228184 105 110 106
-830.095600007932 306.255125113407 2516.03629132865 106 111 107
-833.082015623068 306.160208928761 2523.16802169173 77 82 78
-835.070334873204 305.935318876509 2530.40827756161 64 69 65
-826.058584607103 304.282532617635 2538.76824365354 81 86 82
-820.032781833295 303.020842029041 2546.77147471137 103 108 104
-804.982304413227 300.593630007836 2555.60167890491 127 132 128
-789.906822192894 298.169230571634 2564.34174991731 129 134 130
-774.80682329409 295.74770263202 2572.9916791978 133 137 136
-772.728440565435 295.011411178523 2580.39640615936 130 134 133
-772.652368185613 294.534504343048 2587.60644010431 134 138 137
-774.583139968086 294.316537112473 2594.63740421294 140 144 143
-774.50225782387 293.840316440924 2601.82908463086 141 145 144
-776.430847243262 293.622681040335 2608.85215555319 139 143 142
-779.366144256515 293.53411744611 2615.79810325949 161 165 166
-784.318369878829 293.703334360942 2622.60169091137 168 172 173
-789.274517817203 293.872148185925 2629.41958686421 151 155 154
-792.215888414114 293.783004905 2636.3877186124 146 150 149
-797.178461589313 293.95116948964 2643.22906031389 129 133 132
-798.102074685337 293.604500338985 2650.33570634703 164 168 167
-1065.42062645343 348.544930919538 2181.22788456464 189 193 192
-1056.95292558056 346.856206841758 2191.58603918785 144 148 147
-1039.71223302592 343.997288040718 2203.70173697185 148 152 151
-1035.10094222347 342.833888638976 2213.122509268 119 124 120
-1029.50494843733 341.541717482745 2222.70229302207 97 102 98
-1027.79757888397 340.770957700457 2231.46368671101 103 108 104
-1017.3013175167 338.83180602062 2241.92472769621 108 113 109
-993.113453023883 335.077340704486 2254.95763723007 144 149 145
-967.909098856546 331.197722157045 2268.03382501488 128 133 129
-942.663845752707 327.322833859652 2280.96207851918 139 143 142
-926.187029780686 324.618934127808 2292.11545087938 108 112 111
-916.539260935142 322.824827436605 2301.92110270359 99 103 102
-909.814390750169 321.421049999631 2311.13637668628 112 116 115
-905.038246778106 320.277568744766 2319.95765674924 135 139 138
-897.30671346435 318.747595457777 2329.25203476637 127 131 130
-890.542762788785 317.348576161137 2338.32521458778 147 151 150
-881.799488057885 315.69299435355 2347.68021275902 137 141 140
-873.039819755583 314.039323069726 2356.9764800399 137 141 142
-863.279756254847 312.258694830695 2366.37371340763 141 145 146
-849.560799744287 309.964760657881 2376.3354180392 145 149 150
-841.734496645965 308.446152334643 2385.28510966376 143 147 148
-834.88009513812 307.057984051747 2394.02931403482 138 142 143
-830.974753220473 306.057198725941 2402.27748180838 137 141 140
-832.001344827332 305.70011430158 2409.75989121044 140 144 143
-826.104060234274 304.444276416868 2418.24398017535 141 145 144
-823.16350998542 303.574905066151 2426.26087784112 129 133 132
-821.205883196545 302.834771145765 2434.11152200711 118 122 121
-823.206297064407 302.608142912986 2441.39558542594 110 115 111
-822.231055630076 301.997315962053 2449.078951138 110 115 111
-820.258752071908 301.259074444934 2456.87629810053 108 113 109
-820.266604032353 300.777487016664 2464.39497159091 101 106 102
-823.252992225 300.679916749388 2471.52492449083 100 105 101
-827.235257576716 300.710114635634 2478.53579081239 99 104 100
-829.229241148718 300.484685009055 2485.79673654019 99 104 100
-830.226872847002 300.131758672314 2493.17424867654 102 107 103
-829.229029984127 299.524007820654 2500.77564180223 106 111 107
-827.229092323114 298.78941001513 2508.47268920579 120 125 121
-833.208725863738 299.074574532499 2515.26772395393 96 101 97
-838.194890199354 299.231894503072 2522.18980828871 79 84 80
-841.18556308553 299.134399132739 2529.33571670194 82 87 83
-833.173173334201 297.638403001179 2537.60878120994 71 76 72
-824.14504614358 296.017072768158 2545.9278026789 103 108 104
-808.087791215301 293.508800984656 2554.86611182387 124 129 125
-786.991802662466 290.36909353144 2564.18046610382 129 134 130
-771.881979839138 287.994077281173 2572.82328612373 128 133 129
-769.7990080947 287.269378834949 2580.21829418699 133 138 134
-771.728628002265 287.052006955623 2587.24535748347 135 140 136
-772.652308083236 286.70813903253 2594.35494978953 142 146 145
-772.568376352261 286.238069362838 2601.53919111008 142 146 145
-772.480975235125 285.768379366329 2608.71172000807 140 144 143
-773.398041831622 285.425435099597 2615.79641186826 148 152 151
-780.362738991938 285.840196158026 2622.4342948564 159 163 162
-785.316418687024 286.001908569893 2629.23854324519 166 170 171
-793.303167616356 286.541475544649 2635.85265065012 156 160 161
-797.256504463603 286.576138380849 2642.75893004006 142 146 147
-797.167618131246 286.106836780881 2649.92618983828 121 125 124
-797.075718967849 285.637977416524 2657.08161376725 185 190 186
-1061.80824433247 339.604667591436 2181.65486348681 142 146 145
-1057.22335071893 338.456758235785 2191.18342297586 158 162 161
-1041.92047084258 335.907069623001 2202.89643041732 134 138 137
-1033.4105093722 334.252816725808 2213.11851400119 130 135 131
-1026.83401386834 332.855296068236 2222.88862429715 97 102 98
-1030.00031121931 332.732441428742 2230.66965238924 105 110 106
-1023.40458608472 331.337361398003 2240.36990771922 102 107 103
-998.232165789576 327.528257777857 2253.61010816872 128 133 129
-963.241867147865 322.45341027072 2268.56438802913 132 137 133
-936.024090130667 318.400738980535 2281.84944474124 138 143 139
-923.450451016995 316.25648403411 2292.26166763481 96 101 97
-918.694300459381 315.129334545032 2301.16749034896 98 102 101
-910.985861390551 313.623306159829 2310.5627303286 130 134 133
-905.225530066395 312.372352639719 2319.55838367094 129 133 132
-894.542913366252 310.490013048469 2329.36339200842 132 136 135
-887.77236694023 309.115881274098 2338.4277957798 143 147 146
-879.021677538588 307.490581767759 2347.77438339153 135 139 138
-871.238773896776 305.993490602104 2356.89972252141 140 144 145
-859.501604227344 303.993273867884 2366.61128129782 144 148 149
-848.729544461476 302.121632633146 2376.09095944487 144 148 149
-838.925032543774 300.378342620074 2385.34673795325 143 147 148
-834.038366411923 299.267082197047 2393.77801344511 139 143 144
-830.129071625828 298.282993618064 2402.02204644473 138 142 141
-834.119179120789 298.306623498285 2409.05881143447 140 144 143
-827.230104617171 296.946893201166 2417.69130700092 141 145 144
-823.297508730659 295.965737797221 2425.85067943474 123 127 126
-820.346604247133 295.111232938721 2433.83851978146 112 116 115
-824.32843279604 295.136239043033 2440.84448652048 108 113 109
-821.367489477057 294.283054083588 2448.79588795387 108 113 109
-818.399234734921 293.430844617401 2456.71983035897 106 111 107
-819.397570119249 293.080559220967 2464.10255151764 101 106 102
-824.371550788455 293.231287647691 2470.97523873126 99 104 100
-829.349501280792 293.381658035731 2477.86243907322 95 100 96
-832.340032522548 293.281651683753 2485.00530726362 97 102 98
-832.341975425836 292.806769814156 2492.50627512162 107 112 108
-832.340664909081 292.332329206033 2499.99544225805 112 117 113
-830.340450397848 291.608804021897 2507.69845244448 116 121 117
-837.321850213244 292.008253109811 2514.38775291821 96 101 97
-842.311271079706 292.157787906144 2521.3170129623 81 86 82
-843.304184720042 291.80880109583 2528.68042410746 78 83 79
-838.290770963042 290.713434425485 2536.6511449924 67 72 68
-830.262418798113 289.246189125342 2544.88309595709 103 108 104
-814.201648554718 286.786414345828 2553.83804287297 119 124 120
-789.087923572617 283.211757395438 2563.54786448543 138 143 139
-770.960881589442 280.510458474333 2572.47223350173 135 140 136
-767.870470759373 279.673156816251 2579.95204630388 134 139 135
-769.797852108794 279.456542072514 2586.97127628849 139 144 140
-770.719115289931 279.11616684795 2594.07317120367 140 144 143
-769.62544455567 278.528416655553 2601.33140159387 142 146 145
-770.541441417292 278.188665032488 2608.4150664287 144 148 147
-769.439852182255 277.601902862254 2615.64452076297 151 155 154
-772.368490794034 277.509971743626 2622.56269202848 163 167 166
-781.354347640594 278.158809095842 2629.05895852194 171 175 176
-792.3701814979 279.053426022759 2635.45373435733 162 166 167
-798.344315317304 279.330041753528 2642.22295246218 153 157 158
-795.219853620045 278.496974384844 2649.57994339941 123 127 126
-779.940976686863 276.186885590253 2657.63609043965 179 184 180
-1053.05652311152 330.570478412645 2174.63014490155 198 202 201
-1049.44050679979 329.566572934322 2183.95055204265 146 150 149
-1046.78865485182 328.688738382502 2193.03398669414 150 154 153
-1043.15563783163 327.687044628215 2202.29266990355 134 138 137
-1034.64115146282 326.062653166073 2212.51680637322 137 142 138
-1030.98675275349 325.063685038921 2221.69782437982 105 110 106
-1029.27551426676 324.315100019745 2230.4579244395 101 106 102
-1026.58164333149 323.442796624304 2239.38791388674 99 104 100
-1005.30891678435 320.206961912381 2251.88263432147 128 133 129
-967.37303573518 314.861082400032 2267.41931877735 133 138 134
-937.208595316984 310.51633274311 2281.2694789969 132 137 133
-927.567606913704 308.785353239083 2291.14108949804 94 99 95
-921.830463195242 307.553004873165 2300.23458019604 103 107 106
-911.176228510421 305.701912622779 2310.16469332889 140 144 143
-902.466343429987 304.10100101897 2319.67910565527 132 136 135
-890.793099810033 302.1304480603 2329.64673747919 138 142 141
-884.015231600097 300.781287777594 2338.69972259449 141 145 144
-875.256412700756 299.186331583412 2348.0352841534 134 138 137
-868.450576890599 297.840557530164 2356.98656893859 141 145 146
-856.704777112443 295.878706548 2366.69030794014 144 148 149
-847.896766759849 294.289663435891 2375.84696448485 143 147 148
-839.07236173091 292.702538196137 2384.94489067627 143 147 148
-834.182074456257 291.610564525185 2393.37489822022 141 145 146
-830.269546048445 290.643082287748 2401.61740979088 140 144 143
-833.270997669564 290.538729658005 2408.79807919726 138 142 141
-827.366127213517 289.326790722782 2417.28264786075 138 142 141
-826.40154780319 288.731179636538 2425.01520607865 124 128 127
-824.441247455886 288.013313377502 2432.86998248185 113 117 116
-828.425978476988 288.033095315215 2439.88342726595 108 113 109
-825.465068568314 287.193561023358 2447.84357106217 107 112 108
-823.490083717111 286.47763860773 2455.64505402144 102 107 103
-822.502927501124 285.885043006603 2463.29569280429 93 98 94
-826.484833299576 285.905512735398 2470.29908232571 90 95 91
-829.473627569143 285.803389480065 2477.43509399935 90 95 91
-830.471356083747 285.456575183921 2484.81682441819 100 105 101
-828.476388999519 284.743274391474 2492.54670144079 121 126 122
-829.468358172612 284.397270607933 2499.90756026862 123 128 124
-830.458513681132 284.051570454152 2507.2618770113 107 112 108
-836.441926691125 284.316137385096 2514.05793995068 90 95 91
-840.431348347213 284.336337193762 2521.08906396499 78 83 79
-840.421222429588 283.86895271908 2528.54995611902 81 86 82
-838.405602420939 283.158509808728 2536.20402817575 91 96 92
-832.376052590516 281.962066565066 2544.23546992712 94 99 95
-818.313993024594 279.794282963514 2553.00201600463 103 108 104
-791.184907799794 276.04940396438 2562.914371514 133 138 134
-774.054407777282 273.523691955306 2571.75324151323 133 138 134
-767.948985764907 272.336088611941 2579.50763675134 135 140 136
-764.847976796332 271.513674517715 2586.95842899334 139 144 140
-762.745778874136 270.813389191531 2594.29746719277 141 145 144
-762.651216366069 270.356051841492 2601.45120606414 142 146 145
-766.584180389992 270.383301154894 2608.27716464386 141 145 144
-767.494519243178 270.047453184754 2615.34135794191 144 148 147
-771.430087307536 270.074451957209 2622.17775565745 154 158 157
-775.36840124861 270.101241383555 2629.02328708239 164 168 169
-784.361614033247 270.731378168682 2635.53505817313 165 169 170
-792.353368324145 271.239822266926 2642.14810014959 167 171 172
-796.305361944821 271.265159628123 2649.04443380833 165 169 168
-793.171530942697 270.446960288654 2656.37509622573 148 152 151
-1048.4662902326 321.569948847724 2175.28482705025 145 149 148
-1048.73450578492 321.072214095503 2183.75998495236 148 152 151
-1046.0793439168 320.208272384411 2192.83897270889 141 145 144
-1046.33920203013 319.711814706131 2201.2839073557 135 139 138
-1039.7713875768 318.361250591288 2211.11589459371 136 141 137
-1033.19059674469 317.012360474915 2220.89983093313 119 124 120
-1028.54897072072 315.90893622809 2230.24676869292 84 89 85
-1022.9201985399 314.685023353946 2239.74794739786 88 93 89
-1007.50133734785 312.24504505668 2251.09867527315 131 136 132
-967.592102500498 306.766298201196 2267.01929717197 130 135 131
-938.392955763943 302.632347610281 2280.68924172708 126 131 127
-926.78695075083 300.690930981109 2290.92584149543 96 101 97
-921.045050712846 299.480571260709 2300.01555539092 112 116 115
-908.421083948209 297.422244507014 2310.2951721429 138 142 141
-898.721926091508 295.730356129997 2319.97456193304 134 138 137
-886.056277743605 293.677016138003 2330.102571516 143 147 146
-880.254136178462 292.474013574308 2338.97326535176 140 144 143
-872.471431904703 291.030419832123 2348.1321911462 133 137 136
-867.629177931737 289.951426661942 2356.74873213369 142 146 147
-855.875967257374 288.027721078764 2366.4499679606 144 148 149
-848.048392849598 286.589562298895 2375.44573109243 143 147 148
-840.206108686787 285.153205866866 2384.38801769491 143 147 148
-838.276697430416 284.442280614086 2392.36186142663 141 145 146
-832.38667724007 283.250040978721 2400.91307430025 139 143 142
-831.43151199187 282.661493380118 2408.68504497332 136 140 139
-826.511409703735 281.592103082808 2417.01861317566 135 139 138
-826.534824094384 281.125424711548 2424.60447971733 124 128 127
-825.563559523825 280.538999028774 2432.31801642842 114 118 117
-826.572230428586 280.193468132736 2439.7411840689 107 112 108
-826.585983993024 279.728174253863 2447.29205595233 106 111 107
-827.590363563585 279.383334633644 2454.69972714537 100 105 101
-827.5983996118 278.918882534068 2462.22990246705 92 97 93
-827.603430877707 278.454922284823 2469.74830312698 92 97 93
-828.600795016594 278.111096300445 2477.13149637631 98 103 99
-829.596583870023 277.767589617147 2484.50811346696 110 115 111
-826.601489931943 276.946176003722 2492.35185008711 127 132 128
-826.592640172074 276.484073976166 2499.82081542535 126 131 127
-828.578075306908 276.261243257312 2507.05166329568 103 108 104
-837.559167095376 276.873747868986 2513.50729947203 87 92 88
-840.548992200271 276.769822946139 2520.64600095666 78 83 79
-840.537460896851 276.308435333515 2528.10453227094 89 94 90
-840.522456892439 275.847449439849 2535.5513527739 105 110 106
-841.506690913832 275.505907340143 2542.88630937312 81 86 82
-824.434480818649 273.024187146355 2551.96937257719 92 97 93
-793.282280795653 268.881987198444 2562.28005426242 130 135 131
-772.126941259279 265.932725586785 2571.49428750736 137 142 138
-767.021152897443 264.886016684945 2579.15275955725 141 146 142
-763.916586787298 264.077719069163 2586.59925723527 139 144 140
-763.82459392716 263.625882744679 2593.76508074281 133 137 136
-762.721857303392 263.05603441348 2601.00095356012 134 138 137
-764.638629076733 262.841802048118 2607.98229637715 136 140 139
-764.537398335249 262.391113643291 2615.11547520071 140 144 143
-763.42351788544 261.82266246323 2622.31085526415 151 155 154
-768.366216663052 261.963440914913 2629.06111705201 167 171 172
-775.334779632952 262.339910579779 2635.68824882964 176 180 181
-787.368148531581 263.305411061439 2642.00936462342 153 157 158
-794.35361429646 263.680034229364 2648.69901640694 164 168 167
-795.267734942271 263.347193197328 2655.7791491831 132 136 135
-760.697766563538 258.894658190867 2664.89428769344 178 182 181
-1046.51999571613 313.453750841991 2166.83172384828 164 168 167
-1049.70587257635 313.320558880724 2174.67892037692 132 136 135
-1047.05363700118 312.469514538269 2183.77784463151 142 146 145
-1042.44630999137 311.380370315455 2193.26021454555 144 148 147
-1039.77801460237 310.531522664522 2202.29996971256 137 141 140
-1036.12676686246 309.564279344532 2211.51271603347 134 139 135
-1031.49063825688 308.478884976505 2220.89051872939 100 105 101
-1027.82089386349 307.514055277263 2230.03611443494 80 85 81
-1022.18713534964 306.312085526595 2239.53356262457 84 89 85
-1009.69420002595 304.278174229168 2250.31415905373 124 129 125
-974.663113531305 299.51027790422 2265.31172354024 129 134 130
-945.45528482335 295.462226365162 2279.00366580163 117 122 118
-930.906644719547 293.201837349254 2289.80334592777 102 107 103
-920.25788500731 291.419359357145 2299.79710601142 135 139 138
-905.662775337841 289.164575760473 2310.42686369378 133 137 136
-894.973074280245 287.38703502185 2320.2717337098 139 143 142
-885.247787725786 285.73029389576 2329.8763029005 144 148 147
-876.488607388988 284.194055803257 2339.24852307095 136 140 139
-870.667722467914 283.014782309299 2348.06460779213 133 137 136
-865.820380606841 281.955238306814 2356.67453763458 148 152 153
-857.017794671443 280.424287458189 2365.88893941369 146 150 151
-848.199276296601 278.895330828817 2375.04451719095 143 147 148
-841.339674285857 277.604306097982 2383.83074446725 142 146 147
-837.432054210107 276.668699155367 2392.1106750828 137 141 142
-830.548049423194 275.38066280588 2400.80818634155 134 138 137
-830.579133484688 274.918570764817 2408.42542443664 130 134 133
-826.645096942479 273.986242947027 2416.61027517996 130 134 133
-826.66712362643 273.525443860359 2424.19377228864 126 130 129
-826.685693549789 273.065095194658 2431.76564851748 120 124 123
-827.693881280063 272.722674578307 2439.18898589356 115 120 116
-828.700252030934 272.38057963749 2446.60578279571 113 118 114
-829.704637186293 272.038743307651 2454.01629986683 110 115 111
-829.712711866895 271.580070516622 2461.54933835335 107 112 108
-828.721884190422 271.004724000832 2469.19723589249 112 117 113
-828.722546331937 270.547024123506 2476.70429634349 120 125 121
-831.710912307604 270.440632364464 2483.83602293604 126 131 127
-828.714431279592 269.633033706576 2491.68333160283 128 133 129
-828.705386349831 269.176716449311 2499.15522451464 120 125 121
-827.69407315972 268.60414355027 2506.72881447311 96 101 97
-836.676461823938 269.198482277293 2513.17779670636 86 91 87
-840.665875103235 269.209093833179 2520.20283609844 82 87 83
-844.657789250471 269.219524463186 2527.23704649588 98 103 99
-844.644039933194 268.764170098202 2534.69208085865 105 110 106
-845.629912847974 268.425601162424 2542.03499944786 70 75 71
-829.555457941549 266.11139912704 2551.03197392435 60 65 61
-796.384572671877 261.825732043098 2561.54973606966 132 137 133
-773.211494609652 258.70643687717 2570.95872114035 137 142 138
-767.097274622623 257.563060327106 2578.70837370491 132 137 133
