ply
format ascii 1.0
comment KinectMotionCapture
element vertex 760
property float x
property float y
property float z
property uchar red
property uchar green
property uchar blue
end_header
-852.931082730249 178.240868910162 2057.62782693602 97 99 96
-846.182425818454 179.020783333469 2048.45034717361 104 106 103
-849.38812325073 178.592791774571 2040.03485234813 95 97 94
-844.631302520855 179.130170532535 2030.97474687304 79 81 78
-853.807686080125 177.977452618082 2023.08429517392 74 76 73
-857.012187758685 177.548699059965 2014.7147163699 94 96 93
-866.186663842945 176.395855634346 2006.90800542609 117 119 116
-868.394935513249 176.087416053922 1998.49556850495 119 121 118
-872.592601814709 175.537514087075 1990.28775774904 142 144 141
-869.825731029021 175.83151205653 1981.40851504967 134 139 135
-868.05395661622 176.004447520927 1972.61563315372 128 133 129
-862.303855499722 176.659074259495 1963.39409609853 136 141 137
-859.538279366014 176.951647212864 1954.46272384234 148 153 149
-860.751341000907 176.761722713862 1945.95630842753 145 150 144
-860.96979623544 176.692040056222 1937.34350122017 156 161 155
-866.160280685901 176.019761502772 1929.30968118968 174 176 171
-864.389726349146 176.190358374776 1920.47592828309 156 158 153
-899.408180410417 171.905775399368 1916.11189050588 146 148 143
-631.969292123931 197.0486307379 2383.1391225201 146 146 144
-638.191904146299 196.281622407068 2373.77262980706 152 152 152
-641.41991710414 195.870407030345 2364.50297990957 76 78 75
-649.63725611133 194.86555201837 2355.15523835043 125 127 124
-680.803926963192 191.13181661393 2345.48171720331 150 152 149
-706.977473821555 187.991858554061 2336.04419718193 152 154 151
-720.177076006884 186.394317084162 2326.88610409532 158 160 157
-728.386758146312 185.389759995856 2317.83793934068 155 157 154
-740.585343545044 183.91083907261 2308.81292895281 143 145 142
-750.787387506565 182.669101256872 2299.85801957822 138 140 137
-756.998336366223 181.901443666005 2290.95599133012 146 148 145
-763.208445582818 181.133559469146 2282.08653592953 151 153 150
-766.425802300849 180.721099791367 2273.23203276448 124 126 123
-773.631597581276 179.834396858907 2264.42830018918 119 121 118
-777.844915330968 179.302955212692 2255.62859788723 135 137 134
-783.054924126781 178.652814264532 2246.86479324816 134 136 133
-785.27291219965 178.357756103612 2238.07764880482 135 137 134
-789.484607313344 177.825606087341 2229.34060414557 137 139 136
-791.702121123981 177.529980834178 2220.58071140139 135 137 134
-795.912822532381 176.997315122895 2211.88195047387 139 141 138
-799.126287402462 176.582740565709 2203.17728341419 129 131 128
-808.319388216978 175.457829145851 2194.67264472884 124 126 123
-818.507751636183 174.214571841562 2186.25078683021 143 145 142
-827.698248691216 173.089573368936 2177.8478186148 139 141 138
-831.90505724568 172.556023436578 2169.3002544962 138 140 137
-835.114973350324 172.140473052166 2160.73323771525 139 141 138
-841.31344387544 171.369925577465 2152.31580307371 132 134 131
-845.518465318253 170.835741072675 2143.83740411433 123 125 122
-853.707591328925 169.828467145887 2135.58040216167 123 125 122
-855.91910194177 169.530268790893 2127.05237238488 109 111 108
-858.130315876647 169.231789305721 2118.53563595489 117 119 116
-853.369207912446 169.76010934438 2109.6240391057 128 130 127
-848.608774592635 170.287829640158 2100.6854308589 114 116 113
-846.836778875737 170.460610820051 2091.91035742312 106 108 105
-849.047812227809 170.160652060686 2083.3897656758 109 111 108
-852.254405188473 169.742325229768 2074.94964773915 107 109 106
-847.495652663855 170.268124448048 2065.95261027683 103 105 102
-844.728540711601 170.557325079919 2057.07764219069 99 101 98
-843.952887217714 170.610032493079 2048.34129905062 99 101 98
-846.163380503214 170.308356924279 2039.8399715981 99 101 98
-841.406406010901 170.83218230353 2030.77132311749 69 71 68
-843.616778273975 170.529878744802 2022.2740513534 80 82 79
-850.802999450999 169.637643585893 2014.22940246883 95 97 94
-861.968961153422 168.273777797247 2006.58760361527 108 110 107
-866.167671298577 167.735211615528 1998.35116732468 130 132 129
-869.37086716416 167.314308083139 1990.04105296841 131 133 130
-865.609134009473 167.718082696955 1981.05418589511 128 133 129
-864.832292480664 167.767928524491 1972.35187793688 127 132 128
-862.066357588069 168.052971435154 1963.43576682917 135 140 136
-859.300568381076 168.337528552574 1954.50411542779 145 150 146
-858.524326199961 168.386194492861 1945.77711601338 143 148 142
-855.75916589216 168.669923969879 1936.81999639642 148 153 147
-854.983510047025 168.717800475545 1928.07855809488 183 185 180
-848.24124983989 169.471374094329 1918.62279022777 153 155 150
-849.454823220468 169.283113925539 1910.0981610484 174 176 171
-633.710872810248 187.604851847006 2383.14843739846 111 112 107
-636.939598768246 187.201909335292 2373.85980375016 137 137 135
-633.181449788844 187.610341520751 2364.73785563215 60 62 59
-640.401790716124 186.743023504736 2355.38644281925 73 75 72
-665.584048789314 183.789255253967 2345.78367695958 145 147 144
-697.747589590906 180.024823998841 2336.22422784248 150 152 149
-709.951088388345 178.578412587992 2327.05141581106 151 153 150
-719.159730388062 177.479673282223 2317.96747537082 147 149 146
-733.355256179916 175.801662027602 2308.90699726806 141 143 140
-748.546577972881 174.007920624228 2299.92058633579 141 143 140
-754.757889695325 173.256584774204 2291.01257639301 139 141 138
-759.971229796196 172.620831785863 2282.13402149517 140 142 139
-761.194189539456 172.447988386405 2273.25909408554 114 116 113
-766.406407290556 171.811753951872 2264.42388756491 113 115 112
-771.617686273435 171.175382455616 2255.61589940386 135 137 134
-778.822683872906 170.307347746164 2246.86338746376 133 135 132
-783.035632882568 169.7862944007 2238.09857574508 131 133 130
-787.24777835187 169.265007972958 2229.35559411324 133 135 132
-788.468470596729 169.090457512707 2220.56745548581 133 135 132
-792.679692791314 168.568666648854 2211.86001700367 141 143 140
-793.900116404096 168.393494351761 2203.09103455613 128 130 127
-803.094018484444 167.293160614746 2194.57214446106 117 119 116
-815.276944504708 165.846074310091 2186.20266318066 143 145 142
-827.458184070283 164.399016854323 2177.89912536742 140 142 139
-827.679208356218 164.338643413786 2169.19590625192 132 134 131
-828.896613026737 164.16235737074 2160.53439388335 126 128 125
-832.106752599998 163.75473002617 2151.96715032469 119 121 118
-839.301719293579 162.884894410157 2143.60474726099 116 118 115
-844.503321852981 162.245904270161 2135.18146034066 115 117 114
-846.715386937867 161.953173215313 2126.62830545332 114 116 113
-851.91576836566 161.313757937187 2118.2522881059 96 98 95
-848.150688410609 161.712934956778 2109.381964254 140 142 139
-845.382529540987 161.996199200971 2100.55086407766 112 114 111
-838.630701569815 162.740469403877 2091.449723494 106 108 105
-840.842693116509 162.445924210708 2082.90681964017 101 103 100
-842.058447276717 162.266446427999 2074.30638788799 102 104 101
-840.287152860589 162.432618863402 2065.49680922783 101 103 100
-835.528957471789 162.944198424509 2056.4534042067 103 105 102
-832.762650836248 163.224691962689 2047.53761254708 91 93 90
-831.987814859418 163.274210786607 2038.76589434681 102 104 101
-828.22680167068 163.669030943811 2029.74127390427 78 80 77
-834.419844975707 162.911301959373 2021.54971733234 61 63 60
-843.597660037197 161.807928720573 2013.6563000798 80 82 79
-852.7744318508 160.704560003049 2005.81298621154 118 120 117
-857.969395761402 160.061845517281 1997.64516176824 108 110 107
-860.178148460741 159.764354523102 1989.21635552653 109 111 108
-862.386831892851 159.466638758353 1980.79933993501 120 125 121
-863.600104100863 159.283770456127 1972.29227099388 135 140 136
-863.818411815244 159.21568756783 1963.68694709419 136 141 137
-861.052275168165 159.492414669191 1954.76046758679 134 139 135
-859.2814145906 159.653610061436 1945.92858904706 146 151 145
-856.515975639037 159.92946119733 1936.97390063766 145 150 144
-851.761648923657 160.434819159721 1927.77261418398 147 149 144
-843.029953456384 161.399379439795 1918.07176079839 167 169 164
-843.249588331179 161.328992604527 1909.41209307134 155 157 152
-857.390690625221 159.649622269522 1902.4865393089 165 167 162
-628.464998678701 178.963536022255 2383.3468577096 126 127 121
-632.692447567688 178.455310827245 2374.01978956826 121 122 116
-632.926811478746 178.399668627677 2364.80029173411 66 68 65
-636.155432604617 178.004106358788 2355.52367962486 69 71 70
-661.33962999361 175.118636782178 2345.90912765335 143 145 142
-687.518449482886 172.120480449362 2336.41779072386 149 151 148
-705.710807959098 170.027867690387 2327.15337535205 151 153 150
-719.909280954607 168.387994159704 2318.01865967149 150 152 149
-734.105802922929 166.748219914636 2308.96030349736 142 144 141
-746.305202164749 165.334770037294 2299.98310785722 140 142 139
-749.524564370253 164.938881870707 2291.06801650676 135 137 134
-749.750929497673 164.881888070116 2282.1596876014 129 131 128
-753.967037284729 164.372420846687 2273.27453541681 119 121 116
-758.182584672644 163.862742703163 2264.41105910228 114 116 113
-766.386995050262 162.90082219469 2255.61471293721 138 140 137
-773.592880526228 162.051877241099 2246.84799681751 134 136 133
-780.797782882797 161.202773888524 2238.11953433293 129 131 128
-781.022027516782 161.144123918808 2229.29230338996 126 128 125
-779.25210881641 161.310953558644 2220.42033785954 132 134 131
-785.458285902222 160.574125731512 2211.73790968957 131 133 130
-791.663617076194 159.837162995889 2203.08839783035 131 133 130
-798.864850160272 158.987175917545 2194.50239434912 115 117 114
-811.04897197583 157.5728717638 2186.121376195 137 139 136
-822.234560527662 156.271485372109 2177.77025285162 136 138 135
-826.442345334871 155.759882581701 2169.2080985445 130 132 129
-827.660144511079 155.586369289097 2160.54346948109 122 124 121
-831.866991923237 155.074205802763 2152.0173497878 119 121 118
-838.066168760326 154.336390736215 2143.6074555665 116 118 115
-842.271731295922 153.823909111045 2135.13121170731 112 114 111
-839.502898351729 154.100213681494 2126.30965915045 108 110 107
-838.726947965691 154.150659392873 2117.58249114299 98 100 97
-837.950878153493 154.200659881782 2108.85018788968 100 102 99
-839.167371381984 154.025003479081 2100.23429868049 136 138 135
-836.399574815964 154.299591678986 2091.37039796797 110 112 109
-836.619945094764 154.23588123938 2082.68915670429 107 109 106
-831.860944787042 154.734770997228 2073.66358536966 95 97 92
-830.090207876779 154.895393294274 2064.82625813786 103 105 100
-824.336709893941 155.505823195118 2055.68070243799 103 105 100
-822.566521278179 155.665522408205 2046.81163003296 85 87 82
-818.805593851699 156.049816399441 2037.77235551795 94 96 91
-823.009084952587 155.533744934743 2029.37321600983 110 112 107
-828.207586177932 154.904973439334 2021.08211196162 56 58 53
-837.386750364682 153.826295842768 2013.17180728715 73 75 70
-843.578507072829 153.084997627506 2005.03885268459 101 103 98
-843.798272986497 153.018057010816 1996.37776378855 90 92 87
-846.008404955097 152.726017528403 1987.91022912779 125 127 122
-848.21822820432 152.433730131103 1979.45449409783 119 121 118
-851.422444589548 152.028913233537 1971.11244209984 131 133 130
-857.611297619988 151.286914457926 1963.10154586144 118 120 117
-855.840404289273 151.443227017479 1954.26570461855 140 142 139
-856.059219287351 151.374618952006 1945.63999041987 146 148 145
-852.298879978003 151.754768238231 1936.5639551967 137 139 136
-846.550113289704 152.358833779362 1927.23597534507 156 158 155
-839.807385541961 153.074569822126 1917.75785350954 162 164 161
-837.04364675084 153.340965469545 1908.72656436516 154 156 153
-841.241452593682 152.821816125062 1900.54631964603 167 169 166
-859.36001769862 150.732527215409 1894.16024896318 141 143 138
-623.218103567388 170.29371601255 2383.54525106015 137 138 130
-629.442885152763 169.57522252929 2374.15538060408 123 124 116
-627.680924102686 169.740263720931 2364.97048223539 92 94 89
-635.901001329731 168.800430585333 2355.58553704168 59 61 58
-649.110258302646 167.308383034352 2346.16337265542 153 155 152
-680.28182946869 163.829054186044 2336.57149242075 138 140 137
-696.480065161171 162.006324337316 2327.30843444706 146 148 145
-717.665315389757 159.631866485089 2318.09330345079 138 140 137
-728.869848344273 158.361354819968 2309.04424291517 134 136 133
-738.077286787835 157.311581374495 2300.0599173884 134 136 133
-737.306596098406 157.364981321307 2291.12102945908 130 132 129
-741.524131107691 156.866447721484 2282.19183616856 122 124 121
-745.741345548348 156.367726245151 2273.28429487148 113 115 112
-748.960376345813 155.979008556623 2264.38985520234 114 116 113
-756.1684781143 155.149129801513 2255.55699050871 128 130 127
-768.362052416123 153.767903558397 2246.83272817082 135 137 134
-778.559600403783 152.607188034315 2238.14053252631 130 132 129
-779.78133513451 152.438268775728 2229.32702107867 124 126 123
-781.002684367488 152.269035149547 2220.51891388652 127 129 126
-783.221088503049 151.989317990794 2211.74130504665 137 139 136
-792.417708274988 150.93837663304 2203.16923188236 124 126 123
-793.638221661521 150.768342073853 2194.40225727293 108 110 107
-803.829861034992 149.607068914766 2185.94039199396 123 125 122
-815.016780942492 148.335757736266 2177.56952710663 137 139 136
-825.205538171531 147.17456166698 2169.22038878945 129 131 128
-829.4131329015 146.673692871304 2160.67718869618 117 119 116
-827.641055263968 146.832751498529 2151.89058278237 114 116 113
-831.847924247886 146.331415707564 2143.37524593535 113 115 112
-833.064966873887 146.159787498812 2134.73288474441 109 111 108
-832.289319627767 146.207871781849 2125.99133345892 110 112 109
-824.53969024197 147.02515917141 2116.85796711123 100 102 99
-822.768644006357 147.182262676714 2108.02895117807 93 95 92
-828.966801778974 146.459603638336 2099.67515890233 118 120 117
-832.175898354264 146.066538503222 2091.16431509649 136 138 135
-831.400402512387 146.112785041943 2082.40554839211 94 96 93
-824.649684985468 146.817714086188 2073.22809108226 96 98 93
-822.879296789288 146.972871840717 2064.37126749121 92 94 89
-821.108926145214 147.127637933835 2055.50401257894 94 96 91
-818.34316827994 147.391780230462 2046.54921637235 87 89 84
-813.586659025235 147.874998901521 2037.41878443852 92 94 89
-818.786316190554 147.260207330991 2029.08818803014 103 105 100
-820.003284312366 147.084247576307 2020.44408784062 43 45 40
-827.192736319795 146.249700860921 2012.33510831932 45 47 42
-826.418366233712 146.292643603672 2003.53812060523 85 87 82
-829.625238194435 145.89656958131 1995.11099173177 95 97 92
-830.841117554361 145.719609276465 1986.50836981474 103 105 100
-839.023133385203 144.774994433948 1978.60586160797 110 112 109
-843.223470463632 144.268855545742 1970.34065705935 120 122 119
-848.418403600868 143.652977767723 1962.20285053567 123 125 122
-845.65288681005 143.913484750041 1953.23472898371 134 136 133
-846.867219499327 143.735435736707 1944.69138734229 132 134 131
-847.086642910099 143.66666569446 1936.04172034964 125 127 124
-849.295605048071 143.378568806729 1927.62413997685 170 172 169
-844.54135344909 143.856598103601 1918.39057429785 163 165 162
-836.804174518378 144.662435111255 1908.76763128464 152 154 151
-832.051451639489 145.139427219317 1899.47320427514 149 151 148
-833.266202673271 144.959496268819 1890.91149160207 167 169 164
-615.21088128478 161.862731786842 2374.55875047447 127 128 120
-619.439577939449 161.375541182622 2365.20550065136 93 95 90
-627.660584147865 160.457310794944 2355.79811822614 61 63 60
-637.876891871322 159.323651067617 2346.40177755017 136 138 135
-660.06895861807 156.897930483656 2336.89921388817 140 142 139
-684.253854812208 154.257321791987 2327.49556528782 144 146 143
-707.437530146811 151.724821489051 2318.23101290627 137 139 136
-722.635065281925 150.053665349073 2309.1333856533 129 131 128
-732.841346534116 148.920724334628 2300.12968590655 130 132 129
-735.064414447549 148.648438298097 2291.17777943792 128 130 127
-737.28696408038 148.375873244547 2282.23650479543 119 121 118
-742.50229489066 147.780403226183 2273.32339882836 110 112 109
-744.724073118018 147.507353323656 2264.41175279058 114 116 113
-750.935601321711 146.804001953787 2255.55612883806 120 122 119
-762.133359252701 145.562992783948 2246.80353719906 136 138 135
-773.329340287255 144.322069685967 2238.11116045742 131 133 130
-775.548686243512 144.048283749813 2229.30311049214 123 125 122
-772.781720170902 144.311457296057 2220.39449504413 122 124 121
-777.991964267592 143.714853850344 2211.66965369027 139 141 138
-786.192888772441 142.795814695811 2203.05559020401 122 124 121
-786.41676646019 142.735821960445 2194.24125903277 109 111 108
-790.628196237349 142.246026004489 2185.5600611725 117 119 116
-802.813626368172 140.897307600842 2177.18900566463 138 140 137
-815.994300546334 139.441348642085 2168.92270506448 130 132 129
-824.189800090762 138.52207323302 2160.52041415268 114 116 113
-825.407589083248 138.3538174537 2151.85250342897 110 112 109
-828.618426827277 137.970702074958 2143.28429199916 112 114 111
-827.842940067318 138.016372879567 2134.53387695126 111 113 110
-824.078069344703 138.383384004194 2125.62083831023 109 111 108
-815.332367851668 139.285919083201 2116.41011583528 101 103 100
-813.561569227371 139.437438050077 2107.55610135861 93 95 92
-822.749462464712 138.409673428497 2099.35930157937 101 103 100
-829.94371457851 137.59626590308 2091.08541490676 132 134 131
-827.176304859693 137.854125836615 2082.18843334136 107 109 106
-817.437332142017 138.86124557294 2072.79299951483 103 105 100
-815.667056811984 139.011004709663 2063.91664331547 94 96 91
-814.893059982221 139.053247890467 2055.10431631569 95 97 92
-815.114894231833 138.988067357284 2046.36427952796 84 86 81
-811.35387611058 139.350688607755 2037.30527915896 87 89 84
-814.562908836473 138.963762414189 2028.8035223314 96 98 93
-810.802466709464 139.325600118584 2019.72116880058 95 97 92
-812.019983176911 139.152105207328 2011.05828392311 23 25 20
-815.22830781616 138.764437231314 2002.58340510565 95 97 92
-823.412923477305 137.842000633019 1994.59377502667 90 92 87
-830.601165158441 137.026472074768 1986.55251948208 106 108 103
-833.807524599402 136.638487023775 1978.15410697083 108 110 107
-839.99894636687 135.929715140078 1970.07849206827 115 117 114
-845.19448042108 135.327751847903 1961.93213993083 128 130 127
-844.418866364512 135.36667752521 1953.17013288893 124 126 123
-847.623362036666 134.978018291051 1944.84383903319 128 130 127
-845.853104866171 135.123087972069 1935.97106270807 140 142 139
-851.046534451185 134.520547722827 1927.89701623677 158 160 157
-846.292021467056 134.985259224606 1918.66869156039 153 155 152
-841.537930130032 135.449471483387 1909.41402661754 156 158 155
-831.811585171617 136.446627255424 1899.51435767667 153 155 152
-833.026426209176 136.269733314869 1890.95238825154 158 160 155
-597.981382611934 154.387460182884 2375.03549850491 139 140 132
-609.200155157759 153.175880575049 2365.48385732839 89 91 86
-618.42093836369 152.174260784977 2356.02967594595 73 75 72
-625.643909737025 151.382466661881 2346.65654792841 75 77 74
-642.847546964731 149.541324231055 2337.1873068963 126 128 125
-671.028018083128 146.546437926264 2327.69364979718 131 133 130
-697.208203532324 143.761888981809 2318.36895679598 138 140 137
-708.415807605443 142.551058899137 2309.26394779316 115 117 114
-721.617506484569 141.130615615385 2300.21406304227 115 117 114
-729.828197622101 140.234457526971 2291.23352885561 125 127 124
-738.038010791427 139.338229948151 2282.29655888269 118 120 117
-738.265159068533 139.28039745081 2273.35672124666 109 111 108
-739.489840144597 139.11747907909 2264.42517491842 111 113 110
-739.716912992393 139.059006453637 2255.48759800086 105 107 104
-755.903492166712 137.324186818316 2246.7745083539 137 139 136
-766.103406190162 136.217968884886 2238.04835514994 129 131 128
-771.315167940025 135.635440992335 2229.27931189752 122 124 121
-769.545684979508 135.785571228193 2220.38171039851 121 123 120
-774.756523795229 135.202553813622 2211.64821299853 133 135 132
-781.960988326413 134.410089962231 2202.99767738086 119 121 118
-778.197008699679 134.768593092465 2194.05000118498 110 112 109
-784.403360206807 134.080379273573 2185.41295400367 111 113 110
-797.587201510496 132.659843646366 2177.06090601164 136 138 135
-810.769218582532 131.239478581529 2168.78033844885 132 134 131
-815.97511303408 130.655826878307 2160.23940287868 115 117 114
-818.190411582804 130.385654282048 2151.59341934689 108 110 107
-821.401974770182 130.010703422247 2143.00562150954 110 112 109
-818.633694326751 130.262583195858 2134.13624984327 112 114 111
-813.872739770907 130.723040867223 2125.14579188057 109 111 108
-809.112701047404 131.182936482668 2116.1282613133 104 106 103
-810.331258878632 131.015631383292 2107.43132247506 98 100 97
-818.523844256449 130.11704312789 2099.16513956196 88 90 87
-824.722538215665 129.427284963259 2090.81639289253 115 117 114
-825.940020602891 129.259377761425 2082.17016442843 130 132 129
-820.184617785523 129.82178938213 2073.0474979297 108 110 105
-814.430029650894 130.383669011097 2063.89241959557 99 101 96
-810.668214848475 130.736299122398 2054.85382857065 97 99 94
-805.910903603784 131.192800892955 2045.71672984539 81 83 78
-802.150223642345 131.544498677275 2036.63278424278 83 85 80
-804.364469685621 131.270074849702 2028.02337162521 92 94 89
-803.591423460427 131.308193723843 2019.1694633429 109 111 106
-805.805030783748 131.033297872199 2010.57518250247 40 42 37
-807.02288841797 130.862397985091 2001.90174998262 86 88 83
-818.19527884922 129.649359099487 1994.17064044839 76 78 73
-822.3982596806 129.165683722011 1985.82622846369 97 99 94
-829.586599271245 128.369440226551 1977.80185309147 101 103 100
-835.778767706104 127.677319906816 1969.71493500758 107 109 106
-840.974737139142 127.089288297206 1961.55720073682 135 137 134
-841.194604244429 127.021540492788 1952.89129022578 113 115 112
-843.404593901626 126.745443945764 1944.44643588375 124 126 123
-845.614271467305 126.469115386377 1936.01353004242 157 159 156
-847.823400336798 126.1926209408 1927.59256624474 120 122 119
-842.073746533984 126.747905233886 1918.23755556612 136 138 135
-838.314489844258 127.094707669318 1909.09272732581 148 150 147
-830.577070738855 127.856809717139 1899.43221194006 153 155 152
-830.79753437961 127.786952478903 1890.74072180883 148 150 145
-831.017960277424 127.716805193666 1882.05039537233 166 167 162
-600.719648962931 144.772886888011 2375.02498566314 141 143 132
-598.959194164069 144.920391634161 2365.76238849449 107 109 104
-613.173134628907 143.431999608086 2356.18579970324 77 79 74
-618.400513550604 142.863541630884 2346.83081525439 63 65 60
-626.621705536874 141.988415480246 2337.46245399706 106 108 103
-657.799948048401 138.763258630055 2327.89206957427 126 128 123
-687.975606228839 135.641054546277 2318.49921006355 137 139 134
-700.182396026257 134.357952222012 2309.36379828359 105 107 102
-711.3898633693 133.177063032053 2300.29628139045 104 106 103
-724.591436961964 131.792079346928 2291.28936705453 122 124 121
-730.806235206152 131.121786302075 2282.33210928653 118 120 117
-733.029476031076 130.85964246519 2273.38433475071 111 113 110
-732.259366551772 130.90334151322 2264.42163982652 109 111 108
-733.484474900265 130.742665137102 2255.47580149386 100 102 99
-747.677510359734 129.255517246823 2246.71758858859 137 139 136
-757.878748484568 128.176585572092 2237.9689827986 127 129 126
-764.089021968381 127.505543392836 2229.19708876614 122 124 121
-760.32512208922 127.853957096489 2220.23546250961 123 125 122
-766.534405693243 127.182548251385 2211.5018627109 117 119 116
-773.739966643357 126.409133640685 2202.82892885073 117 119 116
-772.967645272723 126.450810728492 2193.95051127698 113 115 112
-776.183622679886 126.084632835174 2185.19961017451 110 112 109
-791.362841947867 124.495915651896 2176.89702227299 141 143 140
-804.546270426326 123.111096231465 2168.59945823314 134 136 133
-811.74675668867 122.337427137497 2160.1245875062 124 126 123
-813.962495124049 122.07271920247 2151.46727921241 115 117 114
-812.190927072526 122.214929993468 2142.63334221487 104 106 103
-810.419859284483 122.356719374328 2133.78872549799 107 109 106
-809.645312081667 122.396411358167 2124.98584491663 109 111 108
-813.853490028062 121.927137370721 2116.45377477682 111 113 110
-813.079074587505 121.966175945162 2107.65436767748 107 109 106
-820.275543943073 121.191400575556 2099.33530374911 90 92 89
-820.497028952619 121.128278643879 2090.61112684075 89 91 88
-822.711023921322 120.861529073991 2082.01976711412 133 135 132
-816.95539004221 121.407617009469 2072.88860419278 126 128 123
-811.200567307929 121.953113876053 2063.72510427722 109 111 106
-803.454682778734 122.701264517304 2054.38046703324 106 108 103
-795.709650098904 123.448801383472 2044.99255275242 87 89 84
-791.949377850335 123.789527175114 2035.88089143773 81 83 78
-792.172789322997 123.723671659311 2027.07848656503 83 85 80
-794.387731042097 123.454479342229 2018.44750171937 109 111 106
-790.628354222433 123.794036449951 2009.29958909834 105 107 102
-790.85182417818 123.727235069024 2000.49388290701 26 28 23
-800.03479875802 122.7472078039 1992.53125321056 83 85 80
-810.212111589391 121.665837927676 1984.71511281799 85 87 82
-820.388002302553 120.584576574068 1976.95467025473 92 94 91
-826.581264990641 119.908955262004 1968.84270032769 128 130 127
-831.778492097459 119.334735179418 1960.65996635101 111 113 110
-835.979650592987 118.861763202735 1952.39827005176 133 135 132
-841.175254159189 118.287363292889 1944.26947179373 139 141 138
-841.395072714683 118.219403342373 1935.6052309906 124 126 123
-841.614857377204 118.151182329409 1926.94203453352 112 114 111
-836.86024584522 118.588956509567 1917.68863822735 148 150 147
-837.080309650359 118.520106004689 1909.01385600983 142 144 141
-830.337059427797 119.159456857358 1899.4741377661 154 156 153
-827.573451683887 119.393512363034 1890.40300248925 153 155 152
-830.777982751987 119.020178572545 1882.09178051839 160 162 157
-589.715148325896 136.509610266094 2366.01944268407 135 138 131
-597.94024261137 135.656084263396 2356.53108341904 88 90 85
-609.159167438897 134.504138053529 2347.03752029599 65 67 62
-610.393414481408 134.346730506673 2337.73801996001 88 90 85
-638.580366137163 131.504442878733 2328.15492971754 117 119 114
-673.750384849817 127.966928996226 2318.66936557005 126 128 123
-688.953644505437 126.418158153106 2309.47941213086 97 99 94
-698.166549498492 125.465870759238 2300.38610792685 96 98 95
-711.37001888618 124.116168717627 2291.34298206551 120 122 119
-723.573612307342 122.865967531969 2282.36782245121 118 120 117
-731.784507785112 122.013115670152 2273.43512561919 111 113 110
-731.014160254504 122.054000315131 2264.46938788717 108 110 107
-731.241804709155 121.995285483092 2255.50921053075 97 99 96
-741.445623655434 120.94353056385 2246.68891760525 137 139 136
-752.645757564073 119.792532610236 2237.94011164048 126 128 125
-760.851656274461 118.939393651045 2229.19307273623 122 124 121
-759.082583163937 119.078341258589 2220.26744583463 125 127 124
-764.294893066771 118.52255596617 2211.50569300961 109 111 108
-768.509298882333 118.065788438338 2202.74364464134 113 115 112
-769.731753723091 117.906340532893 2193.91215840862 110 112 109
-773.945234374884 117.449204114729 2185.18587255933 107 109 106
-787.131760487251 116.099841531256 2176.80531307631 141 143 140
-808.292290628324 113.957831556797 2168.80591336386 134 136 133
-814.496188700742 113.302576165289 2160.30014313115 128 130 127
-813.721301571447 113.340644969047 2151.51812999663 119 121 118
-808.95922358317 113.774573215093 2142.54309441157 102 104 101
-809.181505895614 113.712904547311 2133.78931654676 103 105 102
-811.397150685525 113.45288802445 2125.14070551936 107 109 106
-814.609000396591 113.093660898597 2116.55859227823 111 113 110
-812.837782336856 113.229101392596 2107.70370696566 105 107 104
-814.056147194543 113.06732440651 2099.02024586423 93 95 92
-813.28176930642 113.103141964291 2090.21591260606 87 89 86
-815.496415077463 112.841875927689 2081.60500506515 118 120 117
-815.718219412476 112.778233844379 2072.86778931258 138 140 135
-810.959108491717 113.208596291589 2063.77296177024 114 116 111
-805.204658283299 113.737308685502 2054.57688037943 111 113 108
-795.467006327838 114.66080036654 2045.04003322522 91 93 88
-788.718581970874 115.287154158743 2035.68858283556 81 83 78
-781.971108574751 115.912969687623 2026.29938765617 79 81 76
-783.190939053533 115.748071644754 2017.55529385477 102 104 99
-779.432038085791 116.076653624006 2008.37699904451 110 112 107
-779.656289207566 116.009914360173 1999.54082887523 52 54 49
-777.8894575322 116.140267695584 1990.5183710554 57 59 54
-784.086768556006 115.480842218039 1982.2562431958 95 97 92
-801.233662523534 113.736054110468 1975.11750798058 110 112 109
-812.405542768932 112.583593368706 1967.4620576339 106 108 105
-819.594631827663 111.825817615976 1959.44969415203 100 102 99
-819.815990610004 111.758257870405 1950.72568565734 109 111 108
-824.017991155374 111.296105221149 1942.44269609376 111 113 110
-830.209719835223 110.636767344253 1934.40816442137 108 110 107
-834.410403362385 110.17448517033 1926.17650941819 119 121 118
-835.625796125185 110.00768946219 1917.61314415181 144 146 143
-829.876482335024 110.530112833355 1908.20956107373 143 145 142
-822.138206888543 111.248962197658 1898.52674827522 159 161 158
-821.364565668684 111.278071566542 1889.6864207327 154 156 153
-832.527215997135 110.125817376988 1882.39192929436 150 152 147
-846.672437938682 108.678584299866 1875.55461654514 189 192 185
-572.719514867104 128.764426181311 2357.06611676135 128 129 123
-578.94883550505 128.125629951439 2347.58441717931 79 80 74
-582.182129599759 127.776838844643 2338.17538853147 77 78 72
-604.382946254411 125.590818737472 2328.57889527991 94 95 90
-643.55118762747 121.761822493211 2318.96726463733 100 101 96
-673.730286608583 118.803754755742 2309.61616368397 93 94 89
-687.935603098992 117.392574319994 2300.46885833584 96 96 94
-702.138730576694 115.981619682707 2291.39802484414 98 98 96
-714.344103245933 114.76401217142 2282.39764741687 112 112 110
-723.553831173512 113.83629626728 2273.44557212261 117 117 115
-723.781971879648 113.777674390408 2264.46609934717 112 114 111
-727.003423617067 113.429095122717 2255.52013850295 100 102 99
-736.21066318702 112.501153273934 2246.67439903115 132 134 131
-746.414195708707 111.476723257418 2237.89463994701 126 128 125
-752.62615974879 110.83833150962 2229.09173063771 122 124 121
-752.852326589935 110.778704646025 2220.18832426663 124 126 123
-757.068097060299 110.332932413315 2211.38474636234 116 118 115
-764.27536173555 109.597731494962 2202.68625594154 115 117 114
-769.487233037355 109.055294035692 2193.96530182761 112 114 111
-770.70938442594 108.898345819863 2185.13903474298 107 109 106
-776.917184475213 108.259232063915 2176.49809338263 137 139 136
-799.077244454794 106.078297579488 2168.50929752005 138 140 137
-810.267096729605 104.957663792078 2160.18561133771 137 139 136
-809.492422266919 104.99299012548 2151.39234180193 134 136 133
-802.73644495778 105.605827934785 2142.31224973844 109 111 108
-801.962439733166 105.640420921762 2133.49203664957 107 109 106
-808.165557326201 105.000783206965 2125.03353931327 113 115 112
-813.371008162659 104.45737234111 2116.55314926955 113 115 112
-813.592970634972 104.394963561946 2107.81107719047 113 115 112
-808.832490201839 104.813293543378 2098.76618018917 103 105 102
-803.076081916435 105.327357418416 2089.63089877872 95 97 94
-801.306156433523 105.456178665756 2080.72771263713 95 97 94
-805.514098769182 105.007824024199 2072.22731256356 115 117 112
-807.728906555049 104.751574594817 2063.60613458033 131 133 128
-803.966639897652 105.071749663806 2054.55035588843 115 117 112
-795.224332601646 105.871922043539 2045.08774246441 108 110 105
-783.495403967654 106.95960748254 2035.33686097405 90 92 87
-774.75576234873 107.758424978395 2025.76860888527 82 84 79
-773.984548290598 107.788403648749 2016.8343528433 96 98 93
-770.225748088119 108.106113493553 2007.63112132867 102 104 99
-769.454967134456 108.135406678205 1998.67920204195 62 64 59
-766.692853689296 108.356280301545 1989.53551070342 54 56 51
-769.904800265251 108.001138692374 1980.95399836002 39 41 36
-784.067105527443 106.5907288141 1973.47922338678 82 84 81
-798.227670889761 105.180643968546 1966.08212351125 86 88 85
-805.41827925263 104.44205995339 1958.03098697024 90 92 89
-807.631132832817 104.182759655744 1949.48291032734 96 98 95
-811.834525391926 103.731651901652 1941.16669999068 101 103 100
-822.008255546875 102.705553075395 1933.54992880038 112 114 111
-831.185280439822 101.775455130386 1925.8734437371 109 111 108
-836.381116055623 101.228554055409 1917.77442709607 144 146 143
-834.611160941134 101.351909588557 1908.85720560803 137 139 136
-825.877348865152 102.145030644508 1899.06432317622 151 153 150
-824.108364958037 102.267587443171 1890.10828591995 148 150 147
-831.292625537503 101.52866774569 1882.30488231442 153 155 150
-840.465370408941 100.598475738418 1874.80489910995 172 174 169
-853.615305892 99.2858781986685 1867.89390364965 193 195 190
-541.744205103278 122.239566050166 2348.24569387839 84 85 77
-547.975494194783 121.616318997649 2338.69443103304 78 79 73
-567.185374710557 119.771657397752 2329.03612217631 82 83 77
-607.357411665821 115.954910717836 2319.31399733405 92 93 87
-644.529314990419 112.420931806187 2309.8266165045 94 95 90
-671.71394548956 109.82692302687 2300.56680535841 89 89 87
-685.919253339913 108.4539351467 2291.45152113004 85 85 83
-702.118802140179 106.893454056429 2282.41872487441 108 108 106
-709.334239398359 106.177774250222 2273.42178186815 114 114 112
-715.550862111328 105.55586285541 2264.45449081769 109 111 108
-719.770872846218 105.121520729664 2255.49746145517 97 99 96
-728.979288317035 104.2180686947 2246.63205898004 125 127 124
-740.181701743302 103.127146262669 2237.84934124964 125 127 124
-748.389899099914 102.317506204338 2229.06849384585 121 123 120
-751.609057151735 101.976619828835 2220.22043821571 121 123 120
-754.82755048704 101.635508426483 2211.38879560496 116 118 115
-762.035729568772 100.919417075198 2202.68441018081 118 120 117
-767.247888988487 100.390680417818 2193.95758149845 112 114 111
-769.46771231939 100.142815658311 2185.15870624141 106 108 105
-772.684386416778 99.8010901059357 2176.40683111189 134 136 133
-788.863262663891 98.2421695204039 2168.17434060877 129 131 128
-803.046132802465 96.8707556670011 2159.94701474221 127 129 126
-806.259841816972 96.5289342230921 2151.31092236234 128 130 127
-804.488337839002 96.654832784023 2142.45696633207 101 103 100
-803.714125890456 96.6867649448159 2133.64197574035 95 97 94
-805.930205090381 96.4378444623689 2124.97897575004 107 109 106
-806.152682813394 96.3756886326259 2116.21703748632 107 109 106
-808.368548781734 96.1263266260588 2107.57122203871 108 110 107
-800.618270491536 96.8113516050442 2098.33052872113 108 110 107
-793.865295107707 97.4023985539374 2089.10971366963 100 102 99
-791.099246289317 97.6191882569141 2080.11544535061 87 89 86
-800.290195261321 96.714699496078 2071.93158099999 96 98 93
-802.505751792754 96.4639944180024 2063.2964173319 134 136 131
-799.739709096632 96.6799572291306 2054.3010218807 122 124 119
-790.000915480005 97.5488954418698 2044.75021948708 107 109 104
-778.271202142975 98.6038124588816 2034.98549791372 97 99 94
-769.53124126352 99.3780921360319 2025.40337681262 83 85 80
-766.768538971834 99.5919921296985 2016.28453667795 85 87 82
-766.993678575106 99.5257365553979 2007.41416092247 93 95 90
-766.222808273807 99.5525208573831 1998.45371501768 65 67 62
-764.456605528658 99.6721283962456 1989.39513841748 64 66 61
-759.703354981489 100.071071168243 1980.03753114641 28 30 25
-764.907106163567 99.5377127113487 1971.64368777454 70 72 69
-778.074359468025 98.2590369043179 1964.09227440574 82 84 81
-791.239775440364 96.9806851949983 1956.61301833216 87 89 86
-793.453771751452 96.7269325271664 1948.02623642466 91 93 90
-799.648974664722 96.1006104828003 1939.89136953296 96 98 95
-812.810122410077 94.8227648969515 1932.57947399231 110 112 109
-826.964550574735 93.4521740986435 1925.45531793974 113 115 112
-832.161058094043 92.9192736442111 1917.34507377013 140 142 139
-832.381447278247 92.8513568380033 1908.65857714532 137 139 136
-824.64178606976 93.5271663542363 1898.9837118525 140 142 139
-826.852588018514 93.2727455002891 1890.53038403233 142 144 141
-828.068063226115 93.1111076212728 1881.96000982898 162 164 159
-836.24700896311 92.2988118619556 1874.31956556585 175 177 172
-841.440426628958 91.7653717163551 1866.32017930627 182 184 179
-508.528346196132 115.784715279462 2348.84321537041 112 113 105
-520.753695851101 114.62983905841 2339.12009937648 74 75 67
-529.982174808629 113.748684324488 2329.4944874615 68 69 63
-553.186997516614 111.59093971817 2319.80580627401 75 76 70
-618.318711541569 105.604667285124 2310.02221144596 93 94 89
-658.48465554062 101.899167516952 2300.65766880557 83 83 81
-677.683023634467 100.108572038468 2291.50735731612 76 76 74
-690.889950477387 98.8650385124616 2282.44309770228 104 104 102
-696.110486351069 98.3504720098611 2273.40410300212 107 107 105
-705.322452884656 97.4714626387537 2264.4261573423 106 108 105
-712.537238001138 96.7746523850579 2255.47496296493 103 105 102
-722.744602983677 95.8046596598818 2246.60386860512 116 118 115
-735.943920695324 94.5616964392154 2237.83761255088 121 123 120
-744.152772377998 93.7739423165359 2229.04536646173 120 122 119
-751.363176879981 93.0771848193914 2220.27476310841 122 124 121
-751.589420403098 93.0172074361032 2211.36798337919 123 125 122
-757.800445618923 92.4112539804662 2202.62727152573 126 128 125
-760.021204257971 92.1689620630888 2193.79782487496 115 117 114
-766.23105524424 91.562792918815 2185.11209917872 106 108 105
-768.45071985421 91.3201802031374 2176.31574173749 122 124 121
-785.628717263058 89.7141881544756 2168.11040480562 138 140 137
-796.821159952993 88.65375405028 2159.75011400995 122 124 121
-804.023789943921 87.9567887606335 2151.27381758122 131 133 130
-801.255344767348 88.1680194755215 2142.3672384282 122 124 121
-798.487302549754 88.3788428160158 2133.4444728351 109 111 108
-795.719664052739 88.5893035936438 2124.50553915112 99 101 98
-794.94612152802 88.61784651563 2115.66074605362 102 104 101
-796.166018095914 88.4646045830331 2106.92658469424 106 108 105
-792.402575324274 88.7647313046533 2097.8952462499 110 112 109
-787.643151483424 89.1551262142213 2088.77905943326 106 108 105
-787.866890827424 89.0916742002808 2079.96642090807 94 96 93
-796.062124805762 88.3026539455137 2071.7050424036 92 94 89
-800.270744163149 87.8762660906696 2063.20176821931 113 115 110
-794.515664713371 88.3559904052246 2053.97768013394 128 130 125
-784.776475293637 89.1976202912814 2044.41302551889 118 120 115
-776.034993495085 89.947979025399 2034.87398752679 111 113 108
-769.286567567613 90.5166580646909 2025.45134702205 95 97 92
-765.527451740476 90.813127035244 2016.24696918577 81 83 78
-761.768866131074 91.1091697562635 2007.02141092973 83 85 80
-761.994341723446 91.0428247321029 1998.1378075119 97 99 94
-763.215541449184 90.8857547569477 1989.3486039723 57 59 54
-759.457917435921 91.1807612260702 1980.08435056052 59 61 56
-757.69228698028 91.2944845859789 1970.99708892567 61 63 60
-763.891499210724 90.684518811602 1962.71376134452 78 80 77
-776.063411558881 89.53220728674 1955.0912389794 79 81 78
-783.256119651638 88.8320166266807 1946.99926154824 84 86 83
-793.43406827829 87.8608225056584 1939.27657031406 96 98 95
-808.587404575662 86.4381784937539 1932.1732199367 97 99 96
-825.729015443829 84.8352896223302 1925.38400222909 137 139 136
-830.925746868466 84.3163921554883 1917.27071760493 132 134 131
-833.136577597265 84.0683106539296 1908.82307166925 149 151 148
-828.381460994219 84.4518451750612 1899.52185213316 142 144 141
-828.602074728969 84.3837785585337 1890.8264184403 147 149 146
-827.827804722517 84.4057179995356 1882.0029675398 152 157 151
-831.032995762217 84.0666744448414 1873.70276980679 171 173 168
-840.206474141981 83.1865681152667 1866.22789669922 184 186 181
-857.336272184624 81.5855187398438 1859.90234024407 179 181 176
-502.515421478559 106.698122336716 2339.42503887571 106 107 99
-506.752977663602 106.283446837295 2329.80338904912 68 69 61
-516.980902428808 105.338005042261 2320.15510805758 62 63 57
-562.151874295902 101.297718851087 2310.37672893004 75 76 71
-635.269981431732 94.783350712741 2300.77414084829 89 89 87
-662.457458717251 92.3372062085187 2291.56183269921 74 74 72
-680.65754007921 90.6871134999476 2282.47072414736 89 89 87
-691.867985192165 89.6558574202957 2273.43816541178 111 111 109
-701.08091832872 88.8014085888248 2264.44881277533 104 106 103
-707.298360301784 88.2119625912437 2255.47503625724 102 104 101
-714.513288922942 87.5341520406054 2246.54795842604 110 112 109
-729.709714596912 86.1500804279922 2237.79261722474 132 134 131
-739.915255403378 85.2075969273123 2229.02235527177 120 122 119
-749.121756132111 84.353450138199 2220.28472772592 120 122 119
-747.352766490503 84.4698865205264 2211.32234296183 125 127 124
-752.567268543899 83.9684769242909 2202.54262252173 127 129 126
-751.796001994471 83.9961288264017 2193.60791971694 117 119 116
-760.998958741387 83.1418333337342 2184.9993188029 108 110 107
-766.211483217059 82.6401849820884 2176.29663259376 116 118 115
-781.395995403216 81.2570943836662 2168.00796510431 138 140 137
-790.595254416659 80.4030449642453 2159.55347342678 119 121 118
-801.787410350411 79.3728467749411 2151.23685505282 126 128 125
-802.010163290694 79.31166800789 2142.46520943944 129 131 128
-798.244890748184 79.6024387425144 2133.49533904111 115 117 114
-788.498442193927 80.4210032827585 2124.18963075835 105 107 104
-785.731476306581 80.6228373113732 2115.21514641978 104 106 103
-785.955351236156 80.5602644911949 2106.39815275119 107 109 106
-786.179209176356 80.4974561178749 2097.58157016742 108 110 107
-784.409858453886 80.6102943233958 2088.63875903736 108 110 107
-784.633817548604 80.5469188484212 2079.81761407448 102 104 101
-791.833422999735 79.8678942158942 2071.47879043452 100 102 97
-794.049624611115 79.6283641347626 2062.82108887024 103 105 100
-792.280261985898 79.7401851852969 2053.87765079809 123 125 120
-784.532960892098 80.3788512220332 2044.46149688171 124 126 121
-776.78698625732 81.0168908966282 2035.00215260047 119 121 116
-769.041865217444 81.6544213647653 2025.49957533852 107 109 104
-762.294109523199 82.203577695006 2016.03910260426 82 84 79
-755.547301006136 82.7521967692426 2006.54103404044 78 80 75
-757.765241997094 82.5104449232986 1997.82229072501 101 103 98
-761.974533947349 82.0930609196235 1989.30239692335 74 76 71
-757.220931751795 82.4650856029975 1979.9389555072 56 58 53
-750.476139995447 83.0120605410087 1970.3509748131 50 52 49
-753.689446018768 82.6817199946497 1961.7429600284 69 71 68
-763.871637805581 81.7377252148754 1953.88363595383 76 78 75
-777.039087982136 80.5309748396721 1946.40175613068 81 83 80
-790.204700892878 79.324578554052 1938.99206321426 91 93 90
-802.373128448244 78.2060552096505 1931.54201776928 92 94 91
-814.539857219792 77.0878490869845 1924.15870728911 142 144 141
-818.742544396071 76.6703328620485 1915.89680896561 130 132 129
-823.939776172287 76.16524161156 1907.77879292028 146 148 145
-823.165654715835 76.1851908852242 1898.94739928272 138 140 137
-824.381627518555 76.02994760383 1890.36444336478 139 141 138
-827.587514637187 75.6995715428761 1882.04634694303 158 163 157
-830.792948075388 75.3691362074158 1873.74591827971 175 177 172
-836.982528216883 74.7763912867182 1865.86686131671 186 188 183
-848.145059145054 73.7466827691457 1858.70861655939 212 214 209
-490.266372973972 98.1524151654396 2339.64932388666 141 142 134
-485.517618924331 98.519788067647 2330.09140540892 129 130 122
-499.741939679824 97.258445452279 2320.35290707004 63 64 58
-645.233052653046 84.6540532588358 2291.6163369636 80 80 78
-664.433891930878 82.9672930455502 2282.48093335404 76 76 74
-681.635574435823 81.4521693262556 2273.4381434424 101 101 101
-692.846020842342 80.4509524363569 2264.43778791829 105 107 104
-699.064718164923 79.8777343513155 2255.44169706316 94 96 93
-708.276590333246 79.0477856661431 2246.52011711084 100 102 99
-723.474577670317 77.7047414478603 2237.74779276187 139 141 138
-734.679323924922 76.703988631973 2228.98004199611 127 129 126
-740.893237147132 76.1309519982272 2220.16180039672 119 121 118
-740.122544565216 76.1562453937937 2211.20213257056 122 124 121
-742.344952338212 75.9248280208071 2202.31990830039 124 126 123
-745.564580777465 75.6077940249488 2193.47907914812 119 121 118
-753.771206886243 74.8634860145215 2184.82046528588 111 113 110
-759.981972564979 74.2900238111069 2176.13410843347 110 112 109
-774.170751244868 73.0334470171123 2167.7898347057 136 138 135
-783.37118790471 72.2039919801347 2159.31572408097 124 126 123
-797.556387438332 70.9478578948128 2151.11181113467 122 124 121
-798.776753695873 70.8012999442721 2142.37579421017 131 133 130
-794.014139426902 71.1664690949907 2133.34789011146 124 126 123
-783.270272096101 72.0429291856745 2123.97876479458 114 116 113
-781.500316746348 72.1512800191497 2115.04544161053 108 110 107
-782.721291367956 72.0035279114628 2106.27504072859 105 107 104
-783.942346020916 71.8555262904377 2097.51056882421 108 110 107
-780.179177380388 72.1334661461959 2088.43536905034 112 114 111
-781.400264803061 71.9849606437844 2079.66907536302 103 105 102
-781.624423887683 71.9214569019947 2070.83997637889 97 99 94
-787.827807879808 71.346748894489 2062.44078376232 98 100 95
-788.051506945446 71.28288747045 2053.62927986202 102 104 99
-783.2930951951 71.6443719767617 2044.43317048971 122 124 119
-774.550107747122 72.345814039184 2034.89113075014 125 127 122
-764.812165611389 73.131714280311 2025.21788975493 122 124 119
-757.068056423017 73.7468702146255 2015.66106656799 91 93 88
-746.336427472162 74.6165941307154 2005.797065393 81 83 78
-749.551134448892 74.2954086347554 1997.14412648396 78 80 75
-753.76153791099 73.8890841847822 1988.60199063423 90 92 87
-757.971120040708 73.4827414559451 1980.08261088451 63 65 60
-746.246676296591 74.4356036118138 1970.00235671534 65 67 64
-750.456199097028 74.0287965257256 1961.48479716835 68 70 67
-761.63523475159 73.0275212649448 1953.72134475764 77 79 76
-781.773197548657 71.2624562421822 1946.98399182171 77 79 76
-792.948248053466 70.261869957897 1939.36770785035 89 91 88
-800.139825320009 69.6009027093782 1931.36204210345 117 119 116
-803.348766360416 69.2793616697028 1922.93407420476 109 111 108
-810.53861108278 68.618510564216 1914.99624699168 98 100 97
-816.73224060045 68.0425432514886 1906.97694088324 102 104 101
-820.93448328236 67.6361438543737 1898.74435133307 108 110 107
-827.126514131145 67.0602270337403 1890.78758095726 140 142 139
-829.337433370273 66.823240497082 1882.34838865012 171 176 172
-826.572907960578 67.0097051292733 1873.2620195165 124 129 125
-825.798722654444 67.0264603824064 1864.42969185244 117 122 116
-831.988429686942 66.4504151249641 1856.55428157347 113 115 110
-847.130723148208 65.1126370324771 1849.97364597379 178 180 175
-476.26331754659 89.6444437035654 2330.2504696462 139 142 131
-487.493413889756 88.6700456136227 2320.51092248864 80 83 74
-554.881470002965 82.9901250751293 2301.09624801714 66 68 65
-619.020188159971 77.6229973291866 2291.66967487416 77 79 76
-647.209519283568 75.2418027648738 2282.48867300513 74 76 73
-672.399838425215 73.1099681141711 2273.4440568736 113 115 114
-689.601070259529 71.6415691679461 2264.46905019411 102 104 101
-694.822365377068 71.1675203226431 2255.45321114195 95 97 94
-701.040962520419 70.6105940705035 2246.47852855362 100 102 99
