ply
format ascii 1.0
comment KinectMotionCapture
element vertex 750
property float x
property float y
property float z
property uchar red
property uchar green
property uchar blue
end_header
-708.462415925818 293.458080053019 2134.28871579321 171 175 176
-711.409830239622 293.355211463937 2141.27062123665 171 175 176
-705.698505543072 292.116663743432 2150.45605895467 171 175 176
-699.012407382771 290.753474357957 2159.84091103677 173 177 178
-688.458472844375 288.887835808459 2170.13423518324 171 175 176
-687.529887119574 288.283866588237 2177.99515401269 171 175 176
-679.840875235346 286.799586068483 2187.47625378487 171 175 176
-672.137313402361 285.317089414176 2196.90445868828 167 171 172
-664.419188441201 283.836399811978 2206.27973442917 164 168 169
-664.425148945338 283.362352946924 2213.79521700735 163 167 168
-656.683664801195 281.884596016504 2223.08561621554 165 169 170
-647.958680231915 280.283192296192 2232.54365640266 152 156 157
-641.156951255707 278.934488111548 2241.50741010331 133 137 138
-642.103387016505 278.589548073082 2248.70081291106 115 119 120
-644.019311226267 278.370135328323 2255.67573827028 137 141 142
-646.906895435609 278.275977064197 2262.44007648291 136 140 141
-646.878388621749 277.806703667518 2269.83153140532 138 142 143
-643.927517906698 276.963062206617 2277.82635570831 142 146 147
-643.890960533968 276.494986983122 2285.18774792482 150 154 155
-645.800252813551 276.276940580566 2292.13891286405 158 162 163
-643.808365155713 275.560258038387 2299.87715911103 164 168 169
-635.954565748225 274.096696802714 2308.75951617813 160 164 165
-627.109264712125 272.510356389905 2317.78035508912 155 159 160
-629.977069653665 272.419352276571 2324.47417714523 153 157 158
-632.846323080602 272.328361074909 2331.17245627297 172 176 177
-638.653206470663 272.610152944874 2337.32397425718 177 181 182
-643.486116307945 272.767239435627 2343.67690726977 184 188 189
-649.303351510852 273.048079573906 2349.86625863261 186 190 191
-654.145154307341 273.204375835884 2356.2517105507 187 191 192
-659.972722698867 273.484259175663 2362.47882294514 181 185 186
-671.700719068113 274.506869888335 2367.70220679883 182 186 187
-683.4428599875 275.527981908317 2372.97716039882 187 191 192
-693.231471710973 276.300191571318 2378.63453982622 190 194 195
-685.307698916846 274.845921760044 2387.26296554209 188 192 193
-758.518262975117 300.372383375166 1993.29020711082 154 158 159
-751.061778887888 298.884727997788 2003.63250631061 162 166 167
-741.688633845919 297.149213638468 2014.4957036462 169 173 174
-733.250180877146 295.54060813495 2025.01210365592 175 179 180
-722.890710515925 293.684661934872 2036.03355442032 175 179 180
-713.465683116224 291.955602939751 2046.70819830933 164 168 169
-710.701431626813 291.100198236632 2055.38754750291 160 164 165
-705.065610113688 289.872515529108 2064.86110236568 171 175 176
-704.195502817225 289.267963990817 2072.93877249293 167 171 172
-696.62802938536 287.794343738265 2082.87785105248 152 156 157
-697.658045119234 287.440011565046 2090.37471119432 147 151 152
-701.55943151793 287.458204381607 2097.07771044264 157 161 162
-705.463468050921 287.476199092631 2103.79135306921 170 174 175
-705.534477211322 286.998383841232 2111.54596939704 170 174 175
-701.763312693538 286.025737182029 2120.31007683925 167 171 172
-705.667269043372 286.044152752201 2127.02368746991 165 169 170
-702.845833637606 285.196798593736 2135.49580668226 171 175 176
-699.055021109451 284.226828689845 2144.18865487605 176 180 181
-686.591701699555 282.146600615638 2155.04996740043 172 176 177
-678.923426826727 280.686032167545 2164.62303019229 173 177 178
-673.168683294059 279.473937468673 2173.6648923572 173 177 178
-676.085812692591 279.372506332695 2180.53526337855 174 178 179
-668.383308729324 277.916315456258 2189.98400403591 172 176 177
-661.632688206996 276.585023505672 2199.14850658188 158 162 163
-652.934631147438 275.009352577937 2208.72276967305 155 159 160
-653.897985239778 274.664788084382 2215.9782950068 165 169 170
-645.175353730555 273.09226972514 2225.46237932702 162 166 167
-638.374891584549 271.767189980606 2234.44668077716 150 154 155
-636.410830193495 271.057073374855 2242.29238588744 121 125 126
-638.323240401107 270.838081483597 2249.25453015028 116 120 121
-638.292740467223 270.37423757677 2256.64201290433 124 128 129
-640.203395327048 270.155715869829 2263.59793675463 133 137 138
-643.086592385572 270.059660559152 2270.34571766276 134 138 139
-643.050775485055 269.596871971098 2277.71319681233 148 152 153
-640.088973498439 268.768040986024 2285.67678600557 157 161 162
-639.069743096909 268.184353900238 2293.21396399409 163 167 168
-632.192196987365 266.869301220507 2301.91746933694 168 172 173
-626.277529204917 265.677782150209 2310.37855448146 168 172 173
-622.305426220831 264.731400543318 2318.4131991602 178 182 183
-629.080738570139 265.125498204986 2324.33395865401 175 179 180
-632.927139603403 265.153855798747 2330.840154548 187 191 192
-634.817797431177 264.93888160515 2337.72407305183 190 194 195
-638.668309123028 264.967081412144 2344.24450237468 190 194 195
-639.579297939387 264.630804451347 2351.31083801635 186 190 191
-646.377047187511 265.02289214208 2357.31456135004 183 187 188
-651.217580803062 265.171796676604 2363.69063429829 178 182 183
-664.908170161168 266.411009769801 2368.54392287461 180 184 185
-677.632041632744 267.527285122062 2373.62761036279 185 189 190
-694.308990593568 269.125998550349 2378.10574634964 187 191 192
-691.306199572688 268.303633922894 2385.92123381197 187 191 192
-780.40174900047 295.925154114454 1978.21336155676 163 167 168
-760.615012567731 292.871264477657 1992.44289322883 159 163 164
-745.549083883777 290.432528929325 2005.10477494039 160 164 165
-734.263140664125 288.485534831779 2016.5252510734 177 181 182
-723.909171143262 286.66307792998 2027.58826876966 171 175 176
-715.442205792808 285.086891593534 2038.02020468191 173 177 178
-707.913208150153 283.634614119206 2048.1156110186 158 162 163
-705.141839280214 282.793203314796 2056.77736978832 165 169 170
-701.407998910757 281.831028128558 2065.68666561777 164 168 169
-699.577263343512 281.113304630234 2074.02258078696 155 159 160
-695.827550950471 280.153290058782 2082.87431100275 148 152 153
-696.855454527351 279.801743972198 2090.36601713139 156 160 161
-698.840067171982 279.571946436636 2097.58941277345 163 167 168
-696.98980932753 278.857101775937 2105.854663101 172 176 177
-698.012119962581 278.506715134031 2113.32540672299 169 173 174
-695.192081992012 277.672110228266 2121.81169257156 164 168 169
-697.169368604779 277.443752090434 2129.00879685355 166 170 171
-688.568881699164 275.884921616915 2138.95502196176 172 176 177
-679.952440028691 274.328073586838 2148.8432617661 173 177 178
-670.356806643371 272.652409392956 2158.91818975062 172 176 177
-666.526518975358 271.703208460023 2167.47758692803 171 175 176
-661.723043565291 270.634525773296 2176.24461461866 170 174 175
-660.770242723161 270.049380106213 2184.02751166952 172 176 177
-655.949241965776 268.983020366222 2192.73093776739 166 170 171
-653.051469133013 268.15876331212 2200.93421337758 151 155 156
-648.211239245803 267.09485144557 2209.56871996687 150 154 155
-646.265402163201 266.392938409049 2217.48726766672 166 170 171
-637.531762042122 264.850894163515 2226.94971892881 160 164 165
-633.629824443383 263.911091906086 2235.24902778812 151 155 156
-635.540867182543 263.692272610984 2242.20620387679 120 124 125
-640.364832469659 263.833280289076 2248.51577620713 123 127 128
-640.334187956319 263.374897586329 2255.90617008436 125 129 130
-640.300725376874 262.917028464048 2263.28549625978 131 135 136
-640.263975864761 262.459640666881 2270.65385160441 134 138 139
-636.328596994963 261.52450756823 2278.83194744102 160 164 165
-631.409825943864 260.471044026961 2287.18051358554 169 173 174
-629.406813390424 259.777086687936 2294.89180277917 174 178 179
-626.421609874974 258.964595075827 2302.77882250713 171 175 176
-625.382895025781 258.391595273697 2310.24947692924 170 174 175
-624.339411189221 257.819212099713 2317.70374336519 177 181 182
-629.160835891067 257.961863898669 2324.00492101221 179 183 184
-628.112585167402 257.39029198777 2331.44200111966 186 190 191
-626.079950702965 256.700432188805 2339.04682595828 186 190 191
-626.002429392971 256.249073955477 2346.26668133689 182 186 187
-631.808331686338 256.510573315084 2352.40174507264 179 183 184
-641.547074817628 257.24621506676 2357.8518141489 178 182 183
-649.332128864239 257.743558645304 2363.69041034347 179 183 184
-660.075450666282 258.59556422608 2369.04649975537 180 184 185
-674.767462616492 259.919886367825 2373.77528715614 182 186 187
-694.401469302372 261.833860730651 2377.74247700573 182 186 187
-703.221543492556 262.444386807472 2383.59810823242 181 185 186
-786.307000235321 288.836234124747 1976.17936905582 160 164 165
-760.811763165457 285.125991699107 1992.17975025814 162 166 167
-739.0793428447 281.898919563212 2006.86957042498 177 181 182
-727.781922051503 279.99017285169 2018.27157997422 172 176 177
-716.464321155521 278.083947810645 2029.60025680774 163 167 168
-707.986367162105 276.538038316822 2040.0105092558 160 164 165
-699.492780177266 274.994175059186 2050.3630823346 167 171 172
-699.576526205137 274.52433875185 2058.17002564256 176 180 181
-697.746056851762 273.816910291439 2066.51435798216 147 151 152
-699.734961476746 273.586096469352 2073.75304727596 149 153 154
-697.896076632721 272.879995037902 2082.06604334228 158 162 163
-698.924485345876 272.531083804219 2089.5603594286 167 171 172
-696.117628318275 271.70770638829 2098.10267198433 174 178 179
-689.467281379074 270.410907659467 2107.66124790583 159 163 164
-689.522622932473 269.945432454341 2115.36641336134 164 168 169
-690.53577748055 269.598928092194 2122.80561329514 173 177 178
-688.663298430747 268.897643565317 2130.99785082358 172 176 177
-676.20304019578 266.896194191516 2141.92026563781 171 175 176
-662.758134675849 264.779202430426 2153.01118006075 172 176 177
-657.961317739725 263.728032721997 2161.81398613779 173 177 178
-655.082552060613 262.914235540711 2170.0953644228 170 174 175
-653.161557560534 262.219392376194 2178.11061130961 168 172 173
-646.406401040449 260.936051330579 2187.28947529857 169 173 174
-646.402861866824 260.478858934994 2194.78032846478 156 160 161
-646.396098025902 260.022133442422 2202.26043287396 151 155 156
-648.322035742831 259.801143779174 2209.27154083892 152 156 157
-640.562589659384 258.405030225301 2218.54679624079 167 171 172
-632.788561349596 257.010747594734 2227.76906664341 162 166 167
-626.940000384956 255.853008583129 2236.49599138401 155 159 160
-629.815824658066 255.752274839577 2243.21344486732 124 128 129
-634.635879111038 255.885950803424 2249.50386817644 126 130 131
-634.599303452678 255.433698549971 2256.87611131943 118 122 123
-638.451312844598 255.450106874243 2263.3946567842 128 132 133
-635.490746604356 254.647662185909 2271.37949298795 136 140 141
-631.54877673499 253.729393668193 2279.54283612598 167 171 172
-620.772557241228 251.994749960142 2289.09356308508 169 173 174
-620.7105528816 251.546146301354 2296.37369797582 172 176 177
-621.622113138569 251.214655627789 2303.44517707567 171 175 176
-623.509163686 251.000026426189 2310.31592026447 174 178 179
-619.528449454302 250.086831076806 2318.33954513426 189 193 194
-615.538865932896 249.174784258673 2326.3309651922 193 197 198
-612.519698833364 248.380156847554 2334.10316331046 188 192 193
-615.373855449691 248.283820842445 2340.7420165102 183 187 188
-620.19069725535 248.419716889647 2347.02191353391 172 176 177
-625.993082231565 248.671318963814 2353.13766953256 169 173 174
-635.72993688966 249.386282133397 2358.56767170378 170 174 175
-646.461202793452 250.216019479408 2363.86494093069 180 184 185
-662.12352672987 251.623438205547 2368.35244900925 181 185 186
-675.83708953158 252.797303324879 2373.2497761893 181 185 186
-694.493224466598 254.547568706674 2377.3792829895 180 184 185
-708.244462085857 255.717437585131 2382.41396636576 179 183 184
-711.160255714856 255.615265558447 2389.27891017704 179 183 184
-815.778661954297 285.124491189722 1958.56785905394 157 161 162
-784.615020198852 280.784820708573 1976.5040280406 161 165 166
-756.253242684687 276.801979298414 1993.37929184708 159 163 164
-730.70004992821 273.175225718209 2009.21720543033 172 176 177
-722.246642029576 271.655172718968 2019.73398813198 171 175 176
-709.012133708393 269.553771270715 2031.6159090245 162 166 167
-702.430783003734 268.271326798985 2041.44064599093 164 168 169
-692.018608302035 266.524567472129 2052.33535074466 171 175 176
-693.050131926021 266.177209495288 2059.84221252944 169 173 174
-694.080235914987 265.830203447113 2067.34402567696 144 148 149
-697.022062952443 265.716016189851 2074.29804064385 152 156 157
-696.135922027189 265.137169321227 2082.33240963268 165 169 170
-695.245446462757 264.558982632862 2090.35110175907 171 175 176
-690.515423629477 263.517461096132 2099.4079925992 172 176 177
-681.93716267193 262.013653176676 2109.47147665658 159 163 164
-681.024952013056 261.438500158112 2117.41138593756 165 169 170
-678.18631736723 260.632510280521 2125.84669200653 176 180 181
-671.493873513071 259.364885480963 2135.26738922522 175 179 180
-662.863190528972 257.867754282428 2145.14138492702 173 177 178
-654.216782044033 256.372636694461 2154.95733719211 174 178 179
-651.337461104734 255.572002261894 2163.24496417533 171 175 176
-645.557258093829 254.426416692196 2172.23336164733 169 173 174
-642.661160804761 253.628061905853 2180.46014058122 166 170 171
-637.825806393452 252.600376055342 2189.13469104453 166 170 171
-638.780866618396 252.264569252327 2196.36495202153 154 158 159
-640.70179604694 252.044101056254 2203.35779442039 149 153 154
-644.559131463219 252.053632966128 2209.89177296167 153 157 158
-635.822872342044 250.570120231107 2219.38238314379 169 173 174
-629.0102161324 249.318160466004 2228.36664553024 169 173 174
-626.065666944644 248.526492503684 2236.41775377125 151 155 156
-628.940387053772 248.423380844821 2243.12960641886 130 134 135
-634.732131697707 248.663815330264 2249.19787729581 129 133 134
-636.639138865462 248.446062095504 2256.14074315349 121 125 126
-640.492384278184 248.457135796771 2262.66143874206 136 140 141
-633.634529107094 247.21124843461 2271.48264906324 165 169 170
-622.864716964969 245.510292455855 2281.07843393186 176 180 181
-612.076181099875 243.811689626234 2290.60525791952 173 177 178
-612.006082804254 243.369495437517 2297.85938821615 180 184 185
-614.863565598183 243.269576012962 2304.50925750048 175 179 180
-614.789693710872 242.828164773603 2311.74894248151 175 179 180
-608.842538740144 241.704617577938 2320.13232294652 181 185 186
-600.925677594061 240.355203136802 2328.85261044839 184 188 189
-598.872785414444 239.689218583847 2336.3963669189 174 178 179
-609.560243302026 240.49981842619 2341.5189031498 168 172 173
-617.316577633309 240.968777136868 2347.23387697317 162 166 167
-626.063655412091 241.550320210035 2352.80018848 165 169 170
-629.90699154335 241.564482364241 2359.28604273616 184 188 189
-639.653471088304 242.257673576768 2364.73710552944 180 184 185
-658.267904610936 243.967725809383 2368.6863946815 177 181 182
-674.936851120251 245.449109813198 2373.0616725005 180 184 185
-692.61286352032 247.041197711945 2377.34863182938 182 186 187
-710.311666580893 248.630859160141 2381.71867648002 176 180 181
-713.22850147191 248.526248829697 2388.58594687575 175 179 180
-825.299354359226 278.842660880018 1947.08706483205 167 171 172
-811.251324499545 276.652246841463 1959.78866219262 140 144 145
-775.31609359576 271.835501094252 1979.19204451857 166 170 171
-747.88480258584 268.053837063178 1995.75178580353 154 158 159
-728.024584052322 265.190771183141 2009.82896896778 165 169 170
-718.610930253953 263.586479152462 2020.62461213908 166 170 171
-705.366524162172 261.528485685944 2032.496261054 163 167 168
-695.915386434252 259.928918782126 2043.15571693927 165 169 170
-685.492127124903 258.217754684243 2054.03173968145 156 160 161
-685.561663639242 257.759974254596 2061.79446632321 142 146 147
-686.584816055198 257.416357236749 2069.27260929895 155 159 160
-691.434688640843 257.527319491816 2075.65940124384 166 170 171
-689.584529596033 256.843621153838 2083.94468255273 168 172 173
-689.645437290599 256.387546328642 2091.67644890723 165 169 170
-682.988947492651 255.138819359095 2101.24349661289 164 168 169
-678.239397933757 254.118258056159 2110.24112174229 171 175 176
-667.715680576055 252.420171034859 2120.75241962175 169 173 174
-660.057315117359 251.063620235922 2130.42794542438 177 181 182
-652.384448350852 249.708934326455 2140.05080810687 174 178 179
-652.399870202085 249.259239306418 2147.61679329255 171 175 176
-647.594450389549 248.246035056527 2156.41162797859 172 176 177
-646.635917391769 247.685048823112 2164.18849566065 170 174 175
-639.882921084328 246.448898590144 2173.40517390441 168 172 173
-636.014035089798 245.55208619207 2181.85433843885 164 168 169
-634.069364627159 244.881441486695 2189.79695875734 162 166 167
-635.987451636152 244.661208160249 2196.77939609389 151 155 156
-637.905433446788 244.441145858105 2203.76155082536 149 153 154
-639.823299483572 244.221299128169 2210.7434118122 163 167 168
-631.078189016798 242.768018229037 2220.22024548146 171 175 176
-628.137690313877 241.989124670263 2228.29352844593 166 170 171
-626.160547042705 241.323232077721 2236.1185838261 148 152 153
-629.034883102555 241.217659218686 2242.82745670108 128 132 133
-631.910526572621 241.112094008715 2249.54118856316 125 129 130
-632.841694395249 240.783101349838 2256.68704382703 116 120 121
-631.823824662202 240.231158387676 2264.24931528877 160 164 165
-620.083199013497 238.452658856203 2274.08802332627 174 178 179
-609.29722105181 236.788124060342 2283.64678210347 174 178 179
-603.371366007496 235.682894882449 2292.12081005805 172 176 177
-602.316911174516 235.135825737252 2299.54939626462 174 178 179
-604.189564158986 234.923114413707 2306.36789497179 177 181 182
-603.127989723763 234.377107056193 2313.77164687029 182 186 187
-598.147031307452 233.387468524014 2321.92961928564 176 180 181
-593.155518837184 232.399144575028 2330.05016554869 157 161 162
-595.015061700016 232.188556049688 2336.82132916739 159 163 164
-607.664344053334 233.197275260047 2341.5592475387 159 163 164
-616.402638162246 233.761370708197 2347.08286050632 161 165 166
-621.221507095783 233.881825304407 2353.36053493474 169 173 174
-621.1290656475 233.449060530732 2360.5376627237 178 182 183
-632.838895499527 234.342830315623 2365.6122544426 176 180 181
-655.39250635078 236.449816523365 2368.85040070815 174 178 179
-674.035071506064 238.112200055056 2372.87404157632 179 183 184
-690.72991748817 239.551451922743 2377.31887903652 181 185 186
-705.472931052311 240.768112747185 2382.16905371418 175 179 180
-711.348161205565 240.991945307426 2388.53680833806 173 177 178
-833.121675357691 271.81051198559 1944.41397815699 143 147 148
-809.569552334779 268.547951910261 1960.11783438414 146 150 151
-766.959320104156 263.057588491189 1981.58905884937 168 172 173
-743.314853587804 259.806257182909 1996.9571510399 169 173 174
-725.34582630967 257.228403091893 2010.44245467351 167 171 172
-713.065020037902 255.32251192255 2022.09239892574 166 170 171
-694.085961534121 252.640333396949 2035.65810997698 168 172 173
-684.620532420316 251.074075347849 2046.28553421462 165 169 170
-680.86954143206 250.176769658285 2055.17210836215 149 153 154
-680.934118832825 249.724826653913 2062.91917920938 144 148 149
-680.995598108527 249.273379242111 2070.65598923919 163 167 168
-681.054199526576 248.822466851304 2078.38245213182 172 176 177
-678.235593497043 248.039729331111 2086.90587182626 166 170 171
-677.327418357141 247.47940323774 2094.87012514261 161 165 166
-673.53600455077 246.587927976916 2103.61029831661 170 174 175
-669.735897704241 245.697645850395 2112.31894921883 178 182 183
-659.199639219481 244.035394719808 2122.80630925688 176 180 181
-647.682826204803 242.265164520352 2133.48121056176 167 171 172
-642.883306192823 241.269431018736 2142.30898016679 162 166 167
-642.889683271692 240.826046118305 2149.84629678709 163 167 168
-640.001436010981 240.052879322246 2158.11719469367 166 170 171
-639.035127152251 239.500764168525 2165.87079286336 171 175 176
-635.168166405342 238.619499331827 2174.33692138121 168 172 173
-630.326392307345 237.629576988651 2183.01147870766 159 163 164
-631.27556183482 237.299715436984 2190.22362219997 153 157 158
-632.222957301513 236.970181901639 2197.43031506713 149 153 154
-635.10572484314 236.860276144159 2204.16682779367 162 166 167
-631.206479387147 235.983640574462 2212.51601219117 170 174 175
-625.358879082001 234.889261368218 2221.28743475886 168 172 173
-621.440836665388 234.015182379539 2229.56751479459 148 152 153
-624.312044588135 233.907270726211 2236.26329691732 147 151 152
-630.100300595841 234.127016818566 2242.30648262587 132 136 137
-633.949064147755 234.128073639365 2248.80328478723 84 88 89
-630.013601049791 233.256637732793 2257.02128297365 139 143 144
-619.25080481384 231.623691768484 2266.68605448956 152 156 157
-607.494336548549 229.884182748448 2276.49055856449 153 157 158
-599.619508152056 228.58234445507 2285.39694251644 158 162 163
-598.56372071789 228.043336290936 2292.82659933993 166 170 171
-593.595608080207 227.070480702761 2301.04286148586 179 183 184
-591.550045942809 226.424567133399 2308.62743375729 175 179 180
-589.498734141706 225.779556744004 2316.19029985233 148 152 153
-591.357921565352 225.56890823579 2322.96010592496 142 146 147
-592.237110536484 225.250158579182 2329.9194407962 147 151 152
-595.075637293047 225.148178464194 2336.49762901702 150 154 155
-603.803199488165 225.695073190126 2341.97053685658 152 156 157
-611.558684255558 226.132965103179 2347.66181344357 168 172 173
-619.322584853122 226.57004254102 2353.38382214152 180 184 185
-624.14449819035 226.68267873016 2359.66786371124 174 178 179
-636.843835877252 227.657483861246 2364.57114517384 168 172 173
-658.422929517355 229.600315436028 2367.98471079969 170 174 175
-675.102623992811 231.001814573909 2372.34852956559 178 182 183
-692.789934595523 232.508653986107 2376.62361547491 181 185 186
-709.512814272675 233.905555767398 2381.14579892287 175 179 180
-716.379438915306 234.226163439481 2387.35918533289 169 173 174
-843.586812479988 265.534474649853 1932.5470590608 179 183 184
-830.500714141941 263.541117507229 1945.04821065151 123 127 128
-803.13204097922 259.915322130628 1961.93977606147 158 162 163
-763.351266281549 254.878792125463 1982.51192924923 170 174 175
-741.59623491453 251.918096430345 1997.28597517267 170 174 175
-724.569232942951 249.505663731309 2010.4769521603 164 168 169
-706.559926768599 246.988126017586 2023.85078874973 163 167 168
-688.520089096863 244.474314469373 2037.11454940172 164 168 169
-680.954725903503 243.157885246423 2047.16070505028 158 162 163
-678.153498459621 242.385543139351 2055.75521114677 147 151 152
-678.214103143505 241.93922255484 2063.49201079893 151 155 156
-677.314772045058 241.385181052885 2071.49306806983 168 172 173
-673.537746086709 240.507342555746 2080.2943410198 175 179 180
-670.710335071512 239.738758093969 2088.79493405086 168 172 173
-667.875917663768 238.971251042326 2097.26926491746 165 169 170
-664.07407474698 238.096824394092 2105.98148045002 176 180 181
-656.420584546863 236.792233841952 2115.7079121119 179 183 184
-647.790977645083 235.381728873063 2125.6405943629 167 171 172
-643.956748498614 234.511704863073 2134.23441674499 162 166 167
-641.076423170243 233.750438858635 2142.543169793 160 164 165
-641.079765999294 233.312719392708 2150.07279769718 167 171 172
-636.258450499804 232.338439584112 2158.83318966755 170 174 175
-635.287253893643 231.794875926929 2166.57403955624 170 174 175
-632.380162049143 231.037521470377 2174.78495430002 167 171 172
-629.465530056954 230.2811763485 2182.96944021683 156 160 161
-629.445599801062 229.847166580075 2190.41407280432 150 154 155
-628.454546286793 229.306650436642 2198.0831219257 152 156 157
-630.365175900987 229.087626193527 2205.03863476889 167 171 172
-626.459106907906 228.227723325046 2213.37304886213 167 171 172
-620.604092816982 227.155538938634 2222.13002912112 162 166 167
-617.649793339052 226.404864679541 2230.17081772389 148 152 153
-619.546199709635 226.188236388736 2237.07503513009 149 153 154
-625.331663725487 226.397864112969 2243.10146651217 134 138 139
-625.28474346906 225.968448916005 2250.44879128945 77 81 82
-616.470654501343 224.582385163315 2259.71195869153 153 157 158
-601.793828881166 222.560731127417 2270.18550686499 142 146 147
-593.918667210936 221.285373946199 2279.10737222479 152 156 157
-588.956684856535 220.330179073804 2287.35754496243 179 183 184
-587.890945274151 219.800423662246 2294.75609311375 183 187 188
-583.888553551835 218.953523964801 2302.74108931355 168 172 173
-583.789862751932 218.531251617699 2309.90070983114 153 157 158
-584.666585014145 218.215264066233 2316.85355916672 129 133 134
-587.501063753378 218.111044241156 2323.41437483438 132 136 137
-591.316712526537 218.112443389167 2329.78937346253 148 152 153
-595.135259168176 218.113731145253 2336.17413195885 155 159 160
-600.919730376961 218.325784348389 2342.19840856328 164 168 169
-606.709734747209 218.537370912949 2348.24293410057 183 187 188
-612.505270069032 218.748505536115 2354.3077096449 183 187 188
-617.322541171005 218.853981250795 2360.56999475625 164 168 169
-631.005220275067 219.905270858587 2365.2752690589 164 168 169
-655.543189790418 222.110325637636 2368.15022471397 168 172 173
-675.183814878697 223.787017264954 2371.9921794972 177 181 182
-694.850366984701 225.460977388998 2375.92774266501 180 184 185
-710.592535048827 226.713005542356 2380.61359086787 173 177 178
-721.413784273669 227.439360854778 2386.17968052569 166 170 171
-713.458407540152 226.176299240471 2394.8114858545 181 185 184
-830.526328217581 256.072479355421 1936.53168316901 175 179 180
-820.273835330619 254.44252648492 1948.09300068571 125 129 130
-790.981970124744 250.6883662209 1965.55572887343 164 168 169
-758.787195060513 246.621246502901 1983.73282567161 171 175 176
-739.875130509393 244.04668658771 1997.61614591784 144 148 149
-716.165426447227 240.945684414734 2012.83693383317 165 169 170
-692.416759401515 237.849419571016 2027.91605072882 170 174 175
-681.039553867158 236.134760048686 2039.14437166218 150 154 155
-677.285031589453 235.269229922961 2048.03789625163 142 146 147
-678.302453398065 234.933626452264 2055.49982193963 155 159 160
-675.491008949619 234.175745126635 2064.06645310353 156 160 161
-671.7148794723 233.313363853425 2072.88174241634 180 184 185
-662.180698363426 231.819271801274 2083.29853678135 170 174 175
-660.300730653355 231.170612065434 2091.49619492006 167 171 172
-659.374844849968 230.62816229104 2099.40597818606 171 175 176
-655.56351986347 229.770739628861 2108.09279505633 181 185 186
-646.937387198056 228.388716044765 2118.05635812137 175 179 180
-642.143011146179 227.429054837799 2126.92600040051 159 163 164
-642.151595873092 226.995689725643 2134.47691053259 157 161 162
-638.303767261993 226.143261599271 2143.03227891018 162 166 167
-634.447211340945 225.292045012272 2151.55600939898 170 174 175
-629.61722466764 224.337296639492 2160.29653812657 170 174 175
-628.638971328775 223.80252089123 2168.01673597545 164 168 169
-627.656301020026 223.26847261158 2175.72099376646 161 165 166
-626.669212991903 222.735137445626 2183.40929965393 153 157 158
-625.677697616792 222.202502065252 2191.08160947776 148 152 153
-624.68174972543 221.670581509907 2198.7379135406 159 163 164
-621.743286786942 220.930906952705 2206.84351572386 170 174 175
-616.857743184228 219.983941526619 2215.38268620651 158 162 163
-611.961729652077 219.0383242791 2223.88476408509 150 154 155
-612.883379296578 218.718057609232 2231.00078935174 137 141 142
-616.719467099063 218.709864777467 2237.44468919344 134 138 139
-619.585411510629 218.597738381504 2244.11826796293 114 118 119
-615.638608626345 217.759443261602 2252.31508710304 124 128 129
-603.889782076036 216.093078074461 2262.19414255492 150 154 155
-591.145522496623 214.325631988112 2272.21078248795 169 173 174
-582.282045019248 212.974849353057 2281.31192566174 183 187 188
-576.331508018884 211.93632821199 2289.73550129077 150 154 155
-576.231353501432 211.519301456851 2296.89392812663 133 137 138
-575.150421069519 210.999563768742 2304.24239287152 134 138 139
-577.000461102068 210.790030968397 2310.97894087338 139 143 144
-580.808834837972 210.786877489918 2317.32312540154 152 156 157
-587.559486590628 211.092614218547 2323.09746748846 167 171 172
-594.317368263559 211.397767415019 2328.89735541817 188 192 193
-595.193696206954 211.085175919413 2335.85088481716 188 192 193
-599.014906991865 211.081303176828 2342.24227668658 190 194 195
-603.821534250569 211.179951493025 2348.46073283203 173 177 178
-609.615705575662 211.380947009288 2354.51404282252 159 163 164
-614.431224528815 211.478942438175 2360.76509988786 160 164 165
-624.175868008584 212.088859118198 2366.15677055063 158 162 163
-643.788622976134 213.721203437778 2369.86725046949 164 168 169
-665.400006344057 215.55539677062 2373.33211302744 174 178 179
-688.027272334422 217.488768036213 2376.73411500289 177 181 182
-706.732857333684 219.01046596011 2380.90291467242 168 172 173
-721.508355503602 220.12149873975 2385.80701030672 162 166 167
-840.993562814285 249.742678871169 1924.63860834676 163 167 170
-828.853656622464 247.937584386752 1936.87532473025 171 175 176
-810.037180132463 245.409186849219 1951.14268922128 112 116 117
-777.868907159179 241.433753361688 1969.47606897496 171 175 176
-746.600996797519 237.568201019031 1987.32444243509 138 142 143
-723.858372589018 234.640033856046 2002.3486068976 110 114 115
-698.21738644868 231.406295244798 2018.10868993041 176 180 181
-681.123575711695 229.107388465955 2031.12329338911 165 169 170
-678.326811480441 228.360351744686 2039.75034701516 146 150 151
-676.478337833137 227.717494368776 2048.06859974256 143 147 148
-674.624344129988 227.075528059135 2056.3659911346 161 165 166
-665.106686068665 225.61071175033 2066.86354453098 174 178 179
-656.529797144 224.251031161944 2077.02311712922 173 177 178
-652.73023863829 223.40738974756 2085.76325041741 170 174 175
-652.759751195337 222.975835615755 2093.39300483921 171 175 176
-651.826090478881 222.442199045033 2101.27948557224 176 180 181
-644.162253080147 221.191444825695 2111.00148955582 176 180 181
-641.29161070554 220.454909401122 2119.36180710682 175 179 180
-635.527074318231 219.412292928179 2128.47338097884 151 155 156
-636.491713473653 219.087263793552 2135.74694012539 160 164 165
-630.709021730279 218.047180326193 2144.79270592582 170 174 175
-629.736846576833 217.519269003191 2152.53980472462 169 173 174
-625.864730408461 216.685954419176 2161.01706545234 164 168 169
-623.915758899284 216.057774437406 2168.97052683144 158 162 163
-622.927476033075 215.532347040595 2176.65938907074 160 164 165
-621.934771027719 215.007662151848 2184.33230155483 154 158 159
-621.905864743629 214.585406172224 2191.7510286358 148 152 153
-619.936077989585 213.960391845178 2199.63013474155 160 164 165
-616.021744723854 213.133252318708 2207.95362124667 168 172 173
-615.009122162481 212.611650841142 2215.5545304534 153 157 158
-611.079154735826 211.786644503193 2223.82224618927 149 153 154
-613.942097122667 211.67193366183 2230.4830473458 137 141 142
-613.889366702999 211.253646156792 2237.81582556788 124 128 129
-611.887035757202 210.633594380788 2245.57723456308 123 127 128
-599.166804335196 208.902888669361 2255.70535326202 138 142 143
-586.424512570312 207.174842742516 2265.75417450281 177 181 182
-575.611065952038 205.651257686473 2275.29993582873 170 174 175
-569.658842653572 204.634059633238 2283.7307128448 149 153 154
-566.624870047721 203.920544463038 2291.49915104253 130 134 135
-569.448503353492 203.811946742987 2298.01693576768 129 133 134
-572.27315084272 203.703383448082 2304.53943671398 144 148 149
-575.099055945298 203.594862444695 2311.06663363282 153 157 158
-577.92643620623 203.486409034515 2317.5984211778 177 181 182
-583.69587190237 203.678914253177 2323.55453229661 184 188 189
-590.451853567244 203.971224852705 2329.34018674792 193 199 199
-592.306018875572 203.762182530728 2336.09236075258 186 192 192
-597.107507831633 203.853540004353 2342.28713633107 175 181 181
-599.946543231436 203.744670186006 2348.86286324652 156 162 162
-604.754775138361 203.835637726848 2355.08242789685 154 160 160
-610.551917092721 204.026187692901 2361.1392434555 157 163 163
-623.252051103696 204.91449663956 2365.9908723506 158 164 164
-636.954060698696 205.900917365556 2370.72696216139 165 171 171
-654.620150112975 207.283912195709 2374.84599799405 173 179 179
-679.222110897173 209.361108689343 2377.87781766045 173 179 179
-703.856941894926 211.434777968961 2381.02945108912 166 172 172
-721.601712066458 212.809546609495 2385.43449054446 165 171 171
-717.595663808181 211.998184472419 2393.42741827561 162 166 165
-853.351066539609 243.554120297902 1912.06026429638 174 178 181
-843.125332789983 241.988976997018 1923.76185061479 182 186 189
-827.178494164799 239.819513129395 1937.22033981764 166 170 171
-802.644361338472 236.744198599758 1953.29272353278 113 117 118
-763.792086255879 232.159572602916 1973.70120195947 163 167 168
-726.782733838457 227.78421093643 1993.29156881346 95 99 100
-696.387421465338 224.121469372232 2010.61145130446 168 172 173
-679.299144590576 221.874475552582 2023.67937603374 153 157 158
-673.63869776159 220.838370919655 2033.18245429221 148 152 153
-673.699748777457 220.407082880818 2040.92947282741 157 161 162
-669.933048780306 219.574516062538 2049.798595238 170 174 175
-663.286975306859 218.442110123997 2059.47775572448 178 182 183
-652.797454855442 216.910348951015 2070.22102944792 178 182 183
-648.039292325341 215.982155776776 2079.24499270425 171 175 176
-648.066268077093 215.555870253701 2086.86958381144 169 173 174
-644.251441327389 214.730118649313 2095.56339476915 172 176 177
-643.309287280527 214.20533504602 2103.42393073121 177 181 182
-635.634117339515 212.982319617594 2113.12137202686 176 180 181
-635.640078073306 212.559388848644 2120.67005650732 162 166 167
-630.829803687157 211.638565739557 2129.5051917291 152 156 157
-628.899616921602 211.017975729136 2137.53318909013 162 166 167
-625.035249090174 210.199203080356 2146.04839889091 166 170 171
-623.091951594021 209.580562639384 2154.02894953495 163 167 168
-621.142579353569 208.962790935061 2161.98842334137 157 161 162
-619.187584721847 208.345936574212 2169.92667245111 153 157 158
-621.094773183015 208.126732653682 2176.86929552865 155 159 160
-620.098623106496 207.610403525557 2184.53469252855 153 157 158
-618.129644863423 206.995801869559 2192.42244546997 153 157 158
-614.216306801727 206.184223682 2200.76038060985 167 171 172
-610.294199476664 205.373818561141 2209.06649780648 166 170 171
-609.275455197044 204.861048406448 2216.64932488562 142 146 147
-607.280513145219 204.250222303903 2224.44399200322 140 144 145
-613.056667737338 204.429220095607 2230.41559216116 130 134 135
-609.110210262851 203.622497687091 2238.63362709727 126 130 131
-599.313746592471 202.226290585434 2248.13934617329 152 156 157
-580.731736133098 199.947046191077 2259.53728992648 159 163 164
-568.943759018463 198.359431642998 2269.32163505967 141 145 146
-564.941308699689 197.559957628417 2277.33542677321 130 134 135
-563.859056226747 197.056012861138 2284.68896128791 142 146 147
-566.680795680354 196.944897575321 2291.19905407445 147 151 152
-568.526003802197 196.735938051184 2297.91802407547 165 169 170
-570.371023626198 196.527173603818 2304.63641812477 187 191 192
-568.298693134099 195.927471237843 2312.14985105378 193 197 198
-569.16048317633 195.62178167735 2319.0528325731 192 196 197
-572.962654005314 195.609287106224 2325.36901846922 189 193 194
-581.674922163149 196.084486250912 2330.73987770921 179 185 185
-589.414967051882 196.461270700321 2336.33524899935 173 179 179
-596.180606151371 196.739921757003 2342.1472066698 165 171 171
-600.985642317797 196.823337768001 2348.35106754389 153 159 159
-604.810705647334 196.809314704998 2354.75035477549 153 159 159
-615.533896310919 197.475149584269 2359.91416278113 156 162 162
-629.226978493945 198.430896363648 2364.5986699594 159 165 165
-640.964464369766 199.190994883215 2369.69062101256 167 173 173
-655.677353097059 200.240346311153 2374.32424670361 171 177 177
-676.336723149686 201.868739376994 2378.02085928087 170 176 176
-702.955302316129 204.074709352963 2380.82771879843 165 171 171
-715.757885117508 204.923687222755 2386.03488838994 166 172 170
-845.559474032479 235.668621487343 1897.63657725651 216 220 223
-850.521587876953 235.714959322874 1904.39929852137 176 180 183
-848.842678483485 235.070853403114 1913.34539280184 170 174 177
-839.557329531843 233.639520826682 1924.72660426684 166 170 173
-823.599369729256 231.521433780447 1938.17531033059 165 169 170
-789.534764513349 227.538257416783 1957.25666148281 128 132 133
-740.179530940045 221.989576335601 1980.92337094042 152 156 157
-695.511065218636 216.941182498278 2002.82445508221 173 177 178
-676.521568753699 214.54972921054 2016.5358897475 155 159 160
-672.771038988446 213.730369253305 2025.47338718052 147 151 152
-672.832636585068 213.303942584861 2033.22550427771 156 160 161
-670.023547800168 212.584564507732 2041.82519049408 176 180 181
-657.641649050231 210.888727684932 2053.23148648387 177 181 182
-645.237868820531 209.195631051493 2064.55919986257 175 179 180
-641.434769282023 208.383578587032 2073.30612959928 176 180 181
-640.499296152229 207.865228660104 2081.19553238343 174 178 179
-643.397575803106 207.737354259055 2087.97829407045 172 176 177
-636.695084754173 206.636153987274 2097.46768878105 174 178 179
-632.862362721104 205.828437333004 2106.10737340488 178 182 183
-626.135985903592 204.730505025631 2115.51014815988 175 179 180
-628.0579546023 204.50803200413 2122.50558342335 160 164 165
-627.090598044346 203.994784831616 2130.27983089974 154 158 159
-626.119088885567 203.482328338764 2138.03823075439 161 165 166
-625.142969493797 202.970556762914 2145.78087516077 162 166 167
-624.162457063405 202.459524329507 2153.50767573161 160 164 165
-623.177539776178 201.949261288574 2161.21860768647 154 158 159
-621.221585000876 201.343118106638 2169.16005444891 149 153 154
-620.227129423221 200.834362581405 2176.83652436736 151 155 156
-619.228245313725 200.32637918678 2184.49703949791 151 155 156
-617.256128865282 199.722798379816 2192.38009888498 153 157 158
-614.308375554391 199.023847793814 2200.47784774237 162 166 167
-612.323767378057 198.422144965545 2208.31571344954 156 160 161
-611.304234548403 197.91740175288 2215.90160961044 138 142 143
-608.336625988195 197.221397397589 2223.92749991447 138 142 143
-607.306718133623 196.718301797944 2231.47591585791 132 136 137
-594.594004606854 195.065895448954 2241.68138114681 136 140 141
-576.015625549545 192.841621900715 2253.1284423211 157 161 162
-559.356384782909 190.812439964392 2264.02955964485 149 153 154
-555.349194437023 190.029248363248 2272.03696145269 129 133 134
-557.189795726018 189.820345069583 2278.73886268724 137 141 142
-560.006970048035 189.70710050986 2285.23066172285 167 171 172
-562.82565504091 189.593919436145 2291.7271806425 172 176 177
-564.667173648145 189.385516597192 2298.4328036608 183 187 188
-563.571526198653 188.891829309934 2305.74308128881 194 198 199
-563.450988351708 188.493941126466 2312.83791190953 192 196 197
-557.445003032622 187.526487898228 2321.10048735843 181 185 186
-558.295035971427 187.22511149617 2327.96346918201 175 179 180
-566.016711035209 187.588149190523 2333.481957931 164 170 170
-580.624934586757 188.613855407315 2337.71112496735 161 167 167
-592.301725852323 189.353585153376 2342.56579807369 158 164 164
-602.024559096719 189.902676306709 2347.83901857641 158 164 164
-609.789311447545 190.261656159957 2353.51488294083 159 165 165
-620.518932916368 190.903236361647 2358.68725413223 158 164 164
-635.206011100294 191.9210790654 2363.20422835305 159 165 165
-649.911585772386 192.936999181884 2367.78866258825 158 164 164
-667.598564657016 194.23372281332 2371.92986078908 161 167 167
-684.319811709004 195.433931099541 2376.32180064404 164 170 170
-701.062628630097 196.631969574886 2380.7915262679 155 161 161
-708.918497838054 196.982115417113 2386.80011233234 158 164 162
-841.055541518417 227.21505824859 1898.9560726273 184 188 191
-843.167356847229 226.965703930797 1906.63939977619 170 174 177
-840.530367976709 226.236978447605 1915.87215778114 175 179 182
-829.332055343672 224.646954876263 1927.84336160972 164 168 171
-810.503816909564 222.293621216585 1942.17758247532 159 163 164
-762.13410189692 216.97889681953 1965.7547168106 115 119 120
-698.445372131051 210.144315247229 1993.84156481817 176 180 181
-676.605488469483 207.523062636251 2008.5148773958 165 169 170
-672.857713894693 206.718915883236 2017.47128010923 173 177 178
-672.920334519913 206.297273902955 2025.23114533522 178 182 183
-673.935825801844 205.971454045712 2032.69208021738 180 184 185
-661.561993659296 204.313958291127 2044.15346150519 177 181 182
-647.252673361066 202.469096106616 2056.10310202974 176 180 181
-637.707254044519 201.102256296922 2066.55944055894 177 181 182
-636.770499428107 200.591694186084 2074.44900225383 176 180 181
-636.788732920865 200.176738187526 2082.04735891298 177 181 182
-634.884228696388 199.572890645289 2090.18128083331 174 178 179
-632.013179342854 198.875264632211 2098.56465271681 172 176 177
-626.251112895058 197.895096803576 2107.72482379493 173 177 178
-622.401425157916 197.105444700382 2116.31292309658 166 170 171
-620.468675687185 196.505817007487 2124.34464014546 160 164 165
-624.310891284154 196.472964157825 2130.79665126525 153 157 158
-625.263512098132 196.157347228809 2138.03060201693 157 161 162
-625.249538716389 195.747971945354 2145.5138332573 159 163 164
-623.301426170608 195.15108865595 2153.49024289229 158 162 163
-622.313786867009 194.649068867544 2161.19627289198 139 143 144
-621.321737024796 194.14780468714 2168.88640447756 143 147 148
-621.293257954649 193.741125107983 2176.31655184399 147 151 152
-617.387406634044 192.96009151879 2184.70156804656 147 151 152
-615.411434312381 192.367585679537 2192.57730348694 145 149 150
-615.36943797717 191.963097732894 2199.95957660204 135 139 140
-614.353785676994 191.465733064156 2207.56453883468 128 132 133
-613.333687287118 190.969070348685 2215.15343678423 131 135 136
-607.44840908102 190.006647442279 2223.86734996757 134 138 139
-596.686884128983 188.579592737594 2233.66683047428 132 136 137
-573.249476916288 185.944028877098 2246.29613622322 142 146 147
-556.594674634499 183.964424376981 2257.24596239159 151 155 156
-550.638053054801 183.011018092845 2265.70068423495 140 144 145
-551.499902328108 182.709444842178 2272.60741351268 143 147 148
-552.360385522314 182.408282229621 2279.50840103936 160 164 165
-554.196397800859 182.200270717907 2286.19382720197 179 183 184
-554.076256041882 181.807174660482 2293.29315391719 183 187 188
-552.974689456344 181.322093084072 2300.585959126 192 196 197
-552.847681466758 180.930181063683 2307.66054041172 191 195 196
-553.697868464561 180.631263494384 2314.52471758193 185 189 190
-549.642144884277 179.871087130777 2322.36645561883 172 176 177
-553.42986275139 179.850126114536 2328.62363523 166 170 171
-558.202698840569 179.921243187715 2334.69924960032 159 163 164
-575.758599841316 181.189195287664 2338.33561647009 157 161 162
-588.418898568528 181.994790173043 2342.98619441342 157 161 162
-603.063325608813 182.982653213274 2347.3268147297 159 163 164
-611.815738329085 183.417603593223 2352.82038287639 160 164 165
-622.549370808831 184.035187399973 2357.99342512017 158 162 163
-633.295972187436 184.651538374624 2363.21291097544 156 160 161
-649.979268709413 185.816269712009 2367.44062063981 157 161 162
-671.623990160795 187.436453183353 2370.89414634457 156 160 161
-684.398347876027 188.230654639805 2375.96193876339 163 167 168
-698.177922469911 189.114696325238 2380.92137544611 148 152 153
-696.131204485927 188.536553579507 2388.54351421339 155 159 158
-838.231112719392 219.417684882462 1891.34023851487 193 197 198
-837.495125272808 218.88786004362 1899.96304788398 166 170 173
-834.856175020491 218.172207122414 1909.19584797152 176 180 183
-831.259791889747 217.364436873636 1918.71297878174 171 175 178
-820.998644452498 215.905939135645 1930.35041144435 166 170 173
-709.948317042933 204.164539172177 1982.11854610617 176 180 181
-678.595072339241 200.678120716485 1999.89038419023 173 177 178
-667.220873020935 199.146622906097 2011.24550533087 171 175 176
-667.280410059628 198.730262143189 2018.99725608863 178 182 183
-666.382182556093 198.221880010198 2027.03030870391 181 185 186
-661.655465672536 197.34405443228 2036.20375196872 178 182 183
-652.135660314183 196.005381022827 2046.77204387257 176 180 181
-642.598312433071 194.668974863881 2057.27756427344 181 185 186
-636.876294911168 193.704032375251 2066.59604164665 181 185 186
-632.101508373916 192.832842108272 2075.59427187415 177 181 182
-628.276106535772 192.055198299905 2084.28012136758 177 181 180
-626.362696442886 191.462908691356 2092.38827461829 175 179 178
-624.44327057553 190.871524324098 2100.47559302191 172 176 175
-619.633064697495 190.005455834323 2109.34555180108 172 176 175
-617.70010374525 189.416178343457 2117.38301823627 164 168 167
-618.650884102905 189.102940512227 2124.61163777215 157 161 160
-624.419569355119 189.24817852104 2130.53512059791 151 155 154
-623.441660007795 188.752268655582 2138.28113350371 155 159 158
-622.459359253777 188.257141068621 2146.01133586684 160 164 163
-619.540671984948 187.580007693414 2154.22984646387 158 162 161
-619.514852894126 187.177807948101 2161.67362716725 135 139 140
-620.453740206743 186.867433091614 2168.85989769025 139 143 144
-620.422707024196 186.466327396414 2176.28501021897 142 146 147
-618.450919298243 185.883735538893 2184.18254141211 140 144 145
-615.503409240742 185.211112737216 2192.29781540641 137 141 142
-614.489468209223 184.721319731859 2199.91391159606 122 126 127
-615.413428729421 184.413855444579 2207.0465994454 121 125 126
-611.476465158279 183.653273488364 2215.32901404997 130 134 135
-598.777739669475 182.07836043109 2225.63533938982 134 138 139
-574.377377131301 179.419626703893 2238.57200191525 150 154 155
-552.860169886993 177.037007549072 2250.69676005217 152 156 157
-545.929089706587 176.014220066255 2259.38695384986 146 150 151
-545.813291187284 175.625221256941 2266.5040639282 158 162 163
-545.694209364268 175.236782781828 2273.61026653155 189 193 194
-542.641584989936 174.578519236039 2281.34340832925 193 197 198
-542.514229535578 174.191470895683 2288.41977021932 195 199 200
-540.427252256985 173.625075163485 2295.89985056571 199 203 204
-540.292329949513 173.239306332257 2302.94892602832 186 190 191
-540.154551536666 172.854149351317 2309.98685459918 181 185 186
-546.877032612573 173.097579300918 2315.61726724616 175 179 180
-547.71930579946 172.802609739128 2322.45455455277 169 173 174
-552.487713048049 172.866281708911 2328.50902505749 163 167 168
-556.277376916645 172.840243250683 2334.7702241597 156 160 159
-568.920608461935 173.618683336144 2339.34029088253 159 163 162
-583.547583811402 174.574215325126 2343.59477533553 162 166 165
-599.177837835304 175.617132873255 2347.73308715253 160 164 163
-614.828047832013 176.657987920623 2351.94418943029 158 162 161
-623.594231578193 177.073344243483 2357.47744505775 160 164 163
-634.344369255825 177.665789746253 2362.69496783473 151 155 154
-648.070413105501 178.523774439552 2367.43920433521 153 157 156
-665.76722392141 179.735383062049 2371.56316940905 154 158 157
-678.540870405095 180.500870227992 2376.61019246472 157 161 160
-688.36040244473 180.998846661963 2382.2101654838 141 145 144
-703.144345716102 181.938708481675 2387.03754774143 173 177 176
