ply
format ascii 1.0
comment KinectMotionCapture
element vertex 782
property float x
property float y
property float z
property uchar red
property uchar green
property uchar blue
end_header
-496.473585458607 -96.716225666972 1966.04066721568 17 18 12
-493.725145518579 -96.6912070761475 1956.15227387921 17 18 12
-469.03525168236 -96.0044134126179 1944.07763699813 16 17 11
-460.305386899757 -95.7996358778502 1933.48943791816 14 17 8
-489.715288534965 -96.8025206472678 1917.19239692381 16 19 10
-477.994818385937 -96.5078662051325 1906.2594329318 16 19 10
-482.227867551883 -96.6935404442769 1897.05981694093 13 16 7
-433.614178255893 -95.7633473588665 1803.38452027329 70 53 43
-415.928728564026 -95.2934641027932 1791.10414714971 47 27 16
-438.095312540411 -96.0157416393308 1784.42656438064 69 46 32
-466.235627621164 -96.9158064052733 1778.74227758379 131 105 92
-468.473598189166 -97.0413343017899 1769.36550133686 139 116 102
-465.730976699013 -97.0181292068383 1759.24775563081 133 116 106
-417.655131056682 -102.799839793754 2184.90583045701 27 28 22
-386.932092805374 -102.00479928919 2174.07598370433 29 30 24
-379.191359718734 -101.84959552273 2163.89334955264 30 31 25
-399.422569340616 -102.471686540148 2154.73882513636 27 28 22
-439.628822409904 -103.647663870954 2146.51487076935 22 23 15
-441.874105576483 -103.769063683185 2136.84740046852 22 23 15
-412.159167882172 -103.004176574721 2125.70260194309 20 21 13
-469.334014930638 -104.64819590443 2118.67936521105 18 19 11
-445.6128489979 -104.049858189766 2107.75667067193 24 25 17
-427.886565319208 -103.618250339366 2097.0311340275 24 25 17
-413.157987490956 -103.270164278682 2086.37967441828 15 16 8
-466.569057930128 -104.865043782163 2070.0593315877 11 12 4
-444.853340415598 -104.324139987534 2058.93007077269 12 13 5
-510.9817084836 -106.208072477551 2053.7067218763 17 18 12
-500.245263354863 -105.969961106449 2043.36210149953 19 20 14
-499.490649629497 -106.007334967827 2033.69740419686 19 20 14
-491.750519880039 -105.852319960824 2023.49098686264 17 18 12
-498.980106252637 -106.109667578147 2014.43316925458 19 20 14
-488.247561494306 -105.872602099024 2003.93498589247 17 18 12
-432.616469830855 -104.401392896368 1989.55485075111 17 18 12
-448.827906000156 -104.906190911667 1981.18164132539 18 19 13
-479.004439693824 -105.793963878517 1974.16304855672 18 19 13
-459.297920689679 -105.311672297238 1962.65141534711 18 19 13
-491.46438230403 -106.252852982261 1956.0185245608 17 18 12
-485.723949178547 -106.153858474387 1945.81320904062 17 18 12
-471.008266246414 -105.809178996665 1934.66343928248 13 16 7
-413.410960706348 -104.29095235841 1918.95458898508 14 17 8
-407.677201785329 -104.193741043832 1908.48650777812 17 20 11
-395.961542146348 -103.933147778569 1897.32896012048 16 19 10
-471.238773523604 -106.109061000074 1886.21493952659 14 17 8
-395.729345355305 -104.586662188736 1788.36851129519 53 35 21
-417.898761793064 -105.248445452173 1781.63585542656 61 38 24
-457.997882509065 -106.39589075622 1777.63896483415 122 96 81
-469.201991796726 -106.758608917269 1769.57185662763 128 107 90
-468.451398722865 -106.797042258812 1759.75820553587 117 103 92
-407.391318894636 -112.362106504837 2184.66502232974 22 23 15
-376.666865471639 -111.652343428235 2173.808245843 23 24 18
-355.937806172525 -111.193947418525 2163.13653534582 22 23 17
-395.153922221171 -112.236582740761 2154.64557629467 19 20 14
-410.389177242052 -112.678090955333 2145.38470168706 21 22 14
-381.670869556298 -112.020470883493 2134.28113668173 21 22 14
-414.884048751011 -112.910737538183 2125.90172624347 19 20 12
-376.181907011496 -112.00478863159 2114.15802544225 17 18 10
-433.359607611523 -113.491800436337 2107.19184461804 24 25 17
-428.614632898832 -113.433302030083 2097.14524612661 25 26 18
-416.880761616445 -113.200857889438 2086.66924821986 16 17 9
-459.066165641874 -114.311065795447 2079.38016018042 12 13 5
-428.361991620288 -113.606564754151 2067.72514446654 10 11 3
-492.504326282512 -115.261006655478 2062.14362189074 11 12 4
-544.65861945599 -116.615458987794 2056.09247864583 16 17 11
-553.882991378204 -116.902345483972 2047.26546336326 18 19 13
-527.173326617972 -116.297391953922 2035.82627372519 18 19 13
-518.432417258826 -116.138831515484 2025.62011059849 17 18 12
-497.716987933506 -115.683872881958 2014.41200271881 18 19 13
-485.985597709013 -115.452042995558 2003.82905214754 16 17 11
-450.307452342054 -114.628092194612 1991.14286450472 16 17 11
-481.485713925705 -115.458417774803 1984.13379526362 17 18 12
-473.748996340827 -115.326134203191 1973.76961145263 18 19 13
-491.951905983604 -115.83461354989 1965.78441560457 18 19 13
-454.288349646985 -114.963933958244 1952.52881656793 18 19 13
-397.677415437335 -113.627292277534 1937.19167239892 18 19 13
-436.827902516887 -114.65229742865 1931.27532594299 14 17 8
-432.089168463429 -114.595196326431 1920.99264534065 14 17 8
-420.369824262893 -114.366463712087 1909.93556881125 16 19 10
-426.850976712027 -114.645429564844 1890.99776780012 13 16 7
-460.003467538904 -115.519316990916 1885.0078557672 14 17 8
-397.448899642644 -114.524617879954 1788.7080851612 57 41 25
-419.620096521363 -115.125510211587 1781.98054827322 61 40 23
-453.743910553241 -116.016981777546 1777.1172418984 115 92 74
-466.941745913346 -116.397604596769 1769.3348359856 120 101 84
-311.927339502472 -120.014250156652 2191.97528975157 21 24 15
-348.159588644389 -120.88585120435 2182.95401918228 18 21 12
-361.403737769768 -121.243283720421 2173.37708605605 20 23 14
-427.603275871528 -122.780912469814 2165.75332476735 22 25 16
-420.857829999412 -122.691164810518 2155.6999737459 18 21 12
-398.128849152338 -122.245809880683 2144.95247445033 20 23 14
-396.381689061257 -122.267942915711 2134.99745484995 22 25 16
-435.589800077951 -123.200450293937 2126.93760708305 18 21 12
-411.116658580697 -122.777928145015 2106.10778352456 18 21 12
-429.343087272951 -123.242831873671 2097.2594946793 23 26 19
-438.579059315302 -123.507870290698 2087.99324051325 16 19 12
-453.805383252266 -123.905218482223 2079.138164024 12 15 8
-473.023498866982 -124.390352808631 2070.61775465198 9 12 5
-473.26897619617 -124.455353247493 2060.95385778167 10 13 6
-483.497902944184 -124.740882266923 2051.97497934477 10 13 6
-524.671923523259 -125.709154461765 2045.25849779569 15 18 11
-473.006946116569 -124.6281651715 2031.8918622377 16 19 12
-458.280491964272 -124.363072539608 2021.07761485164 14 17 10
-491.46325587984 -125.153620827201 2013.99400878924 14 17 10
-443.803410886503 -124.163896207068 2000.43690320309 15 18 11
-492.949479931595 -125.304567857782 1994.85331084015 14 17 10
-518.140144408023 -125.917173494054 1987.43575372625 16 19 12
-545.322738732346 -126.572641966597 1980.33697862627 17 20 13
-472.729636140286 -125.038121777366 1964.07359322712 16 19 12
-471.97729980867 -125.080985409777 1954.31399299404 15 18 11
-424.339088432459 -124.096773955276 1939.91477588317 15 18 11
-427.580485586147 -124.227857544897 1930.42280918461 17 18 10
-442.790582334777 -124.620595495738 1922.19757276267 14 15 7
-436.056545043417 -124.533199917112 1911.70513418892 15 16 8
-425.334298663493 -124.358915722938 1900.73704481458 17 18 10
-412.618995502413 -124.141480540271 1889.48520248954 17 18 12
-419.848714366336 -124.359349561269 1880.46459573776 15 18 11
-415.113606611571 -124.796833595948 1791.28349089469 36 24 12
-431.306387184836 -125.207173949561 1783.75015293914 55 37 25
-465.431955695419 -126.004652002178 1778.91919845421 118 98 87
-468.666681419159 -126.133631238118 1769.69023384204 117 101 88
-357.370474872318 -130.948884383685 2203.26536002667 21 24 15
-339.633284150662 -130.663760445814 2192.7995004736 22 25 16
-330.893262046155 -130.555387073527 2182.50477335569 18 21 12
-379.116444683294 -131.561673361748 2174.02690966882 19 22 13
-396.355736032786 -131.96065720037 2164.71266086993 20 23 14
-388.613042194665 -131.871138533046 2154.53613207797 16 19 10
-389.863369084891 -131.957330531418 2144.68464136071 19 22 13
-447.060383909361 -133.134106413936 2137.28737638862 21 24 15
-452.302626201846 -133.296940197943 2127.78700793847 18 21 12
-424.579864307858 -132.818044604903 2116.69032590341 16 19 10
-429.822998626455 -132.98103897224 2107.15492156063 18 21 12
-440.059161687576 -133.240810717693 2097.92087911659 23 26 19
-438.309412536877 -133.267564897543 2088.05276231747 17 20 13
-431.566893525531 -133.197531845995 2077.87317619872 13 16 9
-449.789497983408 -133.611389701507 2069.22916080796 10 13 6
-487.979180047494 -134.411112894912 2061.99813133042 9 12 5
-437.304142206528 -133.490783108454 2048.88621104447 10 13 6
-443.542029756153 -133.671925357739 2039.55175568551 14 17 10
-417.834397720192 -133.236058464764 2027.88559038379 16 19 12
-420.080005221385 -133.340241788667 2018.22392970187 16 19 12
-441.290348790256 -133.809812255979 2010.08271019226 15 18 11
-475.472490449352 -134.528406873879 2003.12538004002 14 17 10
-484.699893903592 -134.765715396127 1994.23311499412 14 17 10
-534.841256879729 -135.789106483985 1988.98407660716 16 19 12
-538.07601821621 -135.909940112736 1979.76246625136 16 19 12
-483.438089833869 -134.920195000652 1965.15727237119 16 19 12
-460.735105942528 -134.54448485788 1953.3189427786 15 18 11
-454.995423828462 -134.494419194004 1943.03173910631 14 17 10
-427.309804107904 -134.024548514773 1930.48304679684 16 17 9
-433.543566916236 -134.204109996645 1921.32082271103 16 17 9
-467.704879346468 -134.916917329275 1915.18378492043 18 19 11
-431.047729851563 -134.276913682962 1901.4547999137 18 19 11
-434.287999829361 -134.398910022359 1892.01664434309 15 16 10
-413.593925790248 -134.064772682022 1879.83484451206 15 18 11
-429.798183729297 -134.433662636432 1871.89743758812 24 27 20
-450.719945561395 -135.309292927561 1796.37334779166 80 67 59
-448.97354759494 -135.335849567161 1786.37446720667 92 75 67
-463.171000813594 -135.663240126273 1778.68885106943 119 101 91
-467.402676523462 -135.802270596069 1769.6023217754 120 103 95
-357.094899305263 -140.92353617871 2203.32579495576 23 26 17
-336.357686199775 -140.637302840467 2192.77858365262 23 26 17
-392.583137765872 -141.647197997151 2184.42439831539 20 23 14
-382.840030223952 -141.545842779579 2174.21802756338 19 22 13
-391.08648580072 -141.746954393551 2164.59530735848 15 18 9
-427.311149367569 -142.417216434015 2156.08668966008 12 15 6
-407.575564557502 -142.148132301906 2145.48212309716 16 19 10
-432.803773035154 -142.632620009483 2136.73477952039 18 21 12
-420.064224683898 -142.481064275113 2126.35978693968 17 20 11
-411.3223795197 -142.396708329302 2116.1105232471 16 19 10
-425.557120886721 -142.696164672249 2107.00687549653 17 20 13
-438.790887648687 -142.978391374992 2097.92579609743 23 26 19
-430.049644813069 -142.894038236185 2087.65298830345 19 22 15
-425.30442776469 -142.876442065561 2077.57194345975 17 20 13
-375.621330248162 -142.111890214129 2064.63245852875 14 17 10
-410.823568490641 -142.75871980059 2057.00076249405 9 11 6
-444.023821428595 -143.37107988137 2049.4249496244 8 10 5
-472.227198194374 -143.899433908026 2041.67510808273 12 15 8
-418.561394316012 -143.071374754441 2028.0198016744 15 18 11
-423.801980089809 -143.219337311795 2018.59081850269 17 20 13
-460.985198210511 -143.89481158787 2011.73045836852 16 19 12
-480.196169280064 -144.272347152074 2003.59548904718 15 18 11
-471.458572182701 -144.188386313282 1993.18909673931 13 16 9
-483.680111912973 -144.44987749771 1984.57413384724 16 19 12
-499.891910875124 -144.776552301365 1976.38732499451 17 20 13
-502.131314959152 -144.872984047295 1966.98576318087 18 21 14
-435.769881103725 -143.903587878384 1941.21868512512 18 21 14
-427.039116686709 -143.821123491153 1930.54364122512 18 19 11
-426.289983459776 -143.869549500953 1920.65288011243 19 20 12
-447.486792906262 -144.276786284474 1913.10755009929 20 21 13
-484.639707120967 -144.943874563101 1907.43125104001 18 19 11
-397.114411184047 -143.575344809008 1887.92243003535 15 16 10
-436.260388684251 -144.274422264614 1882.54161440804 12 15 8
-455.456025821829 -144.647285946925 1875.0202893632 22 25 18
-454.930630954547 -145.236342275184 1777.58824717563 107 90 82
-457.170127012589 -145.331928231 1768.18399884322 74 60 51
-361.564631557288 -150.901171780383 2213.47009193789 32 35 26
-333.826443042075 -150.573383453935 2202.82341314429 24 27 18
-321.086341732004 -150.458003284545 2192.4311895741 23 26 17
-368.321063369 -151.187708663393 2183.7652906275 22 25 16
-363.576153313637 -151.184516268667 2173.65678176803 19 22 13
-390.813414363049 -151.630755062585 2164.65542117841 13 16 7
-398.059850806639 -151.795475247733 2155.03850062695 12 15 6
-410.551286210248 -152.095967413974 2135.83320359991 16 19 10
-406.804543796803 -152.106113868282 2125.81600986416 17 20 13
-428.035021084225 -152.465044562641 2117.00669135352 16 19 12
-415.296636366268 -152.349517457239 2106.54753518551 16 19 12
-406.5556987439 -152.290048446978 2096.23607993963 22 25 18
-409.802336004274 -152.397559177644 2086.56462243947 19 22 15
-406.057086698991 -152.407769283875 2076.48900451979 17 20 13
-404.30966794286 -152.445765377193 2066.51773712716 14 16 11
-362.616772875673 -151.93023323859 2053.91002710606 9 11 6
-425.030401427183 -152.918639925188 2038.39114151483 12 15 8
-426.277558441589 -152.997532213427 2028.67137839224 14 17 10
-426.526266122436 -153.062556148331 2018.88120296028 15 18 11
-464.71031066829 -153.649910306569 2012.1078575268 15 18 11
-446.237312386291 -153.517730231 1991.12752521591 13 16 9
-445.48660743295 -153.568449297379 1981.30505529664 16 19 12
-475.674456058432 -154.043048731027 1974.27854492588 18 21 14
-472.925838709324 -154.06582559347 1964.34576627417 20 23 16
-442.237158619151 -153.70678062397 1951.71426992294 20 23 16
-459.447428381581 -154.002551534101 1943.64510737625 20 23 16
-426.7684244028 -153.617543374127 1930.60459223249 20 21 13
-430.010087593437 -153.722690786088 1921.1300761584 20 21 13
-462.181491840902 -154.221073250688 1914.7701279855 18 19 11
-348.709410852274 -152.740214534342 1892.59467989445 15 16 8
-469.655943359665 -154.442975169704 1896.18019106648 12 13 7
-475.8859294826 -154.587421614535 1887.20327675145 14 17 10
-524.002581671029 -155.298357351999 1883.20611671638 24 27 20
-458.402171903043 -154.95000756772 1787.920587359 95 82 74
-446.689037843314 -154.853168990492 1776.48850414302 77 62 55
-289.55926154499 -160.110557602969 2201.80826434753 23 26 17
-329.805138709324 -160.633284681867 2192.73707288967 22 25 16
-360.049178479327 -161.041109105791 2183.5861157967 24 27 18
-384.291886707189 -161.37988168411 2174.40383177229 21 24 15
-328.572088351246 -160.814041512406 2162.51854593402 14 17 8
-321.831592404125 -160.802754282303 2152.19681471842 16 19 10
-437.26036146777 -162.230667734335 2137.07244968505 13 16 9
-429.514412570955 -162.206311550193 2126.94384861889 16 19 12
-401.787056144959 -161.958111379061 2115.78835862278 17 20 13
-389.049500077105 -161.878625002713 2105.25811817899 16 19 12
-416.273682803816 -162.246189975752 2096.84305284771 20 23 16
-399.541280154001 -162.122167522192 2086.05110294504 17 19 14
-395.796427711848 -162.143376742116 2075.94816423826 15 17 12
-420.018122942521 -162.47577167968 2067.58466396826 13 15 10
-395.299136873927 -162.263636881928 2056.13740017626 10 12 7
-403.539325557033 -162.417814453779 2046.81000604511 10 12 7
-444.73131102631 -162.936483947911 2039.874143106 10 13 6
-418.018961434822 -162.702959065104 2028.14107449912 13 16 9
-453.213770767925 -163.153607977141 2021.01036967692 13 16 9
-415.522349243716 -162.799721560399 2008.27962120413 13 16 9
-446.719058942995 -163.205058984728 2001.00585524685 14 17 10
-432.991132001006 -163.115711810174 1990.08516531008 15 18 11
-439.228372317846 -163.245749341709 1980.84020314867 17 20 13
-438.478135601763 -163.298986325759 1970.99672934925 18 21 14
-444.713911681695 -163.428555876669 1961.80017233192 18 21 14
-447.955185934361 -163.525155812287 1952.35003492288 17 20 13
-462.172899912541 -163.741206446701 1944.00143114051 16 19 12
-478.384123714474 -163.978401025139 1935.93317851591 20 21 13
-458.674031308839 -163.824678156595 1924.2084144372 20 21 13
-344.187771758314 -162.64348247407 1902.2313361248 18 19 11
-472.13566638798 -164.091803342737 1906.23766666882 13 14 6
-440.460122129212 -163.809620888324 1892.9855498095 14 15 9
-430.733099172387 -163.765417125021 1882.08917292192 16 19 12
-459.88126942007 -164.621464794635 1797.95351511139 98 91 83
-451.156396510686 -164.588599754447 1786.98562993675 63 54 47
-441.436110400232 -164.545401781344 1775.82487381519 72 61 55
-330.527468563659 -170.690062369581 2192.82521319935 21 24 15
-351.776324033926 -170.938211011319 2183.40723608532 25 28 19
-336.035887011943 -170.868467887864 2172.8957139781 22 25 16
-378.272441649483 -171.295106023966 2164.35077218236 15 18 9
-335.54614504668 -170.994930967556 2152.79257837102 17 20 11
-426.997256294965 -171.902585190702 2136.695600232 13 16 9
-437.238642915369 -172.052854900465 2127.37497784819 16 19 12
-404.512418113618 -171.838967264957 2115.99628000815 17 20 13
-398.767651578188 -171.854069721511 2105.83782062747 15 18 11
-409.008948949974 -172.00403808265 2096.52100995373 19 22 15
-423.244814003462 -172.187143425465 2087.48904859808 16 18 13
-422.494814773671 -172.243883476882 2077.63253168771 14 16 11
-414.752675515392 -172.242005839412 2067.33090101812 12 14 9
-432.980603678601 -172.457374444175 2058.691939251 11 13 8
-443.216061931013 -172.605353127461 2049.60547795307 11 13 8
-429.482419622379 -172.553380454747 2038.8680344823 9 12 5
-369.069644100163 -172.177589595373 2014.6370345113 14 17 10
-415.25091439969 -172.622922315365 2008.34083879544 13 16 9
-411.506904388066 -172.654502784779 1998.19383913631 11 14 7
-441.705835428936 -172.965698624287 1990.90963977505 17 20 13
-428.976323247294 -172.922939736476 1980.02558124397 17 20 13
-448.190073251078 -173.142520398805 1971.96092614278 17 20 13
-414.501682291146 -172.928412155279 1959.06976512172 16 19 12
-498.829379272735 -173.739659484373 1947.70822513808 13 16 9
-461.153035933281 -173.493770312286 1934.27220984767 18 19 11
-419.490967303585 -173.216741275749 1920.21293438677 19 20 12
-466.128369828633 -173.777529976917 1895.96554342758 14 15 9
-344.993398686448 -180.755444832214 2203.29884573412 20 23 14
-344.247759988713 -180.817239517174 2193.26647684906 20 23 14
-318.507701965346 -180.732909207099 2182.48085376844 19 22 13
-306.767135378311 -180.730957860028 2172.00972136309 19 22 13
-389.245566514987 -181.341392000066 2154.91386604929 15 18 9
-369.759263607616 -181.358898084927 2134.26810545428 12 15 8
-412.984262555606 -181.671788794388 2126.32163092626 15 18 11
-371.263770308185 -181.497413245652 2114.43553142757 17 20 13
-350.532435343896 -181.444043246824 2103.40855128397 18 20 15
-421.726158369595 -181.913549236686 2097.29174436959 13 15 10
-435.962180422474 -182.057834042834 2088.29532943625 14 16 11
-439.207195634522 -182.139479865968 2078.71503894943 13 15 10
-441.452675065431 -182.21528509792 2069.08885390743 10 12 7
-474.908551707587 -182.528337271798 2051.85307971485 10 12 7
-474.400238521182 -182.649890540552 2032.47171875291 12 15 8
-375.784839709703 -182.165721057147 2015.23522361711 14 17 10
-433.200993037594 -182.609015907037 2000.06082223574 11 14 7
-434.447726175501 -182.678356735888 1990.3772060848 15 18 11
-429.704133836841 -182.714790120184 1980.17464918212 15 18 11
-397.010488501389 -182.598936927659 1967.41737110303 15 18 11
-455.155431867709 -182.977710192475 1962.94609530294 15 18 11
-420.468296951513 -182.851575006629 1949.88668738484 16 19 12
-456.893175251641 -183.171969445981 1933.92864521196 16 17 9
-498.03009668275 -183.695941720261 1890.03102006544 13 16 9
-448.396314814377 -183.494267330343 1874.55973429873 18 21 14
-297.717374690125 -190.611819456683 2202.21246656485 19 22 13
-323.228659747101 -190.826136787839 2182.69159777899 18 21 12
-341.480346110794 -190.94933610662 2173.21372272645 19 22 13
-373.725709962331 -191.114574872204 2164.33020585064 19 22 13
-358.983112338102 -191.13560217902 2153.83036292951 19 22 13
-333.247356697485 -191.12380244234 2142.79871008309 13 16 9
-344.497118515575 -191.223987550723 2133.23855539896 12 15 8
-321.020696892644 -191.286264812074 2112.04108790879 18 20 15
-294.295673514116 -191.273626983914 2100.56618329672 18 20 15
-377.489255327953 -191.584291706526 2094.9497932679 11 13 8
-441.687454195482 -191.836462101219 2088.69987995748 12 14 9
-424.950551637804 -191.851704975266 2077.93426965966 11 13 8
-427.694287143066 -192.050939727047 2048.70198206514 9 11 6
-460.903503773703 -192.208329789247 2041.26434879895 10 13 6
-392.236753985112 -192.078333738333 2026.47939656018 11 14 7
-474.378659447961 -192.371485401603 2022.87680385637 13 16 9
-448.660348015438 -192.362566749971 2011.16027744032 13 16 9
-460.889877039067 -192.458982478171 2002.41963538689 11 14 7
-435.176132909568 -192.451002184477 1990.52359541016 14 17 10
-398.483782766928 -192.413963971332 1977.52295581525 14 17 10
-428.683960744979 -192.558856393213 1970.36858563099 15 18 11
-447.899259094665 -192.673073197407 1962.35654740419 15 18 11
-520.015467002215 -192.927597426676 1959.52482835428 16 19 12
-324.883325409468 -192.535628902998 1920.62655179272 14 15 7
-405.974868314741 -192.811654788027 1918.98599298348 14 15 7
-407.222733660782 -192.877407674186 1909.25265388478 13 14 6
-411.963196231383 -193.076315189036 1880.2073553904 15 18 11
-332.402926111401 -192.937242600815 1860.9709058683 15 18 11
-274.69485059035 -200.804104754302 2191.51577567963 20 23 14
-316.950996037008 -200.887660476273 2182.57353267031 16 19 10
-344.203271734485 -200.964526209858 2173.3726271766 17 20 11
-329.460511412934 -201.027058388843 2162.83457829523 18 21 12
-339.712966257837 -201.097403472728 2153.16718826324 18 21 12
-349.964025341361 -201.167234419973 2143.55490146139 12 15 8
-346.219605293288 -201.232946593597 2133.38727945191 10 12 7
-336.478627003418 -201.297218131263 2122.91985289992 14 16 11
-347.727471063676 -201.366391641284 2113.42886523708 15 17 12
-319.998978693453 -201.427051539127 2101.97681693365 14 16 11
-392.209668805751 -201.767546230734 2056.25193570197 9 11 8
-414.437493550517 -201.834439296075 2047.87522813591 10 12 7
-405.697163627069 -201.897997952792 2037.41724906577 8 11 4
-420.929317416868 -201.963194794866 2028.6816354814 9 12 5
-449.143298558474 -202.028259704767 2021.02410715738 12 15 8
-478.351725295564 -202.092222011435 2013.6002209683 14 17 10
-421.676294338836 -202.154468899089 1999.28181429793 16 19 12
-442.894413868873 -202.217708668419 1991.26364510932 14 17 10
-388.226427595216 -202.282301596834 1976.71047555057 14 17 10
-412.439163076626 -202.345016358449 1968.98671512296 14 17 10
-452.868583852218 -202.468171892443 1953.17103265794 15 18 11
-372.51471383916 -202.602168962485 1925.54985311698 14 15 7
-393.725997778749 -202.662831162616 1917.8016100782 14 15 7
-412.18997499591 -202.785635284495 1900.02709738788 13 14 6
-414.684727713801 -202.909959129729 1880.61567799822 16 19 12
-458.832812266766 -202.962361014109 1875.97967497497 16 19 12
-406.173370332292 -210.619092039863 2204.99153625822 22 25 16
-377.420928609794 -210.754472525311 2194.37058473194 17 20 11
-313.928767920038 -211.042449497204 2172.45543634996 16 19 10
-313.18503233885 -211.11264021564 2162.33034727518 15 18 9
-332.437594733628 -211.133732563954 2152.96189094496 15 18 9
-357.685911781941 -211.139156247807 2143.94301681932 11 14 7
-355.939799218806 -211.210645606806 2133.8847363904 9 11 6
-302.472788252359 -211.47949337936 2111.28214015107 12 14 9
-376.697980092441 -211.622620780997 2065.25179428158 7 9 6
-329.503938107627 -211.945195199125 2032.08044785369 8 11 4
-442.634081791821 -211.70726804052 2030.36665316869 8 11 4
-457.86373672251 -211.729988845021 2021.7743111527 12 15 8
-458.110153542107 -211.792838640996 2012.07600493734 14 17 10
-451.365816162653 -211.87470235171 2001.80439189879 17 20 13
-439.126230723097 -212.098619146621 1971.48596327729 15 18 11
-425.3963786842 -212.200411534231 1960.43528185575 15 18 11
-412.6667177891 -212.299753167991 1949.40445896591 15 18 11
-436.124273818947 -212.359182745096 1932.09109311552 16 17 9
-386.466041517333 -212.565085379404 1917.13779016266 17 18 10
-446.600612024784 -212.454080826145 1913.64720264593 13 14 6
-445.849869756568 -212.518553076468 1903.81142401155 12 13 5
-423.145038582896 -212.647396429028 1891.50354192783 16 17 11
-458.318260452866 -212.60593439457 1885.7356159931 14 17 10
-468.542332918522 -212.637258294844 1877.21940560572 17 20 13
-300.649893857322 -221.196945231552 2172.0933165766 15 18 9
-319.906056100741 -221.166561820139 2162.63943639722 13 16 7
-358.410192852232 -221.103206925295 2144.04513518386 9 11 6
-351.66531462759 -221.206233410105 2133.7719372919 9 11 6
-358.916639554443 -221.235861759251 2124.10900908894 9 11 6
-339.178000562804 -221.407283970128 2113.16015352582 10 12 7
-267.986089629349 -221.98875363127 2078.9695190325 7 9 6
-298.997613045342 -222.094298252917 2040.14720711469 11 13 8
-413.145274818765 -221.543335727041 2038.10955574763 9 12 5
-404.404031003637 -221.655886072013 2027.62536644035 9 12 5
-409.648757521421 -221.692332153854 2018.16361124023 11 14 7
-444.857311606754 -221.56454617709 2011.10746793232 13 16 9
-432.120768155838 -221.698479539127 2000.30849723263 16 19 12
-460.332334009609 -221.60723452413 1992.91320028304 17 20 13
-434.614481863063 -221.812773674655 1980.94845510893 16 19 12
-436.356837753486 -221.99394636541 1951.76478362888 14 17 10
-412.644667328169 -222.189958586732 1939.6469265031 14 17 10
-409.899385116957 -222.268964672368 1929.52342449967 17 18 10
-455.068180229656 -222.078078617385 1924.37322735955 17 18 10
-440.34269836963 -222.223835769018 1913.07051578005 11 12 4
-399.669928481673 -222.517008783765 1898.84194117862 11 12 4
-422.874142533568 -222.448349769924 1891.56758911566 16 17 11
-249.844498755883 -231.576473884494 2191.05145375789 19 27 12
-285.110549894487 -231.369742845125 2181.83289155551 16 24 9
-346.374274410597 -230.956093082308 2173.65349753424 10 21 7
-315.62755723205 -231.268691928515 2162.5598074588 6 16 8
-338.391889864893 -231.295041094254 2133.26737076557 12 15 8
-359.640941271881 -231.193698459622 2124.2169925815 11 14 7
-376.88867125792 -231.123452397537 2115.08608035019 10 13 6
-337.430891163298 -231.84652341735 2052.90057951107 10 12 7
-330.691421320546 -231.968620363038 2042.39552692704 12 14 9
-394.889954582944 -231.511792228483 2036.89381232239 7 10 3
-430.107049381317 -231.289506818087 2029.60533457602 9 12 5
-348.439614375078 -232.024136304957 2013.56042593669 10 13 6
-383.655315437518 -231.801122863378 2006.33652671081 10 13 6
-462.814684438292 -231.214752602644 2002.91234357506 8 11 4
-436.094169246235 -231.499246406597 1990.94220635613 13 16 9
-426.355151474625 -231.644090296918 1980.31164357211 14 17 10
-423.60784757489 -231.731155880338 1970.25850249164 14 17 10
-446.823374020912 -231.602488546054 1962.60645519073 15 18 11
-440.081168009738 -231.722236531514 1952.21086367984 16 19 12
-407.381108752633 -232.058667361232 1939.21863612856 16 19 12
-403.63744153153 -232.153986157659 1928.98047693353 14 17 10
-416.86519177904 -232.107072136658 1920.48794972144 11 14 7
-372.195316321494 -232.545724416546 1905.88193088295 9 12 5
-385.423437340422 -232.498579000676 1897.37516109341 11 14 7
-280.570358225216 -241.506946761342 2191.95278905248 16 24 9
-306.605133712489 -241.513121847423 2152.19558789163 7 14 7
-348.113861927851 -241.20813784413 2133.76469686798 11 14 7
-356.366434761796 -241.188484961528 2124.13993297499 11 14 7
-364.61765135894 -241.16831782719 2114.55940289018 11 14 7
-291.668384620504 -242.230700106037 2070.31963043369 4 6 1
-415.851354934049 -240.951926528366 2067.94909266041 5 7 2
-378.126329494 -241.428463331614 2055.64938192053 8 10 5
-339.40716978149 -241.917057803257 2043.07344918172 10 12 7
-361.896830251382 -241.806147933277 2024.65420552666 9 12 5
-363.149106833749 -241.85915393194 2014.77147144527 9 12 5
-371.393810640146 -241.835272278742 2005.44947214865 10 13 6
-425.587431441423 -241.306337911757 1999.94222466922 10 13 6
-394.123980811273 -241.782904327884 1977.57674318178 15 18 11
-415.347406444407 -241.613940086135 1969.60051588622 14 17 10
-472.518818515255 -241.046638413358 1965.08587616171 13 16 9
-433.820279033414 -241.538651920013 1951.70036227949 13 16 9
-394.128735537682 -242.042877089716 1938.00361141868 13 16 9
-398.373180403201 -242.060319893624 1928.53924597004 13 16 9
-381.651758257106 -242.31071992138 1916.91611391994 11 14 7
-388.891370311388 -242.294496407478 1907.76019755187 9 12 5
-430.069115429989 -241.899069546618 1902.36238311334 11 14 7
-424.328498921617 -242.026537170975 1891.92107723563 14 17 10
-365.690862704624 -242.746350164103 1875.36075725431 16 19 12
-282.031766980456 -251.585219098682 2202.24024815891 14 15 7
-303.298002903802 -251.373545001598 2192.6367049721 13 16 7
-320.560128715632 -251.214368942156 2183.02931539274 11 14 5
-319.32724938547 -251.443512898153 2152.752149705 9 11 6
-340.583666683128 -251.22821948442 2143.5362385671 9 12 5
-346.837876897932 -251.213882629357 2133.78305210331 10 13 6
-288.098271537581 -252.075502158272 2121.05577854851 11 14 7
-331.603760558174 -251.628037280098 2102.96319158128 12 15 8
-317.863364188924 -251.883379592509 2092.15974903422 12 14 9
-289.130628048879 -252.342332297107 2080.42120815349 11 13 8
-372.108220106139 -251.48853537461 2045.38859341812 9 11 6
-334.388421725616 -252.070893780226 2032.76164320961 12 15 8
-409.582961912658 -251.110713232877 2028.25610153157 13 16 9
-394.845951917146 -251.378761688744 2017.28196722682 16 19 12
-373.369700438186 -251.806146551759 1995.74454561148 20 23 16
-401.591450697566 -251.484608328611 1988.18915313208 15 18 11
-380.866077688727 -251.835549025181 1976.50436621853 14 17 10
-444.287956363068 -251.091909606651 1962.54747262022 10 13 6
-436.546274354128 -251.263259277591 1952.05129770836 10 13 6
-447.778265744736 -251.172163549821 1943.38173073209 11 14 7
-386.118480240262 -252.090414034257 1927.39059696336 10 13 6
-403.34305497656 -251.916334252613 1919.26683596903 9 12 5
-447.016786255826 -251.500786165445 1894.56448891738 15 18 11
-283.751766507972 -261.720673822935 2202.35036124557 18 17 13
-283.267897221339 -261.873983401287 2181.98887531092 15 16 10
-301.531762936065 -261.651864581542 2172.40576505014 15 16 11
-371.806190288701 -260.588853988615 2164.75555407753 15 16 11
-353.054958235285 -260.962342917583 2154.10661297687 15 16 11
-309.303860473173 -261.741080462273 2142.33458346832 10 13 6
-272.558887361346 -262.40774467492 2130.62572554943 10 13 6
-292.817347923839 -262.150602629381 2121.35019271857 11 14 7
-339.324899107693 -261.535934106299 2103.43995744019 12 15 8
-287.592221043621 -262.448051789088 2090.58857812477 11 13 8
-371.824032390189 -261.145255632784 2085.23515321269 10 12 7
-285.109639875186 -262.629301621452 2070.08802786204 8 10 5
-303.873902191101 -262.531624831182 2040.81406868993 11 13 8
-436.539411362343 -260.557973132016 2020.55590302667 19 22 15
-389.828185787933 -261.392579559734 2007.08212481765 18 21 14
-379.089688908377 -261.636154265919 1996.30049655883 15 18 11
-360.36064900827 -262.01172516325 1984.78197377171 11 14 7
-457.003034132341 -260.612612532416 1963.8189916467 10 13 6
-457.249435685213 -260.673034994842 1954.12388839165 12 15 8
-395.579958667817 -261.7599696797 1938.33041241832 13 16 9
-399.824879966303 -261.754732084918 1928.87177878425 9 12 5
-376.363292611793 -262.274795826662 1906.61232561844 11 14 7
-395.584264605192 -262.019672913496 1898.77511028382 13 16 9
-277.467386314131 -271.99506752181 2202.26623616636 15 17 3
-280.986059506546 -272.075895504099 2181.9913219376 12 11 7
-326.772781240201 -271.428862112421 2153.18018771323 12 13 8
-323.027406503363 -271.57136957517 2142.96742138095 13 16 9
-286.278886451891 -272.339230043843 2131.29785819305 12 15 8
-249.535288241216 -273.108187644649 2119.42542961235 10 13 6
-360.552378816766 -271.282028870594 2084.66858087017 9 11 6
-314.075964044445 -272.30760125085 2061.80321376542 8 10 5
-392.050908004254 -271.091610702536 2027.13017837033 15 18 11
-389.303965087284 -271.211812876439 2017.02734931412 14 17 10
-401.545623041125 -271.04413282578 2008.09623235847 12 15 8
-366.826018119005 -271.778226468808 1995.38221729012 7 10 3
-385.06178135803 -271.494788883142 1986.96328850034 11 14 7
-362.33625714394 -271.999146591084 1975.06096372704 12 15 8
-426.520720771209 -270.829147557436 1970.87488718818 14 17 10
-458.732740492182 -270.273368142756 1964.06874823649 13 16 9
-420.026248056176 -271.085581645785 1950.6502572584 12 15 8
-373.587747568326 -272.114408851193 1926.30889858183 10 13 6
-438.244295391249 -271.056749695938 1903.5421895891 14 17 10
-302.947019836775 -281.542958528395 2213.06890827642 19 24 4
-314.211422032762 -281.374292255188 2203.22522881436 17 21 6
-233.679936785715 -283.260303534435 2180.65536520005 13 14 9
-290.968194333197 -282.096922257793 2172.20469905559 15 14 10
-303.230782588658 -281.905045000641 2162.48153450274 16 15 11
-294.484669986451 -282.167367082835 2152.02682090447 15 16 10
-337.753277431244 -281.302485121434 2143.64057683844 14 17 10
-299.000670815609 -282.214885546301 2131.92613953628 12 15 8
-264.253688088979 -283.041607150852 2120.18268713902 11 14 7
-425.758268710806 -280.220661475933 2029.69843250551 12 15 8
-422.00945001884 -280.370159569555 2019.61276186912 13 16 9
-401.523678717368 -280.954142777977 1998.31328710451 13 16 9
-381.791088849923 -281.454939465672 1986.77435386683 14 17 10
-448.980490694176 -280.044165746719 1982.7278930028 16 19 12
-469.207463757369 -279.664619644038 1974.81442877268 16 19 12
-404.522261328069 -281.155151610801 1959.11878691858 15 18 11
-278.693285527891 -284.200447729926 1906.59035498398 11 14 7
-438.973155931615 -280.786039661895 1903.71739437039 15 18 11
-495.133714734695 -279.605642582861 1900.25121012544 17 20 13
-270.900748852673 -292.494668628663 2202.24398748905 29 34 28
-292.174026080585 -292.052685435311 2192.61253389717 18 23 19
-279.682120370874 -292.505733937464 2171.90963153899 9 12 5
-332.965673997312 -291.281301620723 2163.6002473899 12 16 1
-258.190163251042 -293.17833166622 2150.72275008662 17 21 6
-315.469387442419 -291.854143312729 2142.80712583448 13 16 9
-328.728894033155 -291.603006233084 2133.29272971073 12 15 8
-303.235941542299 -292.37128967603 2111.93389541652 10 13 6
-304.492890778918 -292.412797489751 2101.87155889723 9 12 5
-431.733121097992 -289.913751226473 2020.44043064358 12 15 8
-428.98313310321 -290.049062766813 2010.44039050294 13 16 9
-407.247026449395 -290.653239855858 1998.86918343282 14 17 10
-400.502352400071 -290.88738729669 1988.44721807813 15 18 11
-436.72200792271 -290.05856318702 1981.74393534897 15 18 11
-450.957060210889 -289.772488940366 1973.25683337363 15 18 11
-458.443144543256 -289.718425524849 1954.50855612282 10 13 6
-455.692768553248 -289.851998250727 1944.52554718483 9 12 5
-420.231328790954 -290.863339834344 1921.3991581884 11 14 7
-284.88875094639 -302.376742561489 2192.48536376119 10 12 9
-273.138465319101 -302.770250063775 2181.96947186229 15 20 16
-274.398154083674 -302.811470029242 2171.80969895781 16 21 14
-234.634829026131 -303.964668810841 2160.21227752709 11 18 0
-325.94016333818 -301.562759972834 2153.3663209773 8 15 0
-298.184104817528 -302.389954728174 2142.17793202172 13 16 9
-268.690277474584 -303.339299923597 2120.54143958539 12 15 8
-261.948239749715 -303.59664136772 2109.99153360388 11 14 7
-310.214432460131 -302.355889473042 2102.24538379844 11 14 7
-309.47091648504 -302.448626428467 2092.09682813201 9 11 6
-235.989676432382 -304.598359198434 2067.47157765197 10 12 7
-438.45979239243 -299.483919216594 2021.03888721506 10 13 6
-397.730749281108 -300.668750953069 2008.05227066164 10 13 6
-341.017320062805 -302.293572638448 1993.53187042594 11 14 7
-383.242149438331 -301.202913597537 1987.07434933898 14 17 10
-400.480404789949 -300.797171302528 1978.66464387047 14 17 10
-491.65384019101 -298.35707124459 1977.01476047582 13 16 9
-443.437199648052 -299.881696055063 1943.41127719042 9 12 5
-441.686638942779 -299.995657547971 1933.48124225912 11 14 7
-415.965295886743 -300.770961583875 1921.05048905709 13 16 9
-417.213153766578 -300.802246543301 1911.35445076872 17 20 13
-270.337605643653 -312.878190915468 2202.36731858326 27 30 11
-242.573158272061 -313.781999210599 2191.41520847627 23 25 14
-254.843397592958 -313.493112448816 2181.49717511614 13 15 10
-268.371842831039 -313.241761698101 2161.47195442262 17 24 8
-293.644833900796 -312.562331726288 2152.21475238518 11 18 2
-287.414993910659 -312.972284940997 2121.48252181363 12 15 8
-280.671096769467 -313.248367460856 2110.98516553965 12 15 8
-314.936531091471 -312.295206200527 2102.56747228733 11 14 7
-317.193018451877 -312.300481875602 2092.59611322136 10 12 7
-239.443698043987 -314.706678332989 2078.06488531091 10 12 7
-209.705219016581 -315.67373471573 2065.98053610304 9 11 6
-299.962352391966 -313.035433309555 2061.24756160608 8 10 5
-377.216329501161 -311.064288786707 2016.4457478357 7 10 3
-410.451999162058 -310.130897964234 2009.1454350137 7 10 3
-424.186704585944 -310.188346799064 1941.60979987926 9 12 5
-367.495145733328 -311.973663223303 1926.07162788789 12 15 8
-473.629151870453 -308.820842917672 1927.13580492269 14 17 10
-444.908706829352 -309.757728513376 1914.40371778702 18 21 14
-386.230028841728 -311.605401454422 1898.23644323101 17 20 13
-298.371569151852 -314.543678909551 1848.0163360974 14 17 10
-255.041270153825 -323.556824311842 2202.06615310356 30 27 0
-267.312334529664 -323.235281768951 2192.15093700086 15 14 0
-220.531911498906 -324.835131455022 2180.55065103694 26 25 21
-227.061195851042 -324.77760521259 2160.09298781449 10 12 9
-351.65507962104 -320.865541133602 2144.49927800001 13 16 9
-347.906633107288 -321.061863141477 2134.34878543686 12 15 8
-277.130336804894 -323.448114131143 2121.08481805597 11 14 7
-298.39657498427 -322.827714044742 2111.92936997231 11 14 7
-313.657910521967 -322.402581809042 2102.57971018893 11 14 7
-325.916731275266 -322.074853736755 2093.1496588144 10 12 7
-167.149207613729 -327.348135794999 2074.01779102502 9 11 6
-304.425737730496 -322.924959253735 2071.73452331879 5 7 2
-345.936883705282 -321.70828749959 2054.19736276076 7 9 4
-314.195172834239 -322.821938835174 2042.02320271424 8 10 5
-342.445512470274 -321.96566478413 2033.92459650422 10 13 6
-353.696900301935 -321.666818499105 2024.72934075487 9 12 5
-440.92024518719 -318.868419952481 2021.39609491648 11 14 7
-408.431052762222 -320.075087917398 1999.22806746956 15 18 11
-381.695755601712 -321.024596156196 1987.12161950277 12 15 8
-343.970915838006 -322.337184593135 1973.90763924598 11 14 7
-377.2022029361 -321.310302705257 1966.878995666 9 12 5
-401.686101880917 -320.63827092077 1949.35546676758 11 14 7
-428.911841553683 -319.806053221011 1942.16778482111 11 14 7
-411.925927905725 -320.633650301406 1901.1446605293 15 18 11
-368.735439867694 -322.263530879521 1866.54816910741 13 16 9
-197.22552671389 -335.974276966093 2179.93155350611 23 17 17
-319.103449260183 -331.901671547412 2153.32558349891 18 21 14
-392.405596659281 -329.384334350747 2146.22761397022 13 16 9
-375.646596119205 -330.051180290127 2135.62602818921 12 15 8
-318.870104160387 -332.13554219404 2123.08624420833 11 14 7
-281.10950619815 -333.548100531478 2111.16247824364 10 13 6
-278.366825896495 -333.720408712436 2100.83710399706 9 12 5
-230.611747472263 -335.489296344861 2088.04939020911 8 10 5
-389.410141029756 -330.072166141592 2067.01172194191 7 9 4
-321.660356684563 -332.552293514567 2052.69419597727 8 10 5
-279.918503550592 -334.109636884467 2039.77424273217 8 10 5
-316.17242932876 -332.892250271914 2032.14876818782 12 15 8
-408.410138866743 -329.679430288834 2028.84121366996 13 16 9
-457.89283562078 -328.054806954479 2013.07020507826 17 20 13
-418.155439723373 -329.540605322288 2000.11158721428 18 21 14
-398.664387036727 -330.374051250212 1978.77537108542 11 14 7
-374.43424400611 -331.445825319759 1946.84386546458 11 14 7
-266.036094608594 -335.463193257096 1916.00815545871 13 16 9
-423.13982724963 -330.169838186922 1882.85448252296 17 20 13
-216.220169195001 -345.709178517084 2170.21356069428 18 20 15
-283.346282089589 -343.76643160204 2090.9955193662 6 11 4
-274.601836993441 -344.175719125719 2080.3178336824 12 17 10
-319.126584176368 -342.621010553661 2062.6954664699 8 13 7
-341.384110333306 -341.842047507326 2054.06613997203 0 2 0
-303.637926800988 -343.360733976131 2041.47438072626 12 17 11
-402.889455839468 -339.629222678226 2038.37517625692 15 17 12
-445.381382961698 -338.139933569749 2021.90656821618 23 26 15
-411.886655891015 -339.564805490578 1999.68654084353 12 18 6
-401.140574538174 -340.047187429149 1988.94492726091 9 15 5
-360.662981792785 -341.742605080584 1965.57320671468 10 12 7
-314.457276402327 -343.730363646886 1931.10378254406 14 15 7
-408.886070981055 -340.227579201322 1920.69802429996 16 19 10
-409.135696934089 -340.285108900254 1910.88000634329 14 17 8
-234.737269792039 -355.514627378794 2139.97564888533 12 11 7
-272.802232061389 -354.267417917 2100.70877782107 10 13 6
-283.065584680505 -353.923179294486 2091.06061307469 7 12 5
-313.334924660812 -352.758615662149 2082.60914531219 8 13 6
-334.597312971709 -351.961601767414 2073.78447294223 9 14 7
-263.09532469682 -355.042812734773 2049.03803021616 0 4 0
-368.364642558844 -350.796018462941 2045.9636836235 4 9 3
-417.617870034682 -348.845361653219 2039.50187419686 15 17 12
-378.868909563771 -350.50847574372 2026.83887441162 14 17 10
-409.36658219972 -349.396538171467 2009.40686966833 8 12 0
-353.883999648496 -351.820774312803 1985.03985476288 10 16 6
-346.140474492449 -352.210309556099 1974.37212077321 9 14 7
-428.604481594776 -348.95116667576 1961.99486046996 11 12 7
-402.868442665242 -350.080973873851 1949.74850993261 15 16 8
-347.410218642318 -352.507208524682 1924.42733351297 16 19 10
-419.605477888789 -349.594258977581 1921.90700368023 16 19 10
-438.837588448798 -348.866795612257 1914.14161737553 13 16 7
-192.832725314763 -367.128226665786 2200.84225232841 22 27 23
-255.951931627447 -364.705061441725 2161.40070195369 18 23 17
-269.224074351015 -364.205973696373 2151.65867231321 17 19 14
-274.487598158054 -364.055003079731 2141.66348754811 20 19 15
-293.761492575842 -363.292539127096 2132.30262426914 17 18 13
-278.007283065133 -364.057055321427 2121.43361532867 15 16 10
-284.26979403381 -363.860939967869 2111.55118639977 15 16 8
-264.516224672143 -364.800292281432 2100.36131721852 15 18 9
-227.756478211665 -366.483062154579 2088.13883694194 15 18 9
-308.054413099757 -363.050626852329 2082.38892680772 18 21 12
-273.297670317236 -364.645739753824 2070.20189181004 17 20 13
-239.546277368194 -366.197945149438 2057.88586001334 9 12 5
-339.085424808688 -361.9907407737 2044.05629461848 7 9 6
-391.846464916434 -359.896088252005 2017.99476244658 8 14 2
-370.099600272432 -360.92136081687 2006.39187501034 11 17 3
-396.347179970367 -359.840742716803 1998.59262477829 8 14 2
-327.614955378973 -362.929182429988 1982.91094620164 13 16 9
-447.325844581016 -357.87961058104 1963.82348911916 11 13 8
-308.903062981152 -364.107206527465 1930.75246532485 21 23 12
-356.395353053272 -362.429332865452 1875.49681076184 16 19 12
-333.673597361153 -363.499803219157 1862.83935093641 11 14 7
-250.363984693788 -374.769983680989 2212.54811530584 5 11 11
-288.675927078159 -373.082004917007 2203.21915653267 20 25 21
-312.498128584318 -372.533618947076 2133.18932114555 22 23 17
-351.038191235334 -370.900610461151 2114.88560924862 22 23 15
-177.176561511972 -379.044232945713 2095.94201777853 22 23 15
-238.000346690411 -376.454632042116 2068.17585921432 12 15 8
-198.246478473698 -378.379465745429 2055.38963432211 8 11 4
-265.531743403612 -375.327607684353 2049.36790674548 9 11 6
-224.781151112046 -377.299205811243 2036.36941286275 8 10 7
-370.573038609106 -370.734423294175 2016.45991587262 12 18 8
-434.318561073413 -367.976280339879 1992.01692054361 13 16 9
-354.586033522931 -371.766972230296 1975.29340970043 11 14 7
-390.828066748054 -370.146107428125 1968.56596113239 11 13 8
-404.82358718056 -369.770041336582 1930.41973353048 16 19 10
-402.075414956155 -369.967145745451 1920.28237837027 16 19 10
-391.293331622241 -378.098331401751 2215.61909499514 21 27 23
-324.447712439722 -381.447926155105 2204.14758180527 18 23 19
-318.204376504058 -381.993740625922 2173.79694218432 19 22 15
-277.412456358197 -384.072393571723 2162.29873679556 19 22 15
-347.746818693929 -380.703589350969 2154.77251788094 21 24 17
-345.998497228561 -380.867365748907 2144.71080307682 10 13 6
-262.172619621325 -385.058897429119 2131.08790471189 9 12 5
-331.492666653698 -381.73460825308 2124.04868295416 10 11 3
-301.723255899196 -383.274084021539 2112.5586329444 11 13 2
-308.985237102598 -382.994810433086 2102.81089564839 12 14 3
-217.705766810545 -387.715893706333 2067.047683952 11 13 8
-245.981484748421 -386.401951813832 2058.45793905886 10 12 9
-229.235742454355 -387.303415819877 2047.08626028433 0 1 0
-237.500188232818 -386.973141128359 2037.32165757639 98 102 103
-259.286682771719 -386.126464178514 2008.06642257525 14 20 16
-359.550753088862 -381.253870788858 2005.73629000854 10 16 6
-389.304757926505 -380.000240360387 1978.41337605264 11 14 7
-367.560853885963 -381.145709020576 1966.56572066713 17 19 14
-370.065039234758 -381.163391957194 1946.90014417975 20 23 14
-477.269230580141 -375.928954496303 1947.48101798455 17 20 11
-421.543021546207 -378.755293542593 1932.20402286174 14 17 8
-412.796922322179 -379.256915135696 1921.49184501326 14 17 10
-247.677040540847 -387.64745034259 1873.51861421338 15 18 11
-391.522065282705 -388.078214962414 2195.96376082192 13 16 9
-344.214074948537 -390.762624829772 2164.70995362219 17 20 13
-341.464569818914 -390.984015336328 2154.60794126233 19 22 15
-317.692178016317 -392.293962915332 2143.63836139593 14 17 10
-320.950918173956 -392.204037095353 2133.70587290598 11 14 5
-274.161682602754 -394.707711372839 2121.48887910296 8 10 0
-182.134050357861 -399.799518331773 2075.46021190396 12 15 8
-251.440914721976 -396.27941852058 2069.14646086826 17 19 16
-262.707105113261 -395.771712423871 2059.58760260167 3 7 8
-303.985653024354 -393.703172594296 2052.04652567978 0 4 7
-269.74716486842 -395.711360073176 2019.17010166259 18 26 28
-282.008419861283 -395.148492094577 2009.88806210655 24 30 26
-293.268189427231 -394.636889031423 2000.59366098779 13 19 9
-397.780684152877 -389.337723518465 1989.11105289058 10 13 6
-404.030284221441 -389.365067738144 1940.3851311299 15 18 9
-428.269483078829 -388.168440869666 1932.97927434636 13 16 7
-311.874431730674 -402.160442461937 2203.9802019725 23 25 20
-335.67375413163 -401.109226090815 2174.50194847533 20 21 15
-319.9071154949 -402.048479807617 2163.93109314281 17 20 13
-295.131757495277 -403.479010204599 2152.93259711416 17 20 13
-322.420399498772 -402.071586017605 2143.90408660228 16 21 14
-279.886815510285 -404.550912435315 2121.82960161646 13 14 6
-297.161366124294 -403.687539659541 2112.49271992484 12 13 5
-300.421170901028 -403.588354242635 2102.52856467465 9 10 2
-260.645371782197 -405.83958476268 2090.24901564639 10 13 6
-222.138243443835 -408.102073113619 2067.48149166125 12 16 17
-304.450662752161 -403.679016647183 2062.27852824421 0 2 6
-286.471082674978 -404.968461801224 2020.48727151185 0 7 10
-276.726480443334 -405.578016914211 2009.57599765147 20 29 26
-376.004085708542 -400.211386682207 2007.21330868777 17 23 13
-478.491742494413 -395.013719419622 1957.43491513629 15 21 11
-283.827566546427 -406.067497349202 1887.95735903219 13 16 9
-288.043370911314 -413.398765092688 2223.76077268947 21 30 29
-346.401301016822 -410.150602352 2214.85956184132 20 25 21
-338.895275844961 -410.743736401187 2194.69089700702 23 24 18
-291.333713013168 -413.626705634052 2173.14370847227 22 23 15
-273.566063192907 -414.725119306932 2162.38275987859 20 21 13
-268.818245849958 -415.078779549599 2152.01404179937 18 21 12
-318.393726141539 -412.402056071221 2133.74639524541 14 17 10
-342.675715159691 -411.090451053111 2124.79160542767 8 11 2
