ply
format ascii 1.0
comment KinectMotionCapture
element vertex 750
property float x
property float y
property float z
property uchar red
property uchar green
property uchar blue
end_header
-262.648878268512 104.464590600784 2245.70546453334 147 151 152
-305.024777783775 107.207327966536 2241.11296134011 143 147 148
-374.642060757893 111.894849428082 2229.78580769164 141 145 146
-417.159396670464 114.621893281519 2225.70852205872 143 147 148
-436.404566257405 115.67359569869 2227.68764260397 139 143 144
-446.919599844492 116.097577383506 2231.92591073645 138 142 143
-451.605671771105 116.104196074131 2237.63866587427 146 150 151
-584.328601317536 138.53655972995 1789.90826855002 185 189 188
-576.918014163686 137.585856515185 1800.75997755357 165 169 168
-573.236516453495 136.922013132928 1810.05103347865 173 178 174
-567.673323475441 136.117120608445 1820.06117144556 175 180 176
-537.73156114078 133.467078277177 1839.70436161615 165 170 166
-461.782367266825 127.34697970358 1877.27379800737 172 177 173
-404.486500207226 122.658789132704 1907.07235986152 172 176 177
-379.039057798312 120.388038086325 1924.15808374849 165 169 170
-362.010447906318 118.758677726349 1937.83841074579 172 176 177
-344.012661282895 117.062473394181 1951.77356406981 180 184 185
-337.283068754008 116.216240143663 1961.32330912663 179 183 184
-331.483081698535 115.442221599446 1970.47284028682 173 177 178
-325.671514038509 114.669795221713 1979.58130916511 169 173 174
-322.679912749286 114.109753306497 1987.6030297132 159 163 164
-321.569968739829 113.691111692873 1994.90760692575 155 159 160
-320.455851454314 113.273227129848 2002.19716754437 158 162 163
-319.33756089274 112.856099617424 2009.47171156903 143 147 146
-320.108352932651 112.579520768101 2016.05521431992 149 153 152
-321.82507431105 112.373189343491 2022.29879746972 153 157 156
-320.697823537513 111.957892412271 2029.54122971666 149 153 152
-318.617680913226 111.473759852813 2037.09862245567 149 153 152
-315.582248582929 110.921032968797 2044.96315428915 161 165 164
-318.241172735753 110.78616694804 2050.85282178164 165 169 168
-316.14670603908 110.304492631578 2058.35951307577 153 157 156
-314.046795557993 109.823801651407 2065.84568446986 153 157 156
-312.893499728504 109.413235511267 2072.99440330257 161 165 164
-318.407549257646 109.487265469844 2077.92751656069 161 165 164
-320.112270765214 109.284762520433 2084.12896364082 160 164 163
-319.908139505997 108.944654435297 2090.9489786124 158 162 161
-315.879993306917 108.329661595784 2098.98476733734 158 162 161
-316.623239424608 108.059878969663 2105.47028825743 162 166 165
-317.364872114437 107.790535756253 2111.95102528078 158 162 161
-319.062691311279 107.59021748704 2118.12822472671 129 133 132
-317.8861032678 107.184626980407 2125.19360548854 126 130 129
-317.66424303476 106.848273448313 2131.95016668333 150 154 153
-305.924361941138 105.692337337225 2142.18469305994 153 157 156
-272.076856467758 102.968931178849 2158.97112557933 161 165 164
-245.864541868738 100.797515945873 2173.27974436761 189 193 192
-234.036338344952 99.6527263318884 2183.194313209 183 187 188
-229.887880266943 99.0546808979069 2190.79410721262 174 178 177
-223.804485486476 98.3220470656574 2198.91752917693 170 174 173
-223.492884535695 97.9981016242177 2205.34966351683 169 174 170
-224.143187368427 97.742534336987 2211.49907905705 170 175 169
-225.757325686128 97.5550713311877 2217.37370394008 171 176 170
-229.303713478203 97.5030778744192 2222.71435100116 142 147 141
-232.852723818524 97.4510339185655 2228.06563220991 135 140 136
-233.502184939026 97.1966470994683 2234.21266792337 121 125 124
-237.054955297407 97.144738638155 2239.57706586389 119 123 122
-245.455357419484 97.4290569227174 2243.66951545486 131 135 136
-272.290261841358 98.9888411439664 2242.97526000572 149 153 154
-330.216191364017 102.691454444404 2234.37814368377 145 149 150
-393.081701399131 106.719797270064 2224.84291027686 142 146 147
-422.02275531174 108.395617389921 2224.24806429355 142 146 147
-435.442617973327 108.997639769855 2227.69390884768 140 144 145
-445.959516395846 109.397671093265 2231.92490876675 140 144 145
-451.619468940974 109.463152137184 2237.39340496733 145 149 150
-585.418538799779 131.312110611183 1789.39385383074 190 194 193
-575.197511153327 130.182111619902 1801.38764032486 157 161 160
-572.447512674005 129.602820975327 1810.2942321132 134 138 137
-563.132086239622 128.54555287661 1821.79993650851 95 100 96
-532.234671729924 125.918626106726 1841.80589179553 100 105 101
-454.370047871995 119.885087481676 1880.1119312814 183 187 186
-406.432957712441 116.048292336239 1906.22840406291 193 197 198
-377.215169730992 113.582651308246 1924.77967005696 193 197 198
-361.116929890216 112.075009677579 1938.09387613373 188 192 193
-344.991476414887 110.570948687652 1951.30930394825 178 182 183
-338.258212166612 109.748593246259 1960.86049182928 148 152 153
-331.512361226496 108.928105020477 1970.36519763011 151 155 156
-325.696799275109 108.177008712746 1979.47230317699 148 152 153
-322.702416448677 107.630257051918 1987.49208719345 140 144 145
-320.645521548141 107.152079157696 1995.14048266072 147 151 152
-318.583225005356 106.674836401017 2002.7684842634 148 152 153
-319.354150696653 106.400437217261 2009.35385936243 144 148 147
-320.123778362872 106.126419222169 2015.93465581132 138 142 141
-320.891863626241 105.852832425392 2022.51092687928 140 144 143
-316.916575466969 105.244492662867 2030.74716755065 147 151 150
-314.831158524798 104.771353614149 2038.29191850826 140 144 143
-313.689900702006 104.366052795444 2045.48865634876 134 138 137
-317.297543038157 104.29539278244 2051.04494444004 131 135 134
-316.151457085173 103.891155817068 2058.22442804072 126 130 129
-314.049152271084 103.421154146197 2065.70845841596 131 135 134
-312.893868253905 103.018601971643 2072.85485509579 148 152 151
-315.548259959956 102.882534463681 2078.72786496812 151 155 154
-317.250033852369 102.680256887897 2084.91851042001 151 155 154
-317.997020670325 102.411962363744 2091.4188593367 156 160 159
-314.919810246655 101.879433186033 2099.14102907217 157 161 160
-316.617458598794 101.678484803917 2105.3171963849 152 156 155
-317.358135146444 101.411815473172 2111.79514256677 147 151 150
-320.012925040079 101.277406021484 2117.67067764149 133 137 136
-318.835060084067 100.879804984308 2124.73636161012 138 142 141
-318.612323165055 100.548766262489 2131.49302333469 154 158 157
-303.986718290151 99.2333468527497 2142.60262366746 151 155 154
-265.318553105662 96.281650390592 2160.82929190027 182 186 185
-240.049809234511 94.2542559682179 2174.83673970476 168 172 171
-229.173142322971 93.2130390471418 2184.45231846075 156 160 161
-226.94371707136 92.7622163854942 2191.4764841888 149 153 152
-222.781200372835 92.1818848422556 2199.03526491313 146 150 149
-223.431768133088 91.9285975706403 2205.18710355982 132 137 133
-224.080874647962 91.6757681313285 2211.33380594015 125 130 124
-226.659922235461 91.5533680154254 2216.93570674319 120 125 119
-230.207040679073 91.4960188715979 2222.2756852698 118 123 117
-232.789637365507 91.3737715070274 2227.89085962078 115 120 116
-235.373636618893 91.2516507605584 2233.511321368 120 124 123
-237.959268101072 91.1296372077105 2239.13698191475 123 127 126
-248.301051067322 91.5243165537263 2242.71443350805 133 137 138
-281.938560065334 93.4654940560615 2240.24160659252 150 154 155
-352.515377726447 97.8488866800554 2228.38775673973 148 152 153
-399.877236060243 100.677061063659 2222.87855093492 143 147 148
-421.055498778865 101.763304213916 2224.26310482178 139 143 144
-432.532583102792 102.205007674633 2228.18814700062 140 144 145
-442.076716068523 102.517207630457 2232.64739866977 141 145 146
-448.708725131353 102.636375445174 2237.86345385746 142 146 147
-449.497033858373 102.371649079926 2244.51947567238 149 153 154
-578.027952332953 123.86439727064 1784.52805921935 194 198 199
-579.962504364604 123.626446131401 1791.56044185851 181 185 186
-575.346344121388 122.927192446816 1801.25617218298 184 188 187
-572.593573892288 122.361075391874 1810.16079012249 175 179 178
-560.460636460843 121.138528877095 1822.79117043868 140 144 143
-515.475743710136 117.620647204445 1848.38002868037 134 138 137
-446.950385016367 112.472395040449 1882.95386189063 191 195 194
-397.10631513414 108.647342634006 1909.79107626141 190 194 195
-372.568233779512 106.598011584779 1926.49655212347 181 185 186
-358.339847736778 105.272264815513 1939.07442797314 163 167 168
-348.795139729115 104.275841956391 1949.76726932383 159 163 164
-341.118085446177 103.412048165882 1959.68450816392 150 154 155
-333.426773123536 102.550249987258 1969.55006962198 151 155 156
-328.552604670592 101.885284253372 1978.30951364904 148 152 153
-323.668500602124 101.221828663022 1987.03302210856 142 146 147
-322.555338451171 100.818968429447 1994.33561452968 151 155 156
-320.492105009953 100.352159772888 2001.96672515669 148 152 153
-323.156519613729 100.209373051203 2007.87270592405 130 134 133
-322.032978486519 99.8085219276106 2015.13803168742 129 133 132
-322.801566304284 99.537396983155 2021.71679390352 138 142 141
-317.875525360384 98.880546339928 2030.28969800432 140 144 143
-317.68766241668 98.5465140637733 2037.1739499906 137 141 140
-316.54658803672 98.1488894011444 2044.37621524148 138 142 141
-319.205269949922 98.0084120360226 2050.26236965915 138 142 141
-317.106970477147 97.5480273633779 2057.76734275089 133 137 136
-317.860376119969 97.2803768635495 2064.2919301095 144 148 147
-315.752881266827 96.8216333465291 2071.76379869593 166 170 169
-318.409068211574 96.6825998648755 2077.64160137716 162 166 165
-318.202905828368 96.3526842554832 2084.46143920156 151 155 156
-318.949424789489 96.0869855626974 2090.96168992956 155 159 160
-317.782349931592 95.6947364074225 2098.07081431574 151 155 156
-318.524666491336 95.4301302904973 2104.55615214628 146 150 151
-318.307929807585 95.1026074212864 2111.33824031614 144 148 149
-320.004895128152 94.9022434911423 2117.51224065889 143 147 148
-319.783916584683 94.575817761346 2124.2792723114 149 153 154
-315.721650622353 93.9978061163837 2132.21080001044 153 157 158
-295.32378254331 92.3504592370572 2145.05933712196 149 153 154
-255.670295339603 89.4494850383494 2163.55604158133 182 186 187
-234.22954164899 87.7494080532274 2176.39650719554 179 183 184
-228.155435753734 87.0572772779239 2184.57998847987 181 185 186
-226.886093629925 86.67998966974 2191.31886048915 167 171 170
-224.648475162801 86.2409169102897 2198.32002468695 159 163 162
-222.405063437081 85.8028318853085 2205.30030325487 152 157 153
-223.052016264506 85.5528294398333 2211.44172325424 150 155 149
-226.596288239312 85.490206164011 2216.76780358922 149 154 148
-231.110249048906 85.4897679001131 2221.83708849077 145 150 144
-233.693172399443 85.3648399426284 2227.45178329551 141 146 142
-236.277498316934 85.2400386032451 2233.07176549649 132 136 135
-239.83245033971 85.1773354544288 2238.43744832872 126 130 129
-251.148460346029 85.6096801461259 2241.75854449917 126 130 131
-292.564662212365 87.956479812171 2237.25014710187 150 154 155
-366.09101490256 92.333493540116 2224.6534252426 154 158 159
-408.62148127212 94.7262265880596 2220.41382408178 152 156 157
-423.004774929586 95.327282538792 2223.53976855921 141 145 146
-431.566305770851 95.5576557730568 2228.19639942345 138 142 143
-437.21544704399 95.6030642577115 2233.61301174949 142 146 147
-446.769603837951 95.8933163100093 2238.09655219344 139 143 144
-449.506475345914 95.7540421582785 2244.27283987516 143 147 148
-570.701765530099 116.09005679299 1787.48779343153 191 195 196
-578.242880018898 116.23253543413 1792.19757573725 180 184 185
-574.558114453522 115.615283111782 1801.50591391267 137 141 142
-571.801641995693 115.062440123951 1810.4060957761 130 134 133
-557.7858942587 113.753865776149 1823.78429774693 128 132 131
-503.393615956941 109.740411977517 1853.0984898483 134 138 137
-432.010312701788 104.605694539378 1888.75977033668 163 167 166
-393.410172169137 101.683149115246 1911.15372559286 168 172 173
-371.678691945298 99.8972831366422 1926.75693827492 166 170 171
-360.265893295659 98.8049705385601 1938.246026215 159 163 164
-348.833090524131 97.7153758818663 1949.66255873711 153 157 158
-342.09391943478 96.9407110002169 1959.22192499772 162 166 167
-334.398530983385 96.1054802152607 1969.08912585015 164 168 169
-332.354092194459 95.6459571104882 1976.79461705346 151 155 156
-329.358978154125 95.1251333429784 1984.82898475301 151 155 156
-327.302598946372 94.6676121960365 1992.49140745285 150 154 155
-324.294080582798 94.1489596942154 2000.47737835088 149 153 154
-325.066996478999 93.8791682689155 2007.07305178812 146 150 151
-322.995180523864 93.424313396445 2014.67984421656 147 151 152
-320.917727388256 92.9703848824324 2022.266291753 145 149 150
-319.783805907178 92.5790815427191 2029.49910526787 145 149 150
-321.495602884742 92.3733196496635 2035.72476465493 145 149 150
-320.355427405576 91.9833317216198 2042.9351887827 143 147 148
-320.162368608102 91.6555398999773 2049.80501850109 140 144 145
-319.01446291499 91.2670669985389 2056.98769836805 147 151 152
-319.768133838036 91.0018553311208 2063.51481041125 147 151 152
-317.659692772973 90.5536336409645 2070.98980882892 152 156 155
-315.545554392045 90.1064030306195 2078.44427994534 148 152 151
-317.245768026741 89.9040459576556 2084.62908227577 144 148 149
-317.990147783167 89.6410714925124 2091.12403951323 146 150 151
-318.733383215263 89.3785542264259 2097.61410772778 138 142 143
-317.560759285955 88.9950774690985 2104.70816793223 134 138 139
-318.299776533339 88.7336546042943 2111.18326580136 135 139 140
-319.037162122665 88.4727021438122 2117.65353165509 142 146 147
-319.773373319967 88.2122392430636 2124.11881728129 146 150 151
-312.827404977941 87.4691888688457 2132.93034561884 142 146 147
-286.65264890288 85.5221702882194 2147.52008414428 147 151 152
-246.974488919075 82.7374594950871 2165.9985860347 188 192 193
-230.328088155286 81.4032748377583 2177.38708969333 181 185 186
-226.172868252227 80.8530621714837 2184.99197747128 168 172 173
-225.863699420643 80.5439846804423 2191.4425286386 167 171 170
-224.587290815278 80.1756594078677 2198.16082253638 165 169 168
-223.306767422069 79.8081493248923 2204.8634246789 155 160 156
-222.987446813808 79.5011557582581 2211.27759996989 147 152 146
-223.631961102682 79.2543741235606 2217.41107058237 142 147 141
-227.176701739664 79.1866638311785 2222.73660831471 132 137 131
-230.724525344904 79.1189362719479 2228.07265258006 126 131 127
-236.21255705167 79.1698793526321 2232.89459091697 114 118 117
-242.675946833807 79.2797738601229 2237.47781206072 114 118 117
-255.937606076146 79.8035007059815 2240.28777564733 129 133 134
-301.257016203808 82.2763468796751 2234.76366510057 150 154 155
-370.932190488463 86.2178785966366 2223.18047167006 157 161 162
-409.593014836327 88.2617266498271 2219.93959095012 156 160 161
-422.03521214516 88.7101398222519 2223.55582426137 144 148 149
-433.519459237068 89.0983463622798 2227.47368523873 138 142 143
-440.145537022674 89.1916925205125 2232.65048729197 141 145 146
-451.65485340881 89.5776351017824 2236.65999630032 138 142 143
-453.418788890096 89.3768909534021 2243.08240367413 140 144 145
-579.266806560795 109.397467947656 1783.89034072152 188 192 193
-572.77702988185 108.613080033456 1794.36952093425 177 181 182
-570.95796599362 108.133340043124 1802.89902108838 172 176 177
-569.13338109005 107.654527417772 1811.40860828435 165 169 168
-556.983932460814 106.512395036526 1824.02845503342 141 145 144
-486.605832486096 101.634753114078 1859.68691290333 165 169 168
-426.451923263793 97.4332513538072 1890.87035535771 172 176 175
-392.530529208103 94.9270042847194 1911.41587731755 169 173 174
-371.72860674486 93.2682077228536 1926.65333134713 172 176 177
-359.367524686694 92.1533534749911 1938.504646639 175 179 180
-349.812541767503 91.2209614941142 1949.19883597898 162 166 167
-344.012776412482 90.5299926899221 1958.40255255014 146 150 151
-336.314017188739 89.7213054870374 1968.27399661364 153 157 158
-337.102464973249 89.4509741403636 1974.92699602991 132 136 137
-335.998900755145 89.0620520038524 1982.27402347937 137 141 142
-331.107041773294 88.4362471768973 1990.99251018639 147 151 152
-327.151926861959 87.8712530544562 1999.33101634148 141 145 146
-324.135942512835 87.3668007639014 2007.29730374596 141 145 146
-323.009160357191 86.9818058753421 2014.56060700269 142 146 147
-319.980232349333 86.4794499936677 2022.4810897245 136 140 141
-320.742998089114 86.2141684939811 2029.04192495126 135 139 140
-321.504213534376 85.9493191053195 2035.59820607311 134 138 139
-321.313299827405 85.6261387074975 2042.4779824812 132 136 137
-321.119379339228 85.303587753859 2049.34792172059 138 142 143
-321.875378271306 85.0402730803861 2055.88487486771 137 141 142
-321.676606765998 84.7188608350624 2062.73752215209 132 136 137
-318.613292567918 84.2227419145246 2070.53334435736 130 134 135
-316.497478232748 83.7861030877895 2077.98828008184 130 134 135
-316.286683914536 83.4670344863555 2084.79776867237 131 135 136
-318.941547186198 83.3232150673194 2090.66763522456 135 139 140
-317.770477485758 82.9470393038336 2097.77207544147 146 150 151
-317.552879481211 82.6297467484866 2104.55649555815 148 152 153
-317.332223873557 82.3130606319321 2111.33087528997 148 152 153
-316.149757248843 81.9391272419919 2118.39441667805 149 153 154
-314.962991869448 81.5660376228747 2125.44253034527 148 152 153
-305.127735363734 80.6745379008061 2135.1219360221 145 149 150
-277.973317131892 78.748494475242 2149.98487298958 174 178 179
-242.118154344431 76.3101060629829 2167.28985344448 178 182 183
-229.310229671008 75.2571271644117 2177.52119454101 167 171 172
-228.041208581833 74.8952260544781 2184.27097271847 165 169 170
-226.767851726495 74.5341441127329 2191.00517022586 148 152 151
-226.45513338645 74.2310442926689 2197.44538772997 141 145 144
-224.208341062288 73.8143916602237 2204.4266460891 141 146 142
-223.888138105561 73.5127280003596 2210.84091041728 143 148 142
-223.565022823 73.211689997502 2217.24475685752 143 148 142
-227.110000400653 73.138702696846 2222.56691365487 132 137 131
-230.657833958909 73.065659478144 2227.89963884471 128 133 129
-236.146673141369 73.1059812447116 2232.7178694389 130 134 133
-241.641242360917 73.1459291358428 2237.55713849237 128 132 131
-262.671133046928 74.08973814458 2238.30089064184 133 137 138
-313.840910248278 76.7799105980328 2231.25547448421 152 156 157
-379.664801114594 80.3070932037575 2220.69783277459 155 159 160
-414.455403937486 82.0232297650185 2218.46781777719 153 157 158
-425.93142090097 82.3856423195481 2222.33883692867 143 147 148
-437.421779742119 82.7467716458531 2226.26229449786 141 145 146
-446.001663213327 82.9385572698403 2230.96270288302 145 149 150
-456.542947473158 83.2413706551102 2235.22193529731 145 149 150
-455.38052343684 82.872831053459 2242.36329624342 158 162 163
-583.160251881972 102.372583676603 1782.22090575782 174 178 179
-573.859895691901 101.437828144854 1793.85991103775 160 164 165
-570.164954559024 100.852766094863 1803.15172160069 148 152 153
-566.461835652709 100.268974697452 1812.41304289466 138 142 143
-557.118960400921 99.3402631522895 1823.89799908867 134 138 137
-497.979614924023 95.3603472977973 1855.09189523713 123 127 126
-437.806883635546 91.3346681873708 1886.3164602655 175 179 178
-398.234139902987 88.584589752591 1909.10453747805 172 176 177
-375.543198816271 86.8747605991554 1925.08978608055 177 181 182
-357.525418193033 85.4560317592578 1939.12681812427 192 196 197
-350.791919605151 84.7274220920283 1948.73539309992 183 187 188
-345.932596449746 84.1147798880041 1957.58298914473 158 162 163
-341.06312455359 83.5035931314604 1966.39475282009 135 139 140
-338.074044300668 83.0077269428085 1974.46635067595 132 136 137
-336.96921319443 82.626663141993 1981.81363575985 135 139 140
-331.128109101029 81.9626936853917 1990.87998664971 138 142 143
-328.116897546364 81.4703331007996 1998.87255759721 139 143 144
-321.30710364531 80.752908652796 2008.2058538129 140 144 145
-321.124941423476 80.4325864504782 2015.11992728506 140 144 145
-317.142509724056 79.8873306064457 2023.36947327562 131 135 136
-317.901928096063 79.6249202015554 2029.91969304085 127 131 132
-318.65979569961 79.3629708457011 2036.46537521147 126 130 131
-317.513476320191 78.9892182091131 2043.66323835487 124 128 129
-319.219612442278 78.7843854126478 2049.86846667799 127 131 132
-319.972981674429 78.5238877152971 2056.39743475595 135 139 140
-319.771174323884 78.2079677898098 2063.24227810518 137 141 142
-316.7036137363 77.7253663075399 2071.03086850137 151 155 156
-312.673645351269 77.1882078064386 2079.10903233362 159 163 164
-313.414357196647 76.9304448597887 2085.59273259369 175 179 178
-313.196984379668 76.6175960189414 2092.38172333888 176 180 179
-312.977016196483 76.3054299637875 2099.16058005066 178 182 181
-311.796054797342 75.9385432863864 2106.23415897168 175 179 178
-312.528115963215 75.6829867912736 2112.68806301473 170 174 173
-311.340029798676 75.3175595589276 2119.73611049546 169 173 172
-311.107972428814 75.008062539295 2126.47176751582 168 172 171
-299.342314499791 74.0391080581864 2136.72863996726 158 162 161
-270.247332256269 72.0842836461173 2152.16204208244 183 187 186
-238.219119133977 69.9706757577326 2168.29457544313 180 184 183
-228.29086438593 69.1226275266034 2177.65612986999 160 164 163
-225.0914647655 68.6595703464323 2184.96849604867 168 172 173
-223.813933532042 68.3068274221114 2191.69245972731 159 163 162
-223.497439580039 68.0094210123906 2198.12225364546 157 161 160
-223.177817730115 67.7126147298099 2204.54174220304 157 162 158
-223.822110424122 67.4708266336502 2210.67754273602 153 158 152
-223.497385052625 67.1752315875808 2217.07884762958 149 154 148
-226.07409523618 67.042776060984 2222.66572165 137 142 136
-230.589970215922 67.0186343741116 2227.72714838977 133 138 134
-237.049340134276 67.1022912827634 2232.27887952081 138 142 141
-245.456296233423 67.2932664772861 2236.33673080362 135 139 138
-269.409365578551 68.3446418729382 2236.31169399719 135 139 140
-332.264515410334 71.5423034926734 2226.21354655915 144 148 149
-389.375865697372 74.4079083885648 2217.95993428409 149 153 154
-414.455156524812 75.4962524423901 2218.24242777674 148 152 153
-426.908205642206 75.8854708545954 2221.86157925357 139 143 144
-440.351817019526 76.3266543949525 2225.2940529113 134 138 139
-449.911136484323 76.5528529734889 2229.75632133013 139 143 144
-457.529930871524 76.6715664862435 2234.73858079331 144 148 149
-455.389492250987 76.257993819424 2242.1166541383 156 160 161
-577.695718628876 94.7787686671639 1784.41392828757 192 196 199
-570.25902598315 93.9871405994802 1795.2691444365 185 189 192
-567.49544507294 93.4734766260662 1804.16766958811 169 173 174
-567.539729855733 93.1262714997622 1811.90552393518 145 149 150
-561.008738368295 92.3945386256357 1822.26492527763 129 133 134
-518.758840262606 89.5772107597599 1846.76068541576 121 125 126
-448.230399819238 85.1231626172497 1882.12932255126 163 167 168
-402.059488955771 82.1066571548287 1907.52759106954 161 165 166
-371.825594538619 80.028748140867 1926.44829612167 161 165 166
-356.623497364555 78.830336528144 1939.38768651893 170 174 175
-353.657580975445 78.3437418296739 1947.55206981717 173 177 178
-348.796826309242 77.7494904846992 1956.40596196859 176 180 181
-343.926147076952 77.1566757973439 1965.2239131817 176 180 181
-339.045537436979 76.5654139760081 1974.0059751357 159 163 164
-337.939459645719 76.1921772911001 1981.35357315368 153 157 158
-333.041848343902 75.6035461104286 1990.07417211828 151 155 156
-329.081785985494 75.0703469215423 1998.41438302863 146 150 151
-321.320076470043 74.3229518138267 2008.09080161715 149 153 154
-320.187157043807 73.9541481251731 2015.34154066704 153 157 158
-318.100366643645 73.5324067162452 2022.91364202339 160 164 165
-317.908712342879 73.2188940563343 2029.79770147797 166 170 171
-317.714510499854 72.9060297678405 2036.67178273272 179 183 184
-315.613413386774 72.4868890101889 2044.19333700561 180 184 185
-316.364770210555 72.2287902977376 2050.71634799919 173 177 178
-316.161508875961 71.9179269302184 2057.55805641411 185 189 190
-315.001220164175 71.554512642369 2064.71058125652 186 190 191
-316.701085871083 71.3511560138787 2070.89346073223 182 186 187
-313.623346827971 70.8831263874547 2078.65438944741 178 182 183
-312.451031357445 70.5220561998502 2085.76374123399 176 180 179
-311.274446725995 70.1618263604033 2092.85777301461 172 176 175
-311.051434805904 69.8551535377967 2099.62879706727 159 163 162
-310.825355969216 69.5491748807269 2106.38980154199 155 159 158
-310.596445677001 69.2437836444109 2113.140664244 160 164 163
-311.324689965539 68.9915929302425 2119.58159292498 163 167 166
-308.209300579605 68.5302355469038 2127.20601677901 148 152 151
-294.51234149463 67.4945160572437 2138.04376442296 148 152 151
-260.590067249721 65.3648513512849 2154.92652339574 189 193 192
-233.353262507926 63.6068113052183 2169.59057296033 177 181 180
-223.415748023256 62.791446668639 2178.93838251056 172 176 175
-221.174256797903 62.3942980847527 2185.95163664579 170 174 175
-221.821494408892 62.1537797162395 2192.10010174041 153 157 156
-223.43306206119 61.9655742256224 2197.96471348059 149 153 152
-223.112060974878 61.6742202208358 2204.38159446405 146 151 147
-223.754921300282 61.4351323695889 2210.51471070893 140 145 139
-224.396532301393 61.1966005107617 2216.64261045957 136 141 135
-228.91068746345 61.1644115764856 2221.69257124262 130 135 129
-233.42913568929 61.1320438431115 2226.75835844568 126 131 127
-239.891653623578 61.2021010264438 2231.31412041078 119 123 122
-247.332179636245 61.3229180375575 2235.63583237772 117 121 120
-277.123634384512 62.6193758124126 2234.06252811415 124 128 129
-344.869922373657 65.9026601958784 2222.69481578168 141 145 146
-394.230154666585 68.2064305753178 2216.48052979014 146 150 151
-419.321685378524 69.2300688023963 2216.76854472587 147 151 152
-431.781962166651 69.5894814512014 2220.39571332888 140 144 145
-443.283076733188 69.8967416381412 2224.32509464386 128 132 133
-451.871302732919 70.0507074469156 2229.0325997509 134 138 139
-455.58734661317 69.9510612728207 2234.97306118462 139 143 144
-452.465678842758 69.49807692631 2242.58038994724 150 154 155
-586.207097138696 88.3595536529144 1772.99626128979 196 200 203
-575.034795850438 87.3816183153465 1785.45048061102 176 180 183
-570.402423587021 86.7746080200609 1795.14518555146 166 170 173
-568.574111457977 86.3266693572056 1803.66042649341 145 149 150
-567.678797502267 85.9321184008423 1811.77709260901 138 142 143
-563.022147503792 85.3290206454563 1821.38320022785 130 134 135
-518.873738223436 82.5328684814235 1846.63709949313 126 130 131
-460.543555533155 78.9632532580779 1877.19705140894 184 188 189
-405.887193109091 75.6135773311696 1905.94982552227 182 186 187
-371.872890285658 73.4184319968411 1926.34680878605 185 189 190
-356.662742574959 72.2681466137454 1939.28669350059 179 183 184
-353.694045122581 71.7948132316516 1947.44912375691 172 176 177
-348.829692682712 71.2192032848481 1956.30142728277 168 172 173
-344.900446439416 70.6966794747237 1964.76279226401 151 155 156
-337.179497169183 69.9693520245673 1974.60321532266 150 154 155
-335.123526598414 69.5527688740875 1982.29300131936 151 155 156
-330.220154731958 68.9830581123645 1991.00415779853 163 167 168
-328.150541615895 68.5686810836842 1998.64561355074 167 171 172
-321.332153811 67.8993373127075 2007.97642888574 173 177 178
-321.146593861946 67.589567823006 2014.88547871548 176 180 181
-320.958278453247 67.2804347311501 2021.78469985191 180 184 185
-319.816630291835 66.9210527118769 2029.00805014519 182 186 187
-319.622066566829 66.6132488161631 2035.88491169266 185 189 190
-316.56777239101 66.1538876535714 2043.73835941929 183 187 188
-315.412740103963 65.7970067208053 2050.9135961324 179 183 184
-312.345658890954 65.3397598732859 2058.72090296399 183 187 188
-312.134895445277 65.0351581832781 2065.53963982871 182 186 187
-313.831803198504 64.8320570073139 2071.7116982815 182 186 187
-309.793469216651 64.3273558516974 2079.77836513862 180 184 185
-308.616261187639 63.9746499762689 2086.87483260329 172 176 175
-305.519968623862 63.5224856760413 2094.57689226903 173 177 176
-306.249037646841 63.2717592698845 2101.02180751477 172 176 175
-306.976716468741 63.0215113626004 2107.46186331551 170 174 173
-308.662458823378 62.8216655781927 2113.5945221155 166 170 169
-309.387833927931 62.5722835174183 2120.02750033792 166 170 169
-302.424099607655 61.9256637154333 2128.83394829536 145 149 148
-282.945554328672 60.6355848507938 2141.42406169563 159 163 162
-249.961215698435 58.6558132386493 2157.98750604348 184 188 187
-229.445731174434 57.3256028121071 2170.59957970105 171 175 174
-224.318886878149 56.7896806325295 2178.50235918959 164 168 167
-221.110955687199 56.3539227641048 2185.80028467537 157 161 162
-222.722456502793 56.1653495219176 2191.66441608488 147 151 150
-221.435830507994 55.8297463932302 2198.36543386686 144 148 147
-223.045136403837 55.6420913180209 2204.22199565209 138 143 139
-222.719614629058 55.3568057273735 2210.6259234843 130 135 129
-224.327426218011 55.1699589065673 2216.47744749044 127 132 126
-227.872901457611 55.081021153092 2221.79231075066 125 130 124
-234.330404005101 55.1382059579454 2226.32039559918 125 130 126
-240.794855152938 55.1948399341784 2230.87486049704 120 124 123
-255.035291463597 55.6393643723575 2233.37157784256 116 120 119
-290.674306487264 57.1481874220569 2230.26341475739 122 126 127
-354.567014163873 60.0544239054151 2219.93720528232 140 144 145
-396.167495576537 61.839614322874 2215.75750202127 144 148 149
-415.425444258587 62.5095048280852 2217.54301278893 146 150 151
-427.886684954551 62.8398432860165 2221.15447524825 132 136 137
-439.388123244365 63.1207245565464 2225.06840421744 130 134 135
-447.975453109619 63.2564242940866 2229.76104991167 136 140 141
-449.734777806719 63.0560978731391 2236.16660207873 147 151 152
-450.516456810953 62.8084139502866 2242.80876873827 154 158 159
-578.870708306122 80.6966908854746 1775.98942757797 189 193 196
-573.307331828084 80.05686531173 1786.10216985422 174 178 181
-568.669961967813 79.4686005447648 1795.79015464229 165 170 173
-567.776270951977 79.0812053565427 1803.91643517044 145 151 151
-566.878267083879 78.6945906661456 1812.02812471142 143 147 148
-560.33777078851 78.010805617015 1822.38250831152 132 136 137
-444.631069098251 71.2555889376247 1883.39023333976 191 195 194
-396.530614103223 68.4138387385782 1909.52838379369 188 192 193
-366.263591734874 66.5185552677532 1928.44046244079 190 194 195
-352.927601304129 65.5154044174848 1940.63897808388 178 182 183
-349.009236811553 65.0065835748805 1949.14939620912 173 177 178
-346.0273339211 64.5481286420065 1957.2712617135 175 179 180
-342.092717475139 64.0418517325382 1965.72294562732 167 171 172
-336.257096305897 63.4391954701268 1974.84929250349 166 170 171
-335.144890557534 63.0820622583802 1982.18430550772 168 172 173
-333.080908202461 62.6770924938818 1989.85167740351 180 184 185
-331.011297346648 62.2731202919807 1997.49878158801 176 180 181
-324.190425782334 61.6275386827645 2006.83630641856 179 183 186
-323.055698613287 61.2743676961064 2014.09020334336 181 185 188
-321.916755552074 60.9220308968079 2021.32897414908 173 177 180
-320.773844448363 60.570506756875 2028.55259643879 164 168 171
-318.674337826361 60.1716024716767 2036.09283214264 143 147 150
-317.522033366636 59.8218218967749 2043.28360856071 134 138 141
-314.458763212852 59.3768789084116 2051.1119040983 126 130 133
-311.388153752128 58.9330664424751 2058.91459300287 122 126 129
-309.265453231907 58.5382670612051 2066.37037690746 122 126 129
-310.959403505394 58.3353923997558 2072.53159782703 138 142 145
-308.828200649769 57.942240669591 2079.95685446733 141 145 148
-307.648263404341 57.5977066714169 2087.04834818184 143 145 144
-306.46405794587 57.2539551453778 2094.12448886982 141 143 140
-306.23423748938 56.9584099487507 2100.87725956177 133 138 134
-307.919854767685 56.7581453820818 2107.00918958066 132 137 133
-306.725705002947 56.4165548766522 2114.04977336378 139 144 140
-307.448429730521 56.1700499497994 2120.47472772767 143 148 144
-293.749194198316 55.2184994316122 2131.35716325151 143 148 144
-265.595497045594 53.5656333836143 2146.57876371855 184 189 185
-235.471305241287 51.8246559055819 2162.2222445975 173 178 174
-225.533817644954 51.0720730937195 2171.61072015883 180 185 181
-223.293268961754 50.695466986397 2178.64044321263 160 165 161
-222.011866154618 50.3664805693611 2185.36503111204 158 162 161
-223.623289001413 50.1778585782599 2191.22884226116 149 153 152
-222.33537303315 49.85026087119 2197.93012482862 144 148 147
-222.977507931975 49.6162319661933 2204.06281263812 135 140 136
-222.650136850105 49.3364098620504 2210.46425273742 131 136 132
-226.194432017178 49.2420412697825 2215.77037684983 124 129 125
-230.710839772112 49.1937349364148 2220.8185253867 120 125 121
-236.201507107219 49.1913292011542 2225.61656764553 119 124 120
-241.69791413975 49.1885195899936 2230.43566528984 125 129 128
-259.829646434183 49.7816251924544 2231.88666873659 125 129 128
-305.20745913251 51.6539577873394 2226.20119167425 130 134 135
-361.352629276754 54.0217454107682 2217.94236651465 137 141 142
-396.158317753359 55.3771839983154 2215.53970675245 143 147 148
-416.397016382841 56.0443938830416 2217.06853706545 143 147 148
-426.912295269384 56.2544093532522 2221.1726288801 131 135 136
-437.440474305205 56.4632794551305 2225.32389329505 128 132 133
-444.075177963312 56.4899404597576 2230.49154902979 133 137 138
-447.785406119434 56.3805400688816 2236.40425951784 145 149 150
-452.476318012579 56.3162972902829 2242.09024628077 152 156 157
-574.336573925888 73.2252773316612 1777.81779625646 181 189 191
-571.577391144884 72.7491510009104 1786.75542107975 175 181 181
-571.624949911445 72.4158572677745 1794.51514303475 165 174 173
-569.792607984037 71.9888917415138 1803.02866346568 154 163 162
-564.196917109232 71.3746031662907 1813.03848046668 134 140 138
-547.308472551876 70.1983044333957 1827.52432425059 143 149 147
-378.684570149767 60.8537308835268 1916.4284458212 194 195 197
-359.705367806244 59.610566085042 1930.90306978015 182 183 185
-348.244662745561 58.7438263018903 1942.35670547189 178 179 181
-345.264118765279 58.2978650448083 1950.49150419624 171 172 174
-341.331200846805 57.8066709036732 1958.95901688005 165 166 168
-341.173339737767 57.5019296160724 1965.97408161753 175 176 178
-336.279770039992 56.9668714663828 1974.74350947298 170 171 173
-335.165578787766 56.6177085850282 1982.07618273988 170 171 173
-332.151211250707 56.1773344167045 1990.08892862251 167 168 170
-330.078259485482 55.7840527721443 1997.73130714591 168 169 171
-326.101025608364 55.300128486675 2006.03794414475 149 153 154
-324.965749692973 54.9547327790277 2013.29471258606 133 137 138
-321.924264102551 54.5188742054622 2021.21055438419 114 118 119
-320.779128010919 54.175312073193 2028.43187154716 115 119 120
-316.772566413398 53.6961589415132 2036.63356174745 119 123 124
-318.476196787594 53.4906628017883 2042.82906791956 124 128 129
-316.364610271118 53.1042827848559 2050.33143148765 124 128 129
-314.247351375788 52.7189342884414 2057.81338587287 130 134 135
-309.258541964521 52.1991658006055 2066.23886043068 140 144 145
-308.083671456639 51.8611221923325 2073.35326364106 142 146 147
-305.947887565065 51.4789559993837 2080.76844748583 138 142 143
-306.678541038272 51.23240056942 2087.22280784324 135 135 135
-308.366140084137 51.0311269550986 2093.3614587168 128 128 126
-309.094982144593 50.7854813578685 2099.80873905195 133 135 132
-307.903105224451 50.4510798515843 2106.8623002193 142 147 143
-304.786402548773 50.0285489583285 2114.50636109916 117 123 119
-302.623281047945 49.6515591832205 2121.82424290054 97 103 99
-286.028035845233 48.6102763873737 2133.58667101046 109 115 111
-250.155070113594 46.687129187598 2151.15084895125 173 180 173
-225.784588907698 45.3012229653231 2165.00112263759 186 191 185
-222.581843849146 44.8904558078392 2172.33408104311 173 178 172
-224.195349159423 44.7009286558894 2178.20505249982 163 165 162
-221.947333294167 44.3359884813683 2185.21441662943 155 160 156
-221.625624360165 44.0597573515853 2191.63914632723 143 148 144
-219.36747704258 43.6966821268772 2198.61207179173 136 141 137
-220.006237523177 43.4656429779872 2204.7341186232 129 134 130
-221.611737855012 43.2787168672408 2210.57701132514 127 132 128
-228.062118234289 43.3096258100337 2215.06299277774 131 135 134
-233.550252091046 43.2966601389668 2219.84403271485 118 122 121
-239.043896291656 43.2833099808275 2224.64621775618 117 121 120
-244.543262202323 43.2696735599075 2229.46946565419 118 122 123
-269.486202297212 44.1192036165015 2229.09586996762 133 137 138
-324.614954581755 46.3009728055739 2220.84216259044 141 145 148
-371.062970297727 48.0868362511679 2215.17829807761 131 135 136
-396.147945281606 48.9210945912539 2215.32240833346 138 142 141
-413.469349567264 49.4089253600192 2217.59560709158 131 135 134
-423.985269105855 49.5951536304046 2221.68705952902 127 131 130
-429.632837984958 49.5669185172614 2227.05133915182 129 133 132
-436.263194177541 49.5809476101511 2232.19394944887 135 139 138
-441.922822974745 49.5520109039794 2237.60256223478 142 148 148
-454.436818031433 49.8198031514359 2241.37133191544 146 152 152
-572.608352303751 65.9212923177136 1778.47978450161 180 186 186
-569.844949177949 65.4585359970425 1787.41018113627 176 180 181
-569.889502089812 65.1305866991993 1795.16211713856 171 177 177
-568.053345488978 64.7143447773153 1803.66824475713 151 157 157
-560.572730322854 64.0327292253392 1814.42984133959 164 168 167
-393.922839232555 55.2502886526261 1903.22534058047 192 194 191
-366.478508247763 53.6659200896504 1921.12392432319 201 202 204
-356.914465938718 52.9221651037082 1931.90450247006 191 192 194
-347.333531085055 52.1808330931535 1942.62296262693 176 177 179
-344.349252361491 51.7482074300492 1950.75324339988 159 160 162
-342.303675922581 51.3604317885876 1958.49980832408 157 158 160
-341.198720655465 51.0172482196294 1965.87054801831 146 147 149
-340.089601265966 50.674863967399 1973.22633178901 128 129 131
-336.133039182983 50.2030411138057 1981.61828834098 122 123 125
-332.167975558167 49.7325769875613 1989.9795381637 117 118 120
-328.194606945343 49.2634559932924 1998.3098721544 117 118 120
-324.212505198295 48.7956844909333 2006.60956275041 114 118 119
-323.073786818414 48.4584853848476 2013.8587249009 119 123 124
-321.930861859856 48.1220327393769 2021.09274012538 126 130 131
-318.879477230246 47.7007208428203 2028.98101274151 127 131 132
-316.773954523934 47.3233153871427 2036.51155611641 130 134 135
-318.476797627091 47.1177947664555 2042.70412384945 130 134 135
-316.362811095833 46.7420902743514 2050.20431660055 130 134 135
-314.243144294053 46.3674182154759 2057.6840714448 129 133 134
-308.294865861462 45.8239466780598 2066.42951011938 127 131 132
-306.160931386861 45.4516179435587 2073.85777134317 114 118 119
-305.935419824753 45.1648676543357 2080.63302178206 112 116 117
-306.665097189641 44.9210028578183 2087.08452774319 102 102 102
-309.310407453625 44.7618248692175 2092.90922925342 102 102 100
-310.038768320768 44.5187477625873 2099.35634462261 94 96 93
-309.805779117271 44.2342847136835 2106.1043470659 89 94 90
-308.609048854509 43.9086184656331 2113.14540370808 94 100 96
-305.485001306058 43.5003028270256 2120.772098305 97 106 101
-285.034522118722 42.3430653102776 2133.7347300769 134 143 138
-244.329857540591 40.3167268059092 2152.77713854411 187 193 189
-222.8340225232 39.1282740266963 2165.73611072739 167 172 168
-219.626517456005 38.7312063799483 2173.05911628515 173 178 172
-219.306812107468 38.459307070716 2179.49401978783 163 165 160
-218.018488936 38.1468334878692 2186.20333906987 159 164 160
-217.692509436456 37.8763601493424 2192.6149191403 147 152 148
-216.396222061985 37.565500863098 2199.29568807991 140 145 141
-217.99949619946 37.3784567412814 2205.13024085249 134 139 135
-220.571361969129 37.2326542357131 2210.69070192983 133 137 136
-227.022454428532 37.2503461050406 2215.17005360561 127 131 132
-234.45079148748 37.3082788317184 2219.4068085312 115 119 120
-239.945957442574 37.2842103079536 2224.20787653373 117 121 122
-247.390085113191 37.3410099682559 2228.50254354678 111 115 116
-277.205421944422 38.3284499798865 2226.82374016059 118 122 123
-339.172413462611 40.6449877969923 2216.76805992116 135 139 142
-379.806498804386 42.0643749910481 2212.66661785893 138 142 143
-399.060250280081 42.5921039483354 2214.34586284041 138 142 141
-418.339671381048 43.1172324297441 2216.11970132759 133 137 136
-430.813903441938 43.359216596294 2219.72361590447 126 130 129
-433.537413175675 43.1997749404557 2225.83849025351 124 128 127
-436.262252925514 43.0405838263776 2231.95846087062 129 133 132
-441.922897946229 43.0010810084137 2237.36324678292 139 145 145
-452.482812282001 43.1600316279379 2241.6017506213 144 150 150
-571.815112937808 58.6764803833201 1778.75328799038 182 186 187
-565.295804405466 58.0591024065957 1789.22826355096 180 184 185
-568.151548564672 57.8624448319425 1795.81060222167 177 181 182
-566.311578238291 57.4568686384128 1804.30930400728 140 141 143
-560.705239498651 56.8854971331175 1814.30575414178 121 123 122
-378.900869731404 47.9301141461406 1909.07222872618 174 176 175
-362.748799707226 46.926297973043 1922.50466290072 163 164 166
-356.951725303781 46.3799898525874 1931.8087726078 134 135 137
-352.087793967166 45.8765391970471 1940.70819720642 125 126 128
-348.159128556072 45.41570048721 1949.21066344685 108 109 111
-344.221974388528 44.9561612596331 1957.68243302341 101 102 104
-344.063350841516 44.6616244080052 1964.70018050228 108 109 111
-342.954409213068 44.3269025273784 1972.06146188523 102 103 105
-338.996809453157 43.8708254961978 1980.45950683411 103 104 106
-333.132863016388 43.3348149279651 1989.52276414592 110 111 113
-327.257734604683 42.8005091128151 1998.54465224574 118 119 121
-326.122672481002 42.4701945914245 2005.81173592525 115 119 120
-324.983405354776 42.1407707643493 2013.06376959224 126 130 131
-324.79161840607 41.8524307109301 2019.96322921696 128 132 133
-320.787412681972 41.4039750355884 2028.19211805793 123 127 128
-316.774426473641 40.9568743284215 2036.39019116035 120 124 125
-317.52262486692 40.7112718472197 2042.90936498674 117 121 122
-316.360084396158 40.3862726905513 2050.07778279217 121 125 126
-316.148614337918 40.1019709621243 2056.90671247597 123 127 128
-311.154003360914 39.6194973488816 2065.33419298868 124 128 129
-307.106105647813 39.1782828562783 2073.40636276409 126 130 131
-304.964776989084 38.8176116120035 2080.81453076048 128 132 133
-306.650725816621 38.6159800729211 2086.94682872186 138 140 139
-309.295645564233 38.4540744625213 2092.76835824373 134 136 133
-310.022798256727 38.2137076919095 2099.21269906151 135 140 136
-308.827616304082 37.8953431222339 2106.26411417318 142 147 143
-309.550531633787 37.6561596205371 2112.69346954748 132 141 136
-305.462585876915 37.2220897224356 2120.62145950851 123 132 127
-284.039496697696 36.0875606010976 2133.88363828326 144 153 148
-242.352061340933 34.140467590591 2153.22449233028 165 171 167
-222.772448376885 33.0942337137024 2165.59424120696 148 153 149
-218.597201136426 32.6718781273351 2173.20549367323 149 154 150
-216.344342746735 32.328178384424 2180.21028855529 144 149 145
-215.051840738795 32.0240154514347 2186.9093395458 156 161 157
-214.722071342933 31.7592660585061 2193.3104622736 161 166 162
-215.356749397581 31.5335443027054 2199.42163800378 164 169 165
-215.021902611651 31.2699886824502 2205.80466306297 158 163 159
-219.529458624683 31.1983286784899 2210.80520253202 151 155 154
-226.950546228182 31.2408892300007 2215.00626548623 139 143 142
-236.321647487557 31.3589466985204 2218.70051293998 136 140 139
-244.73284271666 31.4380146818111 2222.70345092672 137 141 142
-257.04195369447 31.6678660527941 2225.68757229552 114 118 119
-292.711864224365 32.8036420193836 2222.45859577061 107 111 112
-354.71458762265 34.9526550173385 2212.42981459795 133 137 138
-390.504708712288 36.075242975093 2209.63975912487 141 145 146
-402.948792528793 36.2910220095886 2213.11519463071 145 149 148
-417.359716208627 36.5802510024403 2216.146852749 143 147 146
-427.883888143529 36.7181492608745 2220.23936069959 128 132 131
-431.581996565531 36.5937449215633 2226.09760028268 127 131 130
-436.260566931081 36.5066387331126 2231.72333061245 134 138 137
-440.943356611102 36.4193911582376 2237.36463716591 150 156 156
-451.505573120775 36.5544850844831 2241.59569763504 150 156 156
-579.405580607311 52.1175559641831 1767.72550373851 193 197 198
-566.331359430782 51.2464897827355 1780.97837963979 164 165 167
-560.741724949274 50.6928486670411 1791.04897247309 149 150 152
-559.836837827761 50.3369530519813 1799.15450025922 141 141 141
-561.747567162127 50.0992154052953 1806.09856868051 142 142 142
-558.014744360341 49.6275686304183 1815.32133649874 129 127 128
-371.407264004741 41.0120777826373 1911.95192389958 194 196 195
-363.732607668972 40.4077821366227 1922.04189939106 189 191 190
-358.876429940555 39.9212267872742 1930.9807784291 186 188 187
-354.010324802408 39.4362817236121 1939.88381559062 188 190 189
-349.134305987796 38.9528298245256 1948.75098792039 187 189 188
-346.141002899825 38.5474738176496 1956.86497963038 187 189 188
-345.035186626125 38.219791709774 1964.24138036443 192 194 193
-345.820507226701 37.9692244092608 1970.89617616626 187 189 188
-340.91338385457 37.490785184308 1979.65102811033 184 186 185
-335.047097428959 36.9759349363848 1988.71802799816 180 182 181
-327.269306250809 36.3870911001808 1998.43483949757 186 188 187
-325.181365045288 36.026996861435 2006.04251795765 187 191 190
-323.088007676188 35.6678827644916 2013.62977705162 191 195 194
-324.79759975364 35.4602818473231 2019.84608901317 150 154 153
-320.789954551521 35.0278137544321 2028.07323049147 154 158 157
-318.681063679446 34.6716226294072 2035.60466214483 171 175 174
-314.657749085552 34.2417177430845 2043.77524451703 174 178 177
-314.446254383054 33.9622494959439 2050.60620528607 187 191 190
-314.231736642075 33.6834414564196 2057.42728794875 186 190 189
-311.145134596366 33.2941109358784 2065.20406754539 186 190 189
-308.051169568714 32.9059136758962 2072.95515433707 189 193 192
-305.908148698466 32.5558649786642 2080.36374600386 188 192 191
-305.67660908152 32.2804408808053 2087.1237662209 181 183 182
-305.442467231737 32.0057581291951 2093.87366388215 178 180 179
-306.165296226474 31.7683971169581 2100.30477835857 169 173 172
-307.847713675879 31.568127144917 2106.42482462724 166 170 169
-309.530178706757 31.3681982682117 2112.54526290632 161 170 167
-304.476801388256 30.9138659589296 2120.77232245705 160 169 166
-280.15349483577 29.7348241377725 2134.9283497389 166 175 172
-239.40807367596 27.9450158794671 2153.96876982126 175 184 181
-223.674303656554 27.1026674822384 2165.15989184544 166 172 170
-219.496552938989 26.6963427781868 2172.77197045175 152 158 156
-218.207806973868 26.3992839546522 2179.48945205589 124 130 128
-215.9481911783 26.0671969385794 2186.47648968213 115 120 116
-214.650045239118 25.7719473489398 2193.16021328049 116 121 117
-218.187907180889 25.6561116123723 2198.42889885714 118 123 119
-219.791004210485 25.4690302075712 2204.26277052436 123 128 124
-224.30257029843 25.3889635390805 2209.27289108772 124 128 127
-229.78858896522 25.3441461307258 2214.02689724209 123 127 126
-238.193172599883 25.4051758163134 2217.99389923765 129 133 132
-246.607810921202 25.4654469919296 2221.99775343061 131 135 134
-266.701177311524 25.9473477964566 2222.86907014928 129 133 134
-311.149350765494 27.3047261921243 2217.30323003804 132 136 137
-365.399471890441 29.0055873044364 2209.38003757276 158 162 163
-393.414536661235 29.7538462643143 2208.65881124362 153 157 158
-402.938333025505 29.8353470329251 2212.89783473036 147 151 150
