ply
format ascii 1.0
comment KinectMotionCapture
element vertex 752
property float x
property float y
property float z
property uchar red
property uchar green
property uchar blue
end_header
-638.252198696136 362.940818071365 2226.0000705719 167 169 168
-638.762891292572 366.712898015976 2249.00007247925 185 187 186
-987.900733947754 310.585111379623 1937.00003623962 196 198 195
-980.496168136597 309.911608695984 1932.99996852875 193 195 192
-971.60530090332 308.758497238159 1925.99999904633 184 186 183
-963.259279727936 307.766944169998 1919.99995708466 177 179 176
-957.445740699768 307.578176259995 1919.0000295639 170 172 169
-951.642155647278 307.390481233597 1917.99998283386 171 173 170
-947.821736335754 307.844936847687 1921.0000038147 167 169 166
-942.026495933533 307.659417390823 1919.99995708466 168 170 167
-936.728715896606 307.635188102722 1919.99995708466 167 169 166
-929.494321346283 306.97113275528 1916.00000858307 166 168 165
-923.732995986938 306.788772344589 1914.99996185303 162 164 161
-918.460369110107 306.767642498016 1914.99996185303 161 163 160
-914.145350456238 307.067900896072 1917.00005531311 156 158 155
-910.29691696167 307.529211044312 1919.99995708466 154 156 153
-905.021190643311 307.510912418365 1919.99995708466 154 156 153
-901.623606681824 308.134227991104 1924.00002479553 141 143 140
-895.87789773941 307.957679033279 1922.99997806549 136 138 135
-891.530215740204 308.262437582016 1924.99995231628 143 145 142
-887.635111808777 308.728277683258 1927.99997329712 152 154 151
-884.641945362091 309.515118598938 1932.99996852875 149 151 148
-879.804730415344 309.662371873856 1934.00001525879 134 136 133
-874.060571193695 309.490233659744 1932.99996852875 128 130 127
-869.672954082489 309.799283742905 1934.99994277954 139 141 140
-865.277290344238 310.109168291092 1937.00003623962 110 112 111
-860.429227352142 310.259759426117 1937.99996376038 118 120 119
-853.813290596008 309.77076292038 1934.99994277954 145 147 146
-846.777737140656 309.122562408447 1930.99999427795 152 154 153
-841.509699821472 309.115529060364 1930.99999427795 131 133 132
-836.243867874146 309.109181165695 1930.99999427795 127 129 128
-831.840991973877 309.423834085464 1932.99996852875 116 118 117
-826.146602630615 309.258967638016 1932.000041008 107 109 108
-821.309506893158 309.414952993393 1932.99996852875 104 106 105
-816.891252994537 309.731781482697 1934.99994277954 142 144 143
-812.883377075195 310.209333896637 1937.99996376038 131 133 130
-807.611107826233 310.207426548004 1937.99996376038 139 141 138
-801.926672458649 310.046195983887 1937.00003623962 140 142 139
-796.249449253082 309.885531663895 1935.99998950958 143 145 144
-790.98778963089 309.885650873184 1935.99998950958 152 154 153
-787.351369857788 310.526698827744 1940.00005722046 169 171 170
-784.097969532013 311.328440904617 1945.00005245209 168 170 169
-780.81887960434 312.130868434906 1950.00004768372 166 168 167
-776.718497276306 312.613695859909 1952.99994945526 159 160 162
-772.208631038666 312.937170267105 1955.00004291534 158 159 161
-767.296731472015 313.10111284256 1955.9999704361 161 162 164
-761.991322040558 313.105642795563 1955.9999704361 161 162 164
-758.234441280365 313.751012086868 1960.00003814697 170 171 173
-754.457056522369 314.396977424622 1963.99998664856 174 175 177
-751.803457736969 315.523743629456 1970.99995613098 171 172 174
-748.355567455292 316.330969333649 1975.99995136261 172 173 175
-746.009528636932 317.619025707245 1983.99996757507 168 169 171
-744.367897510529 319.227904081345 1993.99995803833 166 167 169
-740.819990634918 320.036858320236 1998.99995326996 172 173 175
-736.14227771759 320.366054773331 2000.99992752075 177 178 180
-730.358839035034 320.215404033661 2000 166 167 169
-728.568971157074 321.826547384262 2009.99999046326 171 172 174
-728.164613246918 324.078679084778 2023.9999294281 183 185 184
-728.042423725128 326.491594314575 2039.00003433228 181 183 182
-724.650323390961 327.463954687119 2045.00007629395 180 182 181
-721.226453781128 328.436881303787 2051.00011825562 176 178 177
-717.770516872406 329.410225152969 2056.99992179871 175 177 176
-714.628934860229 330.544292926788 2063.99989128113 174 176 175
-710.075855255127 331.038236618042 2066.99991226196 177 179 178
-706.870257854462 332.1732878685 2073.99988174438 173 175 174
-702.612936496735 332.828372716904 2078.00006866455 174 176 175
-699.004888534546 333.804249763489 2084.00011062622 174 176 175
-693.701207637787 333.979606628418 2085.00003814697 171 173 172
-690.372407436371 335.116505622864 2092.00000762939 173 175 174
-687.660694122314 336.57431602478 2101.0000705719 174 176 175
-684.900224208832 338.032573461533 2109.99989509583 172 174 173
-680.803835391998 338.850528001785 2115.00000953674 172 174 173
-676.999568939209 339.829057455063 2121.00005149841 173 175 174
-672.530055046082 340.487569570541 2125 170 172 171
-669.293940067291 341.787397861481 2132.99989700317 168 170 169
-664.770245552063 342.446714639664 2137.00008392334 172 174 173
-661.766767501831 343.907654285431 2145.99990844727 171 173 172
-657.797515392303 344.888240098953 2151.99995040894 170 172 171
-654.401540756226 346.189767122269 2160.00008583069 173 175 174
-649.460852146149 346.690267324448 2163.00010681152 165 167 166
-643.611133098602 346.710234880447 2163.00010681152 146 150 151
-640.119910240173 348.012804985046 2171.0000038147 159 163 166
-638.045966625214 350.117325782776 2184.00001525879 171 175 176
-637.059092521667 352.86357998848 2200.99997520447 170 174 175
-635.119736194611 355.129420757294 2214.99991416931 168 172 171
-633.67235660553 357.71644115448 2230.99994659424 178 180 177
-632.137894630432 360.30387878418 2246.99997901917 182 184 181
-987.868368625641 305.301368236542 1937.00003623962 192 194 191
-980.972290039063 304.797291755676 1934.00001525879 192 194 191
-972.584366798401 303.821623325348 1927.99997329712 179 181 178
-964.234054088593 302.847295999527 1922.00005054474 172 174 171
-957.418203353882 302.346855401993 1919.0000295639 170 172 169
-952.111840248108 302.320182323456 1919.0000295639 170 172 169
-947.796285152435 302.609622478485 1921.0000038147 168 170 167
-942.002058029175 302.427560091019 1919.99995708466 166 168 165
-936.217486858368 302.246540784836 1919.0000295639 167 169 166
-928.986847400665 301.594018936157 1914.99996185303 166 168 165
-923.711657524109 301.57259106636 1914.99996185303 159 161 158
-918.440043926239 301.552087068558 1914.99996185303 157 159 156
-913.649141788483 301.690071821213 1916.00000858307 152 154 151
-910.278379917145 302.30125784874 1919.99995708466 153 155 152
-905.946493148804 302.598506212235 1922.00005054474 154 156 153
-903.012931346893 303.368896245956 1927.00004577637 141 143 140
-896.793901920319 303.038150072098 1924.99995231628 135 137 134
-891.978621482849 303.180605173111 1925.99999904633 142 144 141
-887.160897254944 303.323924541473 1927.00004577637 145 147 144
-883.713603019714 303.940296173096 1930.99999427795 147 149 146
-880.247414112091 304.557502269745 1934.99994277954 138 140 137
-874.95356798172 304.545938968658 1934.99994277954 124 126 123
-870.561420917511 304.850041866302 1937.00003623962 137 139 138
-865.26757478714 304.840117692947 1937.00003623962 104 106 105
-859.976351261139 304.831027984619 1937.00003623962 114 116 115
-853.363990783691 304.350644350052 1934.00001525879 159 161 160
-846.332013607025 303.713738918304 1929.99994754791 153 155 154
-841.067314147949 303.707003593445 1929.99994754791 120 122 121
-836.67117357254 304.015845060349 1932.000041008 121 123 122
-832.696616649628 304.482728242874 1934.99994277954 98 100 99
-827.425122261047 304.478257894516 1934.99994277954 77 79 78
-823.005497455597 304.789215326309 1937.00003623962 77 79 78
-817.732751369476 304.78623509407 1937.00003623962 144 146 145
-812.881290912628 304.941236972809 1937.99996376038 124 126 123
-807.192981243134 304.782271385193 1937.00003623962 144 146 143
-801.925957202911 304.781347513199 1937.00003623962 143 145 142
-795.426785945892 304.309010505676 1934.00001525879 148 150 149
-790.579795837402 304.466724395752 1934.99994277954 156 158 157
-786.135017871857 304.782390594482 1937.00003623962 168 170 169
-783.293485641479 305.728167295456 1942.999958992 168 170 169
-780.420780181885 306.674480438232 1949.00000095367 165 167 166
-776.323974132538 307.149440050125 1952.00002193451 157 158 160
-771.422266960144 307.310283184052 1952.99994945526 155 156 158
-766.124188899994 307.314366102219 1952.99994945526 160 161 163
-761.217057704926 307.476401329041 1953.9999961853 160 161 163
-757.466077804565 308.111011981964 1957.99994468689 169 170 172
-754.078924655914 308.903634548187 1963.00005912781 175 176 178
-750.665783882141 309.696853160858 1968.00005435944 172 173 175
-747.605264186859 310.647964477539 1973.99997711182 172 173 175
-744.513273239136 311.599642038345 1980.00001907349 168 169 171
-742.136299610138 312.866687774658 1988.00003528595 163 164 166
-738.975763320923 313.819468021393 1993.99995803833 170 171 173
-734.679877758026 314.300686120987 1996.99997901917 178 179 181
-729.638338088989 314.467668533325 1998.00002574921 164 165 167
-728.216826915741 316.209048032761 2009.0000629425 169 170 172
-728.175461292267 318.580597639084 2023.9999294281 182 184 183
-727.696716785431 320.79541683197 2038.00010681152 181 183 182
-723.599135875702 321.436733007431 2042.00005531311 178 180 179
-718.425512313843 321.60621881485 2042.99998283386 174 176 175
-714.642882347107 322.405874729156 2048.00009727478 174 176 175
-711.179792881012 323.363423347473 2053.99990081787 174 176 175
-708.371937274933 324.636369943619 2062.00003623962 173 175 174
-705.861985683441 326.067239046097 2071.00009918213 172 174 173
-701.613128185272 326.711416244507 2075.00004768372 173 175 174
-697.67826795578 327.513486146927 2079.99992370605 173 175 174
-691.720306873322 327.371150255203 2078.9999961853 169 171 170
-687.748193740845 328.17405462265 2084.00011062622 170 172 171
-684.403836727142 329.292356967926 2091.00008010864 173 175 174
-681.670904159546 330.725997686386 2099.99990463257 176 178 177
-678.889453411102 332.160204648972 2108.99996757507 177 179 178
-675.740361213684 333.437383174896 2117.00010299683 175 177 176
-671.28187417984 334.084898233414 2121.00005149841 175 177 176
-667.429327964783 335.047870874405 2127.00009346008 175 177 176
-663.544356822968 336.011201143265 2132.99989700317 173 175 174
-660.552084445953 337.447583675385 2141.99995994568 173 175 174
-656.899571418762 338.56925368309 2148.9999294281 167 169 168
-654.118061065674 340.164065361023 2158.99991989136 170 172 171
-649.480700492859 340.813875198364 2163.00010681152 167 169 168
-643.631160259247 340.833693742752 2163.00010681152 148 152 155
-638.371109962463 341.168969869614 2164.99996185303 148 152 155
-636.313736438751 343.237966299057 2177.99997329712 157 161 164
-635.632932186127 346.095472574234 2196.00009918213 166 170 171
-634.280920028687 348.638325929642 2211.99989318848 151 155 156
-631.421804428101 350.393533706665 2223.00004959106 175 177 176
-628.784000873566 352.30678319931 2234.99989509583 165 167 164
-626.916885375977 354.693412780762 2250 175 177 174
-984.776973724365 299.088925123215 1930.99999427795 196 198 195
-976.884424686432 298.284202814102 1925.99999904633 182 184 181
-970.03298997879 297.79040813446 1922.99997806549 175 177 174
-962.19938993454 296.988099813461 1917.99998283386 173 175 172
-956.892430782318 296.961158514023 1917.99998283386 170 172 169
-952.08603143692 297.090083360672 1919.0000295639 166 168 165
-947.278201580048 297.220021486282 1919.99995708466 167 169 166
-941.487789154053 297.041386365891 1919.0000295639 167 169 166
-935.706913471222 296.86376452446 1917.99998283386 162 164 161
-928.48014831543 296.222865581512 1914.00003433228 161 163 160
-923.691034317017 296.356797218323 1914.99996185303 163 165 162
-917.461276054382 296.027451753616 1912.99998760223 153 155 152
-913.153469562531 296.318024396896 1914.99996185303 153 155 152
-908.838391304016 296.609550714493 1917.00005531311 153 155 152
-905.929625034332 297.366052865982 1922.00005054474 147 149 146
-903.465330600739 298.278093338013 1927.99997329712 140 142 139
-898.642241954803 298.41747879982 1929.00002002716 130 132 129
-892.890632152557 298.248291015625 1927.99997329712 141 143 140
-888.068199157715 298.389405012131 1929.00002002716 144 146 143
-884.158670902252 298.840701580048 1932.000041008 146 148 145
-880.23567199707 299.292773008347 1934.99994277954 140 142 139
-874.49061870575 299.127042293549 1934.00001525879 129 131 128
-870.551347732544 299.580782651901 1937.00003623962 134 136 135
-865.704894065857 299.725979566574 1937.99996376038 100 102 101
-860.411882400513 299.717307090759 1937.99996376038 127 129 128
-852.473855018616 298.781543970108 1932.000041008 144 146 145
-845.886588096619 298.310548067093 1929.00002002716 130 132 131
-841.061234474182 298.458844423294 1929.99994754791 116 118 117
-838.398039340973 299.381107091904 1935.99998950958 86 88 87
-834.413349628448 299.840182065964 1939.00001049042 80 82 81
-829.986870288849 300.145298242569 1940.99998474121 109 111 110
-824.276924133301 299.987256526947 1940.00005722046 132 134 133
-818.15242767334 299.675285816193 1937.99996376038 132 134 133
-812.87944316864 299.673229455948 1937.99996376038 128 130 127
-807.191789150238 299.517244100571 1937.00003623962 138 140 137
-801.511466503143 299.361944198608 1935.99998950958 151 153 150
-795.015633106232 298.898011445999 1932.99996852875 152 154 153
-789.763510227203 298.898607492447 1932.99996852875 150 152 151
-786.542356014252 299.672991037369 1937.99996376038 168 170 169
-783.295512199402 300.448000431061 1942.999958992 169 171 170
-780.023157596588 301.223665475845 1947.99995422363 167 169 168
-775.531888008118 301.535993814468 1950.00004768372 158 159 161
-771.031200885773 301.848948001862 1952.00002193451 155 156 158
-766.128659248352 302.007794380188 1952.99994945526 158 159 161
-761.222004890442 302.167236804962 1953.9999961853 161 162 164
-756.69801235199 302.481919527054 1955.9999704361 166 167 169
-753.316760063171 303.261011838913 1960.99996566772 171 172 174
-749.909579753876 304.040759801865 1965.99996089935 170 171 173
-746.855020523071 304.975718259811 1972.00000286102 177 178 180
-743.01689863205 305.601865053177 1975.99995136261 174 175 177
-740.278124809265 306.692600250244 1983.00004005432 162 163 165
-737.131595611572 307.629138231277 1988.9999628067 169 170 172
-733.217716217041 308.256924152374 1993.00003051758 179 180 182
-728.552579879761 308.57589840889 1995.00000476837 164 165 167
-726.777255535126 310.132801532745 2005.00011444092 169 170 172
-726.747334003448 312.463611364365 2019.99998092651 182 184 183
-725.922822952271 314.485728740692 2032.99999237061 180 182 181
-721.839129924774 315.116137266159 2036.99994087219 178 180 179
-716.327905654907 315.128207206726 2036.99994087219 174 176 175
-712.212979793549 315.759539604187 2040.99988937378 173 175 174
-708.42307806015 316.546112298965 2046.0000038147 174 176 175
-707.011461257935 318.416118621826 2058.00008773804 174 176 175
-704.512774944305 319.822520017624 2066.99991226196 173 175 174
-700.951337814331 320.765227079391 2072.99995422363 172 174 173
-696.016013622284 321.089416742325 2075.00004768372 171 173 172
-690.404772758484 321.104526519775 2075.00004768372 170 172 171
-685.783743858337 321.584224700928 2078.00006866455 172 174 173
-683.110594749451 322.992920875549 2086.99989318848 172 174 173
-679.739773273468 324.092566967011 2094.00010108948 177 179 178
-676.653027534485 325.347393751144 2101.99999809265 178 180 179
-673.52306842804 326.602667570114 2109.99989509583 176 178 177
-670.349955558777 327.85838842392 2118.00003051758 177 179 178
-666.505932807922 328.804939985275 2124.00007247925 178 180 179
-662.629544734955 329.751938581467 2130.00011444092 176 178 177
-659.645617008209 331.163674592972 2138.99993896484 175 177 176
-655.695855617523 332.111388444901 2144.99998092651 167 169 168
-652.319610118866 333.369195461273 2153.00011634827 169 171 170
-647.998929023743 334.162771701813 2157.99999237061 168 170 169
-643.05591583252 334.646999835968 2161.00001335144 149 153 156
-638.096392154694 335.131525993347 2164.00003433228 144 148 151
-635.165512561798 336.700469255447 2174.00002479553 152 156 159
-633.916974067688 339.199095964432 2190.00005722046 167 171 172
-632.58159160614 341.698259115219 2206.00008964539 146 150 151
-630.307137966156 343.733221292496 2219.00010108948 171 173 172
-627.399206161499 345.458745956421 2230.00001907349 160 162 159
-624.431252479553 347.184658050537 2240.9999370575 166 168 165
-624.16273355484 350.460320711136 2262.00008392334 185 187 184
-994.721412658691 295.223087072372 1940.00005722046 201 203 200
-985.256433486938 293.974965810776 1932.000041008 194 196 193
-973.811864852905 292.11962223053 1919.99995708466 179 181 178
-966.978251934052 291.634917259216 1917.00005531311 177 179 176
-960.667312145233 291.303426027298 1914.99996185303 172 174 171
-957.365334033966 291.885703802109 1919.0000295639 168 170 167
-952.060997486115 291.860520839691 1919.0000295639 169 171 168
-946.267426013947 291.68426990509 1917.99998283386 169 171 168
-939.99308347702 291.357010602951 1916.00000858307 168 170 167
-934.22144651413 291.182816028595 1914.99996185303 159 161 158
-928.944230079651 291.1616563797 1914.99996185303 156 158 155
-924.15326833725 291.293531656265 1916.00000858307 158 160 157
-918.880879878998 291.274279356003 1916.00000858307 155 157 154
-912.658512592316 290.951937437058 1914.00003433228 153 155 152
-908.821105957031 291.39056801796 1917.00005531311 155 157 154
-904.970467090607 291.830033063889 1919.99995708466 145 147 144
-902.981281280518 292.878329753876 1927.00004577637 137 139 136
-898.161709308624 293.015480041504 1927.99997329712 130 132 129
-893.339872360229 293.153494596481 1929.00002002716 141 143 140
-888.515591621399 293.292343616486 1929.99994754791 148 150 147
-883.688986301422 293.432086706162 1930.99999427795 148 150 147
-878.859758377075 293.572604656219 1932.000041008 139 141 138
-874.027907848358 293.71389746666 1932.99996852875 132 134 131
-870.092213153839 294.159919023514 1935.99998950958 134 136 135
-865.249454975128 294.302821159363 1937.00003623962 93 95 94
-859.071850776672 293.990671634674 1934.99994277954 129 131 130
-852.025389671326 293.375492095947 1930.99999427795 125 127 126
-846.757113933563 293.36878657341 1930.99999427795 116 118 117
-843.234360218048 293.970495462418 1934.99994277954 74 76 75
-839.692175388336 294.572949409485 1939.00001049042 66 68 67
-834.40899848938 294.568419456482 1939.00001049042 124 126 125
-828.700363636017 294.412672519684 1937.99996376038 142 144 143
-822.999358177185 294.257640838623 1937.00003623962 139 141 140
-817.305862903595 294.1033244133 1935.99998950958 144 146 145
-812.458455562592 294.253468513489 1937.00003623962 136 138 135
-806.774258613586 294.10046339035 1935.99998950958 131 133 130
-801.925182342529 294.251948595047 1937.00003623962 143 145 142
-795.016050338745 293.644487857819 1932.99996852875 148 150 149
-789.764523506165 293.645322322845 1932.99996852875 150 152 151
-785.732209682465 294.10246014595 1935.99998950958 159 161 160
-783.297777175903 295.167922973633 1942.999958992 163 165 164
-779.625594615936 295.778274536133 1947.00002670288 167 169 168
-774.739921092987 295.933425426483 1947.99995422363 158 159 161
-770.24519443512 296.241104602814 1950.00004768372 153 154 156
-765.740931034088 296.549320220947 1952.00002193451 153 154 156
-760.837614536285 296.706199645996 1952.99994945526 159 160 162
-756.316900253296 297.01554775238 1955.00004291534 164 165 167
-752.170562744141 297.477394342422 1957.99994468689 169 170 172
-749.1534948349 298.395574092865 1963.99998664856 169 170 172
-745.347440242767 299.010396003723 1968.00005435944 170 171 173
-741.896748542786 299.777716398239 1973.00004959106 164 165 167
-738.793134689331 300.697475671768 1978.99997234344 162 163 165
-736.028671264648 301.769822835922 1985.99994182587 169 170 172
-732.12343454361 302.386790513992 1990.00000953674 173 174 176
-728.197157382965 303.004264831543 1993.99995803833 162 163 165
-725.700199604034 304.230123758316 2002.00009346008 169 170 172
-725.67892074585 306.520193815231 2016.99995994568 180 182 181
-723.791718482971 308.05104970932 2026.99995040894 180 182 181
-719.724833965302 308.670610189438 2030.99989891052 179 181 180
-713.878512382507 308.530688285828 2029.99997138977 176 178 177
-709.43409204483 308.999121189117 2032.99999237061 175 177 176
-706.012487411499 309.924006462097 2039.00003433228 172 174 173
-704.62030172348 311.761379241943 2051.00011825562 176 178 177
-702.822625637054 313.447296619415 2062.00003623962 178 180 179
-698.936998844147 314.22159075737 2066.99991226196 172 174 173
-694.353699684143 314.692318439484 2069.9999332428 170 172 171
-689.421832561493 315.011382102966 2072.00002670288 175 177 176
-684.809327125549 315.482884645462 2075.00004768372 176 178 177
-681.817412376404 316.715002059937 2082.99994468689 171 173 172
-678.782343864441 317.947566509247 2091.00008010864 174 176 175
-675.382196903229 319.028526544571 2098.00004959106 176 178 177
-670.986592769623 319.653689861298 2101.99999809265 176 178 177
-667.518854141235 320.735394954681 2108.99996757507 176 178 177
-664.01332616806 321.817576885223 2115.9999370575 177 179 178
-660.469889640808 322.900146245956 2122.99990653992 179 181 180
-657.813727855682 324.439406394959 2132.99989700317 179 181 180
-654.49196100235 325.67486166954 2141.00003242493 172 174 173
-651.429712772369 327.062875032425 2150.00009536743 171 173 172
-647.417783737183 327.994853258133 2155.99989891052 170 172 171
-643.373191356659 328.92718911171 2161.99994087219 153 157 160
-637.821555137634 329.099178314209 2163.00010681152 145 149 152
-634.601414203644 330.488592386246 2171.99993133545 150 154 157
-632.200837135315 332.334935665131 2184.00001525879 165 169 170
-631.742358207703 335.246950387955 2203.00006866455 151 155 156
-629.192173480988 337.094098329544 2214.99991416931 162 164 163
-626.576721668243 338.941782712936 2226.99999809265 160 162 161
-623.059928417206 340.333193540573 2236.00006103516 164 166 165
-621.70147895813 342.942655086517 2253.00002098084 177 179 176
-621.890068054199 346.466034650803 2276.00002288818 185 187 184
-992.639482021332 289.334297180176 1935.99998950958 200 202 199
-982.16700553894 287.810027599335 1925.99999904633 186 188 185
-971.247494220734 286.137729883194 1914.99996185303 177 179 176
-963.924467563629 285.512626171112 1911.00001335144 180 182 179
-959.637820720673 285.784989595413 1912.99998760223 167 169 166
-957.340061664581 286.655902862549 1919.0000295639 165 167 164
-950.548350811005 286.183297634125 1916.00000858307 173 175 172
-944.764077663422 286.010533571243 1914.99996185303 171 173 170
-938.498914241791 285.689413547516 1912.99998760223 162 164 161
-934.2001080513 285.966634750366 1914.99996185303 157 159 156
-928.4388422966 285.796821117401 1914.00003433228 154 156 153
-922.68693447113 285.627961158752 1912.99998760223 153 155 152
-917.903304100037 285.7586145401 1914.00003433228 155 157 154
-912.640988826752 285.740911960602 1914.00003433228 149 151 148
-908.330321311951 286.022633314133 1916.00000858307 152 154 151
-905.42596578598 286.753058433533 1921.0000038147 143 145 142
-902.966201305389 287.633538246155 1927.00004577637 129 131 128
-898.613452911377 287.917762994766 1929.00002002716 125 127 124
-893.789649009705 288.053542375565 1929.99994754791 132 134 131
-889.423966407776 288.33943605423 1932.000041008 146 148 145
-884.134948253632 288.327604532242 1932.000041008 149 151 148
-878.849029541016 288.316637277603 1932.000041008 138 140 137
-873.565793037415 288.306444883347 1932.000041008 133 135 132
-869.633495807648 288.744688034058 1934.99994277954 132 134 133
-864.794254302979 288.885295391083 1935.99998950958 89 91 90
-858.620285987854 288.578987121582 1934.00001525879 130 132 131
-852.900981903076 288.422673940659 1932.99996852875 112 114 113
-848.943412303925 288.863927125931 1935.99998950958 102 104 103
-844.972014427185 289.305925369263 1939.00001049042 58 60 59
-840.120434761047 289.450198411942 1940.00005722046 84 86 85
-833.974659442902 289.147585630417 1937.99996376038 154 156 155
-828.269481658936 288.994878530502 1937.00003623962 147 149 148
-822.571814060211 288.842856884003 1935.99998950958 135 137 136
-817.303836345673 288.840681314468 1935.99998950958 149 151 150
-811.198949813843 288.540840148926 1934.00001525879 148 150 147
-805.9401512146 288.540005683899 1934.00001525879 140 142 139
-800.6831407547 288.539797067642 1934.00001525879 143 145 142
-795.016705989838 288.391023874283 1932.99996852875 147 149 148
-790.17436504364 288.541257381439 1934.00001525879 150 152 151
-785.734057426453 288.841247558594 1935.99998950958 154 156 155
-782.494008541107 289.589494466782 1940.99998474121 159 161 160
-778.026938438416 289.890736341476 1942.999958992 163 165 164
-773.550391197205 290.192544460297 1945.00005245209 157 158 160
-769.459366798401 290.644109249115 1947.99995422363 153 154 156
-765.353441238403 291.096240282059 1950.99997520447 157 158 160
-760.453402996063 291.250556707382 1952.00002193451 159 160 162
-755.935847759247 291.554570198059 1953.9999961853 161 162 164
-751.792728900909 292.008370161057 1957.00001716614 166 167 169
-748.397409915924 292.761087417603 1962.00001239777 165 166 168
-744.976103305817 293.514370918274 1967.00000762939 168 169 171
-741.528570652008 294.268190860748 1972.00000286102 162 163 165
-738.428294658661 295.171797275543 1978.00004482269 165 166 168
-734.925866127014 295.926660299301 1983.00004005432 171 172 174
-730.661273002625 296.383559703827 1985.99994182587 170 171 173
-725.650727748871 296.542435884476 1986.99998855591 162 163 165
-722.08559513092 297.298789024353 1991.99998378754 172 173 175
-721.372425556183 299.249678850174 2005.00011444092 179 181 180
-720.232307910919 301.051795482636 2016.99995994568 180 182 181
-717.256009578705 302.108198404312 2023.9999294281 180 182 181
-712.484180927277 302.418798208237 2026.00002288818 178 180 179
-708.050906658173 302.87903547287 2029.00004386902 176 178 177
-704.640626907349 303.787589073181 2035.00008583069 171 173 172
-702.916026115417 305.442988872528 2046.0000038147 174 176 175
-701.132416725159 307.098954916 2056.99992179871 178 180 179
-696.922659873962 307.710349559784 2061.00010871887 175 177 176
-692.355811595917 308.172762393951 2063.99989128113 172 174 173
-687.77322769165 308.635592460632 2066.99991226196 174 176 175
-683.50476026535 309.248238801956 2071.00009918213 174 176 175
-679.86923456192 310.159802436829 2076.99990272522 172 174 173
-677.175402641296 311.519861221313 2085.99996566772 173 175 174
-673.145353794098 312.28294968605 2091.00008010864 175 177 176
-669.088244438171 313.046425580978 2095.99995613098 177 179 178
-665.320694446564 313.959658145905 2101.99999809265 176 178 177
-662.148118019104 315.172016620636 2109.99989509583 175 177 176
-658.621251583099 316.235393285751 2117.00010299683 178 180 179
-655.673265457153 317.597925662994 2125.99992752075 179 181 180
-653.593599796295 319.409072399139 2138.00001144409 177 179 178
-651.145696640015 321.071207523346 2148.9999294281 176 178 177
-647.136807441711 321.986794471741 2154.99997138977 173 175 174
-642.500042915344 322.603821754456 2158.99991989136 158 162 165
-637.251555919647 322.92228937149 2161.00001335144 152 156 159
-633.452773094177 323.988229036331 2167.99998283386 150 154 155
-630.773842334747 325.652301311493 2178.99990081787 162 166 167
-630.329251289368 328.51243019104 2197.99995422363 160 164 165
-627.792954444885 330.326825380325 2210.00003814697 162 163 165
-625.191211700439 332.141607999802 2221.99988365173 159 161 160
-621.688187122345 333.508312702179 2230.99994659424 167 169 168
-619.239926338196 335.473418235779 2243.99995803833 173 175 174
-616.720616817474 337.438851594925 2256.99996948242 178 180 177
-615.212619304657 340.002745389938 2273.9999294281 188 188 186
-986.969649791718 282.440900802612 1924.99995231628 179 181 178
-980.098366737366 281.97181224823 1922.00005054474 173 175 172
-971.726894378662 281.063765287399 1916.00000858307 182 184 181
-963.897824287415 280.303657054901 1911.00001335144 177 179 176
-959.612250328064 280.571341514587 1912.99998760223 170 172 169
-956.317603588104 281.133264303207 1917.00005531311 170 172 169
-949.532628059387 280.669629573822 1914.00003433228 169 171 168
-943.261444568634 280.353635549545 1911.99994087219 172 174 171
-938.477337360382 280.47850728035 1912.99998760223 162 164 161
-934.179425239563 280.750930309296 1914.99996185303 156 158 155
-928.419232368469 280.584454536438 1914.00003433228 155 157 154
-922.668099403381 280.418872833252 1912.99998760223 152 154 151
-918.364942073822 280.693978071213 1914.99996185303 151 153 150
-913.100719451904 280.67684173584 1914.99996185303 141 143 140
-908.788323402405 280.953705310822 1917.00005531311 144 146 143
-904.939353466034 281.377911567688 1919.99995708466 152 154 151
-902.483224868774 282.242596149445 1925.99999904633 131 133 130
-898.133993148804 282.52187371254 1927.99997329712 102 104 101
-893.313765525818 282.655417919159 1929.00002002716 107 109 106
-888.951599597931 282.936334609985 1930.99999427795 138 140 137
-884.123802185059 283.071488142014 1932.000041008 147 149 146
-878.83859872818 283.060967922211 1932.000041008 144 146 143
-874.008357524872 283.197671175003 1932.99996852875 131 133 130
-870.074152946472 283.628195524216 1935.99998950958 125 127 124
-864.786148071289 283.619940280914 1935.99998950958 104 106 103
-859.056890010834 283.465981483459 1934.99994277954 119 121 118
-853.776872158051 283.459216356277 1934.99994277954 88 90 87
-848.937630653381 283.599704504013 1935.99998950958 111 113 110
-844.531118869781 283.887386322021 1937.99996376038 155 157 154
-838.383913040161 283.58981013298 1935.99998950958 158 160 157
-832.249581813812 283.292949199677 1934.00001525879 167 169 166
-826.556026935577 283.143222332001 1932.99996852875 168 170 167
-822.144627571106 283.433645963669 1934.99994277954 167 169 166
-817.724406719208 283.724725246429 1937.00003623962 166 168 165
-810.358941555023 282.991111278534 1932.000041008 169 171 168
-804.689526557922 282.844036817551 1930.99999427795 163 165 162
-799.441456794739 282.844066619873 1930.99999427795 164 166 163
-794.606268405914 282.991170883179 1932.000041008 151 153 152
-790.175795555115 283.28537940979 1934.00001525879 142 144 143
-785.73614358902 283.580124378204 1935.99998950958 139 141 140
-782.496571540833 284.314930438995 1940.99998474121 148 150 149
-777.629673480988 284.464418888092 1942.00003147125 155 157 156
-773.156404495239 284.760922193527 1944.00000572205 153 154 156
-769.068658351898 285.204499959946 1947.00002670288 154 155 157
-764.573812484741 285.502135753632 1949.00000095367 152 153 155
-759.679615497589 285.653829574585 1950.00004768372 151 152 154
-755.167961120605 285.952508449554 1952.00002193451 156 157 159
-751.030921936035 286.398261785507 1955.00004291534 158 159 161
-747.641563415527 287.137508392334 1960.00003814697 163 164 166
-744.226157665253 287.877261638641 1965.0000333786 169 170 172
-741.536557674408 288.910567760468 1972.00000286102 167 168 170
-737.690150737762 289.504915475845 1975.99995136261 169 170 172
-733.822882175446 290.099710226059 1980.00001907349 169 170 172
-728.831112384796 290.255427360535 1980.99994659424 161 162 164
-724.930226802826 290.851205587387 1985.00001430511 166 167 169
-720.64596414566 291.300922632217 1988.00003528595 175 176 178
-718.864679336548 292.776823043823 1998.00002574921 180 182 181
-716.315746307373 293.960213661194 2006.00004196167 179 181 180
-714.078485965729 295.290648937225 2015.00010490417 180 182 181
-710.386335849762 296.035319566727 2019.99998092651 181 183 182
-706.66766166687 296.780496835709 2025.00009536743 181 183 182
-703.268527984619 297.672659158707 2030.99989891052 175 177 176
-700.868189334869 299.005031585693 2039.99996185303 172 174 173
-698.760330677032 300.484389066696 2049.99995231628 175 177 176
-694.569766521454 301.084816455841 2053.99990081787 173 175 174
-690.022468566895 301.53900384903 2056.99992179871 172 174 173
-685.791909694672 302.140235900879 2061.00010871887 173 175 174
-682.86007642746 303.328216075897 2069.00000572205 172 174 173
-677.921056747437 303.636968135834 2071.00009918213 172 174 173
-675.243735313416 304.972380399704 2079.99992370605 170 172 171
-671.552181243896 305.868417024612 2085.99996566772 174 176 175
-668.147385120392 306.911438703537 2092.99993515015 176 178 177
-663.438618183136 307.368278503418 2095.99995613098 176 178 177
-659.968912601471 308.412075042725 2102.9999256134 180 182 181
-657.083511352539 309.749573469162 2111.99998855591 179 181 180
-655.074656009674 311.527490615845 2124.00007247925 177 179 178
-652.694940567017 313.159137964249 2134.99999046326 177 179 178
-650.558650493622 314.937978982925 2147.0000743866 177 179 178
-646.855652332306 315.98374247551 2154.00004386902 175 177 176
-642.519414424896 316.736429929733 2158.99991989136 159 163 164
-637.271225452423 317.049354314804 2161.00001335144 154 158 161
-632.888317108154 317.802608013153 2165.99988937378 147 151 152
-629.925608634949 319.289863109589 2176.00011825562 156 160 161
-629.202723503113 321.951419115067 2194.00000572205 162 166 167
-626.961529254913 323.879688978195 2207.00001716614 160 161 163
-623.805582523346 325.368136167526 2217.00000762939 157 159 158
-619.758903980255 326.416611671448 2223.99997711182 168 170 169
-616.501867771149 327.905714511871 2233.99996757507 170 172 171
-612.643718719482 329.101592302322 2242.00010299683 174 176 173
-609.553337097168 330.738186836243 2253.00002098084 187 187 185
-607.742011547089 333.109080791473 2269.00005340576 180 180 178
-983.864486217499 276.32799744606 1919.0000295639 172 174 171
-979.050517082214 276.443868875504 1919.99995708466 177 179 176
-971.193015575409 275.696963071823 1914.99996185303 182 184 181
-963.872075080872 275.095164775848 1911.00001335144 176 178 175
-958.584189414978 275.07022023201 1911.00001335144 169 171 168
-953.799426555634 275.190204381943 1911.99994087219 169 171 168
-948.021471500397 275.023311376572 1911.00001335144 166 168 165
-943.239569664001 275.145173072815 1911.99994087219 168 170 167
-939.437508583069 275.555789470673 1914.99996185303 159 161 158
-934.64720249176 275.679469108582 1916.00000858307 153 155 152
-927.915036678314 275.228559970856 1912.99998760223 152 154 151
-921.685338020325 274.922490119934 1911.00001335144 148 150 147
-917.388558387756 275.192737579346 1912.99998760223 151 153 150
-913.084328174591 275.463849306107 1914.99996185303 143 145 142
-908.298671245575 275.591939687729 1916.00000858307 143 145 142
-905.867278575897 276.440024375916 1922.00005054474 148 150 147
-903.406381607056 277.288854122162 1927.99997329712 132 134 131
-900.449991226196 277.994602918625 1932.99996852875 106 108 105
-894.227683544159 277.694463729858 1930.99999427795 101 103 100
-888.940036296844 277.68275141716 1930.99999427795 138 140 137
-884.113132953644 277.815669775009 1932.000041008 150 152 149
-879.738390445709 278.093099594116 1934.00001525879 141 143 140
-875.355541706085 278.371304273605 1935.99998950958 130 132 129
-870.515108108521 278.506457805634 1937.00003623962 123 125 122
-864.778518676758 278.354793787003 1935.99998950958 114 116 113
-859.493970870972 278.347700834274 1935.99998950958 111 113 110
-855.094313621521 278.62885594368 1937.99996376038 109 111 108
-850.247621536255 278.76690030098 1939.00001049042 129 131 128
-844.090640544891 278.474390506744 1937.00003623962 156 158 155
-837.080597877502 277.895033359528 1932.99996852875 158 160 157
-830.955266952515 277.603954076767 1930.99999427795 167 169 166
-826.980888843536 278.032273054123 1934.00001525879 170 172 169
-822.567462921143 278.317511081696 1935.99998950958 170 172 169
-817.722976207733 278.459638357162 1937.00003623962 169 171 168
-809.938669204712 277.596056461334 1930.99999427795 156 158 155
-803.855955600739 277.308166027069 1929.00002002716 156 158 155
-798.199832439423 277.16463804245 1927.99997329712 159 161 158
-793.784737586975 277.453005313873 1929.99994754791 152 154 153
-789.768815040588 277.88570523262 1932.99996852875 146 148 147
-786.144196987152 278.462767601013 1937.00003623962 137 139 138
-782.096326351166 278.896659612656 1940.00005722046 145 147 146
-777.633011341095 279.18729186058 1942.00003147125 151 153 152
-773.160338401794 279.478520154953 1944.00000572205 150 151 153
-768.678188323975 279.770314693451 1945.99997997284 150 151 153
-763.401806354523 279.775083065033 1945.99997997284 151 152 154
-758.90588760376 280.067890882492 1947.99995422363 150 151 153
-754.400312900543 280.361294746399 1950.00004768372 152 153 155
-751.03747844696 281.086504459381 1955.00004291534 154 155 157
-748.030006885529 281.956017017365 1960.99996566772 159 160 162
-744.991183280945 282.826036214828 1967.00000762939 166 167 169
-741.920650005341 283.696591854095 1973.00004959106 163 164 166
-737.325310707092 283.992499113083 1975.00002384186 168 169 171
-733.090698719025 284.432709217072 1978.00004482269 166 167 169
-727.000951766968 284.154325723648 1975.99995136261 160 161 163
-723.114132881165 284.739226102829 1980.00001907349 165 166 168
-718.843817710876 285.180807113647 1983.00004005432 171 172 174
-715.997159481049 286.198079586029 1990.00000953674 178 180 179
-712.756156921387 287.072002887726 1996.00005149841 178 180 179
-711.255013942719 288.665533065796 2006.99996948242 181 183 182
-708.991765975952 289.971947669983 2016.00003242493 182 184 183
-705.982267856598 290.99115729332 2023.00000190735 181 183 182
-701.89642906189 291.579246520996 2026.99995040894 177 179 178
-699.163794517517 292.743235826492 2035.00008583069 171 173 172
-696.729004383087 294.051498174667 2043.99991035461 177 179 178
-693.231403827667 294.928669929504 2049.99995231628 177 179 178
-689.030647277832 295.518517494202 2053.99990081787 174 176 175
-684.475779533386 295.964807271957 2056.99992179871 174 176 175
-681.885182857513 297.274857759476 2065.99998474121 177 179 178
-676.954746246338 297.578096389771 2068.00007820129 171 173 172
-673.311948776245 298.457205295563 2073.99988174438 169 171 170
-668.99311542511 299.048960208893 2078.00006866455 173 175 174
-666.248619556427 300.360590219498 2086.99989318848 177 179 178
-662.189543247223 301.096975803375 2092.00000762939 177 179 178
-659.044742584229 302.265495061874 2099.99990463257 177 179 178
-655.856728553772 303.434491157532 2108.00004005432 176 178 177
-653.242170810699 304.891705513 2118.00003051758 175 177 176
-650.573313236237 306.349337100983 2128.00002098084 178 180 179
-648.456215858459 308.095306158066 2140.00010490417 179 181 180
-646.274030208588 309.841692447662 2151.99995040894 179 181 180
-642.836332321167 311.012595891953 2160.00008583069 170 174 175
-637.880504131317 311.463922262192 2163.00010681152 160 164 165
-632.615804672241 311.771392822266 2164.99996185303 142 146 147
-629.077196121216 312.943279743195 2173.00009727478 152 156 157
-628.362655639648 315.55563211441 2190.99998474121 162 166 167
-626.698195934296 317.736476659775 2206.00008964539 151 152 154
-623.263657093048 319.053441286087 2214.99991416931 158 159 161
-618.665337562561 319.794595241547 2220.00002861023 172 174 173
-614.039480686188 320.535898208618 2224.99990463257 169 171 170
-609.932720661163 321.565717458725 2232.00011253357 169 171 170
-606.598973274231 323.027938604355 2242.00010299683 183 183 183
-604.282021522522 325.066834688187 2256.00004196167 186 186 186
-603.479623794556 327.970743179321 2276.00002288818 177 179 178
-989.163637161255 271.124243736267 1919.0000295639 195 197 194
-984.348893165588 271.237164735794 1919.99995708466 163 165 162
-978.003561496735 270.927339792252 1917.99998283386 185 187 184
-969.645321369171 270.053565502167 1911.99994087219 177 179 176
-962.333917617798 269.463449716568 1907.99999237061 172 174 171
-957.556962966919 269.580513238907 1909.00003910065 168 170 167
-952.27986574173 269.557267427444 1909.00003910065 169 171 168
-947.503209114075 269.676148891449 1909.9999666214 165 167 164
-942.231774330139 269.654840230942 1909.9999666214 163 165 162
-938.436090946198 270.057886838913 1912.99998760223 153 155 152
-933.164298534393 270.038306713104 1912.99998760223 149 151 148
-927.896440029144 270.01965045929 1912.99998760223 150 152 149
-922.632277011871 270.001858472824 1912.99998760223 150 152 149
-917.851328849792 270.126104354858 1914.00003433228 147 149 146
-913.545310497284 270.392298698425 1916.00000858307 138 140 137
-909.231603145599 270.659267902374 1917.99998283386 134 136 133
-905.853033065796 271.209329366684 1922.00005054474 143 145 142
-902.924418449402 271.901249885559 1927.00004577637 141 143 140
-899.50555562973 272.452741861343 1930.99999427795 122 124 121
-894.678890705109 272.581815719604 1932.000041008 100 102 99
-889.389276504517 272.57052063942 1932.000041008 119 121 118
-884.560346603394 272.701114416122 1932.99996852875 137 139 136
-879.7287940979 272.832453250885 1934.00001525879 131 133 130
-875.798940658569 273.246705532074 1937.00003623962 124 126 123
-870.507061481476 273.238480091095 1937.00003623962 103 105 102
-865.664541721344 273.372024297714 1937.99996376038 113 115 112
-860.375225543976 273.36522936821 1937.99996376038 75 77 74
-855.52966594696 273.500233888626 1939.00001049042 107 109 106
-849.803924560547 273.353785276413 1937.99996376038 126 128 125
-843.650341033936 273.067027330399 1935.99998950958 132 134 131
-836.643755435944 272.498846054077 1932.000041008 126 128 125
-831.812739372253 272.636562585831 1932.99996852875 114 116 113
-827.406048774719 272.915959358215 1934.99994277954 112 114 111
-823.840260505676 273.478120565414 1939.00001049042 111 113 110
-817.721724510193 273.194640874863 1937.00003623962 105 107 104
-811.196386814117 272.77073264122 1934.00001525879 111 113 110
-804.689347743988 272.347420454025 1930.99999427795 105 107 104
-799.4424700737 272.347897291183 1930.99999427795 103 105 102
-794.608533382416 272.489964962006 1932.000041008 117 119 118
-790.996372699738 273.055672645569 1935.99998950958 132 134 133
-787.36424446106 273.622095584869 1940.00005722046 147 149 148
-782.905519008636 273.906886577606 1942.00003147125 150 152 151
-778.036952018738 274.05121922493 1942.999958992 155 157 156
-773.164331912994 274.196088314056 1944.00000572205 166 167 169
-768.682718276978 274.482578039169 1945.99997997284 167 168 170
-763.79919052124 274.628460407257 1947.00002670288 161 162 164
-759.690761566162 275.057047605515 1950.00004768372 159 160 162
-754.40639257431 275.062948465347 1950.00004768372 155 156 158
-750.659883022308 275.633573532104 1953.9999961853 154 155 157
-747.655808925629 276.486873626709 1960.00003814697 159 160 162
-744.620084762573 277.340680360794 1965.99996089935 169 170 172
-741.176724433899 278.053909540176 1970.99995613098 168 169 171
-736.960649490356 278.485476970673 1973.99997711182 166 167 169
-733.099699020386 279.05860543251 1978.00004482269 161 162 164
-727.010428905487 278.785675764084 1975.99995136261 161 162 164
-723.124086856842 279.359757900238 1980.00001907349 166 167 169
-718.854188919067 279.793173074722 1983.00004005432 168 169 171
-714.928507804871 280.368089675903 1986.99998855591 164 166 165
-710.981845855713 280.94345331192 1991.00005626678 169 171 170
-708.431541919708 282.083719968796 1998.99995326996 179 181 180
-707.597136497498 283.930093050003 2012.00008392334 179 181 180
-704.598844051361 284.930199384689 2019.00005340576 177 179 178
-700.870513916016 285.648494958878 2023.9999294281 176 178 177
-697.1156001091 286.367267370224 2029.00004386902 170 172 171
-694.356560707092 287.509799003601 2036.99994087219 172 174 173
-692.230939865112 288.935124874115 2046.99993133545 178 180 179
-687.703192234039 289.372831583023 2049.99995231628 177 179 178
-683.159589767456 289.8108959198 2052.99997329712 173 175 174
-679.920077323914 290.814012289047 2059.99994277954 180 182 181
-675.98819732666 291.535198688507 2065.00005722046 171 173 172
-672.029197216034 292.256712913513 2069.9999332428 169 171 170
-667.721331119537 292.837381362915 2073.99988174438 171 173 172
-664.66897726059 293.9832508564 2082.00001716614 177 179 178
-660.623610019684 294.705867767334 2086.99989318848 179 181 180
-657.178938388824 295.711308717728 2094.00010108948 175 177 176
-654.007375240326 296.858251094818 2101.99999809265 175 177 176
-652.026176452637 298.570603132248 2114.00008201599 175 177 176
-648.757040500641 299.718350172043 2121.99997901917 178 180 179
-646.050453186035 301.149010658264 2131.99996948242 179 181 180
-644.79124546051 303.286343812943 2147.0000743866 179 181 180
-642.557740211487 305.000334978104 2158.99991989136 175 179 180
-638.194739818573 305.72584271431 2164.00003433228 171 175 176
-632.343173027039 305.745154619217 2164.00003433228 144 148 149
-628.517866134644 306.753754615784 2171.0000038147 146 150 151
-627.522349357605 309.175699949265 2187.99996376038 157 161 162
-626.434445381165 311.598122119904 2204.99992370605 152 153 155
-622.721612453461 312.749117612839 2213.00005912781 158 159 161
-617.571532726288 313.193768262863 2216.00008010864 171 172 174
-612.680673599243 313.779950141907 2220.00002861023 167 168 170
-607.767701148987 314.366281032562 2223.99997711182 165 166 168
-604.455828666687 315.801024436951 2233.99996757507 180 180 182
-601.89300775528 317.660212516785 2246.99997901917 184 184 184
-599.789440631866 319.802552461624 2262.00008392334 180 182 181
-597.341597080231 321.803838014603 2276.00002288818 174 176 173
-990.681529045105 266.307592391968 1922.00005054474 182 184 181
-984.321415424347 266.002923250198 1919.99995708466 165 167 164
-977.46729850769 265.560775995255 1917.00005531311 184 186 183
-968.605816364288 264.565587043762 1909.9999666214 172 174 171
-961.300909519196 263.987153768539 1906.00001811981 169 171 168
-956.530451774597 264.102160930634 1906.99994564056 170 172 169
-950.760960578918 263.941138982773 1906.00001811981 170 172 169
-946.489691734314 264.196485280991 1907.99999237061 164 166 163
-941.717922687531 264.314234256744 1909.00003910065 159 161 158
-937.925755977631 264.709740877151 1911.99994087219 148 150 147
-932.657718658447 264.690786600113 1911.99994087219 147 149 146
-926.908433437347 264.534294605255 1911.00001335144 151 153 150
-922.132909297943 264.655530452728 1911.99994087219 154 156 153
-917.835175991058 264.916002750397 1914.00003433228 149 151 148
-914.006650447845 265.315681695938 1917.00005531311 137 139 136
-909.691154956818 265.577733516693 1919.0000295639 131 133 130
-906.781911849976 266.255766153336 1924.00002479553 142 144 141
-903.379917144775 266.796141862869 1927.99997329712 140 142 139
-900.89076757431 267.613977193832 1934.00001525879 131 133 130
-896.056652069092 267.740696668625 1934.99994277954 110 112 109
-890.759646892548 267.729878425598 1934.99994277954 105 107 104
-885.923206806183 267.858147621155 1935.99998950958 120 122 119
-881.084263324738 267.987161874771 1937.00003623962 125 127 124
-877.599060535431 268.531948328018 1940.99998474121 120 122 119
-872.296988964081 268.524020910263 1940.99998474121 97 99 96
-867.444396018982 268.655270338058 1942.00003147125 89 91 88
-861.256897449493 268.372118473053 1940.00005722046 69 71 68
-856.847763061523 268.643021583557 1942.00003147125 115 117 114
-850.6760597229 268.361300230026 1940.00005722046 128 130 127
-845.389246940613 268.356919288635 1940.00005722046 119 121 118
-838.805496692657 267.938196659088 1937.00003623962 112 114 111
-833.961546421051 268.073469400406 1937.99996376038 100 102 99
-828.686594963074 268.07102560997 1937.99996376038 100 102 99
-825.113236904144 268.622547388077 1942.00003147125 102 104 101
-818.565011024475 268.206387758255 1939.00001049042 103 105 102
-812.454402446747 267.929196357727 1937.00003623962 97 99 96
