ply
format ascii 1.0
comment KinectMotionCapture
element vertex 782
property float x
property float y
property float z
property uchar red
property uchar green
property uchar blue
end_header
-598.470109952659 -162.379457997039 2079.94874777788 19 22 13
-606.473942253831 -162.79463754542 2069.88110549548 20 23 14
-614.67432389652 -163.232826956243 2060.79692297983 24 27 18
-626.824344263921 -164.203734143333 2078.43072559577 27 30 21
-640.858973172126 -165.440521189897 2109.93862084232 23 26 17
-650.955402956245 -166.145515829421 2114.72686553092 20 23 14
-658.0158950069 -166.428212019368 2097.72230741977 19 22 13
-664.895721196344 -166.678692881777 2078.72483630572 21 24 15
-671.479980685509 -166.879209754615 2056.74081702678 22 25 16
-681.259725948473 -167.533191185248 2058.54538643536 22 25 16
-690.394842514007 -168.09417095375 2055.39124074936 19 20 14
-699.17192109781 -168.601206953507 2049.25833246448 18 19 13
-709.058511326913 -169.272707521244 2052.0575417559 17 18 12
-720.804165637309 -170.229271008883 2070.74945618974 18 19 13
-726.814133004729 -170.310542958823 2040.7745735534 16 17 11
-732.532734500939 -170.331702143648 2006.80490468891 14 15 9
-737.226510393513 -170.173190385954 1961.87713568894 17 18 12
-747.600724876494 -170.907494798913 1967.63895931129 17 18 12
-755.232844862432 -171.196606996377 1947.53978074626 19 20 14
-763.676689936676 -171.61038527188 1934.39392221758 15 16 10
-770.410964049251 -171.728025339651 1903.32105905745 15 16 10
-781.525473482058 -172.58276136626 1916.0448653551 13 13 5
-789.489701572052 -172.893468703324 1895.90453880086 23 23 15
-794.210143892032 -172.61259971144 1838.88015378045 22 23 15
-896.987641403214 -178.067047756011 1718.23804542515 104 87 80
-492.118956558912 -164.562344991932 2024.69872321446 23 26 19
-513.534836656863 -166.438127149872 2089.5511690156 28 31 24
-521.664518032751 -166.900737858599 2081.48332061733 37 39 34
-534.647141864698 -167.88710490939 2101.02887442133 15 17 12
-550.224258153209 -169.161441552899 2136.37536390894 22 23 18
-565.934556990721 -170.45971050763 2173.72091049181 20 20 18
-565.38088624135 -169.971028229203 2114.33085477001 17 17 15
-573.04135478291 -170.381165393153 2103.29836187773 17 17 15
-583.924315849283 -171.14994357193 2112.01984901416 17 18 13
-592.107072842304 -171.616511556939 2103.94562778275 20 23 16
-597.268884343535 -171.737412604808 2076.09230881121 21 24 15
-609.639503814451 -172.67786012704 2094.70618884695 21 24 15
-614.377287074262 -172.741263095415 2062.87440574371 22 25 16
-625.65619774841 -173.558684870395 2074.56991037442 21 24 15
-637.575561396434 -174.455315213407 2091.2246148817 17 20 11
-647.724652048045 -175.147290802593 2096.0064937889 20 23 14
-652.783490220706 -175.231467818353 2064.13469963831 20 23 14
-662.030327392428 -175.812472120778 2061.97459198198 21 24 15
-670.626332524098 -176.313770885116 2054.85657838642 21 24 15
-680.026401338293 -176.912377795545 2053.68508178104 20 23 14
-676.84100877311 -175.94274233638 1953.30412855942 18 19 13
-688.852045129653 -176.853511515596 1970.95487691821 17 18 12
-720.68783536493 -179.701992302767 2074.81990825587 16 17 11
-726.107076869829 -179.786804636986 2039.88007827861 14 15 9
-731.149060402843 -179.809350869313 1999.94824786191 13 14 8
-736.621521787635 -179.874741472727 1961.97818337978 15 16 10
-742.61507608197 -179.996428240876 1926.9667796692 15 16 10
-756.292660209754 -181.159600311383 1963.55795415954 14 15 9
-767.624822954914 -181.269747602358 1881.52308273908 16 17 11
-786.635529473165 -182.428973585033 1872.09942151128 20 20 12
-501.926161289498 -175.37448345566 2133.34913799688 22 24 19
-494.401245111297 -174.436207488349 2040.5641044761 20 22 17
-513.477442558143 -175.915545038247 2092.6065914658 20 22 17
-531.562458410604 -177.312179013508 2140.74132533151 20 22 17
-541.632410860012 -177.97696001302 2144.52508123557 15 16 11
-553.539336557742 -178.812950451449 2159.16556376736 14 15 10
-562.193095268509 -179.348305419327 2155.06373411569 14 15 10
-568.404041657727 -179.654298361372 2136.14988143541 17 17 15
-567.617297071472 -179.298057029411 2073.76595916574 16 16 14
-580.486026260913 -180.225130247716 2094.33325729777 9 10 5
-588.560557216904 -180.699230423776 2085.26463450478 15 18 11
-600.813650274635 -181.572477509434 2102.88531707393 17 20 11
-608.150510476435 -181.975125880164 2088.86988730451 17 20 11
-614.967357391711 -182.325017110322 2070.8882245234 16 19 10
-623.181762666087 -182.808311763667 2061.80217045573 18 21 12
-633.716583261008 -183.518259695705 2068.55157434107 20 23 14
-643.649941490223 -184.170260484614 2071.34465564185 21 24 15
-652.329999101322 -184.698207171027 2065.22391006833 21 24 15
-661.842362792759 -185.308779110055 2065.04635860255 20 23 14
-671.217986824944 -185.905787688564 2063.8779083523 19 22 13
-679.048871595252 -186.345397571302 2050.80861167239 17 20 11
-683.164128460441 -186.400687038579 2007.96921592991 17 18 12
-707.635844339271 -188.181169581872 2050.26926248195 12 13 7
-716.918193274192 -188.767683581631 2048.1047376771 13 14 8
-722.635270588299 -188.974547475212 2015.14343516646 16 17 11
-726.726239914373 -188.999139986295 1966.2603863993 17 18 12
-737.443316621425 -189.731430947878 1975.00247883529 18 19 13
-747.891891187897 -190.43684380062 1981.76263377213 16 17 11
-752.767031465274 -190.526402204438 1935.8051977549 12 13 7
-756.971290409365 -190.529011185673 1880.86159036243 19 20 14
-763.149547079429 -190.74113657655 1842.80407349089 18 19 13
-772.317898227971 -191.286569202274 1833.59913625594 13 14 8
-784.053526377348 -192.128508094183 1851.28431293742 22 22 14
-496.195455147288 -184.409397948623 2156.258887411 35 38 31
-508.485015583593 -185.227976147149 2171.8592606332 26 28 23
-518.92990650327 -185.795189351301 2126.21593791768 22 24 19
-524.507221617033 -186.103642623768 2104.35762332173 23 25 20
-537.434817157172 -186.971807586336 2123.90973305023 23 25 20
-542.279507406012 -187.222799422329 2097.10401862383 19 20 15
-559.947077177175 -188.456187845205 2145.29041739122 16 17 12
-565.853781555453 -188.788010090665 2124.39898587067 16 17 12
-572.51521847372 -189.176673001294 2107.44450654044 17 18 13
-579.105186061003 -189.558649234422 2089.49124145288 16 17 12
-593.120675659242 -190.516104909304 2117.97748799962 14 17 10
-600.841688037923 -190.98550259438 2106.93759565486 18 21 12
-608.918541177652 -191.481979789047 2097.86898226489 19 22 13
-613.489838239727 -191.702895999715 2065.0507033622 19 22 13
-623.316151277047 -192.334898851671 2066.84940350804 19 22 13
-634.408682878183 -193.067240397666 2077.56025599125 19 22 13
-645.017139884958 -193.762269223331 2085.30787802825 21 24 15
-653.521421411339 -194.290627862866 2078.20138225759 21 24 15
-662.461451206221 -194.853336270158 2074.06413997008 22 25 16
-669.97004573567 -195.300948258295 2059.01946981501 21 24 15
-679.35940947666 -195.898940381587 2057.84930752045 20 23 14
-686.098737900064 -196.282407216022 2035.84641834749 19 20 14
-689.617861717928 -196.401936313316 1987.03498253116 16 17 11
-699.919084121104 -197.071282664302 1991.79781670187 13 14 8
-712.31284337147 -197.913228745083 2014.43953829141 15 16 10
-717.539977688636 -198.165730014502 1976.50082219497 17 18 12
-720.602212986951 -198.234615694308 1917.66891847774 17 18 12
-733.102825366126 -199.085734027087 1941.3050166815 17 18 12
-740.535713682328 -199.513825058457 1919.21569285044 12 13 7
-747.455188394705 -199.896195185853 1891.14371647086 15 16 10
-753.60461741599 -200.209973786492 1854.09775191776 15 16 10
-509.37561304954 -194.52423187017 2179.83481828493 21 24 17
-517.990966751954 -195.101752048971 2124.34200608419 19 22 15
-534.43007536498 -196.12489705485 2163.61149145175 19 22 15
-527.366976459702 -195.72728229586 2069.76232231067 19 22 15
-536.939253675786 -196.3356976223 2069.57704804312 17 18 12
-546.673841742504 -196.953926610972 2070.37947155185 18 19 13
-565.271454717424 -198.106311826043 2124.49619623333 19 20 14
-573.384715178832 -198.626450197065 2116.43078883391 19 20 14
-578.1994977 -198.948354588188 2087.61337899568 16 17 11
-587.383728715282 -199.533414351897 2085.46109489746 17 20 11
-601.024714812714 -200.386068832939 2111.97842708045 21 24 15
-606.975913556206 -200.777112405726 2089.06598441831 22 25 16
-614.971512926675 -201.291096672784 2078.9996297557 21 24 15
-623.888349395245 -201.860437323561 2074.86505905523 21 24 15
-636.245010733026 -202.635423497901 2094.48817261384 22 25 16
-646.669046295933 -203.294663101558 2101.2510280089 25 28 19
-653.7568470743 -203.754954741897 2084.24352962128 24 27 18
-661.873139049531 -204.276864205459 2074.16237437458 20 23 14
-669.774766251306 -204.786266943688 2062.09212035264 18 21 12
-672.056718068182 -204.962520458573 2006.38093544486 20 23 14
-691.365064373416 -206.191328401666 2005.99021846284 17 18 12
-702.462454054547 -206.890988991852 2017.70806572045 14 15 9
-710.651729571325 -207.418956696184 2005.60220404827 17 18 12
-715.319394611876 -207.740103504341 1962.69457115715 18 19 13
-722.019662295486 -208.181771687787 1935.65779377633 16 17 11
-732.163731773867 -208.825964753274 1938.42455899757 16 17 11
-737.34607235332 -209.180056117926 1895.45278440025 13 14 8
-745.058804270952 -209.682993158434 1874.33642194464 15 16 10
-517.407678422847 -204.43546057964 2124.4393770085 20 23 16
-527.892565790187 -205.079592131756 2130.18691157341 20 23 14
-540.411684254123 -205.81364662362 2147.77402918585 15 16 8
-537.366644393238 -205.857271245783 2075.59539006016 16 17 9
-549.258933491685 -206.564687524583 2089.22967345934 17 18 10
-561.235032728538 -207.274175535384 2103.86119040275 18 19 11
-568.433324851527 -207.775255515153 2089.8633123265 18 19 11
-573.316548444118 -208.178494435864 2061.03757563877 17 18 10
-587.10827359046 -208.964061099353 2087.53591980624 19 22 13
-597.982932030377 -209.623365876607 2096.25815476706 20 23 14
-608.803827257557 -210.279282955014 2104.98709013761 19 22 13
-616.902755187496 -210.821361500344 2095.91560176512 19 22 13
-626.209576482967 -211.413964553819 2094.75572608785 21 24 15
-634.51707114772 -211.966088033254 2086.6661636398 23 26 17
-643.143001130793 -212.531917331205 2080.5525129055 23 26 17
-651.246722226748 -213.077740384856 2070.47274913706 22 25 16
-657.514038089784 -213.552901228357 2046.51339134891 18 21 12
-667.073285843962 -214.158448483483 2046.32973552822 17 20 11
-670.423290515344 -214.52719478416 1998.54798845311 16 19 10
-679.342806913148 -215.111895827965 1992.39750929925 18 19 13
-697.947967310176 -216.055727131814 2063.64486516948 16 17 11
-705.499123835609 -216.586393239936 2047.58741515081 14 15 9
-707.329845123626 -216.914706772649 1982.86327716881 17 18 12
-712.399831438192 -217.366746754234 1942.92908322702 16 17 11
-724.008113520253 -218.050158596784 1958.61412000437 13 14 8
-726.371689694413 -218.419149554674 1891.80797754022 15 16 10
-737.26738088127 -219.080389594228 1900.52759283501 16 17 11
-748.737684320136 -219.758426299292 1915.22214727789 17 18 12
-516.646440731729 -213.763986431037 2123.55125421457 21 24 15
-529.943245798819 -214.471485190569 2145.0722398645 22 25 16
-539.833116321724 -215.076939196078 2147.87062559464 25 26 18
-545.790105150885 -215.571038177057 2127.9810333201 24 25 17
-557.191591494045 -216.556891073989 2083.22712272199 16 18 7
-563.472913433252 -217.071699822257 2063.29735039994 16 18 7
-581.323085606158 -217.887887566943 2114.4831643473 21 23 12
-588.555450137257 -218.427022793769 2100.48113445309 19 22 13
-598.473690214978 -219.03442500979 2103.27598496105 18 21 12
-606.255140151728 -219.590426409976 2092.22877843415 17 20 11
-616.168773221448 -220.197578991632 2095.02420321207 17 20 11
-623.584381876665 -220.748465373087 2080.99933648074 19 22 13
-631.642696442576 -221.316117958281 2070.92529666611 21 24 15
-637.926682041958 -221.849405145656 2047.971939034 18 21 12
-646.943679808241 -222.441868456132 2043.82492968844 17 20 11
-658.134633169869 -223.076045984131 2055.53092830455 17 20 11
-672.669736548253 -224.201531706678 2020.46392033242 17 20 11
-687.610780038013 -224.89317260913 2061.93485656303 16 17 11
-693.266930919894 -225.434990230338 2030.99765386478 15 16 10
-701.996611207791 -226.02742958915 2023.86319841552 15 16 10
-692.854122288741 -226.394894087064 1866.78668737173 15 16 10
-705.302352494487 -227.054868203026 1887.40575789499 15 16 10
-714.01031815704 -227.670191650363 1876.24308390552 12 13 7
-751.170238084665 -229.602231957405 1944.16959052725 17 18 12
-759.817689620681 -230.213788024539 1933.01445842176 19 20 14
-468.244869800245 -220.556257908481 2072.16712215931 30 33 22
-498.111618106675 -222.379252336326 2077.51439375322 14 17 8
-509.463419002038 -223.005528689629 2087.1849245442 15 18 9
-521.459007313085 -223.637653765261 2100.8058782669 18 21 12
-536.314407851506 -224.302479659168 2131.20215272881 24 25 17
-542.314215830857 -224.85164223594 2111.3073618855 25 26 18
-559.978050398373 -225.5371154733 2159.49278386907 23 25 14
-561.053105349102 -226.036364938597 2109.97966628006 19 21 10
-561.421638797143 -226.5433687101 2054.50837596045 16 18 7
-579.942886411374 -227.221937297963 2109.64106990646 16 18 7
-589.380393881199 -227.814265817411 2109.47257174246 17 20 11
-593.731312805497 -228.372740114857 2076.68292394444 18 21 12
-603.097047147063 -228.969303895425 2075.51570669775 17 20 11
-613.057449022301 -229.56858747551 2078.3052742825 15 18 9
-621.683781897183 -230.162031464311 2072.19140572325 13 16 7
-631.769044401783 -230.760490518731 2075.97331663519 14 17 8
-638.737893775428 -231.353878960263 2057.97332608715 16 19 10
-647.176386694802 -231.952965642926 2049.86753950729 15 18 9
-656.328092652692 -232.553531463365 2046.71142781167 14 17 8
-652.922191300216 -233.189477158653 1949.38552258721 15 18 9
-681.692196764683 -234.371550830492 2020.37244011922 13 14 8
-689.567964024978 -234.987589937254 2006.29031989179 16 17 11
-700.506394075181 -237.021049351723 1851.75113224458 12 13 7
-711.46340045082 -237.639962143187 1859.45529720081 14 15 9
-725.579122653081 -238.205105929598 1895.98997949475 12 13 7
-486.024476987127 -230.664275773072 2118.34729587521 15 18 11
-485.004518555193 -231.245435043412 2062.04154905249 14 17 8
-493.895569544328 -231.846560641947 2057.91027993195 13 16 7
-507.803111338673 -232.44424394719 2081.370374519 12 15 6
-521.927602351272 -233.032671139028 2106.81874494693 13 16 7
-530.193133622516 -233.628542018699 2099.74222158772 18 21 12
-544.627103368925 -234.202063943091 2128.17523321012 23 26 17
-550.681256245208 -234.807017435479 2108.27404763708 26 29 20
-565.584084483941 -235.364252251958 2140.6794942615 21 24 15
-575.921303302119 -235.942108811881 2146.44528245551 20 23 14
-572.337480403893 -236.636778331482 2066.27361744817 14 17 8
-582.051280413657 -237.232594240049 2067.07833589072 11 14 5
-591.754735860779 -237.82774373763 2067.8845837873 16 19 10
-602.659376971368 -238.407119816658 2076.6028665987 17 20 11
-612.022786033014 -239.003670305062 2075.43593949819 16 19 10
-622.700813674517 -239.580135253141 2083.17480756625 14 17 8
-629.604113811529 -240.216073215536 2065.18310922807 14 17 8
-641.802290765436 -240.762469320101 2083.81747135008 15 18 9
-653.064867921625 -241.318477430767 2096.52201298188 13 16 7
-650.733421655655 -242.162116451434 2010.14784795406 14 17 8
-660.923410293338 -242.753614342465 2013.91643106301 17 20 11
-662.392462632397 -243.562481347263 1951.25406694453 16 19 10
-689.98028849277 -245.458431682951 1935.7232963079 14 15 7
-692.679266954332 -246.311022336735 1875.93086138856 12 13 7
-696.16292305105 -247.167449807114 1820.07150210496 11 12 6
-710.839994642446 -247.629446216102 1859.55940151091 14 15 9
-447.536170976951 -239.765598593645 1971.00257274538 34 37 30
-475.01997072866 -240.889060593949 2011.91731169894 17 20 11
-486.225756504937 -241.474819240164 2019.59010287774 17 20 11
-507.034624575688 -241.90127316617 2080.48349477542 15 18 9
-520.814364409597 -242.422501601105 2103.95909668166 13 16 7
-539.485160070359 -242.841204439133 2156.04938227379 14 17 8
-538.928161829284 -243.619935178037 2098.67845368674 19 22 13
-552.782920008678 -244.117323018001 2124.16024542872 21 24 15
-559.05920403862 -244.774457747585 2105.23916371655 18 21 12
-562.346814935402 -245.512491018484 2067.54376730788 19 22 13
-573.024348457183 -246.078722660164 2074.27474272319 22 25 16
-596.874487225417 -247.12732870748 2104.55722479993 20 23 14
-605.254568548394 -247.747054827401 2097.4664690934 18 21 12
-611.433942350711 -248.440760276169 2075.53427594908 15 18 9
-627.230430967773 -248.818940653807 2117.9053192962 15 18 9
-633.031513252493 -249.531349074511 2092.99708238714 15 18 9
-634.73972886516 -250.411394555136 2038.36727714376 13 16 7
-653.308798005791 -250.651991094324 2102.56275455214 13 16 7
-646.479727226281 -251.916313425852 1983.4948974007 15 18 9
-657.274321115822 -252.475544584206 1991.21893303683 18 21 12
-667.890351257468 -253.037654974453 1997.95781312594 18 21 12
-668.6671473583 -254.072476964579 1928.328143313 14 15 9
-675.545548078937 -254.839119507526 1904.29329335399 14 15 9
-688.394915659623 -255.300699027524 1927.88484313383 15 16 10
-691.105514104645 -256.315861684802 1868.09138623684 14 15 9
-698.509254396601 -258.343908686179 1757.32696143707 17 18 12
-706.260137839089 -259.151749500574 1734.19126665356 11 12 6
-462.294749393236 -249.138495814381 2050.81413427415 14 17 10
-470.082531026683 -249.788537047868 2040.77407233769 20 23 16
-473.49653099305 -250.568415761879 2007.09400218034 18 21 12
-481.630185230839 -251.223417814949 1998.01871781871 19 22 13
-505.729320591071 -251.38060227597 2076.64012354139 18 21 12
-518.467058037581 -251.869266560395 2094.19931257089 14 17 8
-531.276033665413 -252.345411443546 2112.75726562531 11 14 5
-555.22641103869 -253.327534256622 2142.01937633733 16 19 10
-562.112169826779 -254.004978718835 2127.05327792499 13 16 7
-561.430607894192 -255.000354369046 2065.66747601538 12 15 6
-572.274822709399 -255.538418565841 2073.38550377964 13 16 7
-589.202045835568 -255.800099896853 2119.64612001027 16 19 10
-591.037393744684 -256.734456018775 2071.04719555968 22 25 16
-596.321002055008 -257.530991364614 2043.18045632529 23 26 17
-609.354434481661 -257.953056628214 2065.74124474295 21 24 15
-625.039132774968 -258.220553770918 2107.11826028302 15 18 9
-634.026368662276 -258.827376248806 2103.98268995655 14 17 8
-636.400283270608 -259.812930007803 2054.30900329483 14 17 8
-639.454802887586 -260.79075128325 2007.57342208308 15 18 9
-647.637813935158 -261.482437595672 1996.47622015621 15 18 9
-651.890865196083 -262.434414152279 1955.63760434643 18 21 12
-661.304823739225 -263.068267636775 1952.4490930092 18 21 12
-668.946232740321 -263.827491445432 1935.37329481551 14 15 9
-672.684723317919 -264.882783239508 1886.5369476222 14 15 9
-682.659954545232 -265.501224929865 1886.3016537491 13 14 8
-683.804740608938 -266.816794992312 1812.59557137413 13 14 8
-695.368177986904 -267.332075030142 1824.2547730748 13 14 8
-694.339353697804 -268.917647342176 1726.63472349387 14 15 9
-467.445320898411 -257.493472858682 2129.8064231418 32 34 29
-462.269268458537 -258.6667267213 2053.86570796444 18 21 14
-468.737050391025 -259.395995923496 2036.93629260611 22 25 18
-483.9628744601 -259.754309872582 2066.27760584609 19 22 13
-487.933621581974 -260.601117875912 2035.5515347544 18 21 12
-505.139226969969 -260.848285796765 2076.73869654428 18 21 12
-525.286954126482 -260.927071018388 2135.69806488116 17 20 11
-534.339000571103 -261.524299092065 2133.5623086807 12 15 6
-563.770003871377 -264.311194279475 2083.5398623732 15 18 9
-575.047174329006 -264.793038342257 2094.22677307375 10 13 4
-588.127602687075 -266.33896002851 2056.31910558403 11 14 5
-596.030554909323 -267.040550906082 2045.25711969493 10 13 4
-608.167140572006 -267.458367441679 2061.88345523986 12 15 6
-622.551105454636 -267.703056223153 2094.35282986477 14 17 8
-634.018325631768 -268.137425456959 2108.03944029268 13 16 7
-635.808497404939 -269.299361138789 2054.407836851 16 19 10
-634.42613394308 -270.753298652998 1975.97881642252 18 21 12
-642.151422175586 -271.522379108441 1960.90819101889 16 19 10
-654.607185179214 -271.900963191346 1980.51765309594 17 20 11
-661.608065136773 -272.742408101796 1959.49101700495 16 19 10
-659.660664856738 -274.417145810347 1868.0321979489 17 18 12
-670.941449567959 -274.918401037005 1877.71126190113 16 17 11
-678.376270790837 -275.787351160286 1856.63030467092 13 14 8
-684.817553392844 -278.470633140001 1739.94111131223 12 13 7
-704.413906867843 -279.876790754652 1729.43732799401 12 13 7
-464.145774868938 -268.074495657153 2066.75719943432 23 26 19
-472.449152391672 -268.739827618833 2059.67613600995 18 21 14
-485.771405386382 -269.1172044767 2079.17746207956 19 22 13
-495.887793119696 -269.672870137479 2081.9476889539 19 22 13
-507.954789062859 -270.105183345681 2095.55920522883 17 20 11
-522.236115283685 -270.385907603759 2121.99512059219 17 20 11
-538.973637070848 -270.48544269062 2163.24030766237 17 20 11
-537.855092682777 -271.765579537727 2102.91747558645 13 16 7
-564.761816526423 -272.356133250871 2149.94942993332 21 24 15
-566.441630649024 -273.499321910045 2103.38583932922 19 22 13
-570.454755414647 -274.498511320401 2069.63157948582 12 15 6
-578.27100721931 -275.222256387236 2058.58047163853 11 14 7
-585.212889576145 -276.02529957938 2041.59208563127 10 13 6
-594.676059644274 -276.628773710448 2040.4127271801 8 11 4
-604.438431117277 -277.206234301384 2041.21133585311 8 11 4
-616.68444156694 -277.55920822296 2058.83153216902 12 15 8
-631.419695925078 -277.665538381466 2094.28000514499 14 17 10
-629.847845396977 -279.29897444286 2016.88303165211 16 19 12
-638.690740478913 -281.55111379779 1940.20336300793 17 20 13
-648.677067926674 -282.142499495828 1940.97430023932 17 20 13
-659.165390305179 -284.386577578809 1869.12794652682 16 17 11
-665.944568859839 -285.381227515428 1843.09070516051 14 15 9
-674.938536720967 -286.134253592894 1833.90807661885 11 12 6
-685.291442332879 -286.726177149034 1835.64095557716 12 13 7
-680.199092397013 -289.305325550096 1706.28223669134 12 13 7
-703.093850156009 -288.287617929885 1814.27617611695 10 11 5
-704.659776075261 -290.097810849417 1737.49553898613 10 11 5
-721.754180738728 -289.768412997283 1798.85048344861 14 15 9
-445.637848288712 -277.549540895404 2024.75023536536 25 27 22
-468.880552026882 -277.214199436761 2094.40755722062 21 24 17
-479.169841030166 -277.745067583812 2098.16382883348 20 23 16
-480.931116360681 -278.89398126336 2056.62876318856 20 23 14
-492.567278154358 -279.333800736232 2067.27100349118 19 22 13
-508.803699200606 -279.410145493712 2103.53998814074 17 20 11
-521.301076549284 -279.753176340332 2120.12086180204 18 21 12
-531.439892048881 -280.274111326332 2123.89588545994 14 17 8
-538.640606597729 -281.037045011186 2110.90608175986 11 14 5
-543.884271714789 -281.978242387708 2086.06800972548 9 12 3
-576.121717694217 -283.378500748878 2108.2502010178 15 18 9
-601.544290280625 -285.40451389031 2088.95899504318 11 14 7
-603.69456477333 -286.754251267992 2040.32162323979 10 13 6
-609.043076851663 -287.802648540917 2011.43976057009 13 16 9
-618.292105750361 -288.44291387531 2008.27160809408 14 17 10
-629.532698405553 -288.856454591647 2018.96314388243 10 13 6
-630.461738514954 -292.274939546234 1884.82397254974 10 13 6
-634.867227145795 -293.591208622594 1842.95960571059 9 12 5
-648.246243340978 -293.787166542906 1867.49228633649 9 12 5
-654.193943138792 -294.949020803318 1835.51240553464 13 14 8
-661.311339832764 -295.983299008019 1811.44843510008 11 12 6
-676.02470426785 -295.961003818793 1847.9072284457 9 10 4
-717.634605715695 -298.206909201074 1858.84466816688 11 12 6
-432.556995433788 -286.798998613792 2011.29073903829 29 31 26
-471.881915979799 -284.996194324434 2161.57357957216 21 23 18
-476.29089800652 -285.978750531293 2135.83185260293 28 31 24
-466.57114271933 -288.188346228954 2035.26679424343 23 26 19
-478.303212827281 -288.601741947673 2045.89699616942 20 23 14
-503.550096841406 -289.233944862442 2078.01969057925 16 19 10
-519.658147632886 -289.198070677652 2114.30415928435 18 21 12
-529.639803190517 -289.723517532671 2117.09088008879 18 21 12
-534.628627214628 -290.742573780272 2091.27712865658 16 19 10
-553.188090024625 -293.552391823291 2030.51824044364 15 18 9
-580.517360215823 -292.187293004624 2138.96555119012 13 16 7
-566.982574523472 -295.357183680612 1995.54544625771 13 16 9
-577.351198839016 -295.878742755153 1999.2917927775 13 16 9
-596.536509784089 -295.338221838138 2060.38500824353 13 16 9
-602.800681418134 -296.325984185029 2038.44276695077 13 16 9
-618.702863648003 -297.92830424727 2015.29961759959 12 15 8
-632.050848509677 -298.023342886728 2040.84359208331 12 15 8
-632.02056308104 -301.913640239123 1900.77901854956 10 13 6
-628.499405469953 -304.489171683402 1800.4493028915 8 11 4
-637.814272031912 -305.250803091752 1793.24226521607 8 11 4
-647.033710041184 -306.034250547456 1785.03950681343 8 9 4
-658.296907222941 -306.49988865364 1792.70481705507 8 9 4
-670.860478863948 -306.740321749626 1811.29277433763 8 9 4
-669.162884866965 -309.375611752875 1712.7512605585 9 10 5
-683.353333722548 -309.355550539414 1744.23640053165 10 11 6
-698.624390647681 -309.096308835119 1786.67133601924 11 12 6
-476.283362057456 -295.238663704336 2138.8804802599 22 25 18
-471.798536531884 -297.198513067567 2065.87887708469 22 25 18
-476.412489288219 -298.293625656029 2039.10418029521 17 20 11
-495.581774213336 -297.888085242141 2090.12215939199 16 19 10
-511.588848082321 -297.772664751433 2125.41133283949 17 20 11
-523.855507426894 -298.033497926676 2141.01309518089 18 21 12
-529.75199288701 -300.656144645027 2066.71771122159 13 16 7
-549.972821184565 -299.978887372133 2128.68926752055 11 14 5
-543.588660647719 -302.462773546047 2034.76295921507 11 14 5
-566.324351340664 -301.4229988063 2113.55160289092 13 16 7
-565.431938121771 -305.149228850491 1989.71814038917 12 15 8
-575.040789187098 -305.762509999016 1988.52062763723 13 16 9
-599.657316965092 -306.226188819295 2021.72923007469 16 19 12
-604.753171682744 -307.473797902708 1990.86380770199 12 15 8
-625.608394178556 -310.556435101144 1930.82706807912 12 15 8
-619.81088263819 -313.691733548543 1816.67408134186 10 13 6
-634.821146959708 -315.847432740649 1775.50388599702 7 10 3
-646.909444364566 -316.156620758508 1789.1126599984 7 8 3
-690.457817620602 -318.131352188111 1809.88506755923 10 11 6
-447.027655014163 -302.878284012464 2137.51262218066 34 39 33
-450.971521303929 -304.036025997964 2109.8140260548 18 20 15
-469.378195178146 -303.638179542152 2154.88083190609 26 28 23
-476.658576834656 -304.439294174439 2143.89656096652 24 27 20
-482.30180227182 -305.43725813141 2124.04769168757 18 21 14
-491.384654467024 -306.051766221767 2121.90789634913 16 19 10
-497.734474650353 -306.994176649425 2104.99400348828 17 20 11
-511.548135590116 -307.039519765664 2128.464119014 19 22 13
-536.548417588372 -309.173762002066 2109.22565715695 17 20 11
-545.673660869632 -309.790363456819 2107.08081744312 13 16 7
-556.967677949709 -310.109803671529 2117.76543836878 10 13 4
-548.067726659878 -313.260484996995 2007.02295984439 9 12 3
-563.911610095963 -312.965679097367 2044.34764055318 15 18 9
-587.501562357121 -313.466776846447 2071.63784896087 14 16 11
-592.145837998861 -314.801688000269 2039.8210835271 14 16 11
-598.00931566094 -315.979808828166 2014.90628648087 15 17 12
-603.605282438774 -321.762750208534 1850.96608900489 13 15 10
-607.310062007437 -323.506069102636 1805.15906220439 10 12 7
-613.990036871199 -324.769199664482 1779.13490790639 9 11 6
-624.017760016395 -325.441930624972 1776.87735158726 9 11 6
-633.133212139019 -326.290806072634 1767.68005521262 9 11 6
-636.770348485795 -328.230264240163 1715.83538328547 10 12 7
-656.396856106715 -327.003043370903 1787.95725076988 7 7 5
-662.216108435808 -328.54557781036 1751.96341329894 7 7 5
-696.996942843194 -326.676160014335 1870.5647636647 10 11 5
-448.638502764454 -311.939106927499 2148.42097841439 9 14 8
-455.885494483361 -312.766012050111 2137.44118252871 21 23 18
-470.351649600042 -312.712839089637 2162.84522566519 27 29 24
-475.699477152481 -313.780679595406 2142.02547694635 19 22 15
-487.743781335289 -314.007532466893 2155.63928394634 17 20 11
-490.432735016794 -315.449031259122 2120.03606343545 15 18 9
-498.795794834781 -316.165460171725 2113.95537367366 16 19 10
-505.385960009372 -317.131007897132 2098.01923520825 18 21 12
-517.911411988954 -317.279389770667 2114.59609272046 15 18 9
-528.768098218533 -317.647289960198 2122.31211600508 13 16 7
-535.449808194759 -318.618351111982 2106.36432754031 16 19 10
-537.813127311157 -320.25591006377 2064.75565748883 17 20 11
-575.240442677306 -320.581002233911 2117.52805508334 15 18 9
-584.501639888681 -321.172509100328 2116.37387013528 17 19 14
-591.583609410311 -322.132190459985 2101.3840290442 13 15 10
-597.51801645806 -323.308429362106 2078.47574967037 13 15 10
-590.897131344125 -334.11991172826 1766.92488294313 11 13 8
-609.185699376698 -333.184771325805 1823.09029164708 9 11 6
-610.753923640888 -335.531171105487 1760.41960049647 8 10 5
-621.100884020615 -336.154605400376 1760.1376899019 9 11 6
-628.685389446421 -337.362613423574 1739.03918613374 10 12 7
-642.550465988922 -337.231850936921 1765.52596336042 8 8 6
-651.858199977703 -338.078460724124 1757.31211220855 7 7 5
-694.490995921419 -337.099033011525 1854.78074437581 9 10 4
-709.023227592151 -336.575415360882 1893.27643626984 9 10 4
-704.132303139357 -341.008595147951 1761.88184873508 11 12 4
-458.925440788908 -323.446442724961 2107.86485346955 31 33 28
-477.373274890734 -324.666957653244 2104.55819992055 23 26 19
-482.796318166646 -325.833533009386 2082.72139737187 15 18 9
-493.45685105821 -326.242834217492 2088.44639399642 14 17 8
-504.621024927093 -326.567214042969 2097.13161713037 16 19 10
-506.322037453482 -328.353450223669 2053.59037609687 14 17 8
-515.599781811818 -328.985955584462 2051.42654703257 18 21 12
-526.088489009559 -329.422761801041 2056.16537182315 20 23 14
-546.136795837387 -330.431581282492 2060.72040857043 21 24 15
-585.078392040215 -325.901027892725 2237.24568898889 14 17 8
-586.917197970313 -327.734324398013 2192.679448718 11 14 7
-585.982128214525 -330.131126360199 2129.31359949592 17 20 13
-589.441490865972 -331.794740045733 2091.59920696674 14 16 11
-596.318068449442 -332.85768088938 2074.61965504033 15 17 12
-595.664241848994 -343.263360885397 1804.6490476391 11 13 8
-600.5976242306 -345.020223647458 1766.75071146128 8 10 5
-620.241951610187 -343.583685255989 1833.83088788647 6 8 3
-609.859345869951 -348.845731249437 1681.96094182507 6 8 3
-622.518690894934 -348.990158605054 1697.5133927645 8 10 5
-660.795628299409 -346.012563325586 1832.80765408072 9 9 7
-697.691612761623 -349.41408950269 1801.00249707491 8 9 3
-706.303798866036 -350.468673791525 1786.82963102253 9 10 4
-719.37734378404 -350.248664437348 1812.40726458982 7 8 2
-432.732076389477 -332.66277723222 2075.88620998904 25 28 21
-441.355740419861 -333.382781056977 2070.78093514356 15 18 11
-461.833778685316 -332.314386321794 2125.66483261899 21 24 17
-465.173672652416 -333.823272549244 2094.01154473269 25 28 21
-469.059431230398 -335.283483857323 2064.3053821828 22 25 18
-481.651651847026 -335.380112455278 2079.86608397523 17 20 13
-485.911863680926 -336.822245971958 2051.12107163245 16 19 12
-493.932910127701 -337.669890424716 2042.06010710557 19 22 15
-499.865549420085 -338.88476364939 2021.16776454439 21 24 17
-513.607458409219 -338.762116066953 2043.63894506237 22 25 18
-532.561067361115 -337.678513255401 2096.69742778874 23 26 19
-550.199818137195 -336.761132021065 2143.87407192281 23 26 19
-583.443320798378 -337.425581390519 2174.99892052089 17 20 13
-574.813478702893 -344.052862948963 2002.75865164185 7 8 2
-594.175275692404 -353.634586424814 1798.81557093945 10 10 8
-606.106933441695 -353.853392429793 1810.42804016086 8 8 6
-610.56718890688 -355.848364611963 1768.55838581629 4 4 2
-630.162467347656 -354.177621260543 1836.65199385557 3 4 0
-620.813365573868 -359.71373798365 1689.69247012439 12 13 8
-663.069665244499 -355.315478699241 1855.72685175006 9 11 8
-672.020793454407 -356.219343797135 1846.5499665728 8 10 7
-668.332250880126 -360.697302361901 1733.14525619123 8 10 7
-677.300474583749 -361.727056490417 1720.94326755838 7 9 6
-696.942183236287 -359.599368582942 1800.11515692084 6 8 3
-699.921843907708 -362.41615778357 1736.26187850654 13 14 9
-428.152911022148 -342.78781599928 2056.32914310807 23 26 19
-444.506647603714 -342.278577361083 2089.55864379603 20 23 16
-458.342275264671 -342.141930756591 2111.01016454496 17 20 13
-466.502936211718 -342.932284501257 2103.94724054592 32 35 28
-467.71450508542 -344.924079082242 2060.46762051745 17 20 13
-480.506300064982 -344.942661246075 2077.01089817495 19 22 15
-488.463210087994 -348.122818997346 2015.56074694823 20 23 16
-504.071094730103 -347.609204793318 2047.87562692771 18 21 14
-534.209896794412 -344.287807058753 2163.02122281873 9 12 5
-542.152191118445 -345.107627968446 2154.97794018581 9 12 5
-544.19161868558 -347.106879882511 2112.40271502346 10 13 6
-547.628625031614 -348.883939681086 2076.70702565045 10 13 6
-558.650920316877 -349.143993207022 2085.40978499183 12 15 8
-573.336901882116 -348.61496963975 2116.83174507814 16 19 12
-601.956641208829 -361.739496774793 1857.32371014956 6 6 4
-603.794706417477 -364.435724023217 1798.65125436406 15 15 13
-621.328570234109 -366.443217709684 1776.31323490577 10 11 6
-643.856389654372 -367.123455514152 1790.63556962023 6 8 5
-668.049259977289 -370.931541107529 1736.23082484967 9 11 8
-693.650516512884 -370.605626277981 1777.37643691608 12 14 9
-709.414077670131 -373.430652354429 1734.09862303173 19 20 15
-429.758543501256 -351.953574500714 2067.23842652093 26 29 22
-446.285279960331 -351.312548590612 2101.45367788805 20 23 16
-461.257874677964 -350.902538396723 2128.8089548346 15 18 11
-485.82375597467 -350.965831330156 2157.99183459001 19 22 15
-485.094578504552 -355.833814726712 2053.28850447675 16 19 12
-488.588198049601 -357.617009043995 2019.60114046261 14 17 10
-527.693569108522 -352.278933626219 2181.99527571709 11 14 7
-524.694839265616 -355.346843739128 2112.84212328645 8 11 4
-550.037200671615 -352.575917187678 2203.39387692564 8 11 4
-551.054354381323 -357.459299951172 2100.48827002416 8 11 4
-556.42002364538 -358.936180277796 2075.63638329549 7 10 3
-560.94553250394 -360.642537099722 2044.84334481 11 14 7
-603.299916710139 -374.585652213455 1799.74741776719 12 12 10
-613.271644704728 -375.268975082423 1797.49711747398 8 8 6
-620.420524685233 -376.763352898703 1774.43811686553 10 11 6
-625.973167777431 -378.769372797598 1738.47901149239 6 7 2
-639.600852375879 -378.410821653821 1762.97919949179 5 7 4
-652.07517386908 -378.35612323194 1779.56190298168 6 8 5
-663.461181564201 -378.609463833919 1788.21925548632 7 9 6
-677.425695172759 -381.999679963684 1733.0742342548 10 12 9
-689.656716372182 -381.975950912347 1748.67969464152 12 14 9
-698.744447559712 -383.025994220094 1737.47077297897 18 19 14
-708.768526491542 -383.757956557125 1734.2063805904 10 11 6
-723.321427582487 -382.796125231967 1772.69809877412 3 4 0
-419.533690368362 -360.898839933365 2067.5300574144 36 39 32
-431.168397405375 -361.095961651887 2077.16415302797 18 21 14
-444.716242732875 -360.915597562863 2096.63585771721 14 17 10
-455.039900351462 -361.328307505315 2100.38752916463 19 22 15
-480.486583955945 -358.760521779891 2181.85689428438 17 20 13
-486.951924931073 -359.875502729686 2166.94441376638 17 20 13
-489.953317116198 -361.718221585116 2133.31863357249 13 16 9
-476.790519660719 -366.974327407145 2012.02839872204 11 14 7
-532.011877679192 -362.964268527901 2157.2983435484 10 13 6
-554.137415215532 -360.632354291708 2230.11288453226 8 11 4
-552.868523932415 -369.098010332751 2057.96654090128 16 19 12
-561.972543623547 -369.780377666619 2054.81683585994 16 19 12
-570.928626261199 -370.503106642321 2050.67777141229 18 21 12
-600.561136037171 -385.385499637902 1785.00137486962 8 10 7
-628.631738301211 -388.074849397203 1763.36560258573 3 5 0
-633.912013169299 -390.30914328674 1724.41778674484 8 10 7
-661.460584594394 -389.267771811835 1777.41170754911 6 8 5
-671.731952058776 -389.871915237816 1777.13917970165 7 9 4
-674.289400412193 -393.230262976971 1712.33232996549 8 10 5
-691.331155369794 -391.418964558691 1768.65078597042 9 11 6
-706.245105970742 -394.813951305558 1717.41828184003 23 24 19
-727.046360397988 -396.036435386119 1716.8412420967 20 21 15
-436.783061823632 -369.34506733239 2107.72566229095 30 33 26
-444.92202756403 -370.184638595255 2100.66557533803 22 25 18
-454.262272382928 -370.784622739282 2099.50154804047 15 18 11
-469.169447194356 -370.211865067053 2126.86480068361 17 20 13
-482.595932012972 -369.91318634417 2147.35926623644 13 16 9
-497.396211274606 -369.280446000179 2175.74338794819 14 17 10
-509.461516231995 -369.210540715526 2190.36172004056 16 19 12
-505.323085771156 -372.795500624772 2117.32092821118 17 20 13
-517.457638631318 -372.72966342636 2131.93062928783 16 19 12
-538.465981637571 -370.542800436528 2196.82323447728 16 19 12
-546.139021339115 -371.456350165289 2187.805872694 11 14 7
-546.024023581437 -374.296432513968 2133.40875538785 19 22 15
-536.651704623927 -379.54896919612 2022.73076071706 25 28 21
-553.926776718593 -378.176820023189 2067.93597772021 24 27 20
-585.00412972353 -376.105945961279 2141.64992723006 14 17 10
-610.486674245682 -396.126642503209 1786.81431436113 4 6 5
-616.611728034612 -402.154787231462 1678.2353703888 8 10 5
-630.542832460559 -401.620343626153 1703.70491727918 9 11 8
-648.895863856615 -399.470924134129 1764.89799960415 9 11 8
-662.31246715433 -398.955938545129 1789.4238770687 6 8 3
-670.121835007654 -400.454016253701 1769.30600305408 5 7 2
-681.359454496209 -400.695328324422 1776.97391448599 6 8 3
-705.274764697888 -400.53152971064 1806.23738363042 10 11 6
-728.081073828144 -405.667707682024 1732.86167450535 20 21 15
-728.487460103383 -410.748689939191 1636.07941126673 29 30 24
-436.401916642629 -378.703674968149 2108.80555961454 23 25 20
-445.524522353275 -379.345684423344 2106.661115965 29 31 26
-453.874311991632 -380.159844389028 2100.58257988317 10 13 6
-463.980944262678 -380.587178899279 2103.35344595727 19 22 15
-478.80170869108 -379.929485874025 2130.72725843113 12 15 8
-504.293877964503 -376.73787019777 2215.21260593765 9 12 5
-511.286003937152 -377.797107803781 2203.25754053148 11 14 7
-505.649698006267 -381.93022697969 2122.34314094032 13 16 9
-514.202026584907 -382.700742722726 2117.24690135883 17 20 13
-530.514125856391 -381.527377719675 2155.51852494349 15 18 11
-531.720067490218 -384.15671697741 2109.01798454918 11 14 7
-524.995145304739 -388.940527714603 2015.14025805236 9 12 5
-545.448138361207 -386.644989518683 2078.08626697493 12 15 8
-555.813692926994 -386.975946088313 2082.84018173463 11 14 7
-568.094886948863 -386.763729827635 2099.44657157357 10 13 6
-612.555302968544 -409.564407261779 1731.16467463217 8 10 7
-623.243211046248 -410.079645884396 1732.85554531622 11 13 8
-624.830621905502 -413.894304579628 1665.14765063988 10 12 7
-649.653130087892 -409.213313155758 1775.91443237646 9 11 8
-654.214964461729 -411.997759857774 1730.00319197616 8 10 5
-667.170906213302 -411.60357466546 1750.55612700905 6 8 3
-678.104578174517 -411.967050658991 1755.23922971521 6 8 3
-710.657504286765 -408.109204000052 1858.99686559172 15 16 11
-717.025231861367 -410.287083587537 1825.95979664359 9 10 4
-716.972710571423 -415.436252165365 1732.2580432169 19 20 14
-722.587704763032 -418.230674211942 1687.22332833421 11 12 6
-732.342288301458 -419.182635568638 1679.96191780683 11 12 6
-738.63054705629 -421.85315631603 1637.8661587606 20 23 16
-432.614794406082 -388.827563360701 2093.18063606539 25 27 22
-451.862261875531 -387.152525035522 2141.16245397071 19 21 16
-468.305216805658 -386.054313455115 2176.39464389332 21 24 17
-462.43775619639 -390.220929457982 2098.53248081547 15 18 11
-470.642039871174 -391.09762849827 2091.46434034517 16 19 12
-492.333138789254 -388.646803836354 2155.26311913263 13 16 9
-518.626877698758 -390.742276413358 2144.93304409133 17 20 13
-520.436139260354 -393.303943541089 2102.38826365493 19 22 15
-534.431998058979 -392.629351275054 2127.84936050592 16 19 12
-539.153498839314 -397.70587335405 2044.6371651917 14 17 10
-556.384445101478 -396.073585116499 2089.84720377091 10 13 6
-569.136920091556 -395.667744515357 2109.4175721917 11 14 7
-573.947771374675 -397.605415027483 2080.60514828005 5 8 1
-578.596725672505 -399.648914339332 2049.79759238629 20 22 17
-618.21962563994 -422.077959060328 1700.25797927875 6 8 5
-630.800353104664 -421.891085828812 1715.81936875661 6 8 3
-637.563380925408 -423.950627789119 1686.76364569834 7 9 4
-665.309852320456 -422.402603947567 1740.73922260354 10 12 7
-679.368114494709 -421.436451069303 1771.23068009612 11 13 8
-691.041315423487 -421.423179846885 1782.87479203363 11 14 7
-698.210294677882 -423.391024778372 1755.78354135192 12 13 7
-708.516263310656 -423.988100627022 1755.506676871 13 14 8
-720.245032823532 -429.501082196569 1671.42116524603 17 18 12
-730.864464671579 -430.059188943946 1672.11300715221 18 19 11
-746.419392511058 -434.1857871534 1615.76352349617 23 28 22
-467.243745530131 -398.276752800172 2126.17133765143 35 37 32
-470.817446635705 -400.336363728262 2095.4980094286 23 26 19
-497.439163994358 -399.424401761268 2135.50704358472 18 21 14
-509.396086133154 -399.27753044094 2149.13077115784 14 17 10
-512.864334163545 -401.45147812009 2116.455289492 12 15 8
-521.43994215755 -402.245678620461 2111.35620715007 12 15 8
-533.507528000721 -402.044261068519 2125.97390826849 13 16 9
-535.413592740201 -404.787984604402 2082.40959943993 15 18 11
-546.044564278529 -408.456295382012 2031.71230556495 9 12 5
-562.701039907077 -406.841175431266 2073.9710186005 11 14 7
-582.318190509116 -404.196398792447 2136.01248864599 15 20 13
-580.049508579657 -408.500215095501 2062.7404966052 17 22 16
-663.567381389608 -433.202374184946 1731.9152087949 9 12 5
-695.066425231037 -429.482683762563 1822.70407369513 11 14 7
-719.588368133261 -439.99145158647 1671.53073913162 18 19 11
-728.559730127486 -441.413385245331 1656.30633035492 18 19 11
-738.709925933684 -442.240270444228 1652.01852193507 19 20 12
-752.486789068522 -441.044629636459 1684.55986621224 20 23 16
-462.089495072112 -405.792542807826 2151.02052244025 24 26 21
-473.273220254862 -408.934316004419 2111.33814044664 25 28 21
-495.493560510514 -405.965087352877 2178.09280940888 23 26 19
-507.009938396086 -405.876728412994 2189.75629419422 19 22 15
-499.552089623866 -411.196850093299 2098.99498679025 16 19 12
-511.927071531161 -410.908271816729 2114.58178426071 16 19 12
-524.916105667921 -410.404029225666 2134.12237236038 15 18 11
-530.672492217292 -412.047692320943 2113.2531543024 16 19 12
-532.264397772969 -415.016751139648 2067.71326989875 20 23 16
-537.297106059223 -416.995793206241 2040.88864269161 18 21 14
-566.835838984703 -414.74820072341 2102.70069098746 17 20 13
-567.653142933974 -418.176242174026 2049.19646340756 12 17 10
-579.932992923877 -417.815931263979 2065.80287124049 10 15 9
-668.892098109542 -446.218687771439 1695.00561513514 10 13 6
-695.215725744786 -444.775014830626 1741.09705201116 13 14 8
-700.107900717336 -448.140073664661 1692.12305478391 15 16 8
-716.011636126813 -445.905718658426 1741.52812457125 16 17 9
-722.108394614846 -448.774162012982 1701.4721590447 15 16 8
-729.448059734385 -451.085058410558 1671.33720962661 15 16 8
-744.07803908404 -449.341568446396 1711.83286489426 21 22 14
-747.824025639164 -453.841288791364 1643.85739681791 28 29 21
-451.129330353891 -414.796283051491 2146.36539410408 26 28 23
-467.772340094279 -413.341202759461 2182.57960593498 24 26 21
-473.414950881933 -414.901342186056 2163.7397406592 16 18 13
-481.246747637285 -415.870730285051 2155.71064134946 18 21 14
-481.435488706391 -419.074051926591 2107.3231789378 15 18 11
-488.532480776472 -420.328117574962 2094.34761256842 15 18 11
-537.579742665578 -415.56947098066 2208.13768688218 19 22 15
-538.088583607422 -418.858618116838 2158.70257655027 18 21 14
-542.970187732354 -420.833192316773 2132.90472185011 22 25 18
-546.135413687841 -423.428429387001 2096.23717633688 21 24 17
-559.083128073572 -426.583855072642 2059.357996436 17 20 13
-570.748562372019 -426.400995484421 2072.01031809633 21 26 19
-570.679079966794 -430.382467500214 2011.5639234257 9 14 8
-642.244919178972 -452.351230077468 1738.65754251364 10 12 7
-654.880408197106 -451.89475298311 1756.22700254633 9 12 5
-672.186898712308 -454.722265804705 1727.87291429641 11 14 7
-684.452861837333 -454.374171946282 1743.47315993421 13 16 9
-691.14521806272 -456.857183913566 1711.40406990311 16 17 11
-703.133700593484 -456.623618281423 1725.02387088825 16 17 9
-717.75993692526 -454.898222412062 1763.50442644743 16 17 9
-721.880989674899 -458.942509724907 1705.55830448009 16 17 9
-739.746560753635 -455.232342751604 1776.88570058603 16 17 9
-750.774947709991 -455.334849183255 1784.57935746128 18 19 11
-761.558333887225 -455.554236672236 1790.28852259105 23 24 16
-751.64016537528 -468.859039578463 1579.93186155962 20 21 13
-458.205427639078 -425.132229855855 2137.44758102136 15 17 12
-478.582501081808 -425.752027705338 2144.98386672744 13 16 9
-485.732312452525 -430.434844764965 2082.63046647389 12 15 8
-511.845372995616 -429.27566797411 2120.68695276562 12 15 8
-528.005301955361 -427.614716996578 2157.96859516706 15 18 11
-545.134595914547 -429.198867077392 2148.78060185758 20 23 16
-552.801524370044 -430.313502926437 2138.75708544538 23 26 19
-553.55165273979 -433.890262903461 2087.27700682199 19 22 15
-584.435441788446 -434.62385924602 2101.56463381156 18 23 17
-641.472215247349 -462.745076859859 1737.77365612349 13 15 10
-660.526655446233 -464.78798459642 1723.3079483069 12 15 8
-678.657314899658 -467.392920495021 1699.88933852596 15 18 11
-691.295951363707 -466.814253078493 1718.46577109034 19 20 12
-712.761190906927 -467.625201955758 1723.8513892933 20 21 13
-725.373085844887 -466.905712774089 1744.44616238932 23 24 16
-740.24649165402 -464.740202728539 1787.9336296624 19 20 12
-755.581325912509 -462.119999037029 1838.41660619823 25 25 15
-472.854211420116 -433.19213304876 2166.88118733901 15 18 11
-473.439545324744 -436.468930210107 2121.46748727585 18 21 14
-486.094402871788 -435.988131034004 2138.02677908111 17 20 13
-495.507721598722 -436.521964616384 2137.86114548489 15 18 11
-506.921547795873 -436.392588109427 2148.52963299817 15 18 11
-512.345167208224 -438.252423011362 2126.69482449416 15 18 11
-523.542933838692 -438.180598201472 2136.38249915744 19 20 14
-536.332100808048 -441.376152036903 2101.53882517799 21 22 16
-544.633451602611 -442.340570532787 2094.45880231105 21 22 16
-556.786571750323 -441.897317139885 2110.07287948606 20 21 15
-581.621063201833 -440.684292576585 2146.27316737029 21 24 17
-586.064486982474 -443.126453069305 2115.49231033002 21 23 18
-639.546430053038 -473.716864589427 1727.96528475494 19 21 18
-643.190448663026 -477.757865367428 1674.10991410331 12 14 11
-671.732891323273 -474.9755407877 1735.03719823812 13 15 10
-688.700215639645 -478.281887178945 1701.68802115614 16 17 9
-702.84498893134 -476.737853990823 1734.18253494187 17 18 10
-708.839859350349 -479.92054452406 1694.14011200275 13 14 6
-721.004542535569 -479.471485679074 1709.75297115932 15 16 10
-728.617883822812 -481.822314191605 1682.60727529658 14 15 9
-429.343025244906 -448.915302479573 2047.39020215729 24 26 21
-474.387252464596 -445.317764824926 2129.43473971035 27 30 23
-481.199320941396 -446.727893969984 2115.48745401043 26 29 22
-495.118633028322 -445.756199882044 2138.94194683504 23 26 19
-505.071858118424 -446.097869498613 2141.73173162294 22 25 18
-513.026987327187 -447.132477748393 2133.6874129071 21 24 17
-523.145169797944 -447.409505518387 2137.4641288553 24 25 19
-539.686970906381 -445.335473688846 2177.72032959979 23 24 18
-543.130660841783 -448.021293693209 2144.04157353837 20 21 15
-556.043630289535 -447.207330850061 2164.59876579122 20 21 15
