ply
format ascii 1.0
comment KinectMotionCapture
element vertex 783
property float x
property float y
property float z
property uchar red
property uchar green
property uchar blue
end_header
-153.958520064606 -73.8198769625279 1996.11703692823 74 58 43
-166.585114532476 -74.9103435098425 2005.62946317747 79 63 48
-177.031028360777 -75.6476957989846 2007.35111824163 73 55 45
-185.623490800213 -76.0794709011653 2002.24897813016 92 79 71
-204.666544952762 -76.222690902788 1960.5702146637 21 24 15
-235.591075876827 -80.4366100360085 2041.37407646977 14 17 8
-232.422978879815 -78.8597732666774 1990.36939739424 11 12 4
-242.349309360738 -79.5112285300697 1990.14005271653 12 12 4
-266.655323174577 -82.6609802756857 2047.58089164495 13 14 6
-274.485822927296 -82.9648013599847 2039.55020144643 12 15 6
-266.860488545246 -80.5409106780256 1967.93665788483 14 17 8
-284.372572849393 -82.534387225867 1999.01257997133 16 19 10
-307.765288805062 -85.6001643030841 2055.55924456186 19 22 13
-316.332860572078 -86.0319388685571 2050.459970389 19 22 13
-323.102870125206 -86.1347049035823 2037.52241786683 21 24 15
-331.738046918363 -86.5709928210158 2032.41495914087 21 24 15
-341.729127882515 -87.2547717370227 2033.18530620703 17 20 11
-349.2966351716 -87.4891914130165 2023.17163868192 17 20 11
-356.047028785118 -87.5643032945546 2009.22853391987 17 20 11
-364.795536920469 -88.0083634992144 2004.10695258046 17 18 12
-373.778198911173 -88.4942851575243 1999.96394756305 21 22 16
-384.030194041846 -89.2222548917208 2001.70977782561 20 21 15
-389.942412761052 -89.1102953183041 1982.83210392942 18 19 13
-393.107852676705 -88.4476624773018 1950.18694089228 14 17 10
-408.078237732635 -90.0940307343824 1974.52484769643 11 14 7
-424.332146499306 -90.6900074147178 1956.37383054307 15 18 11
-434.834534658699 -91.4617241723502 1959.09621554038 13 16 9
-458.20806196152 -93.5055952233344 1977.34783092074 14 17 10
-467.138823201047 -93.9629232875827 1972.20354041184 16 19 10
-474.094780746982 -93.9992449504131 1956.21906586852 16 19 10
-508.810653753059 -97.0590247779868 1984.14317780632 18 21 12
-506.324797319734 -94.9905529168008 1912.89688086201 18 21 12
-511.449704622341 -94.5618213810342 1884.03903278024 11 17 7
-517.22292250373 -94.2550901026035 1858.12366194892 10 16 6
-524.921026400265 -94.3665584466795 1843.05469719162 16 22 12
-539.411405774669 -96.0389838260984 1869.46794868395 9 15 5
-153.33958560399 -83.6036953057402 1996.22004162719 71 58 42
-165.431698164058 -84.5825210245542 2003.78349986017 82 69 53
-178.804612808625 -85.7633801598821 2016.22632937254 53 36 26
-190.526429916221 -86.6948466692934 2022.8279462031 63 53 44
-215.252601964191 -87.8623472442975 2003.62138603631 17 20 11
-219.35432756844 -87.5867666082207 1980.93799115684 16 19 10
-221.8308656536 -87.0391794872817 1951.40240352752 11 12 4
-235.565458615925 -88.2921062283121 1965.81590197666 14 14 6
-258.729564662513 -91.0848873142446 2018.35938814558 13 14 6
-267.605050716092 -91.5712374965952 2014.22975918 12 15 6
-260.27616697298 -89.3879907220476 1943.58754115662 15 18 9
-281.871100773721 -91.9610419356763 1991.28735606573 17 20 11
-299.933168547563 -93.9721883961154 2025.31799156308 17 20 11
-312.962574366807 -95.1571952895959 2038.81162723596 17 20 11
-322.496004072715 -95.7583780919274 2037.62349476323 20 23 14
-330.230362478979 -96.0523643481688 2028.59684916977 19 22 13
-340.455141474141 -96.770112241757 2030.34604892629 15 18 9
-339.024169843523 -95.4686091741398 1980.13323932325 14 17 8
-350.230120457128 -96.3454185570482 1985.7914022067 15 18 9
-365.684002755108 -97.9749249239232 2011.07661410646 17 18 12
-378.877882037593 -99.2197200224552 2026.56549637871 20 21 15
-379.03417427758 -98.1400648917112 1981.19386561678 19 20 14
-390.977446943919 -99.1608714593255 1990.79138294002 17 18 12
-390.657959327659 -97.9546199450079 1941.44780464278 15 18 11
-399.636320457077 -98.4253048694199 1936.29760912384 12 15 8
-417.661224567936 -99.3714438141583 1925.98872195316 15 18 11
-446.02987212463 -102.278896884135 1968.81310940519 13 16 9
-459.467299206271 -103.613008614653 1987.29489485869 14 17 10
-466.894780504352 -103.792972623357 1974.27525677905 15 18 9
-474.206380677429 -103.941573543935 1960.26231028696 16 19 10
-481.76831345477 -104.130376594786 1947.22615700362 16 19 10
-481.637510650511 -102.768279864663 1890.80409105095 16 19 10
-505.703335618099 -104.897723219092 1913.0005257887 12 15 6
-510.655358361481 -104.510854649309 1883.15643555553 9 15 5
-518.082150190362 -104.619392244284 1867.11363412408 13 19 9
-528.84642755957 -105.423001946052 1870.8111079834 14 20 10
-530.300097983142 -104.234894958609 1817.21530916705 16 22 12
-226.050023697318 -98.4789934519949 2009.35618042245 16 17 11
-219.709683674492 -96.7030920851017 1945.64596094145 17 16 11
-228.526642801175 -97.172774111214 1940.51590479715 12 11 6
-256.409038430255 -100.521414357152 2011.61929636508 14 15 9
-258.059990182262 -99.9160971683058 1978.15559633774 12 15 6
-267.530109334176 -100.491796657503 1975.96761044027 16 19 10
-281.963753246493 -101.832002486866 1994.32508997148 17 20 11
-295.357434485994 -103.020763646396 2008.7809632104 15 18 9
-314.431693198365 -105.105223101047 2047.72439235824 13 16 7
-317.331123172455 -104.665194114822 2018.13631357181 17 20 11
-324.442696732435 -104.877814810087 2006.16387200867 16 19 10
-326.274734625465 -104.241805587442 1970.66211847874 12 15 6
-343.754010147511 -105.152468361898 1959.41330173805 13 16 7
-361.000907526792 -106.993438979077 1992.53753043119 19 20 14
-386.57067469176 -109.253272939268 2019.58530121265 17 18 12
-383.351675762358 -107.719295712207 1957.50180838009 16 17 11
-391.783970893717 -107.07250002594 1901.02092951634 15 18 11
-408.6103683781 -108.887712594226 1934.19756627749 16 19 12
-442.755268243678 -111.584832054259 1955.13744674092 14 17 10
-454.360841123703 -112.534053279186 1963.76923138539 15 18 11
-465.359310914975 -113.380673871144 1969.45344741649 15 18 11
-472.318517311389 -113.500022254491 1953.46878608375 16 19 10
-479.180621134466 -113.591936141527 1936.48848323215 16 19 12
-482.953229783516 -113.102473140157 1901.75263096685 15 18 11
-503.59477687147 -115.739401578673 1961.66479737301 12 15 8
-494.817168124355 -112.869127583245 1853.91449681436 11 14 5
-510.9928078723 -113.402549476525 1828.71879221118 14 20 10
-520.397228741728 -113.913650108916 1823.51553338886 14 20 10
-530.785386011212 -114.615819686062 1824.23637611075 18 24 12
-196.420198935502 -104.952741455142 1936.48111012432 14 15 7
-213.320963720167 -106.543692996979 1962.59334520905 16 15 10
-222.081693068437 -107.021259524394 1957.47032697223 18 17 12
-230.618576982636 -107.466044636753 1951.36722962659 12 11 6
-251.887865848709 -109.689132273994 1996.08370018716 12 15 8
-268.31428649847 -111.250574573034 2022.25505290409 14 17 10
-283.475086444098 -111.8889429799 2003.23287380811 17 20 13
-289.842359515414 -112.028661476378 1988.33006326578 15 18 11
-299.286990006015 -112.606345422806 1986.14502315981 13 16 9
-312.844174894448 -113.781058831487 2001.58838248265 13 16 9
-321.352168261628 -114.224884352523 1995.48888797943 13 16 9
-332.115495590972 -114.99860725766 1999.18664196104 12 15 8
-340.745481722066 -114.626654772224 1948.72841934568 12 15 8
-377.029663887289 -118.39941564043 2023.82335055975 16 19 12
-387.689031214433 -118.306483594271 1981.17458528211 17 20 13
-394.103756469286 -118.413038717463 1964.25015118812 16 19 12
-406.436408907278 -119.436660480528 1975.81469809669 15 18 11
-411.559676830071 -119.330796364045 1951.99658061939 14 17 10
-417.982322494749 -119.419533945137 1934.06342408502 13 16 9
-420.060876159951 -118.803276167637 1893.49204283039 12 15 8
-437.95453057604 -120.721778816768 1933.5900544716 10 13 6
-447.371417510749 -121.280963325159 1930.40074078158 12 15 8
-454.212923063719 -121.415438399646 1913.42312055568 14 19 13
-472.795694930677 -123.490158371391 1959.48214893243 14 19 13
-476.410084441805 -123.084013946256 1924.76626089667 12 17 11
-483.742882488426 -123.287409358521 1909.74288596769 9 14 10
-509.196980760237 -123.333503428155 1821.91476340689 16 22 12
-520.414185697831 -124.17621920329 1827.57143203293 17 23 9
-521.808786770704 -123.256719850888 1772.97578472405 22 28 14
-208.047349732414 -116.430382984729 1983.43268087991 13 14 6
-209.163690616464 -115.956809416293 1949.02835697225 14 15 9
-220.460321572372 -116.765979817445 1953.66733826203 17 18 12
-239.388714981379 -118.553035161439 1988.59695840399 12 13 7
-241.983175335895 -118.253036113408 1959.04730678699 12 15 8
-279.44376086963 -121.818583759132 2029.96389546534 15 18 11
-278.844326079027 -121.093254499179 1986.70312253871 17 20 13
-290.62960089619 -121.981844212919 1994.30463467469 15 18 11
-298.441141494189 -122.347673599435 1985.26854639632 14 17 10
-307.210433654499 -122.838073468177 1980.14449336733 13 16 9
-320.288394957935 -123.904559349333 1993.63151721322 12 15 8
-325.932301454222 -123.973896404737 1974.78780453442 12 15 8
-335.417494716849 -124.557804982386 1972.5979590954 12 15 8
-342.734861177599 -124.844990002372 1960.60003215737 12 15 8
-362.997633052062 -126.909361448344 2007.45706631097 14 17 10
-389.14569969669 -129.809252820138 2082.80693904897 15 18 11
-374.680981852618 -127.074019817907 1969.7201085828 16 19 12
-380.25722329619 -127.107772021688 1948.86913192598 18 21 14
-387.982121690136 -127.437267946225 1937.82838620319 17 20 13
-392.945299448973 -127.368622252932 1913.02265794711 16 19 12
-409.751376820655 -128.99141687157 1946.20108354363 14 17 10
-411.684024110394 -128.475797645917 1905.64817557011 14 17 10
-415.18594613395 -128.171364287985 1871.95427776256 12 15 8
-446.751647419201 -131.160552691342 1930.50410197192 12 15 8
-460.619330436671 -132.390426253338 1950.9475339859 15 20 14
-469.629953774931 -132.898021830067 1945.79340953692 14 19 13
-475.072046626221 -132.86066466922 1920.92775763711 10 15 9
-474.278658273739 -131.85423973664 1860.55856669993 8 13 7
-511.217065725569 -133.911841116284 1837.8147213364 13 19 9
-524.841644182239 -135.127297560564 1858.28821312664 13 19 5
-196.445730214492 -124.97229293636 1941.56932050762 17 20 11
-210.815332140496 -126.118669383213 1957.91890746094 12 15 8
-217.837863734719 -126.416723798484 1945.95780279538 14 17 10
-224.426756636126 -126.660975019075 1932.03529778985 11 14 7
-241.362653210664 -128.115474627925 1959.15071666053 11 14 7
-253.062482643815 -128.96101109843 1965.75485112917 11 14 7
-281.067932080886 -131.208306155639 1998.54523326854 16 19 12
-283.936379049693 -131.005966027746 1968.9618871919 16 19 12
-304.529643853254 -132.930400969155 2013.76169479887 15 18 11
-314.818936328863 -133.621009104622 2015.50277218284 14 17 10
-319.450104707014 -133.623062445038 1992.75403711442 14 17 10
-325.539721090445 -133.796832264733 1975.87035169307 13 16 9
-329.954655052024 -133.758939775903 1951.13312200917 13 16 9
-346.905001939202 -135.268169019424 1982.27787035631 14 17 10
-376.358139334677 -138.348915788294 2071.32434652989 13 16 9
-364.570430000337 -136.280953238627 1972.01401917939 13 16 9
-373.018408744842 -136.73669741149 1964.91435843544 13 16 9
-380.052484594215 -137.010511250054 1950.936375082 14 17 10
-384.096622744392 -136.896862598353 1922.21399009183 12 15 8
-393.126765961548 -137.416212809235 1917.05746063278 11 14 7
-400.391573241272 -137.704949522385 1903.05072265976 10 13 6
-409.883434978301 -138.280182919779 1899.85209482184 12 15 8
-424.520114331992 -138.851776221639 1870.81755523916 13 16 9
-443.12656215772 -140.638775209578 1914.85725682814 14 17 10
-457.782008284177 -141.911390296279 1939.23348188312 12 17 11
-469.561045660619 -142.803757903926 1948.8513968289 11 16 10
-469.958761623747 -142.14311887823 1896.39645105277 8 13 7
-475.064373443842 -142.111054589121 1868.54950237167 8 13 7
-528.462586305457 -145.791644260847 1884.06621183684 15 21 9
-193.521063917539 -134.65556130954 1932.88989742368 19 22 13
-207.159278173827 -135.675491091409 1946.30712267816 12 15 8
-217.215081479271 -136.322025773425 1946.0616075992 14 17 10
-227.019523032598 -136.942235390545 1944.83970455656 11 14 7
-237.804775059372 -137.666516677289 1947.52666489587 12 15 8
-258.836274243786 -139.060244699467 1950.95233159437 13 16 9
-274.537777820253 -140.31605794641 1974.19028351858 15 18 11
-297.827982185721 -142.398137571438 2029.73922305036 15 18 11
-313.404218139627 -143.656648228922 2054.00050183502 14 17 10
-316.26786165385 -143.534126879573 2024.41796540102 15 18 11
-325.840863985987 -144.140309156296 2023.22490766443 14 17 10
-322.469563524636 -143.319364393868 1965.19328756979 14 17 10
-330.879060823085 -143.789185194462 1958.0984661531 14 17 10
-344.549425527716 -144.843634122862 1974.53507168995 14 17 10
-375.212089186257 -147.341167191309 2024.12639020965 12 15 8
-367.999701039399 -146.047022004445 1944.402070952 11 14 7
-385.436917172001 -147.539337421665 1979.51724528394 11 14 7
-388.580833417272 -147.403927057613 1946.87615669525 9 12 5
-394.922479655947 -147.628232391134 1928.95346542323 8 11 4
-400.36299156881 -147.74320264709 1906.10402642914 8 11 4
-415.338493219615 -148.964764435135 1930.44017599979 11 14 7
-422.049982946929 -149.223256341688 1913.4791075742 12 15 8
-425.988276440408 -149.149149936561 1881.74697420996 13 16 9
-446.453059581768 -151.032745324595 1935.63261270923 14 17 10
-455.3115033769 -151.542680381445 1929.48955816156 10 15 9
-460.911045513201 -151.657850625714 1905.61258656424 9 14 8
-477.429722185609 -153.092839289942 1940.84199795376 8 13 7
-473.726874578148 -152.064246081578 1864.71163703692 10 15 9
-490.850256753465 -153.579582755084 1903.89702527854 13 18 12
-500.194487495129 -154.1417210302 1899.70909933233 15 20 14
-515.472720329883 -155.446144343898 1930.05429118046 13 18 11
-189.314897303185 -144.268588524144 1919.33153726592 14 19 12
-205.018263006153 -145.440690670646 1940.55342189242 8 13 6
-221.350296459957 -146.675862502557 1964.72032015535 13 18 11
-230.360361507042 -147.223140105969 1960.5740569772 9 15 5
-246.248005518383 -148.422571497028 1983.78863119598 13 16 9
-258.12533813918 -149.244353882413 1991.37823885884 12 15 8
-265.643165236629 -149.650928101788 1981.37146475954 13 16 9
-275.342981710821 -150.265353403221 1980.16260307545 14 17 10
-307.941463313985 -152.771064170073 2033.54335315728 13 16 9
-316.5764207005 -153.287313590734 2028.43613238775 14 17 10
-314.156668475101 -152.724637710369 1975.32536086911 13 16 9
-327.66084220656 -153.711793267105 1990.77460147527 13 16 9
-333.792404385314 -153.976937660736 1973.88592209834 13 16 9
-341.101644355111 -154.355402947474 1961.88948995041 13 16 9
-348.256339180087 -154.716423341226 1948.90437081546 14 17 10
-367.800688751971 -155.955814577095 1946.46861542661 8 11 4
-385.031704238308 -157.326336934867 1980.60127427554 8 11 4
-388.780839545748 -157.340570277915 1950.9083535706 10 13 6
-393.293230693904 -157.426424944327 1924.14367322457 10 13 6
-414.864278657858 -159.249813165331 1980.91439942405 11 14 7
-414.129761220692 -158.794832350492 1927.59360417796 11 14 7
-417.168182401958 -158.718055317836 1891.94253359505 12 15 8
-436.432684469268 -160.318267038993 1938.92292357075 11 14 7
-458.216830689812 -161.793687573815 1948.30148262971 10 13 6
-458.460637329555 -161.408932212754 1895.86647035704 10 13 6
-465.829471805687 -161.769189347321 1880.83925165321 12 14 9
-483.029590026677 -163.177154260368 1920.01454066154 16 18 13
-490.402767237325 -163.537859753352 1904.98678119085 21 23 18
-500.947410893445 -164.238586173963 1907.70370600145 21 23 18
-509.271184905726 -164.698310433755 1897.59649446063 29 32 25
-516.312211105075 -165.015107313209 1879.58652800867 19 22 13
-190.479719932934 -154.403565196145 1926.26715461325 11 16 9
-202.115905350713 -155.175782029946 1931.8713512959 13 18 11
-217.474461151829 -156.258705609418 1952.12834421288 10 15 8
-228.502080775534 -156.982496039647 1955.79298458324 10 15 8
-256.1752871152 -159.100098020628 2025.91155274413 11 14 7
-262.870674222145 -159.26558018927 1972.67287040146 15 18 11
-280.679982471896 -160.359871242818 1963.39896557116 10 13 6
-292.510954268385 -161.154849855835 1970.99452847277 9 12 5
-305.668202561907 -162.063826698663 1984.4712429766 15 18 11
-313.542221264203 -162.523444774346 1975.4278450581 14 17 10
-325.037454662753 -163.292331970543 1982.05731004916 12 15 8
-332.515652471051 -163.717023228142 1971.0476017945 10 13 6
-341.576251232984 -164.276941295048 1966.89506559571 10 13 6
-334.712560703498 -163.45907250788 1890.15202702589 11 14 7
-347.837289262936 -164.366365851254 1903.63279536685 10 13 6
-376.542066656241 -166.401492677635 1943.38963699901 10 13 6
-389.596382651638 -167.309481068039 1957.88712160899 12 15 8
-403.978473203794 -168.336534827065 1979.27351158325 13 16 9
-407.480799741169 -168.405217673074 1947.59616034814 10 13 6
-411.544958353506 -168.51954381365 1917.86419018796 11 14 7
-406.853410971222 -167.85001635763 1842.86584584295 11 14 7
-440.335813155741 -170.065865641677 1856.83308473637 17 20 13
-454.726441740742 -171.098900377086 1879.22611206349 19 22 15
-468.267042443051 -172.058221335539 1897.69403506094 23 26 19
-473.711384540209 -172.280524183134 1871.82109917574 24 26 21
-476.320095894503 -172.238618711192 1829.16969571574 23 25 20
-482.255079165983 -172.497197216903 1804.24331334147 20 22 17
-502.889163717752 -174.115327149065 1864.15372805843 16 19 12
-517.020469886419 -175.13728357428 1887.58701548261 15 18 9
-197.183598381977 -164.81379027741 1915.38037338481 16 19 12
-210.585932708241 -165.695116908963 1927.81874268664 13 16 9
-236.067957064405 -167.451973330111 1988.13245587495 12 15 8
-234.71512529291 -167.265887043025 1942.95150804954 11 14 7
-233.606970704852 -167.095373166269 1897.74006696755 12 15 8
-246.659494022696 -167.952464057177 1909.21433969302 14 17 10
-299.785760128666 -171.455004679685 1962.05158320898 10 13 6
-308.62625017058 -172.007254903486 1956.91880798599 10 13 6
-320.621712638779 -172.790890122926 1965.50150065 11 14 7
-330.046250299816 -173.287234829071 1917.96971089411 11 14 7
-356.686259676839 -174.947858317163 1900.54098796117 9 12 5
-375.509253222376 -176.23841892443 1941.52905700839 9 12 5
-381.814101344843 -176.601294519353 1923.61132284358 11 14 7
-394.274183225547 -177.421501996989 1935.15943162677 12 15 8
-409.256743540779 -178.430722062752 1959.49390085472 12 15 8
-400.500877564856 -177.666963607964 1865.85525507886 12 15 8
-389.733724381714 -176.746796981652 1759.3660605403 12 15 8
-398.097401047188 -177.256217841578 1748.24607289156 12 15 8
-420.844717749344 -178.847266861169 1811.92368607434 12 15 8
-434.501830183522 -179.757115097066 1829.36925171361 16 19 12
-459.593167710483 -181.532502546781 1908.87902531864 17 20 13
-466.38092106995 -181.926589893313 1890.90110963019 19 22 15
-470.951520622265 -182.151185274208 1860.09854192668 17 19 14
-476.035429766327 -182.412879406321 1831.2473881154 15 17 12
-500.739378323925 -184.170479172302 1913.82876029367 11 13 8
-493.782674010019 -183.510674294571 1814.92694750853 13 16 9
-220.499241194356 -176.260518787787 2045.52517126559 16 19 12
-225.267365270064 -176.593060797506 1987.4887641418 13 16 9
-226.729256438485 -176.724216356773 1913.74023007977 12 15 8
-253.716569839192 -178.422145017042 1940.60961971384 14 17 10
-251.185103210019 -178.288845463112 1888.52160733781 14 17 10
-276.161157088896 -179.841239658938 1949.90561130461 11 14 7
-296.848774362185 -181.130298910578 1994.6919710419 10 13 6
-304.443355757211 -181.617474399699 1984.67559045186 9 12 5
-309.036318771579 -181.944387105395 1917.59112287847 11 14 7
-318.459062738013 -182.54409298406 1914.40118497711 11 14 7
-333.24140474084 -183.495634723095 1889.38045679916 9 12 5
-344.882648016378 -184.231071190836 1895.99185279821 9 12 5
-354.167801869762 -184.822737318645 1891.81137705895 8 11 4
-369.49242811374 -185.782662104105 1916.10326893263 8 11 4
-382.013172915551 -186.571430877092 1927.6437245492 11 14 7
-383.543664691639 -186.690857759594 1886.13474821065 11 14 7
-396.471170623358 -187.50448538133 1899.64012237297 12 15 8
-403.807392519757 -187.977901212522 1885.62495862388 10 13 6
-399.956128491784 -187.77160570455 1814.55396045032 9 12 5
-417.186810739838 -188.875873515589 1796.28238630771 10 13 6
-434.238451004471 -189.939978170223 1831.44455055067 10 13 4
-448.707807026843 -190.847023933912 1853.82742137156 11 14 5
-466.117840855398 -191.931830855281 1892.975663128 16 19 12
-484.334530363459 -193.095446737464 1881.63572789315 21 23 18
-504.948523768473 -194.372667838882 1941.54775209518 22 24 19
-503.500505252329 -194.316896546497 1875.21615551819 16 19 12
-497.901006498517 -194.011930363203 1782.19226881583 10 13 4
-187.55634156899 -184.129132809173 1960.97426046921 19 22 15
-216.049063422347 -185.700472142348 2030.98911937568 19 20 14
-222.070612990027 -186.12900018611 2016.12997338362 15 16 11
-221.641514264412 -186.232847756221 1975.87342869408 13 14 9
-214.972238011192 -186.025393824898 1910.19301476409 13 14 9
-223.155778038213 -186.56844303551 1902.11889722525 13 16 9
-245.957170018038 -187.843787351799 1952.6880373845 12 15 8
-246.368682819579 -187.997885652203 1913.33440877772 13 16 9
-266.710853165844 -189.146501839146 1955.14044710285 15 18 11
-286.816666775681 -190.280121105202 1996.97570158876 12 15 8
-296.23866800203 -190.882340087357 1994.79379036207 10 13 6
-307.044203277185 -191.552837076831 1998.48576493106 10 13 6
-309.434060730228 -191.80985056804 1965.94005212468 10 13 6
-319.606586312373 -192.594563530462 1922.34666596733 10 13 6
-331.206047696504 -193.305799707592 1928.96297210008 10 13 6
-321.385281223426 -192.980416381392 1838.48167561926 10 13 6
-356.488931206261 -194.979243763803 1905.65704108801 9 12 5
-373.599029498109 -196.110138986935 1890.4238867959 11 14 7
-388.584587687198 -196.980993442018 1913.75017069655 12 15 8
-392.851558843341 -197.344527495504 1885.00123410828 14 17 10
-397.665181530268 -197.736278055279 1858.19976741303 12 15 8
-404.175026432332 -198.209630746202 1839.24905470136 11 14 7
-415.764462752317 -198.920543677036 1845.86661105159 12 15 8
-425.233957848879 -199.532852006682 1841.66318497549 14 17 10
-433.976009957677 -200.112084463289 1833.51946371803 10 11 3
-458.264318519253 -201.581678204034 1853.67078166296 14 15 7
-473.610022039503 -202.459279912191 1881.99081508379 17 18 12
-495.875625308006 -203.830034371504 1893.32462998025 24 25 19
-499.098681545709 -204.361637655955 1793.15558079138 13 14 6
-177.602370199068 -193.627269010026 1925.96209176146 20 21 15
-213.844716716888 -195.540458400212 1986.94852598331 15 14 10
-210.369819576135 -195.874398360351 1894.66911146368 14 13 9
-256.524032564259 -198.158807914408 1997.75348992811 11 14 7
-266.66277363344 -198.791714633851 1998.50551618474 13 16 9
-267.044794555608 -199.051351960301 1959.15584592341 15 18 11
-259.177613497429 -199.003447643524 1884.55543890942 14 17 10
-291.446903131046 -200.477069185693 1977.27723228702 11 14 7
-301.613088510688 -201.11179331901 1978.02583844205 10 13 6
-317.896961688439 -201.972795329281 2005.22106302312 10 13 6
-324.383623913351 -202.470020726514 1990.30429490194 10 13 6
-333.827082948415 -203.076921913478 1988.11947792926 11 14 7
-332.555283935239 -203.297851872441 1937.89081379777 11 14 7
-356.86266238469 -204.711754088003 1957.0319181736 9 12 5
-366.611150274927 -205.332100045246 1955.81699817636 8 11 4
-363.465148564455 -205.506300169493 1893.7288941467 8 11 4
-371.741538925433 -206.081314721706 1884.63534624776 10 13 6
-377.023649484635 -206.556383308384 1860.7989360141 11 14 7
-392.425199664393 -207.373506108338 1886.08877953836 7 10 3
-400.583528799192 -207.94710560813 1876.0022741578 10 13 6
-403.15230777057 -208.340153008996 1837.38774784878 11 14 7
-418.200121608376 -209.140862467145 1861.71376498637 15 18 11
-437.441351450334 -210.389778485837 1855.28487356944 22 23 15
-448.915867135306 -211.071853526574 1861.91669539196 20 22 11
-459.443363689609 -211.723881057019 1863.62794471451 15 16 8
-468.886185993777 -212.343138696669 1859.42786554598 13 14 8
-489.92913628042 -213.302029526527 1920.29344752064 14 15 9
-488.472702888848 -213.95877075206 1795.51460091423 16 17 11
-165.301123450638 -203.252285624921 1882.1732785891 21 22 16
-209.929095230355 -205.241378199298 1974.36182607146 13 14 9
-202.311330237711 -205.362630463977 1905.77734200149 13 12 7
-210.736995696623 -205.951802892105 1898.68105747097 14 13 9
-205.419580147129 -206.158022513525 1836.86401737335 14 17 10
-237.66594578582 -207.411552714838 1924.54917589885 12 15 8
-273.566378493073 -209.099852653854 1988.60122853658 15 18 11
-270.074339276041 -209.369599471474 1932.60316268743 14 17 10
-289.439670616705 -210.242357423449 1971.50707671929 11 14 7
-306.51644334319 -211.048493284123 2001.62626893077 10 13 6
-307.751741354309 -211.452299604655 1964.18610886231 10 13 6
-321.979022132851 -212.182461734974 1982.56773476423 11 14 7
-323.463069040779 -212.60212085343 1945.09657405181 11 14 7
-327.5574273707 -213.091331150009 1918.38512395282 12 15 8
-372.415788943543 -215.719327189846 1938.99577306539 7 10 3
-359.198556935006 -215.862032245567 1827.77645715456 8 11 4
-389.39891582859 -217.345763040503 1874.39949720028 8 11 4
-406.271093938936 -218.112588816519 1907.56765992066 11 14 7
-411.082330020552 -218.647516864588 1880.76686811247 14 17 10
-413.348504111573 -219.143431074017 1840.17500180324 18 21 14
-437.781230174487 -220.031382844494 1913.7180260684 20 23 16
-456.021527143723 -220.797469655066 1956.79280521679 19 20 12
-460.050321077674 -221.326549332782 1925.05096640169 17 19 8
-462.255929507677 -221.836219175892 1882.45108008874 12 13 5
-472.895417441254 -222.478665520537 1885.15601541573 11 12 6
-482.635704698049 -223.107803843741 1882.93445486525 13 14 8
-476.767231357022 -224.061482281555 1731.49751293329 16 17 11
-493.96651378272 -224.796487508344 1770.67137429729 16 17 11
-147.272070755569 -213.012682543872 1816.92906048298 20 23 16
-220.758401868497 -215.283842785061 2018.38612227929 14 17 8
-210.743016031507 -215.545757266034 1941.03131285509 12 15 6
-211.354828760967 -216.011749652027 1903.66912382856 15 16 8
-220.046057609616 -216.623321605289 1897.54744464354 13 16 9
-230.957191546062 -217.272496465831 1900.21849787463 12 15 8
-280.517497673939 -219.461416373672 1978.69115207671 14 17 10
-294.876484506623 -220.145649968674 1997.05622089055 13 16 9
-304.759254464895 -220.763890117624 1996.83246510645 11 14 7
-310.31981473589 -221.325954836341 1978.00021085586 11 14 7
-309.691254988139 -221.81672953837 1931.72297355487 12 15 8
-353.142304950494 -224.897128379717 1899.09917771913 9 10 5
-358.257177010482 -225.488458171628 1875.28394403121 9 10 5
-386.31541648973 -226.814795726319 1912.09630163812 9 10 5
-395.178454243778 -227.437244305725 1905.95321036063 13 14 8
-403.082041626242 -228.056247660779 1894.89092771599 16 17 11
-416.884888712864 -228.704981741832 1913.32530599557 17 18 12
-420.207404072918 -229.3090041486 1878.64826209797 17 18 12
-432.80556333789 -229.950197115204 1891.1865955785 17 18 12
-445.888871979275 -230.587685078535 1906.68743682262 17 20 11
-462.744299655749 -231.223213690224 1942.88040542628 14 17 8
-467.069091627019 -231.844924081632 1912.10955884393 13 16 7
-475.842480209843 -232.47316238422 1904.96974313311 16 19 10
-479.549793142807 -233.11320895099 1869.23732681221 18 21 12
-473.390532187965 -234.486079959749 1715.82216291892 11 14 5
-480.241961464645 -235.16490802828 1693.8060620455 17 20 11
-146.371282244052 -223.289170778636 1816.06060896288 21 24 17
-224.726221741302 -225.571272379972 1997.76286982007 13 16 7
-228.288899715408 -226.713370533194 1932.8247369557 13 16 9
-226.92065536013 -227.283623163339 1886.64001722306 13 16 9
-291.474490296832 -229.885825052164 1985.41345407543 16 19 12
-302.310373278322 -230.505443216737 1989.1015074425 12 15 8
-311.301109822548 -231.121705051638 1984.95783801476 11 14 7
-325.478359374975 -231.74000977796 2003.34541294543 12 15 8
-310.68453288405 -232.368608504052 1894.33974075409 13 16 9
-347.105709331115 -234.248142822855 1921.04000540263 9 10 5
-360.756080893548 -234.861350282036 1937.47794397172 9 10 5
-350.929945082101 -236.278175215968 1794.59809192144 9 10 5
-391.381351856886 -236.728352487874 1939.70761102073 10 11 6
-395.358423736876 -237.39629092658 1909.98796668818 13 14 8
-407.005386505918 -238.010275752446 1917.60601618787 15 16 10
-411.975603513194 -238.684348998919 1891.79343803216 15 16 10
-420.927551887747 -239.326504108883 1885.63930313132 15 16 10
-429.717929135713 -239.972632518134 1878.49741444848 16 17 11
-437.047011312395 -240.639878366704 1863.47572477172 18 21 12
-449.60877098129 -241.240659276357 1876.01849428293 17 20 11
-467.538447922923 -241.755029005429 1918.12368698823 19 22 13
-479.868948451042 -242.341036025936 1930.69503709778 22 25 16
-467.658728677698 -243.348394595929 1806.25143569619 21 24 15
-473.976794137316 -244.06538686776 1783.2943088798 16 19 10
-476.832385531981 -244.861644482585 1739.60637615603 9 12 3
-495.702718256443 -245.335886189259 1788.64836512984 20 23 14
-509.342113111374 -245.905235293986 1808.1106193223 18 21 12
-144.755941435241 -232.911614647139 1851.55922570233 7 10 3
-220.338985445417 -235.350672330233 1983.21961685783 14 17 8
-228.902197310892 -236.647518904659 1937.81303802742 12 15 8
-267.981040146777 -239.159249940412 1931.93515692933 16 19 12
-289.000933792921 -239.682801926137 1977.68572170174 17 20 13
-291.567950092906 -240.375030571608 1946.12673374042 12 15 8
-314.561394686056 -240.854050713238 2001.70872580601 11 14 7
-319.924683513737 -241.520173650182 1981.8936768007 11 14 7
-320.281329545206 -242.258733370757 1939.52513283748 11 14 7
-335.555060531413 -243.574281312433 1917.46734238017 7 9 4
-332.998698373632 -244.399532986514 1859.33835800283 7 9 4
-340.481126979626 -245.081460628823 1846.31342499612 7 9 4
-351.11304537665 -246.543640591056 1798.6335047551 9 11 6
-368.000294268829 -247.05878495871 1829.78350947185 10 12 7
-387.71841574159 -247.498932540739 1875.69630807297 12 15 8
-400.846561231537 -248.063841438734 1890.18367571087 13 16 9
-411.157152535551 -248.687494972921 1890.91423170623 14 15 9
-421.650355000706 -249.305731669134 1892.62967174141 16 17 11
-428.902903230367 -250.006840106127 1877.61762222469 18 19 13
-440.159676583198 -250.605578229305 1883.26895070872 21 24 15
-450.826491960669 -251.217765125256 1885.97039604508 20 23 14
-466.375710808429 -251.681387775933 1915.27162885529 22 25 16
-471.739954135276 -252.449311697722 1889.41036596551 22 25 16
-471.778758214682 -253.405617582832 1832.97347977596 20 23 14
-478.193320721852 -254.172332248225 1811.01188847014 13 16 7
-489.845370175626 -254.762024383986 1818.62923920771 18 21 12
-500.945181240448 -255.367567609092 1823.2922462114 16 19 10
-227.606809358238 -244.293503759873 2051.87164144752 16 19 10
-204.602776403403 -245.378034703336 1924.74425868781 14 17 8
-216.713730282376 -245.973755880479 1932.3043567434 14 15 7
-237.412031725633 -246.425114871281 1974.0638755423 12 15 8
-245.430424678203 -247.076077971588 1966.0106515694 12 15 8
-286.058837727767 -249.533195003408 1968.0012267686 17 20 13
-292.335325030193 -250.231084251531 1952.10352857812 13 16 9
-305.755506067382 -250.771576982065 1966.55438760712 11 14 7
-297.258020995673 -251.83223058648 1885.98895502888 11 14 7
-308.324052225311 -252.44003025522 1889.64825613163 10 13 6
-320.902087989199 -253.005800736543 1900.17328781857 9 12 5
-338.796747596835 -254.326655877015 1888.87371382672 7 9 4
-337.310693085187 -255.30047149689 1834.64278155086 7 9 4
-363.666264683411 -256.389494794534 1861.58940529646 10 12 7
-375.503453830141 -256.967092514424 1869.18361984468 11 13 8
-385.085039723637 -257.618319945268 1865.97399509006 15 18 11
-399.827116016852 -258.084455076736 1888.32191117974 15 18 11
-407.408958462182 -258.805817613805 1875.28443549525 15 18 11
-416.790329376273 -259.463925269499 1871.09212740704 14 17 10
-430.366653709865 -259.954453436498 1888.54667065917 16 19 12
-442.71789954706 -260.485461689778 1900.1075999413 17 20 11
-451.863417024554 -261.14817423467 1894.9368097275 16 19 10
-459.395618240511 -261.885928519398 1880.89812531259 15 18 9
-458.762237130225 -263.012584347216 1821.522270908 15 18 9
-487.802617855628 -263.856453057508 1869.29607141556 17 20 11
-493.655463798453 -264.704476436721 1844.38173184515 12 15 6
-492.405415674971 -265.949849589412 1777.0209288842 22 25 16
-208.857875054776 -256.110419546899 1904.08632730921 12 13 5
-213.842413011408 -256.880338346481 1883.31113041797 13 16 9
-217.959917849583 -257.684983073292 1858.61323692206 14 17 10
-227.279397785114 -258.348625083819 1854.4286670366 12 15 8
-238.049218425959 -258.969650445938 1856.10959410265 11 14 7
-276.346475121064 -259.659352548155 1929.93725902411 17 20 13
-293.797130617601 -260.030877304446 1961.01657571033 15 18 11
-304.004312264952 -260.638292316995 1961.75999385592 13 16 9
-316.229280303819 -261.171712632187 1971.32107374768 12 15 8
-322.090535497109 -265.018078797212 1815.40488753568 6 8 3
-355.520574504393 -264.674584859345 1922.08562139444 7 9 4
-363.037824923113 -266.484688862616 1861.69441619751 11 13 8
-396.712365924062 -267.103184108938 1926.02142966827 15 18 11
-396.032659791061 -268.254164683708 1872.69802353763 16 19 12
-403.264774218676 -269.031522503181 1857.68872483864 15 18 11
-433.925152805491 -269.72750281854 1910.29888576004 15 18 11
-439.848794258518 -270.578864999104 1888.39902168443 15 18 11
-447.364250960579 -271.351560082732 1874.36227863247 14 17 10
-446.945642416906 -272.609008075917 1816.97558078293 13 16 9
-456.694429571624 -273.276333104136 1813.74513269184 14 17 10
-465.925345496085 -273.978119705935 1807.55634132742 15 18 11
-489.946037820231 -275.015442650884 1826.73199045996 24 27 20
-497.153025806133 -275.858208531206 1808.70293834757 17 20 13
-167.65014579296 -264.599436611529 1866.92518221009 18 21 12
-187.375657748869 -264.900594678303 1902.75934097925 16 19 10
-204.120876910315 -265.289314761578 1927.88013410624 14 17 8
-202.74085415042 -266.339951620418 1882.70583642182 12 13 5
-203.334727121362 -267.339728615256 1844.33960477567 13 16 9
-226.614233249378 -267.463236038 1895.85373289255 13 16 9
-252.503210337974 -267.450029063148 1959.13506068134 13 16 9
-265.182753329883 -268.99532130696 1928.33195015127 13 16 9
-281.100051623553 -269.355978443856 1952.54806163823 13 16 9
-299.417432772414 -269.591817211505 1987.55008769309 15 18 11
-314.266842214417 -271.047779531984 1965.5456198322 15 18 11
-317.09769912711 -272.013069972707 1933.954184952 13 16 9
-310.228291273008 -274.65974401013 1811.8717004397 4 6 1
-364.119228896683 -275.272825094333 1918.01716868613 13 15 10
-361.170863055259 -276.652264204236 1855.90757482239 2 4 0
-373.842278303139 -277.133480580112 1867.42841772975 9 11 6
-395.894647935171 -277.02573845918 1925.14167936576 12 15 8
-400.564259631446 -277.981564982285 1898.35991013347 17 20 13
-402.24526999865 -279.150894224993 1855.82722774692 18 21 14
-420.748010085456 -279.220665248415 1897.85973472475 16 19 12
-430.072286685096 -279.892201285028 1893.67458703261 16 19 12
-437.726095083327 -280.684471189572 1880.62855742342 17 20 13
-447.221588165066 -282.731766937679 1822.0064780698 17 20 13
-456.597666430792 -283.431601905266 1816.80725326201 16 19 12
-464.93603082824 -284.216760089227 1805.6911505791 15 18 11
-476.981973452149 -286.198860490912 1755.82052320104 17 20 13
-150.21429464246 -274.389029618541 1842.9250671958 19 22 15
-161.345091535671 -274.99022652654 1845.56882170903 19 22 13
-188.284824109014 -274.864392737844 1908.71872482663 16 19 10
-197.945283288615 -275.511569411667 1906.50693358287 14 17 8
-203.864262474601 -276.339898289914 1889.64650670168 13 14 6
-268.779091156949 -275.33557974566 2066.97051586559 12 15 8
-265.480778550234 -277.733797429024 1973.66681374379 12 15 8
-270.002499248282 -278.640647063898 1950.93436011638 12 15 8
-290.068542236616 -278.691278003699 1992.77172572952 11 14 7
-286.572689455771 -281.272701616806 1892.43862742633 15 18 11
-306.663133272748 -281.296630798536 1935.28080500912 14 17 10
-320.797494863355 -282.902543089109 1908.32729002097 7 10 3
-353.033421630679 -285.946714451847 1869.0407622613 0 1 0
-365.708528681449 -286.392989645523 1880.56105243713 17 19 14
-381.985341400136 -286.564904866186 1909.7707176326 16 18 13
-391.052211345279 -287.256885146341 1904.61005951016 13 16 9
-396.766845704083 -288.211013653973 1882.73654891574 16 19 12
-405.72932572576 -288.924196802974 1876.58104650866 17 20 13
-415.685563997543 -289.56067604452 1875.34024297845 16 19 12
-421.453833002013 -290.546019732208 1852.45243420321 15 18 11
-435.225555979997 -290.865636188771 1870.88982986799 14 17 10
-447.039956022347 -291.340342570944 1879.49430449922 16 19 12
-453.33261969934 -292.302914226996 1858.55636859609 19 22 15
-462.068888340198 -293.057203489197 1850.41358981836 18 21 14
-474.451756348817 -296.734155147142 1745.07874477421 22 25 18
-489.639501572782 -296.891428701913 1772.40890639983 22 25 18
-154.244545765879 -283.169217665675 1898.87980006226 22 25 18
-164.451331040533 -283.793319840371 1898.61562451968 21 24 17
-161.745616812352 -285.130098038505 1849.57653017462 19 22 13
-181.532276255358 -285.228242787373 1885.40228320181 16 19 10
-198.082287421156 -285.488532970512 1909.53941181883 14 17 8
-199.238911547752 -286.641362282499 1874.12665677655 13 14 6
-238.681828140593 -285.503718936948 1989.12483238616 13 16 9
-257.90957728303 -285.53489610698 2026.02808512481 13 16 9
-291.153763088233 -287.080731839479 2041.03073438666 12 15 8
-288.99515415135 -288.482760045368 1990.91584927108 12 15 8
-294.04309331316 -289.422368563705 1970.1331871561 18 21 14
-307.196679149176 -289.803154205726 1983.60920800899 20 23 16
-311.240223612443 -290.832263848331 1957.91320808405 15 18 11
-315.643432965316 -291.853536576227 1933.1802308359 13 16 9
-363.843615040715 -296.541039404444 1874.77390403544 1 6 0
-386.807324296756 -297.548801836223 1887.02733060342 10 15 8
-399.322722936295 -297.949367983093 1898.56743107164 10 15 8
-405.693052992604 -298.910957210793 1879.63517447272 15 20 13
-414.094805708216 -299.694582933864 1870.52677173189 17 22 15
-421.969081967732 -300.536724863035 1858.46080720266 16 21 14
-440.800293201026 -300.294378843817 1903.47504280625 12 15 8
-451.045591900539 -300.887860754569 1904.21342720801 13 16 9
-458.179325157544 -301.80546349051 1888.20932839803 16 19 12
-461.26105996776 -303.1717016711 1849.53335109617 15 18 11
-462.248072225188 -304.803982761876 1798.01883031685 15 18 11
-500.920830540119 -303.982817445773 1901.02074430677 27 30 23
-149.210540509515 -294.786400321849 1844.11197289414 22 25 18
-188.32146191695 -294.813283748967 1913.80536309895 15 18 9
-194.42678368383 -295.708878387605 1897.92954600549 14 17 8
-210.624369713375 -295.90942819178 1921.10257050491 14 15 7
-215.054013652539 -296.932297537748 1898.38191304643 14 17 10
-220.093677406844 -297.927114601044 1877.60042904312 14 17 10
-228.875097735609 -298.658474999081 1871.46756968445 13 16 9
-291.432085598639 -298.006691996058 2003.73770892072 14 17 10
-299.911454823291 -298.718307327932 1997.64273202495 19 22 15
-309.562307765115 -299.337190624475 1996.4399924402 21 24 17
-316.729312884978 -300.165808640266 1984.46225555311 15 18 11
-369.921063497356 -307.5656609021 1857.9203124311 11 16 10
-391.022833422833 -307.072391306029 1910.71251225802 8 13 6
-390.747749775174 -308.764917910642 1859.35541197189 8 13 6
-418.499777252642 -309.19994286632 1896.20387605505 18 23 16
-427.446103405179 -309.940024511292 1890.05046039158 19 24 17
-448.266933353479 -309.327655207914 1945.90070778522 20 22 17
-448.388231975718 -311.07854725851 1893.48660794033 20 22 17
-452.627068906971 -312.38875689589 1861.72037381014 18 20 15
-459.733507126748 -313.379435422446 1844.71218660374 16 18 13
-476.850737693267 -313.133135596188 1882.88577595582 17 19 14
-493.258865222263 -314.852106931721 1860.68748191759 16 18 13
-497.656563422118 -316.238947864902 1826.88625044966 18 20 15
-212.004648914262 -302.927178699641 2006.60845115053 15 18 9
-205.954422119556 -304.790717892751 1944.88722605609 14 17 8
-217.018359631724 -305.320007496373 1948.54682195767 16 17 9
-218.891371692325 -306.602705058561 1916.06806923446 15 18 11
-219.713803781964 -307.999416252086 1878.6820471718 14 17 10
-242.787824351474 -307.520184663451 1930.22023137983 13 16 9
-282.142545364435 -307.033071281678 2008.95174793284 11 14 7
-294.810785347207 -307.374290653445 2020.47261841739 11 14 7
-285.649106492999 -309.727289152351 1939.99371690956 16 19 12
-365.080741195647 -316.382301194583 1886.76497551511 5 10 4
-372.046138557821 -319.150788178137 1821.40624615614 8 13 6
-385.94132779935 -319.351514921349 1838.82023377114 7 12 5
-411.514602250429 -318.123305793979 1915.23865306922 8 13 6
-413.619949230614 -319.709159355491 1874.66972734911 10 15 8
-433.698009651032 -319.072024760092 1925.57368674167 16 21 14
-436.551342363709 -320.5967050426 1887.93455728986 19 21 16
-450.550366352896 -320.694657535116 1908.35837758446 19 21 16
-439.571654694754 -324.126635840822 1794.85299555555 18 20 15
-469.189523568345 -322.104719117429 1899.98967144663 17 19 14
-482.656971859903 -324.271398326039 1862.0353409001 21 23 18
-477.329412810546 -327.15777115527 1773.01715093826 25 27 22
-161.540311621485 -314.036037627442 1895.02755699277 24 27 20
-178.636635124067 -315.565935524955 1881.81254666865 15 18 9
-204.581563660083 -314.772647463836 1942.0615361685 14 17 8
-218.410666833238 -315.03678009568 1956.46063634797 16 17 11
-224.718492905547 -315.989472178274 1941.56738537667 17 20 13
-249.689516550717 -316.735182272215 1960.62391109533 15 18 11
-256.885240563917 -319.229155676181 1907.32892166351 13 16 9
-271.477252498099 -319.385402272095 1925.66351988735 13 16 9
-285.962579265636 -319.53468817456 1944.01141345853 14 17 10
-297.135685745051 -320.017953753354 1948.66495161396 17 20 13
-313.255462334728 -319.959515341334 1974.87030579853 23 26 19
-361.505696998752 -328.677574913499 1823.75464676898 10 15 9
-371.413292582464 -329.351723366813 1821.51208539226 9 14 7
-381.925054115372 -329.947381812364 1822.21746280829 8 13 6
-398.125527169512 -329.775652157471 1851.43574976603 6 11 4
-418.616472287275 -328.981100124402 1903.29569640302 5 10 3
-426.58648558512 -329.881814294851 1892.22586607225 9 14 7
-432.916231067665 -331.02853003258 1872.29147461409 16 18 13
-434.522410993187 -332.887122973698 1826.74664421236 18 20 15
-453.754479928796 -332.167497364033 1874.73265954031 21 23 18
-460.279205633355 -333.326288554475 1854.77420777216 22 24 19
-475.429648252996 -333.164421715478 1882.10794382866 24 26 21
-119.784603400018 -326.385468846086 1781.35521704783 22 25 18
-134.502782920526 -326.622191558875 1796.65098067046 21 24 15
-224.57055346959 -324.221410014729 1982.92558010973 14 15 10
-228.525281476435 -327.111118852416 1918.95081108778 17 20 13
-234.763875588182 -328.139858850084 1903.05871302715 15 18 11
-251.642669802607 -328.012763343191 1930.17709286034 17 20 13
-279.042231575983 -326.680338475841 2001.32841182061 16 19 12
-279.540047716387 -328.34316850152 1961.96798625865 14 17 10
-286.973423020021 -329.239183584196 1950.96511280211 12 15 8
-361.762712302628 -336.717506932158 1877.15500615736 0 2 0
-360.463967485291 -338.932293348051 1821.8960394245 12 17 10
-371.791265924495 -339.408166917734 1826.53031586833 14 19 12
-387.074708779981 -339.302043531956 1850.82453978551 14 19 12
-403.595102128588 -338.982646018755 1882.01812816893 9 12 5
-409.463901676712 -340.236071703456 1860.12592659002 8 11 4
-420.802546603005 -340.670312479831 1865.76636451905 8 11 4
-435.749566208577 -342.755552223159 1836.69708244168 11 13 8
-454.962882385216 -341.897923343233 1884.68507457638 19 22 15
-460.013744169686 -343.34879430152 1856.84910390198 22 25 18
-482.449791820768 -341.862032758453 1924.58868524781 21 24 17
-475.281803554533 -345.453388726071 1827.73980892798 20 23 16
-483.974323545624 -346.343553574231 1818.59540071717 19 22 15
-136.859966882759 -334.921948094483 1846.76663410164 34 37 30
-140.146259820016 -336.293397270825 1820.15834913111 22 25 16
-227.450144929719 -331.931725774201 2034.99010236744 14 15 10
-224.969070360665 -333.91199539979 1986.93259629968 14 15 10
-220.514706997021 -336.166317092165 1930.05192175519 15 18 11
-225.453960730822 -337.37602311368 1909.28353423125 17 20 13
-234.873499925028 -338.071712381957 1906.09448930409 15 18 11
-249.347752971185 -338.156651532398 1923.43566798842 15 18 11
-274.404447592196 -336.916918698595 1984.80225550019 14 17 10
-287.987121110183 -338.905063802266 1957.91835424972 12 15 8
-369.669989660281 -347.6287522367 1869.14266884179 8 13 6
-375.811884661764 -348.868985142695 1849.23196628723 15 20 13
-395.626858105075 -347.958621535972 1896.1370491788 16 21 14
-407.894509909104 -348.211314397507 1906.69975020145 15 18 11
-412.138842155851 -349.774605671553 1876.94911123498 14 17 10
-420.75255637419 -350.638521235542 1868.82215549035 13 16 9
-430.726128276891 -351.277866533533 1867.57919637313 12 14 9
-438.654536671982 -352.275596771281 1855.50712647842 11 13 8
-448.109823572669 -353.014913695181 1851.30580797378 9 12 5
-468.778830319817 -351.71304207284 1908.18087332374 10 13 6
-471.340849038325 -353.701690062596 1866.5483313171 17 20 13
-486.212639832383 -353.407835544616 1892.90880679102 19 22 15
-140.575559457962 -342.844342833216 1900.74276106141 38 41 34
-153.958577127207 -343.092572021071 1912.17418663006 17 20 13
-154.600526405891 -346.637967841113 1837.52928065044 24 27 20
-175.742375645773 -345.966006528275 1878.22280198432 15 18 11
-192.84691846379 -345.743642726819 1904.30483147379 15 18 11
-219.343374673287 -344.327913478736 1967.50689623594 14 15 10
-228.346212505466 -345.050351238649 1963.36199624952 14 17 10
-234.418510357334 -346.151767380553 1947.49060210029 13 16 9
-236.685595031882 -347.765093266258 1915.97146950944 13 16 9
-276.209642989055 -348.323629659725 1953.36631422283 9 12 5
-276.234081893522 -350.312434195916 1911.04276048903 12 15 8
-300.352171127034 -348.931667533429 1970.51049453149 14 17 10
-357.81611602358 -357.262004970596 1864.60072789384 23 28 21
-368.020811356207 -357.870217314398 1864.33653104962 8 13 6
-376.804326494014 -358.717943145258 1857.19602961719 13 18 11
-394.608564085471 -358.017294329864 1894.27500094401 16 21 14
-402.74635798119 -358.965055307073 1884.19204358082 16 19 12
-410.545297326955 -359.985451323069 1872.13619034758 14 17 10
-417.063659519106 -361.25439269956 1853.18650988294 14 17 10
-425.380427510842 -362.21312236799 1843.08124649631 16 18 13
-435.422434552061 -362.85697668256 1841.82975895272 14 16 11
-450.418989857002 -362.542371531426 1867.16692280903 10 13 6
-487.810094866566 -360.307579877119 1961.25539239855 15 18 11
-482.086707887784 -364.098657855533 1873.2966690292 18 21 14
-132.735952782948 -353.781604501963 1874.54042671538 26 29 22
-150.694472367526 -353.438645134496 1902.53118183404 27 30 23
-174.093489628499 -356.202421136557 1874.42454178318 13 16 9
-203.911227891784 -354.219925369821 1949.30336333656 14 17 10
-213.460226021463 -354.88633631794 1947.10577269439 14 15 10
-229.727138936759 -354.633733432776 1971.27687961378 15 18 11
-240.938156732019 -355.056504315721 1975.92552735049 13 16 9
-232.422783577913 -358.263364900623 1901.41458218552 14 17 10
-248.599827423082 -358.004514270718 1925.59688778034 10 13 6
-259.407296286154 -358.500997123609 1928.28047569076 9 12 5
-287.118052466657 -356.481736452811 2001.40676513627 9 12 5
-277.0118667224 -360.086201290859 1917.01779926627 11 14 7
-366.575659731709 -368.10164952349 1860.51283287975 16 21 14
-378.002450357682 -368.48571022873 1866.14213859915 10 15 8
-383.395940960809 -369.982692517268 1842.29451996784 14 17 10
-400.548487955111 -369.283530212543 1876.43152077978 19 22 15
-406.227827473846 -370.748506154386 1853.55583270434 19 22 15
-411.643824427821 -372.296407193002 1828.69785240803 18 21 14
-421.917101067407 -372.905599325261 1828.42509960238 16 18 13
-432.372240105659 -373.476262582827 1829.13747734706 18 20 15
-453.101168528089 -371.905442301279 1884.99642919254 17 20 13
-467.184226233149 -371.658350487927 1906.41678128123 13 16 9
