ply
format ascii 1.0
comment KinectMotionCapture
element vertex 752
property float x
property float y
property float z
property uchar red
property uchar green
property uchar blue
end_header
-638.468491407529 114.148823331252 2222.36977438139 150 153 144
-649.732866493422 111.910633764702 2237.09389580356 166 169 162
-661.053024932386 109.57300170606 2252.819485307 141 143 140
-670.330287950607 108.699802411395 2254.68733883153 106 108 107
-679.864824246283 107.619142438446 2258.5390067087 114 116 115
-689.23856744153 106.6435446895 2261.40277683839 116 117 119
-698.590823827592 105.668897718275 2264.269225891 123 124 126
-707.921589701639 104.695144542356 2267.13859474742 130 132 131
-717.734041421046 103.308921758821 2273.97968667483 129 131 130
-727.257028306694 102.131374329774 2278.8409783667 142 144 143
-736.867952913542 100.852450427448 2284.69925002037 135 140 136
-745.734797442397 100.192494010352 2284.60214531334 138 143 139
-754.826186534764 99.3271644257785 2286.49317408033 134 139 135
-763.78899995528 98.564904352293 2287.39228980296 129 134 130
-772.74088540132 97.8028626759632 2288.29276869705 134 138 137
-782.002365231191 96.7346708861974 2292.17847957235 140 144 143
-790.611734102639 96.2796797080752 2290.09759234014 145 149 148
-799.429184557663 95.6202720616095 2290.00665027634 147 151 152
-807.846064241941 95.3672980512834 2285.93363808656 151 155 156
-816.374993262262 95.0114140233157 2282.85484117887 152 156 157
-825.101068719959 94.4518698807706 2281.76735208936 152 156 157
-833.736215924452 93.9930541109772 2279.68301767677 151 152 154
-842.90384915777 92.9278274212115 2283.58067251275 151 152 154
-851.447645495021 92.5692618123634 2280.49978704491 155 156 158
-859.754408824797 92.5113577690334 2274.42462881897 162 163 165
-866.891137672036 93.9575170742474 2253.3750152654 178 179 181
-874.443943192138 94.9953590954792 2236.30554175342 182 183 185
-882.380315023791 95.6269549293331 2223.22025992976 154 155 157
-891.097680484466 95.2550923889365 2220.11774907844 149 150 152
-899.963150150414 94.6826965095068 2219.01289826042 152 153 155
-908.761771795717 94.2094377355051 2216.90844150795 155 156 158
-917.438090220087 93.9342026579652 2212.80311152091 160 161 163
-925.582496844001 94.5501889588579 2199.69214956096 158 162 161
-933.674904078293 95.3597176947705 2184.57131239643 164 168 167
-941.731474820416 96.3615850375693 2167.43906670101 167 171 170
-950.190123105936 96.7654960309725 2156.30482192862 165 169 168
-958.102038624105 98.3474298930584 2133.14273790752 184 188 187
-1017.66184204425 106.471022999557 1998.71068850822 144 147 140
-1027.49189605942 104.401142405275 2012.60591465527 105 110 104
-1037.23979416303 102.336226864217 2026.51138029908 96 101 97
-1046.65281816401 101.34032948921 2029.37030187479 105 109 108
-1055.98229806203 100.635163746206 2029.21558206591 107 111 110
-1065.30514440975 99.9300622652752 2029.06168991566 121 123 122
-1074.63627592384 99.12875072314 2029.91494455833 146 148 147
-1083.94325788379 98.4239432284541 2029.76303141569 167 169 168
-540.268711492952 101.825918964572 2337.44851064021 170 176 166
-551.09561524186 100.035094348207 2348.19505911775 145 147 142
-561.503412721749 98.4556796870346 2356.97797864297 141 143 142
-570.634622237544 97.6051924708884 2358.86399896968 140 142 141
-579.234169514689 97.0659519490465 2357.79224638021 128 130 129
-587.157067494812 96.9397141055153 2352.77285933334 122 124 123
-594.935579652627 96.9148928289533 2346.76329633965 97 99 98
-602.250032833744 97.1970140347971 2337.78777554607 111 113 112
-609.608363035835 97.4759219672328 2328.80678762172 128 130 127
-616.535004455065 98.0598246515513 2316.85532688047 127 130 123
-622.742775828723 99.152118361014 2299.95356228162 141 144 137
-624.292435176435 108.880118709529 2192.91203460578 157 160 151
-640.264360300051 103.51554896912 2238.29761755627 164 167 158
-650.039110930109 102.341880095703 2243.12748040721 155 158 151
-660.635126843235 100.559794644291 2253.90305957613 128 130 127
-669.771086069557 99.7963284898525 2254.78057090199 104 106 105
-679.306915160104 98.72914309609 2258.63204196118 110 112 111
-688.413553116072 97.9666789030708 2259.5132097696 111 112 114
-697.903733802209 96.9015057417785 2263.37037218065 118 119 121
-707.367011754653 95.8376308875693 2267.23112874352 128 130 129
-717.181255679539 94.4731522526201 2274.07193975184 129 131 130
-726.82896857527 93.2114437431115 2279.92557510843 140 142 141
-736.197676534771 92.1522497908992 2283.79812112033 136 141 137
-744.832092604842 91.6950930977554 2281.71387357987 133 138 134
-753.817398781533 90.9372827425434 2282.61017062133 131 136 132
-763.016694960385 89.9802635437884 2285.49566178139 130 135 131
-772.303981543689 88.9245246569721 2289.37835960089 136 140 139
-781.349991209674 88.0689839155131 2291.27502567345 139 143 142
-789.85798909736 87.7103697078653 2288.19860776846 142 146 145
-798.376647113332 87.3505712541168 2285.12110292989 143 147 148
-807.103715368231 86.7919194197679 2284.03348759529 148 152 153
-815.830510428892 86.2328072119218 2282.9459075661 151 155 156
-824.557034174471 85.6733240941541 2281.85836237221 155 159 160
-833.192427529303 85.2118051445203 2279.77400436024 147 148 150
-842.273237600915 84.2584821094324 2282.67427215229 148 149 151
-850.990561511946 83.6983010467932 2281.58787688138 155 156 158
-859.128886797937 83.8227861511373 2273.51764394705 162 163 165
-866.345350660633 85.116703099968 2253.4664082267 178 179 181
-873.74142571173 86.3061183053709 2234.40048012295 181 182 184
-881.830685718728 86.7100906306193 2223.31233266241 156 157 159
-890.619963484732 86.2357250328779 2221.20904488561 153 154 156
-899.206709506099 86.0516062629872 2216.10672568644 157 158 160
-908.013701248726 85.5752462114803 2214.00123256241 156 157 159
-916.570649964837 85.4847414314983 2207.89493853222 157 158 160
-924.909988507364 85.7779635380854 2197.78356150384 164 168 167
-932.889317674175 86.7417516341331 2180.6610553807 170 174 173
-941.121207356674 87.4111775846131 2166.53110795388 169 173 172
-949.634213123216 87.6919624818685 2156.39809103561 164 168 167
-957.793685951421 88.7353306753184 2138.24520737898 175 179 178
-1017.08466123334 96.9963468096554 1998.80766848368 142 143 137
-1026.63225266895 95.9112145995248 2002.65795920279 110 115 109
-1036.38418420837 93.9798868348565 2015.55464233208 108 113 109
-1045.9205196689 92.6171991037605 2022.43037022624 96 100 99
-1055.26946194652 91.9138393272787 2022.2732168715 96 100 99
-1064.57638972701 91.3978367347545 2020.10543908275 103 105 104
-1073.9175232538 90.6942278931149 2019.94926086986 139 141 140
-1083.25202323028 89.9906833135488 2019.79391031559 165 167 166
-1092.62800111626 88.8216352297317 2024.67352547878 182 184 181
-539.714574951415 93.1039167050244 2337.54063268708 157 163 153
-549.822655986444 91.7509085278995 2344.34474435416 149 151 146
-560.598622490424 89.9954619496997 2355.09779660068 152 154 153
-569.386306457657 89.3545533687912 2355.01052050195 156 158 157
-577.99707105714 88.8143892114633 2353.93737048933 144 146 145
-585.76094614248 88.7770031849782 2347.92966720457 135 137 136
-593.552542712485 88.7374953115503 2341.91875029895 128 130 129
-601.535859959623 88.5955834198773 2336.8918645618 117 119 116
-608.895849267418 88.8524053871236 2327.91048748473 108 110 105
-615.665092946572 89.5058606797748 2314.97103905714 120 123 116
-621.563998500618 90.7536861379477 2296.09179503414 147 150 143
-624.472801131997 99.2961322288281 2197.95368111655 161 164 155
-640.439677037565 94.0602868659147 2243.33955518854 182 185 176
-649.766940742916 93.2010425096818 2245.20113217308 123 126 119
-659.932775314827 91.7487027133298 2253.00622549341 110 112 109
-669.211902152309 90.8915992578756 2254.87380403649 110 112 111
-678.748994569084 89.8380097650058 2258.72508163572 114 116 115
-687.722085265854 89.1792876309876 2258.61471478461 121 122 124
-696.95310832446 88.324024357392 2260.48829154885 127 128 130
-706.941258470411 86.8808242187532 2268.31553476612 136 138 137
-717.133061714042 85.2445084762084 2278.13324604024 137 139 138
-726.401222222547 84.2957061108683 2281.01036196909 138 140 137
-735.164764476464 83.7381049773059 2279.91819212807 133 138 134
-743.928321799409 83.1801146895104 2278.82602143134 129 134 130
-753.037805394089 82.3300236191724 2280.71451171259 131 136 132
-762.468857411468 81.1893885088497 2285.58717912523 135 140 136
-771.647519543757 80.2441974270101 2288.47545441213 140 144 143
-780.268352906824 79.7834567269364 2286.39291135157 139 143 142
-788.998963261813 79.2254750733659 2285.30485221893 146 150 149
-797.322259550451 79.0524684591095 2280.23562099418 147 151 152
-806.459571037453 78.1082369254308 2283.12881380147 149 153 154
-815.1895168305 77.549043442233 2282.04084079355 151 155 156
-823.825499613645 77.0852200032152 2279.95665556194 153 157 160
-832.466595667913 76.6207124863267 2277.87183402582 148 149 151
-841.289208849834 75.9644995538693 2277.78023927106 149 150 152
-850.277072897268 75.1175602417952 2279.6841389215 155 156 158
-858.585688912794 75.032481514775 2273.60858078615 161 162 164
-866.119816324672 75.8948478974621 2257.54982766743 178 179 181
-873.270222404718 77.3203751353932 2235.49063424295 184 185 187
-881.430251046341 77.602806160166 2225.4019027168 156 157 159
-889.998363815081 77.4095126350563 2220.30193299879 147 148 150
-898.587553565159 77.2144608338089 2215.19957789722 146 147 149
-907.064622122229 77.2058549142251 2208.09510939396 146 147 149
-915.637405761773 77.1008142821945 2201.98687753858 150 151 153
-923.930733342826 77.4624030131721 2190.87337526692 157 161 160
-932.21899779328 77.913665990805 2178.75234132315 173 177 176
-940.510321222941 78.4541803811469 2165.62324376699 171 175 174
-949.449274734479 77.9646955543959 2163.50131715798 166 170 169
-957.637767815414 78.8701878978847 2146.35286213472 165 169 168
-966.388269723634 78.8409974283088 2139.21432497443 193 195 192
-1016.38139794189 87.8877441767878 1994.88843010413 141 142 136
-1026.0558349239 86.449240485993 2002.75481050168 111 113 108
-1035.44656463727 85.8367832246381 2001.58451583527 112 114 111
-1044.97585776484 84.6762729319224 2006.44497567874 95 97 96
-1054.38918486259 83.8820253270721 2007.28771392714 93 95 94
-1063.80839751225 82.9972746941093 2009.13788339689 97 99 98
-1073.30137059283 81.5687785183248 2017.0268830621 129 131 130
-1082.65702389545 80.7772221529508 2017.87705184063 173 175 174
-1092.11802183282 78.9013368433157 2030.80989575773 176 178 175
-539.160574478171 84.3807710554927 2337.63274076451 154 159 152
-548.187442981614 83.6409145939618 2338.52356352362 151 153 150
-558.626489669837 82.1137667905219 2347.30244568947 112 114 113
-567.78654485021 81.2775072097 2349.18482877981 105 107 106
-576.931032737219 80.4417914383699 2351.06915314422 141 143 142
-584.872235990028 80.2921707883928 2346.04754328533 146 148 147
-592.668724788171 80.2384633383696 2340.0358129839 157 159 156
-599.835925049237 80.5729751792422 2330.07084341713 142 144 141
-606.890810583083 81.0014556158609 2319.11171523444 137 139 134
-614.159205168716 81.3288613494647 2309.13389565916 154 157 150
-621.320710159452 81.7498029873482 2298.16148185174 163 166 159
-627.518419979428 87.9002474614046 2221.78978878463 162 163 155
-639.432691004262 85.4035612917474 2240.46471670763 147 148 142
-649.059607664198 84.359033225522 2244.30500117814 112 113 107
-659.08748334064 83.0271699986851 2251.11906631533 113 113 111
-668.512814388639 82.0817600961907 2253.97631908736 119 119 119
-678.053913099271 81.0414449598398 2257.827302036 123 123 123
-687.433669552421 80.0981023099152 2260.690236804 130 130 132
-696.92367627968 79.0602332726578 2264.54734901965 133 133 135
-706.386782106413 78.0236325646041 2268.40805523729 136 136 136
-715.949228828872 76.8931108759449 2273.26429873419 135 135 135
-725.10838458242 76.0493238753587 2275.14681389087 131 133 130
-734.251332021806 75.2061215209683 2277.03135020969 126 131 127
-743.49623704753 74.2689210710508 2279.91109746333 130 135 129
-752.603959380386 73.4271266474249 2281.80002595946 133 138 132
-762.25928952253 72.1143981004959 2288.66053218637 135 140 136
-771.210753375384 71.3689263293236 2289.56102005654 138 142 141
-779.721757708326 70.9996094880227 2286.48425514997 139 143 142
-788.348129423273 70.5354427741348 2284.40127022685 146 150 149
-796.673878619964 70.3514104565689 2279.33176192948 148 152 153
-805.418021109401 69.7917306176767 2278.24201853857 152 156 159
-813.968841909129 69.4182946008257 2275.16029562003 152 156 159
-822.717848467582 68.8574986432253 2274.06994816132 151 155 158
-831.648772725944 68.1104686968786 2274.97300335486 152 153 155
-840.568503414684 67.3637910081198 2275.87721424331 151 152 154
-849.648416100434 66.4321769402381 2278.77777712276 152 153 155
-857.793310325682 66.518168164006 2270.70658552717 156 157 159
-865.734838259642 66.8780706470405 2259.63699021232 176 177 179
-872.799166479625 68.3388952169746 2236.58099901217 183 184 186
-880.805601888633 68.7809088635008 2224.4951600244 157 158 160
-889.159719099791 68.8518120814751 2216.39813863955 147 148 150
-897.759483848744 68.6453067364053 2211.29449400314 147 148 150
-906.38026654029 68.4370443724167 2206.18823107879 148 149 151
-914.893972924691 68.4094120602216 2199.07924049661 151 152 154
-923.316823145481 68.5614063446793 2189.96550072113 153 157 156
-931.723620521052 68.8010029095239 2179.8460867189 172 176 175
-940.346113647307 68.7651860914683 2172.72354174808 175 179 178
-949.053546399114 68.6364254585638 2166.59832867657 182 186 185
-957.433629525494 69.1377214747584 2153.45825771519 182 186 185
-966.164656663114 69.0937063901289 2146.32218993124 175 177 174
-1025.42135510994 77.1639079641802 2000.84282795904 119 121 116
-1034.8178292225 76.5513833625894 1999.67181660291 118 120 117
-1044.37741122111 75.3186705353067 2005.53637381533 103 105 104
-1053.856433958 74.2648711146245 2009.39513898888 100 102 101
-1063.25307265914 73.4771836019932 2010.24018284349 91 93 92
-1072.69908713915 72.3378323752472 2015.11073937945 100 102 101
-1082.06082637446 71.5516813536789 2015.96013443477 113 115 114
-1091.51997936327 69.8016087319014 2027.88519016912 187 189 186
-539.890385058847 74.9841377805978 2344.62070064274 165 170 164
-547.27300671875 75.113496814904 2336.64476221796 153 155 152
-557.00767679766 73.9959197440918 2341.47923890022 116 118 117
-565.834369997255 73.3576049414222 2341.38732811803 110 112 111
-576.036622172122 71.9563044096309 2349.18750205799 99 100 102
-583.813102245222 71.8903769186708 2343.17854117694 98 100 99
-591.784376488094 71.7273739131271 2338.15321387822 91 93 90
-598.298055974214 72.4162583708449 2324.23763768267 90 92 89
-605.044411653477 73.0056540116714 2311.30097397223 85 87 82
-612.174301562952 73.4014659753066 2300.33257171814 102 105 98
-619.671450242172 73.6047609630889 2291.33445919253 137 140 131
-625.744094321108 79.6421257594341 2213.97098428364 162 163 155
-637.387514845468 77.3860425561127 2230.66346466337 156 157 149
-648.206475685756 75.6039881756615 2242.41890863978 116 117 111
-658.098775523183 74.3869876272635 2248.2419032552 115 115 113
-667.393274690124 73.5452090246781 2250.10752306499 126 126 126
-676.534452984395 72.7971173222172 2250.98434259395 125 125 125
-686.338140194805 71.5844778796074 2256.81838405653 140 140 142
-696.104090960862 70.3738542708366 2262.65712949564 143 143 145
-705.703066650071 69.2577874133631 2267.50877632717 136 136 136
-714.763617767052 68.5133067050547 2268.39540787303 135 135 135
-724.184828823729 67.4921853445396 2272.26130154598 133 135 132
-733.336814578176 66.6565891379431 2274.144689906 130 132 129
-742.827687264965 65.5458264240723 2279.00981338485 134 139 133
-751.939007573576 64.7121016695748 2280.89803135495 135 140 134
-761.485885839631 63.5125402139559 2286.76432688388 135 140 136
-770.333237514775 62.863560320853 2286.66962586347 139 143 142
-778.744912409891 62.5795935956363 2282.59734481881 142 146 145
-787.382343673543 62.1119751041778 2280.51298881954 144 148 147
-795.922874999288 61.7345661159757 2277.4325604292 147 151 152
-804.573432594264 61.2653350133758 2275.34657058813 151 155 158
-813.229142177322 60.7953850014285 2273.25969943389 152 156 159
-821.795998243567 60.4150771751158 2270.1762337743 152 156 159
-831.194912024544 59.2218338485346 2276.06073748889 151 152 154
-840.024090705859 58.5708762643472 2275.96830955885 149 150 152
-849.019212554523 57.740166941412 2277.8712607375 148 149 151
-857.082884832148 57.8966509909803 2268.802572691 150 151 153
-865.028549086614 58.229056646995 2257.73253359972 172 173 175
-872.172701904604 59.5403753666909 2235.67442130944 181 182 184
-880.180431803137 59.9523285101857 2223.58874020904 159 160 162
-888.608779805346 59.9151437465858 2216.49042700436 153 154 156
-897.277901226244 59.6091025918332 2212.38607628752 156 157 159
-905.628056262266 59.7448277133872 2203.28169155434 155 156 158
-914.277703648471 59.523558452734 2198.17186073994 155 156 158
-922.702301620307 59.6537025174419 2189.05796039725 153 157 156
-931.522243587185 59.2520161137882 2185.9429674132 170 174 173
-939.959643624787 59.4649057608481 2175.81956444265 180 184 183
-948.658493514913 59.3232544122379 2169.69545640877 189 193 192
-956.826152639724 60.1429990420125 2152.54982715362 195 199 198
-965.511295310685 60.1700897441711 2144.41161112709 186 188 185
-1025.04707542663 67.0908452840522 2007.97035312766 123 125 120
-1034.31971525401 66.8239156100885 2002.78289678478 119 121 118
-1043.80179496946 65.8685898004938 2005.63309377179 109 111 110
-1053.24021359758 65.0000545166086 2007.48082374643 111 113 112
-1062.6429696022 64.2178002103799 2008.32508988958 102 104 103
-1072.12675003743 62.9241524436094 2015.20695425716 95 97 96
-1081.48920911186 62.1438382000941 2016.05624410987 93 95 94
-1090.95086254941 60.4295590451123 2027.98089354218 192 194 191
-1100.31879149526 58.9739323099746 2036.89325652171 193 198 192
-539.154362672791 66.3711368853859 2343.72730654957 164 169 163
-547.262244237523 66.1083774307439 2339.69312153669 149 151 148
-556.633896715968 65.1933517310098 2342.55699306114 119 121 120
-564.93208713742 64.8361888857705 2339.50675406545 118 120 119
-574.450844554587 63.8293678352737 2343.36043686995 115 116 118
-582.41299277352 63.6561638502446 2338.33603504024 114 116 115
-590.397474201586 63.4811514212534 2333.30909118928 110 112 109
-597.087459110805 64.0414129462019 2320.37977921008 122 124 121
-603.357277287873 64.8731178576353 2304.4786448865 113 115 110
-609.868051532033 65.607436757032 2289.55562449979 98 101 92
-616.611613706839 66.2450069420607 2275.61149543806 140 143 132
-616.660466522669 70.9014559553246 2218.15064686843 155 158 147
-624.420229469319 71.0653563350747 2209.1198653791 163 166 157
-636.229014193371 68.7662423139871 2226.79974997139 159 162 153
-647.061427081126 67.0188358041955 2238.55342396788 122 124 119
-657.53786077398 65.4570165886081 2248.3354188607 113 113 111
-666.552813992948 64.8044664561136 2248.21981156056 128 128 128
-675.562627826087 64.1518281805356 2248.10508612626 124 124 124
-685.37603087309 62.9577107459865 2253.93786633283 138 138 140
-695.54796642464 61.4952974866056 2262.74991191327 142 142 144
-705.277730220173 60.3056423806241 2268.59311805256 134 134 134
-714.082976929025 59.7461309613283 2267.49574877279 135 135 135
-723.879997520576 58.4697647856644 2274.33847711027 136 138 135
-732.906225817447 57.7320418895829 2275.22961441344 137 139 136
-742.751436627374 56.3701220763583 2283.07448156596 135 140 136
-751.389485545459 55.9013867334192 2280.98981115951 136 141 137
-760.824805277328 54.8098102759837 2285.86181679239 137 142 138
-769.56501928737 54.252082786255 2284.77255851104 143 147 146
-778.089712375811 53.8709970964672 2281.69435659029 146 150 149
-786.940064256636 53.2238566275794 2281.59927631789 148 152 151
-795.580242897286 52.7530172806334 2279.51458594421 149 153 154
-804.026433371687 52.4574454696401 2275.4380281209 151 155 156
-812.585503037277 52.0726742358941 2272.35530564356 152 156 157
-821.155122174296 51.6867855277167 2269.27150986612 153 157 158
-830.74121349887 50.3375782497959 2277.14843985176 148 152 153
-839.568264527869 49.6895656561958 2277.05650995336 150 151 153
-848.217407330184 49.2158235713178 2274.97046828082 147 151 152
-856.204930241009 49.4370699318886 2264.90342557767 152 153 155
-863.998894155019 49.9152338823296 2251.83631947763 170 171 173
-871.623606186968 50.6486798405229 2235.76636117247 178 179 181
-879.329070063124 51.3765061691254 2219.68658058238 164 165 167
-887.912647134829 51.1499202770447 2214.58500895379 155 156 158
-896.377693849784 51.0937351031791 2207.48216600363 157 158 160
-905.142882754994 50.691443309745 2204.37376720352 158 159 161
-913.789546881426 50.4596439663535 2199.2643364129 158 159 161
-922.642164006328 49.9693884327618 2197.15318610415 144 148 147
-931.263594012382 49.8200379314484 2191.03875988955 152 156 155
-939.686360171543 50.0094931861183 2180.91724485415 194 198 197
-948.049946185422 50.3655109915957 2168.78730231808 185 189 188
-956.268863496308 51.0568623875083 2152.64330156154 179 183 182
-964.664414060539 51.5732182482227 2138.4935735976 189 191 188
-1024.47027971031 57.6389584388522 2008.06722503067 127 129 126
-1033.82213286638 57.1116132907621 2005.89387069086 118 120 117
-1043.32098376333 56.084948604895 2009.7500899689 102 106 105
-1052.72834457528 55.3085796890207 2010.59352569161 113 117 116
-1062.06847263202 54.7809064975915 2008.42163543877 112 116 115
-1071.47557008738 53.9223394648396 2010.27324785957 104 108 107
-1080.82623527526 53.3117477384932 2009.10794809627 120 125 121
-1090.26813795077 51.9608890310649 2017.00311659059 183 188 184
-1099.78151545334 49.3001912467965 2041.01676950968 196 201 195
-539.3368193179 57.2985475928055 2347.75965831017 157 163 159
-547.071581384991 57.2089377875955 2341.75572568743 129 133 132
-555.725680789144 56.6658935101111 2340.67717533207 134 138 137
-563.853673067634 56.3927726104709 2336.64026763877 127 131 130
-572.863089289026 55.6686026782673 2337.53346729832 109 113 112
-581.011344938998 55.393504080354 2333.49403606425 115 117 116
-589.511440340709 54.9378298088073 2331.42678731394 110 112 109
-596.864149962799 55.1072044668292 2322.44654898799 121 123 118
-603.288394788273 55.8089330281684 2307.53441278667 130 132 127
-609.151570706289 56.8617125460448 2288.66014125755 147 150 141
-625.51429459636 61.0433621147942 2220.0950039707 155 161 151
-636.108813426916 59.5048393532871 2229.8624414548 156 161 155
-646.935689366192 57.7932306999897 2241.61671215734 139 144 138
-656.976954799746 56.5258804081879 2248.42893643949 133 138 134
-666.413624639606 55.6123564765401 2251.28469022676 128 130 129
-675.415865316326 54.9628881531421 2251.17090152965 128 130 129
-685.222717905296 53.7882095385952 2257.00444800321 130 131 133
-694.991822981929 52.6155474629814 2262.84269983267 131 133 132
-704.723160266413 51.4449330793374 2268.68565946678 135 137 136
-713.909316733922 50.6243301324711 2270.5647440396 135 137 136
-723.575834076772 49.4570986237316 2276.41578391053 137 139 136
-732.718775286399 48.6384424872253 2278.3002563652 138 140 139
-742.201624558658 47.5610082555479 2283.16629334938 134 138 137
-751.303928716643 46.7442839883474 2285.05583198034 134 138 137
-760.503208163935 45.8420311057775 2287.94118100326 139 143 142
-769.570144945666 45.0267238327394 2289.83512954208 143 147 146
-777.757679763069 44.8985052262728 2283.77479523177 146 150 149
-786.708339843865 44.168761735458 2284.67534198808 151 155 154
-795.238131062518 43.7812272369227 2281.59628056478 151 155 154
-803.678788106771 43.4778857190429 2277.52043374209 146 150 149
-812.038407219157 43.2582512657982 2272.44679243643 151 155 154
-820.513732582897 42.9519247884936 2268.3666270732 147 151 152
-830.104448762584 41.6270906500433 2276.2431559872 149 153 154
-838.934740116009 40.9817357905198 2276.15057444769 146 150 153
-847.414418473324 40.6740570030807 2272.06986941785 148 153 156
-855.49241255256 40.7860613324456 2262.99951123094 155 159 162
-863.532496961697 40.9790824269463 2252.92574322504 170 174 177
-871.386648751048 41.4202986125757 2239.85146360334 177 181 184
-878.852979042255 42.3592125850101 2220.77742774706 158 162 163
-887.288220959234 42.2890997668915 2213.67834093744 165 169 170
-895.825306474333 42.1331506980786 2207.5746980625 146 150 151
-904.657805015538 41.6424423862735 2205.4658193577 141 142 144
-913.624190700935 40.9850158756376 2205.35652610913 141 143 142
-922.275266653804 40.7417674236312 2200.24657489948 152 156 155
-931.006365697337 40.414159891892 2196.13454653603 150 155 151
-939.075905168539 41.0750733669151 2180.00926740796 168 173 169
-947.548191018777 41.2365892232699 2169.88164618527 176 181 177
-955.660259161387 42.0516733167007 2151.73527953121 181 186 182
-964.008397629475 42.6146540969724 2136.58341816458 176 181 177
-1023.71695183702 48.6703883505535 2002.13849144785 118 120 119
-1033.08518282555 48.1395785878627 1999.96286210657 108 112 111
-1042.62537236807 47.0454122917714 2004.82178742732 111 117 115
-1052.08947889637 46.1135675772526 2007.6741655252 94 100 98
-1061.49361183765 45.3429311019362 2008.51822923965 104 113 108
-1070.88565102268 44.5727067351497 2009.3638010981 129 138 133
-1080.25252162153 43.8826575922315 2009.20437534178 135 145 137
-1089.66494179324 42.7951976057623 2014.07922786381 149 154 148
-1099.10564147524 41.0750470006377 2027.01419476139 152 154 149
-536.762414169635 49.5648078967485 2337.01577622609 161 167 163
-546.157113049115 48.6700852519577 2339.87695849731 146 150 149
-555.530837972541 47.7763976536957 2342.74051519975 131 135 134
-564.180580072995 47.2330934617349 2341.66250929461 131 135 134
-572.311760240611 46.950990313001 2337.62522742602 123 125 124
-580.800578187095 46.4933768425229 2335.55939114227 114 116 115
-588.289488530461 46.5562399815298 2327.57012336399 119 121 118
-595.487091249222 46.7896164500376 2317.60162608665 151 153 148
-602.247271446776 47.2790821338668 2304.66350032004 150 152 147
-609.392010475073 47.5913821926298 2293.69346490934 145 148 139
-621.616139875127 53.9124144289669 2198.4296919585 148 153 146
-636.73309446977 49.8304025913033 2237.87198947926 152 157 153
-646.373088562809 48.8393288902838 2241.71050119326 148 153 149
-656.416079782436 47.5936971172698 2248.52245291257 147 151 150
-665.994384317438 46.605777006657 2252.36865481384 146 147 149
-675.407975909724 45.7042045365734 2255.22725715622 140 141 143
-684.800126820925 44.8036097666812 2258.08853259411 132 133 135
-694.700513834511 43.5655099230516 2264.91826064019 131 132 134
-704.298281756311 42.4987012326076 2269.76992847432 132 134 133
-713.609645161376 41.6020910116646 2272.64151549094 133 135 134
-722.899390822592 40.7065568502278 2275.51555717168 141 143 140
-732.167508546318 39.8119525960981 2278.39229544228 139 141 140
-741.532844060416 38.8346112209247 2282.26480649084 133 137 136
-750.406405461415 38.1930418949666 2282.16705540487 132 136 135
-759.501406124226 37.384546787318 2284.05748379764 138 142 141
-768.580063397209 36.5767643753449 2285.94994987199 143 147 146
-776.994056797123 36.2680742659571 2281.8774445998 147 151 150
-786.05618190242 35.4605985205468 2283.77197298334 147 151 150
-794.588712199717 35.067454807487 2280.69258451089 146 150 149
-803.33169080953 34.508117864272 2279.60298546228 151 155 154
-811.685598346356 34.2779778321826 2274.53008459355 156 160 159
-820.060872478798 34.0460884310721 2269.4545219069 143 147 146
-829.375377306486 32.9921567519573 2274.34126512065 138 143 146
-838.03347039962 32.5129796274049 2272.25436108646 142 147 150
-846.782956294848 31.9514364669939 2271.16395577709 146 151 154
-855.11369507165 31.7970766255111 2265.08605957001 151 155 156
-863.309114709812 31.8033449622268 2257.00877264898 166 170 171
-871.229015242232 32.1314892186375 2244.93427284195 175 179 180
-878.452549520172 33.2653055575159 2222.86696192971 129 133 134
-886.954555545933 33.0985095895186 2216.76748506384 114 118 117
-895.483056343191 32.9296400621518 2210.66494753651 143 145 144
-904.375067359094 32.3563894570908 2209.55678676582 164 166 165
-913.136983334776 31.9434367290637 2206.44882448315 181 183 182
-921.909041113111 31.5294198546543 2203.33959936586 171 176 172
-930.57260856746 31.2743270167449 2198.22812048245 168 173 169
-938.860979549009 31.5758323145693 2186.10770789449 174 179 175
-947.046468887865 32.1119977132039 2170.97621479497 170 175 171
-955.306840353553 32.6429721313496 2155.83515025024 173 178 172
-963.496774093456 33.406422846094 2137.67920240463 193 198 192
-1022.99070255397 39.590042757076 1997.21411980331 149 153 152
-1032.37268273603 39.0559109858525 1995.0370236611 149 153 152
-1041.95184082428 37.8999482323771 2000.89893577468 164 169 165
-1051.40631977357 37.0561002176184 2002.74459650315 146 153 146
-1060.88078925474 36.0584883335117 2006.60354165947 105 112 105
-1070.26292392499 35.3708734504854 2006.44244489549 82 89 82
-1079.59844101037 34.9142422376888 2003.26301561116 98 105 97
-1088.9859074516 34.1495647338449 2004.10914351354 125 130 124
-1098.40091929966 33.0023868165825 2009.99151697292 117 122 116
-535.104691923583 41.3443584034946 2331.19769529657 159 164 158
-544.698015578206 40.3742939793189 2335.04197587819 148 150 147
-554.443586730336 39.3207638078586 2339.87516377447 129 131 130
-563.981439214833 38.353543906491 2343.72611907049 141 143 142
-572.453525068632 37.8944283120819 2341.66237480878 163 165 164
-581.102163715026 37.3502985835941 2340.58450878221 165 167 166
-587.401974958648 37.983509872194 2325.68808159406 138 140 137
-593.447969300092 38.7794959721215 2308.80728612796 100 102 97
-599.418784126919 39.6534110634834 2290.92798029941 96 98 93
-609.953633251694 38.180081514441 2300.70245225729 163 166 157
-635.425036528384 41.2765175568153 2233.01907796927 139 144 140
-645.372058301539 40.1326246185962 2238.83505108433 139 144 140
-655.568338537805 38.8255579586817 2246.63572212537 147 151 150
-665.153279871271 37.8508018446515 2250.48106112652 153 154 156
-674.573324594113 36.9596877121031 2253.3388306147 142 143 145
-683.836633487112 36.1516384541585 2255.20825396125 136 137 141
-693.216467944491 35.2623692799946 2258.0710365942 132 133 135
-702.315014724398 34.537508022713 2258.95311510757 130 132 131
-711.530024350104 33.7314308447455 2260.82856072374 131 133 132
-721.102284745799 32.6818943444796 2265.68336626063 142 144 141
-731.0073494786 31.3904235350129 2273.52033820373 140 142 141
-740.268429287508 30.5068708294615 2276.39816592937 135 139 138
-749.507787117546 29.6243709626895 2279.27846138821 135 139 138
-758.157251090127 29.1463109234684 2277.19263127544 141 145 144
-767.477583044901 28.1844677769757 2281.07071768811 145 149 148
-776.121424205186 27.7060492768623 2278.98559021307 148 152 151
-785.509062255028 26.6657360864724 2283.86341123799 146 150 149
-794.350014952074 26.0271673122015 2283.7694813549 149 153 152
-803.185304392166 25.3886009867486 2283.67625820635 155 159 158
-811.430686028367 25.227913613146 2277.60903072913 156 160 159
-819.797496359812 24.9857511840519 2272.53431105973 142 146 147
-828.737440672445 24.265977150065 2273.43616882634 141 147 147
-837.398430709826 23.7839578359825 2271.34891075544 143 148 151
-846.064425185147 23.3012887345358 2269.26078960272 145 150 153
-854.567767890674 22.9755021267408 2265.17741935717 148 152 153
-863.005748342316 22.7269543645589 2260.09383489307 164 168 169
-870.8376172371 23.1041942979538 2247.02250452407 175 179 180
-877.976850316317 24.2595133955112 2223.95772990936 161 165 166
-886.402664559498 24.1575123017412 2216.85990359432 151 155 154
-895.141568433412 23.7414294717565 2213.75506159767 180 182 181
-903.958224877546 23.2466241450215 2211.64817068226 179 181 180
-912.714763465005 22.8287012162649 2208.54113282344 178 180 179
-921.294909239348 22.6419668886528 2202.43195708587 158 163 159
-929.960894610611 22.3759998820508 2197.32020509745 165 170 166
-938.193672375939 22.7245617004475 2184.1986789256 175 180 176
-946.274506393587 23.3761654528216 2167.06432772353 175 180 176
-954.697756635873 23.6384108218975 2154.92718639086 161 166 160
-963.131072928637 23.9730326023835 2141.78067090696 169 174 168
-1022.32178026679 30.3307732347538 1994.29867974353 131 136 132
-1031.81997944156 29.4933073472155 1996.13886763922 99 101 98
-1041.39799028857 28.356946836456 2002.00087129992 96 98 93
-1050.85061127112 27.521787319429 2003.8467410108 84 85 79
-1060.32353481394 26.5383410006299 2007.70608205532 91 92 86
-1069.70350320139 25.8539970334553 2007.54500674804 112 113 107
-1079.07672369235 25.1697843350547 2007.38477319266 163 164 158
-1088.42172781634 24.6338275974923 2005.21229624988 149 151 146
-1097.94053171146 22.5458949150047 2024.18508787105 164 169 163
-532.523963799619 33.5021803258009 2320.45512811984 159 164 158
-543.237342887688 32.0501752937015 2330.2072644364 127 129 126
-553.355456236694 30.8477172341528 2337.00996793037 108 110 109
-562.374301210616 30.139071628204 2337.9019500546 133 135 134
-570.515932307037 29.8394908982066 2333.86340999846 163 165 164
-579.527920413331 29.1306525271734 2334.75600805813 134 136 135
-586.009874904785 29.643078277609 2320.84485565208 100 102 99
-591.571100566554 30.6380320711867 2301.00073091362 102 104 99
-597.561000755437 31.4640285611121 2283.11916953665 131 133 128
-620.256387338875 31.7303565032399 2256.10004586183 157 160 149
-622.901718756169 34.4651220803453 2214.44466798141 153 158 151
-633.668192395637 32.9349227743394 2225.19807143188 107 112 108
-643.931085673716 31.6485191393986 2232.99061541251 97 102 98
-654.576383034522 30.1252655732074 2243.75936292355 119 123 122
-664.734216857296 28.8448057972536 2251.56476178142 143 144 146
-674.014396647372 28.0442220398279 2253.43206007963 134 135 137
-683.143094986674 27.323591340963 2254.31036471561 133 134 138
-692.261101505007 26.6032809354169 2255.18976251542 129 130 132
-701.238419723607 25.9622683677484 2255.07906172581 129 131 130
-710.465127670105 25.1636278799432 2256.95302787644 129 131 130
-720.049571007406 24.1297363553541 2261.80603158502 132 132 132
-730.089343767286 22.7835735463195 2270.63450442784 134 135 137
-739.597986926274 21.7537942618271 2275.49695672111 138 142 143
-748.491564910525 21.1163844841276 2275.39669672986 141 145 146
-757.038224458052 20.7128746892644 2272.31557230922 140 144 145
-766.040041887894 19.9971617563595 2273.20969798183 138 142 143
-775.030877895989 19.2818174271011 2274.10495283151 136 140 141
-784.644804047546 18.1021623237559 2280.97051585623 139 143 144
-793.288450198034 17.62034957804 2278.88518138714 145 149 150
-802.238092617697 16.9065868823134 2279.78581305669 148 152 153
-810.688889462351 16.5778146911705 2275.70876781762 143 147 148
-819.534998674025 15.9406792219938 2275.61419065743 133 137 138
-828.283234231833 15.3801115481363 2274.52393881387 130 134 135
-836.762860930413 15.0484575914687 2270.4433033685 144 148 149
-845.431761594289 14.5629780765604 2268.35506721049 153 157 158
-854.105651948284 14.0768522176964 2266.26621007078 157 161 162
-862.540612210376 13.8176597849183 2261.18327080958 164 168 167
-870.053739068478 14.4652964284474 2244.11977655201 170 174 173
-877.349493255713 15.4091841816045 2223.05164029041 148 152 151
-885.704217775271 15.366128628841 2214.95484322343 140 142 141
-894.518980743248 14.8692342062914 2212.84819410421 157 159 156
-903.406265890498 14.2967027215329 2211.74062120021 159 161 158
-912.032740215033 14.0231896059825 2206.63381982925 168 170 167
-920.555503201171 13.8973345519571 2199.5239577028 163 168 164
-928.990725161516 13.9180501994319 2190.40925999373 146 151 147
-937.297724529064 14.1586142049244 2178.28644291132 173 178 174
-945.446664543929 14.6915935029509 2162.15183224364 175 180 174
-954.139501302296 14.5534107187124 2155.02077838053 157 159 154
-1021.86049863719 20.5462138612126 1998.4130009142 136 139 132
-1031.18575673145 20.1522675021434 1994.22699971479 90 91 85
-1040.72174388436 19.1793758843434 1998.07844299817 84 81 76
-1050.20779098384 18.2800257736147 2000.92799746911 87 82 76
-1059.67089036909 17.3818986752189 2003.78041245835 133 126 120
-1069.11121542504 16.4849263252363 2006.63590677701 152 147 141
-1078.50129116705 15.7321439729023 2007.48143745988 138 133 127
-1087.89021324741 14.9085375766632 2009.33522599243 168 169 163
-533.074549025211 24.24436197119 2326.45740160047 156 161 155
-542.501971706327 23.3797125290572 2329.31418066926 144 146 143
-551.550501321181 22.6747598660848 2330.20244860055 151 153 152
-560.236345102664 22.1285287068231 2329.11994512712 136 138 137
-568.749254801098 21.6609571204799 2327.05088829075 118 120 119
-577.780901681601 20.9561244295061 2327.94126277154 131 133 132
-584.616201496965 21.2743515161765 2316.00214083842 137 139 136
-590.518963998374 22.0594353113428 2298.13156147182 137 139 134
-595.863343206375 23.1517121903907 2276.2986271268 131 136 130
-611.345317370472 27.0057124016146 2202.80558929203 158 164 152
-622.941074408311 25.115935670739 2218.49536603985 159 164 157
-633.251486601906 23.8514363195258 2226.28168198786 107 112 108
-643.367064832438 22.6668772526707 2233.08465471328 83 88 84
-653.583391508346 21.4076575265063 2240.8829383427 120 124 123
-663.892326069173 20.0741464359751 2249.67754779744 134 135 137
-673.317132872317 19.2044976706533 2252.53466647788 133 134 136
-682.449212705694 18.4890265485103 2253.41253553583 126 127 131
-691.304745143728 17.9267894171951 2252.30889807241 124 125 127
-700.290667924171 17.2879734065079 2252.19687743106 129 130 132
-709.526355156478 16.4969428269988 2254.06970297948 128 129 131
-719.494735868446 15.2510377069249 2261.89865346708 126 126 126
-729.292334317102 14.0836600842778 2268.74126294268 129 130 132
-739.165975243557 12.8431061309645 2276.58226257205 140 141 143
-748.057324076988 12.2085830799216 2276.48203289482 146 147 149
-756.943203931157 11.5740799621888 2276.38248566137 148 149 151
-765.712322030046 11.0146305604939 2275.2896248552 145 146 148
-774.806991157099 10.2302246170506 2277.18003118373 143 144 146
-784.096942579789 9.29707493083021 2281.06207361273 150 151 153
-792.843926173941 8.73805020795301 2279.97197394353 152 153 155
-801.490221945722 8.25305269544529 2277.88631720434 155 156 158
-809.848557023842 7.98999242550238 2272.81295049891 151 152 154
-818.893323640515 7.20706347590019 2274.70958047609 141 145 146
-827.460010335454 6.79412575756222 2271.62598161395 138 142 141
-836.216373414613 6.23286114737104 2270.53471733914 145 149 148
-844.885457533239 5.74474216888343 2268.44646523799 150 154 153
-853.727835552614 5.10930759178094 2268.35234922931 152 156 155
-862.075586640058 4.91286468349433 2262.2724408107 153 157 156
-869.66240247432 5.44420619963784 2246.20774396182 156 161 157
-876.645524417411 6.62522687113523 2221.14700921342 187 189 186
-884.564800837279 6.99866754476811 2207.05685354031 144 146 143
-893.330791379517 6.57028831052348 2203.94866366973 164 166 163
-902.446554133655 5.77948955283838 2205.8362142048 157 159 156
-910.958499425109 5.63841018770556 2198.72798242413 171 173 168
-919.439743466261 5.56695670492721 2190.61523098503 166 171 167
-927.539546861652 5.99501904138999 2175.49471567025 130 135 131
-935.942754640786 6.13162177141299 2164.36809349209 94 99 93
-1021.21993791718 11.2014295952741 1996.50217406547 150 143 135
-1030.55046504963 10.7993239610474 1992.31553680841 121 112 105
-1040.06837027051 9.90953041043563 1995.16109040728 118 99 93
-1049.67312233074 8.6744006714726 2003.03563149303 120 97 91
-1059.01649759783 8.20266677139667 1999.85526132647 133 105 101
-1068.43555539165 7.45419198571307 2000.69740414553 127 102 97
-1077.84249547358 6.70621791407156 2001.54081759605 112 91 86
-1087.33737607538 5.34130670031779 2011.44502623027 146 135 131
-1096.91450968326 2.8168376793892 2038.47366557406 181 173 170
-533.258229773696 15.1721550393012 2330.48935932453 164 169 163
-541.766436639418 14.7028251386486 2328.42113427308 158 160 157
-550.639093785264 14.0795411142285 2328.32320761038 117 117 117
-558.448355111336 13.9149843455466 2322.31041555945 111 111 111
-566.980354101129 13.4432404132672 2320.23898748011 129 131 130
-575.51845789577 12.9707965322599 2318.16703966924 131 133 132
-582.884274823595 13.0292258916152 2309.18569806825 126 128 125
-589.300201834285 13.539265965867 2294.27486441711 130 132 127
-595.30383185213 14.2709374865718 2276.39183804011 134 139 133
-623.742256511649 15.4129896429729 2227.49060003411 188 193 186
-633.582064969301 14.3986358527215 2232.31192450218 134 139 133
-643.683081506383 13.2367881189354 2239.11665463136 126 131 127
-653.45314940947 12.2262053276138 2243.94667237755 128 132 131
-663.473485618887 11.0688678068477 2250.76121878842 143 144 146
-672.896596731377 10.2101517140973 2253.61852029022 132 133 135
-681.619146932776 9.72189642930085 2251.52359629699 128 129 131
-690.746675184254 9.01183644703299 2252.40201911541 126 127 129
-699.733090585113 8.37563176060482 2252.28993012112 133 135 134
-709.480396906942 7.29925695426029 2258.1306487372 135 137 136
-718.814888792388 6.4445291240561 2260.99899889168 138 138 136
-728.983714633854 5.079683708932 2270.81910297104 139 141 140
-738.853770142099 3.86402092884605 2278.66024422065 150 152 151
-748.207641271507 2.94181932179863 2282.53428101677 153 155 154
-756.963622738219 2.38358006267075 2281.44305639777 149 151 150
-765.496641271806 1.96968164544811 2278.36366165309 146 148 147
-774.257841052032 1.41048286678108 2277.27178834628 145 147 146
-783.336930407772 0.634937843016825 2279.16411560324 147 149 148
-791.676443218416 0.362879095214236 2274.09312150268 148 150 149
-800.640953280972 -0.34073986137384 2274.99163079638 145 147 146
-809.00707510784 -0.615180561439582 2269.9173223207 141 143 142
-818.155981341865 -1.4616389909424 2272.80881069012 130 132 131
-826.173290573725 -1.45359710660509 2263.7462993948 122 126 125
-834.951644834016 -2.01621788960576 2262.65229432201 128 133 129
-843.642554007422 -2.5083550258036 2260.56132916474 138 143 139
-852.76013274361 -3.35408681047936 2263.4567251071 153 158 154
-861.039287026245 -3.49449271572674 2256.3773022258 182 184 181
-868.640159123554 -3.00499865365758 2240.31120171091 188 190 185
-875.712025261759 -1.96041796765931 2216.24743861965 56 58 53
-883.569456239184 -1.55321378333206 2201.1569846102 0 1 0
-892.493292743273 -2.12740192464023 2200.0448546757 14 15 10
-901.076026951878 -2.35408855706618 2193.93570139855 8 9 3
-910.012072118599 -2.92969647382071 2192.82205163405 11 12 6
-917.317927960047 -1.70624165517008 2165.70531538918 19 21 16
-924.643880235345 -0.354034785134211 2136.57011769909 0 5 1
-932.693266830054 0.299562088406091 2117.42431150429 11 16 10
-1020.54808933447 1.91188817672699 1993.58717891004 136 123 115
-1029.74906463847 1.83604068358659 1984.37693373762 109 92 84
-1039.24002078193 1.08964458481545 1985.21009859356 107 79 75
-1048.91772154355 -0.25547209206192 1995.09119995571 84 53 48
-1058.30215667375 -0.800122057927066 1992.91382514978 83 46 40
-1067.72402837295 -1.47775912237574 1992.74750289454 92 57 53
-1077.15325978329 -2.22132786194312 1993.5883631865 101 70 67
-1086.67187819527 -3.55723577409595 2003.48929283445 141 122 118
-1096.35279482052 -6.59767555189544 2039.57648442055 154 140 137
-532.150176932671 6.64055092738408 2327.6268038808 153 155 150
-540.120471098448 6.38990831906475 2322.60182968568 131 131 129
-549.189205665786 5.69414972939444 2323.48755194609 122 122 122
-558.071196757959 5.0725255917797 2323.38845609081 118 118 118
-566.600633285676 4.59794636676908 2321.31759552697 133 135 134
-574.108822877869 4.56305781764696 2313.32641950675 136 138 137
-581.150030916819 4.74506762612076 2302.36940699744 137 139 136
-587.914468773342 5.06938653428513 2289.43142507707 126 128 123
-594.255152959747 5.60790965798186 2273.52221917828 118 123 117
-614.542823912328 6.82883588771577 2230.67685536453 174 180 168
-623.937635590073 6.04689871366129 2232.52979917573 187 192 185
-634.363405831924 4.76153095011769 2241.30970144447 8 13 7
-644.148025315374 3.76665377015031 2246.13786187929 147 152 146
-653.612207707208 2.91686251483367 2248.99001442499 132 136 135
-662.913614320426 2.13959175234241 2250.85460234722 140 142 141
-672.476440515003 1.22035280576024 2254.70255498447 143 144 146
-681.196400645855 0.72946800694787 2252.60772087273 129 130 132
-690.188596550164 0.0959135438696745 2252.49514379525 127 128 130
-699.175499977022 -0.53763473396462 2252.38298690263 133 135 134
-708.668573393051 -1.45368669814125 2256.23939561273 131 133 130
-718.009517513456 -2.29790883822353 2259.1071531688 132 132 130
-727.696148878943 -3.35193428311328 2264.95538480449 121 123 122
-738.063280319686 -4.82462967843159 2276.7663997329 143 145 144
-747.891813286829 -6.01328057990022 2284.61265161534 154 156 155
-756.299744830372 -6.36186713291517 2280.54100789285 156 158 157
-764.835474770636 -6.78140035900748 2277.46152988845 151 153 152
-773.273015244248 -7.13248532327485 2273.38619772601 147 149 148
-782.363773452138 -7.90047233517091 2275.27704887546 152 154 153
-791.024189122843 -8.39139845708831 2273.18988593788 155 157 156
-799.891313482329 -9.02078000802495 2273.09266579182 156 158 157
-808.458600413315 -9.44386394588159 2270.00901874348 152 154 153
-817.227121984408 -10.0050968721958 2268.91623707731 142 144 141
-825.254231820003 -10.019492873283 2259.85256181395 135 140 136
-833.863882012332 -10.4462460796496 2256.76363774393 145 150 146
-842.396762048252 -10.8059578449433 2252.67643048613 137 142 138
-851.368008403215 -11.5063305233089 2253.57433085014 112 117 113
-860.082541865624 -12.003212591234 2251.48043001687 29 31 26
-866.508373473276 -10.5424937138421 2220.44166183702 1 3 0
-873.860011400369 -9.76601391007512 2199.36699247794 10 12 7
-882.792879564167 -10.3402996424049 2198.2537357027 19 21 16
-892.150927195596 -11.3168555621457 2203.1350815344 12 13 7
-901.339344576702 -12.1579029574661 2206.02162489649 15 16 10
-910.243218892288 -12.731222517594 2204.91198383773 17 18 12
-918.706506210954 -12.8394680728255 2196.80181045079 11 13 8
-921.554395063878 -6.71788545400778 2094.64668480892 19 21 16
-1020.20887850257 -8.10312883790423 2001.71786193033 135 112 104
-1029.33182599748 -8.07060679606617 1990.50169458349 126 97 89
-1038.75731594788 -8.68208334673631 1989.32705946234 140 101 94
-1048.24828596184 -9.4853456566221 1991.16805944065 134 89 83
-1057.56543158171 -9.77830287622308 1984.9674304824 104 54 47
-1066.99261092259 -10.3907231614546 1983.79258702059 102 53 48
-1076.48921371432 -11.3199895439327 1987.64859008517 106 58 54
-1086.06047229018 -12.8160187277042 2000.56667378886 134 101 96
-1095.58102299073 -14.4962501616755 2016.51511245774 158 133 129
-523.648705185531 -1.86271472887434 2332.74111900362 158 161 154
-529.192060863268 -1.19326028118388 2314.91569598959 147 149 144
-538.108214484785 -1.8139825712008 2314.81257474637 133 133 131
-547.917230836781 -2.79054391613554 2319.63740209339 123 123 123
-557.164126676806 -3.55242745216414 2321.50875211613 118 118 118
-565.5249875886 -3.95946183763157 2318.45106381742 125 125 125
-572.354812565841 -3.73157662516227 2306.5126227551 123 125 124
-579.413549986779 -3.57825775730999 2295.55373850787 102 107 103
-586.02914684305 -3.217738776116 2281.62630836584 100 105 99
-593.532099186662 -3.21274779071246 2272.62799380376 115 120 114
-591.606270499435 0.91763545296869 2205.33760766759 141 149 138
-612.42568873434 -1.47531898533101 2220.88533822651 147 155 140
-621.39111873856 -2.0425415983665 2219.76799932563 159 165 153
-633.351283171754 -3.99590241016759 2238.43576919459 25 30 23
-643.586385622737 -5.18241204806219 2246.23151823886 155 160 153
-653.19583103848 -6.09036473708677 2250.07338308222 126 131 125
-662.353765718135 -6.79062637256714 2250.94798555457 134 136 133
-671.77885622928 -7.62771475584725 2253.80498308332 154 156 153
-680.63785023136 -8.19003803372675 2252.70091386403 130 132 129
-689.363594948018 -8.68443918560799 2250.60560739911 128 130 127
-698.225659169431 -9.24754034545447 2249.50115708312 138 140 137
