ply
format ascii 1.0
comment KinectMotionCapture
element vertex 772
property float x
property float y
property float z
property uchar red
property uchar green
property uchar blue
end_header
-814.539657483607 -17.2524667816421 2292.19706493408 165 170 166
-822.753627060677 -17.7757772044825 2283.49805786895 158 163 159
-826.970437498814 -18.0662269210952 2274.82060777677 148 153 149
-833.184577076696 -18.4729991622801 2266.18136610132 157 159 156
-843.393133252643 -19.1122064296134 2257.61888772509 197 199 196
-858.593951848811 -20.0417454295129 2249.17989801906 192 194 191
-861.808598442668 -20.2737115379242 2240.6251159888 184 186 183
-864.024281868082 -20.4476260157817 2232.06744469668 184 186 183
-859.249650397276 -20.2151556761575 2223.36673271228 171 173 170
-859.46821277944 -20.2732306663778 2214.76220122359 157 159 156
-855.693194283619 -20.0993482038764 2206.04773081835 148 150 147
-854.913763056542 -20.0997572282735 2197.40200223834 160 162 159
-850.141208244051 -19.8683874280141 2188.61894557866 134 136 133
-840.378478856022 -19.3474893174371 2179.62993739289 108 110 107
-834.609598656356 -19.0588976795419 2170.74000687394 108 110 107
-836.826150993867 -19.2341163270321 2162.14697517004 135 137 134
-844.032236029344 -19.6989399773417 2153.78489944484 143 145 142
-845.249778797835 -19.8162715629909 2145.18129048499 111 113 110
-853.452324814165 -20.3388214327432 2136.92957237034 110 112 109
-894.580228154999 -22.7703842315476 2130.44434349866 131 133 130
-949.670519161834 -26.0102320759043 2124.95365192536 191 193 190
-969.835634637659 -27.2245288138204 2117.74645080715 163 165 162
-976.032021171113 -27.6290204656217 2109.80350832915 154 156 153
-979.235033308015 -27.8600648410349 2101.70443086657 163 165 162
-976.452983829158 -27.7445588049588 2093.22677318705 133 135 132
-978.658257381485 -27.9180051093725 2085.07645848552 176 177 179
-976.8738825678 -27.8605827866693 2076.65201479125 188 190 189
-959.134182030483 -26.880145193486 2067.03082178072 170 170 168
-415.136004239601 -3.11242177762955 2429.50686688412 148 149 143
-437.386748107919 -4.40092235077647 2418.92273251625 153 155 150
-446.634449249339 -4.96497480893043 2408.88633106681 138 140 135
-462.880514339027 -5.91846577834612 2398.68725632234 137 139 134
-707.325190659553 -19.6166038752794 2373.31602361283 178 180 175
-731.547873205597 -21.0098539160319 2363.78419592037 171 176 170
-741.771684770994 -21.6241183966341 2354.65226572022 176 181 177
-742.997661432042 -21.7379935148161 2345.72274231113 163 168 162
-740.225444508125 -21.6297491586114 2336.85299729016 165 170 164
-742.451066653217 -21.7994224205829 2327.91144029435 170 175 171
-755.669623728693 -22.5798317734745 2318.88989797144 186 191 187
-782.876794254399 -24.136875326171 2309.86255790042 160 165 159
-800.087713965595 -25.1382569174062 2301.01036269917 100 105 99
-811.301143336236 -25.8063744840275 2292.25107900257 72 77 73
-817.51761440793 -26.196984608575 2283.53806810829 6 11 7
-820.736109016658 -26.4212273916267 2274.84118503855 3 8 2
-826.951123288207 -26.8117047554773 2266.18525348881 5 7 4
-836.162028456127 -27.368256806986 2257.59501951103 0 2 0
-851.364474231738 -28.2568233667751 2249.13642704617 0 1 0
-856.57745595592 -28.591440398897 2240.59521534791 0 1 0
-867.781697209074 -29.2579971081454 2232.19671104056 0 1 0
-860.010759774625 -28.8732616304629 2223.44102090848 3 5 2
-858.232056287175 -28.820732750097 2214.78966793687 0 1 0
-851.461337662425 -28.4919974331967 2205.98999496685 18 20 15
-853.677135894074 -28.6609877688999 2197.42379902572 21 23 20
-847.906242543458 -28.3881059634087 2188.60500619993 36 38 35
-839.141099647166 -27.9498909068714 2179.64624524524 62 64 59
-832.37370712617 -27.6225362506001 2170.71509417121 73 75 70
-835.588617441875 -27.8474228000335 2162.15760646271 77 79 76
-842.795308324805 -28.2929765769899 2153.79254262616 25 27 24
-845.010924921959 -28.4626387850122 2145.23272418557 118 123 119
-852.216230318021 -28.9080144007451 2136.93132605949 136 138 135
-893.347318024287 -31.2269589556893 2130.44256195217 96 98 93
-953.430660940088 -34.5911859792056 2125.22269016466 173 174 169
-979.583359213586 -36.0808090203945 2118.37200770227 187 188 183
-985.779510083407 -36.4685151242402 2110.45629880404 185 186 181
-985.989309226107 -36.5258851074426 2102.19502205339 128 130 125
-977.221467241792 -36.0882418864214 2093.34113681591 138 140 137
-974.439530065028 -35.9810183676267 2084.85019685238 142 144 143
-969.66340446326 -35.7640659335266 2076.20054353836 124 126 125
-950.925609420309 -34.7780245453745 2066.48619646772 133 134 129
-890.306802474634 -31.4854189099043 2053.43946931961 11 12 7
-435.117276740531 -14.0395725449333 2419.05597149185 149 152 145
-445.365815078698 -14.6321735310755 2408.98089394545 143 145 140
-464.613249623981 -15.7007936041683 2398.6880971441 104 106 101
-686.078814280554 -27.5134676440967 2373.89162223138 190 195 189
-719.302929935358 -29.3171855134941 2364.1039834838 196 198 193
-732.527587875962 -30.0629600821875 2354.88118638092 184 186 181
-736.753310140445 -30.3329301275923 2345.87742073651 162 165 158
-733.981282208009 -30.2332137770013 2336.9911325581 138 141 134
-737.206935693941 -30.4504571304622 2328.02197121589 86 88 83
-753.425243651369 -31.3537497745041 2318.96164045182 0 1 0
-783.632808511457 -32.9951281345681 2309.91175398262 0 3 0
-792.850441030999 -33.5280831407022 2301.08392848859 2 5 0
-806.063799119742 -34.2716821315691 2292.30510470922 3 5 0
-808.284140699799 -34.4352199214485 2283.56719349701 3 6 0
-813.501817846786 -34.756854991695 2274.85640744054 3 6 0
-822.714938079524 -35.2890738463036 2266.20572816903 5 7 2
-827.930709886952 -35.6104761137601 2257.56033456048 8 10 5
-807.174403258471 -34.5635378466471 2248.58547543304 9 12 5
-851.56436643122 -36.9949843410424 2231.94158315978 9 11 6
-843.793940328384 -36.6325320235502 2223.1419824757 11 12 7
-835.025833695855 -36.2179331819758 2214.27369732736 10 11 5
-832.25037525234 -36.1189765627077 2205.52066966491 6 7 1
-844.452773754573 -36.8079772448412 2197.2041102886 5 6 1
-848.666003600844 -37.0766545983039 2188.68997961707 6 7 2
-838.901835067219 -36.6106133786442 2179.69831712211 7 8 2
-832.133915647568 -36.3024370784255 2170.76716683114 5 6 0
-833.352544746992 -36.414130995173 2162.12715358982 4 6 1
-837.565468304519 -36.683176948725 2153.62459796903 3 8 2
-836.787594706598 -36.6901751180191 2144.91091692938 2 8 4
-849.981804763766 -37.4306719913564 2136.88379537131 2 7 1
-900.097591497627 -40.1082923965289 2130.85818109663 109 110 104
-958.18942306474 -43.2028997452957 2125.5466449255 201 201 193
-978.356957222189 -44.3069702164111 2118.36326582662 181 178 169
-984.553639598806 -44.678080010139 2110.44460364115 185 185 177
-984.763515108047 -44.7353277790461 2102.18047344582 168 169 163
-973.999809039562 -44.2177034834245 2093.19209969439 132 133 128
-967.227859944069 -43.9096022331378 2084.418362512 98 100 97
-957.464519157731 -43.4451618214936 2075.39262996127 90 92 89
-941.718270673018 -42.6679349666844 2065.86788149187 73 75 70
-888.076810315525 -39.9080753171373 2053.33536454815 4 6 1
-436.848163691046 -23.8903670438066 2419.04621259785 130 133 126
-440.096164873895 -24.104452099433 2409.20701698042 116 118 113
-462.345701735748 -25.2718011175397 2398.80946460381 100 102 97
-694.287290130324 -37.0986539255973 2355.66805989528 17 20 13
-699.51587883533 -37.4086168365272 2346.5433450174 17 20 13
-688.748618741868 -36.9174600590503 2337.66545609135 11 14 7
-701.973736934132 -37.6279234136475 2328.46258522133 13 16 9
-795.606110534307 -42.4565679243599 2301.12990916939 13 16 9
-784.83610500771 -41.9651978987532 2292.35955025034 13 16 9
-779.06430433846 -41.7241172091259 2283.54207299093 12 15 8
-784.28414461757 -42.0326481905793 2274.75148961067 11 14 7
-815.480511660893 -43.6389393353572 2266.20162422422 8 11 4
-807.709686440313 -43.2981451690884 2257.39436758947 10 13 6
-820.918540730573 -44.0052314125438 2248.83077243288 11 14 7
-787.17670658793 -42.3684086728972 2239.56528217029 11 14 7
-842.336477965533 -45.1690382621657 2231.82133096082 10 13 6
-827.57468547826 -44.4799672309072 2222.84346347601 15 16 10
-817.808382242435 -44.040583833977 2213.90660942114 14 15 9
-818.029809802735 -44.0995416542521 2205.18914893046 12 13 7
-819.249726636123 -44.2083673832936 2196.50188622389 12 13 7
-847.429060454623 -45.6605513699993 2188.70911367913 13 14 8
-832.671965245561 -44.9732679240376 2179.53641612992 13 14 6
-826.90222102455 -44.7340745104 2170.62721454951 14 14 6
-854.076739142574 -46.1351458185407 2163.04351466856 12 15 8
-829.340426925202 -44.9521285104057 2153.32520044519 10 15 9
-826.566653855129 -44.8626159405126 2144.49616225727 9 15 11
-859.724070952568 -46.560296236817 2137.42918916741 10 15 9
-927.807212135687 -49.9935340940948 2132.36865894031 14 14 4
-966.940393024466 -51.9858456293543 2126.09007927566 162 156 144
-980.123778447156 -52.6876518117051 2118.5275650157 171 165 153
-984.325330734221 -52.9430051587393 2110.4934648914 162 155 145
-981.542006921693 -52.8514750760919 2102.03986905408 148 145 138
-968.78251021211 -52.2648908845567 2092.91162747435 127 126 121
-956.024810887815 -51.6788902414708 2083.7125112817 98 100 97
-940.27632811327 -50.9450100015387 2074.22854434231 101 101 99
-920.540312571794 -50.0139505152412 2064.36091519508 35 37 32
-827.00083548999 -45.4245255851863 2048.69785608154 20 22 17
-432.577662488643 -33.4457402839068 2419.25039735922 167 170 163
-435.826164343009 -33.6519535918491 2409.40008584086 123 125 120
-451.076449690234 -34.4272795579698 2399.20267100809 104 106 101
-610.046239242927 -42.1649305110553 2357.34166263827 13 16 9
-669.271585919675 -45.0190824348519 2347.09477363953 20 23 16
-707.722516554013 -46.9371584322928 2328.45244391275 11 14 7
-607.989736451352 -42.2687089417742 2320.27167621513 16 19 12
-753.611387482479 -49.3020523763734 2292.41498968775 13 16 9
-739.846451475778 -48.7004366257311 2283.49077674991 13 16 9
-781.043071280827 -50.6949216739842 2274.78917083571 13 16 9
-808.245254887317 -52.0275730192364 2266.19767191358 15 18 11
-812.463944007798 -52.2747871477102 2257.50254424017 14 17 10
-805.692030921124 -52.0034240068408 2248.67862836774 13 16 9
-822.897251257781 -52.8632481998694 2240.21050268727 13 16 9
-840.099863084367 -53.7225135920555 2231.83560182586 14 17 10
-850.308183197277 -54.2516806073684 2223.4005023585 14 15 9
-842.536935603868 -53.9334430539971 2214.57620917518 14 15 9
-817.78899990529 -52.8158654962192 2205.24191669935 15 16 10
-829.993962733984 -53.4392021832153 2196.88631471414 14 15 9
-812.240381017842 -52.6520134169388 2187.60947534052 14 15 9
-805.472738329165 -52.3824392687922 2178.62606142654 13 14 8
-832.652662016273 -53.7101396995864 2170.90987317713 16 13 6
-853.838600572351 -54.7552013138596 2163.09524325199 13 12 7
-881.011635644815 -56.0811647144453 2155.65947580383 12 13 8
-852.280207284321 -54.7791053055459 2145.76066154716 13 14 9
-879.449360857373 -56.1042460231121 2138.46815508768 14 13 8
-957.517090510605 -59.8190737425933 2133.98256232239 36 26 17
-972.698894033368 -60.5791131987128 2126.46874311267 166 150 137
-978.897277756928 -60.9171440468499 2118.51910401904 157 139 127
-977.111924911628 -60.8804786491879 2110.11992278914 140 122 112
-973.330897294877 -60.7503639024316 2101.58399045601 98 83 76
-960.57097947216 -60.199453956696 2092.43390317877 68 57 51
-951.803703798673 -59.8361744421886 2083.48736331977 154 151 146
-934.059011602936 -59.0526095839738 2073.8498748321 164 161 156
-798.831865975954 -52.8173654192242 2046.59777513216 26 27 21
-430.555309647038 -43.176997723509 2409.62595375348 167 169 164
-439.805290292554 -43.6434139852346 2399.59597082714 171 173 168
-458.055965916047 -44.5115888809462 2389.36702639263 121 123 118
-478.304227784299 -45.4684790817379 2379.18655953815 122 124 121
-667.788181514007 -54.0272403012146 2356.28160383354 14 17 10
-709.015828827856 -55.9159226875145 2346.49026292823 16 19 12
-714.243549182634 -56.1985376781352 2337.41952548772 22 25 18
-736.46674978158 -57.2384882744117 2328.18807611288 22 25 18
-745.690870871083 -57.6987358479101 2319.18472246856 18 21 14
-735.375026297194 -57.387620227258 2292.47063691973 17 20 13
-743.597467927568 -57.8030924595537 2283.55630100631 16 19 12
-797.788406441076 -60.2628246454251 2274.93556187081 15 18 11
-773.029363306233 -59.2109255059989 2265.96486605523 15 18 11
-805.228173907048 -60.6912986764236 2257.47939666278 14 17 10
-777.474709694671 -59.507169274503 2248.3492181262 14 17 10
-805.67257252573 -60.8089612793557 2239.98442212169 14 17 10
-850.849655707715 -62.8637975554682 2232.09901484249 14 17 10
-860.059115112794 -63.320997042785 2223.67196341654 13 14 8
-832.309460385742 -62.1382200573297 2214.3821200878 13 14 8
-819.545610674313 -61.6210406187613 2205.34948742143 13 14 8
-789.80542785776 -60.3516674862122 2195.73303396575 12 13 7
-798.018117096838 -60.7653911234832 2187.20173279505 11 12 6
-810.223705913183 -61.3558314724649 2178.85698659806 10 11 5
-841.399548857607 -62.7861625392415 2171.30753126405 17 14 7
-873.786994235746 -64.3179816789293 2155.40364737543 15 14 10
-885.983978794352 -64.9064201713169 2147.39733481711 16 15 11
-913.152813725427 -66.1567110779402 2140.19764995225 19 14 10
-956.288447749132 -68.1121304186114 2133.9802455012 41 27 18
-980.454566509524 -69.227907033162 2126.95705609469 165 143 130
-986.652853446388 -69.549181803955 2119.02919114577 166 142 130
-980.874810602717 -69.3414347426571 2110.41056381572 169 145 133
-970.108078638204 -68.9136823972089 2101.44395498489 140 117 109
-957.347390178376 -68.3983573952343 2092.28577850362 110 93 85
-952.57055928023 -68.2357257414342 2083.60536514512 77 70 64
-909.882809186739 -66.4014477024015 2072.18784184785 4 0 0
-838.270558618562 -63.2934780308729 2058.38697222182 15 10 4
-788.614092636477 -61.1554205696241 2045.88139920833 20 20 12
-431.285877170652 -52.9814545996966 2409.65373527701 135 138 131
-437.535702924609 -53.2976307471592 2399.71702932478 97 100 93
-450.786478574136 -53.9070931227221 2389.61982321508 65 67 62
-464.035459742951 -54.5161565314551 2379.59318000781 56 58 53
-704.538247215067 -64.6922192087646 2355.62438007212 21 24 17
-705.767097223069 -64.7940002123786 2346.59554203902 17 20 13
-691.997329644709 -64.2683839393124 2337.77856127338 13 16 9
-732.447809525867 -66.0607427593285 2319.34755407883 25 28 21
-738.673154035406 -66.3710915219106 2310.37391696327 26 29 22
-802.876027789961 -69.103091289146 2301.26931829415 27 30 23
-731.129944640245 -66.1565716263392 2292.52573699144 25 28 21
-811.316575292524 -69.5540060810653 2283.79259384424 16 19 12
-809.539339313602 -69.5291315463419 2275.0541924491 13 16 9
-824.751544064866 -70.2129935624288 2266.44330617025 12 15 8
-752.024656762318 -67.2299801392898 2256.95464640034 14 17 10
-810.426730177313 -69.7640335700401 2240.11966370163 15 18 11
-826.633760413088 -70.4886480065595 2231.6919562659 15 18 11
-834.846409929187 -70.8800045885177 2223.1768988399 17 18 12
-844.057040785791 -71.3127093262851 2214.73036360575 16 17 11
-828.294762325879 -70.7063279143928 2205.64868141945 14 15 9
-781.572245018355 -68.8130670778292 2195.54519703302 13 14 8
-799.77308202916 -69.620090184747 2187.32045352571 13 14 8
-826.959582891965 -70.7999810626877 2179.51523776768 14 15 9
-821.188832281077 -70.6101517219428 2170.59236605043 14 15 7
-851.365415556772 -71.9131321175535 2163.11669289725 16 17 11
-879.540826602473 -73.1321712006862 2155.71824415573 18 19 13
-908.710864912738 -74.3916504844 2148.52038140545 22 19 14
-899.941176469722 -74.0767835570613 2139.60683444222 24 15 8
-949.070432765653 -76.1625968211301 2133.66552228675 27 7 0
-982.222174258742 -77.5847829015235 2127.11617594751 170 141 125
-989.41880419853 -77.9307761700833 2119.25122902808 169 137 122
-981.644197064794 -77.6566391265268 2110.52021137609 161 129 114
-966.884794609341 -77.0936935840202 2101.30418454403 139 110 96
-955.121387406593 -76.6552454412028 2092.20374395478 144 117 106
-950.344084527406 -76.5061993500858 2083.51786533125 137 124 115
-933.59465768058 -75.8623660284579 2073.94941289859 18 5 0
-838.031104283524 -71.9617724036919 2058.43833026083 30 20 11
-837.253638097726 -71.9802639010869 2049.69638549351 27 22 16
-814.530390330632 -71.0925343922314 2039.19980532435 25 24 19
-425.013323493207 -62.50615541223 2409.91235144987 114 117 110
-432.26434639586 -62.8454391598419 2399.92874328087 74 77 70
-450.518229510605 -63.6154515545453 2389.67983831025 112 114 109
-464.768381971915 -64.2282370292528 2379.6281181297 141 143 138
-688.287161211234 -73.0808832754322 2355.98880296341 25 28 21
-701.517929195689 -73.6496340604707 2346.71727868549 19 22 15
-677.747303859486 -72.7718586705295 2338.02766762484 18 21 14
-697.976661181659 -73.6139029743259 2328.71869338742 23 26 19
-746.198533438713 -75.5485701588979 2319.28589520017 20 23 16
-739.426267339047 -75.3349670322748 2310.42308283188 22 25 18
-752.649073698159 -75.9018757941795 2301.46470427551 25 28 21
-790.861059323586 -77.4431503132544 2292.57507844385 24 27 20
-852.495210276021 -79.9952442114238 2266.72442414459 13 16 9
-813.739115338271 -78.5354201945947 2257.68410967016 15 18 11
-847.936597565222 -79.9167454628974 2249.42495264094 16 19 12
-827.172093247648 -79.1584063934895 2240.45128722201 16 19 12
-794.420905538679 -77.934556982953 2231.13264544195 15 18 11
-820.619917650054 -79.0037614872968 2222.92327080067 15 16 10
-826.835164177487 -79.2955468411558 2214.36422976578 14 15 9
-807.077158061627 -78.5781825202163 2205.12661903463 12 13 7
-773.337604661853 -77.3185758754467 2195.35763906103 12 13 7
-802.527308570613 -78.5027751465855 2187.47200647581 13 14 8
-823.723235217154 -79.3759373565816 2179.460904504 15 16 10
-825.941412267276 -79.5124379886675 2170.83662103776 15 16 8
-854.12289129437 -80.6554797921897 2163.29193937677 18 19 13
-869.319452414222 -81.2944847289477 2155.33129969481 21 22 16
-890.721267385893 -82.2230454559527 2139.2138860794 26 17 10
-948.839491460786 -84.5221426429535 2133.71567203103 31 12 0
-978.000828633812 -85.6991387425084 2126.94644395699 168 136 121
-986.196609875281 -86.0644683087163 2119.12792773164 169 136 119
-983.411993096505 -86.0051280775289 2110.69030251103 164 131 114
-966.655162224753 -85.4060415371138 2101.3538545858 135 103 88
-950.899054597749 -84.8461966094592 2091.99035236809 138 112 99
-941.132320636513 -84.5181426620047 2082.95079556583 134 120 109
-928.373476582353 -84.0749901940331 2073.64304001321 29 15 6
-801.872523985146 -79.2446572459204 2055.82470830845 36 26 16
-800.099649147331 -79.2278797224438 2046.907164464 24 20 11
-409.735107115989 -71.7357630843605 2410.46820529238 148 149 143
-428.993284279284 -72.4937623942966 2400.07974562874 163 164 158
-446.248398823967 -73.1782581075987 2389.84983567377 103 104 98
-464.501190345824 -73.8985829520144 2379.6876198112 122 123 118
-722.271256440023 -83.4362932502098 2346.42454324838 18 21 14
-746.726356307475 -84.4280860810741 2328.23077054179 22 25 18
-759.951380648375 -84.9596883146274 2319.2236150046 23 26 19
-768.175472885896 -85.3094421129157 2310.31533103884 23 26 19
-792.394750996127 -86.2391689584384 2301.40493121115 27 30 23
-770.623961452036 -85.5007198995509 2292.63086019356 27 30 23
-863.033550206437 -88.9508605143007 2275.45149654796 23 26 19
-865.250722481914 -89.0810423604721 2266.88259256945 16 19 12
-867.685424504644 -89.2689961461348 2249.74984144435 21 24 17
-837.924232469744 -88.242768073634 2240.68410579423 18 21 14
-799.174631588461 -86.8926522398729 2231.28150968708 14 17 10
-770.421758989772 -85.9049972391429 2221.88322730703 15 16 10
-777.639959944552 -86.217327068751 2213.21135560365 13 14 8
-792.84943104961 -86.8179313665505 2204.79670541402 18 19 13
-796.069155072819 -86.9854933518473 2196.10330725442 20 21 15
-804.283183197735 -87.3331135951864 2187.59065452027 19 20 14
-819.487456827292 -87.9324998453946 2179.37112273571 19 20 12
-841.680986683905 -88.7832805878738 2171.50242477605 31 34 23
-856.88081611376 -89.3815036812867 2163.46716140785 18 24 14
-862.092363117424 -89.6196976335574 2155.07623044628 18 21 14
-860.313793630769 -89.6062387012454 2146.38701474645 19 16 9
-900.470467856512 -91.1011960293404 2139.75827718168 23 14 5
-956.595769491768 -93.1689876486306 2134.18241033495 52 33 18
-973.77886904681 -93.8356000721755 2126.77697255984 163 134 116
-981.975302603516 -94.1789043733414 2118.94728584034 158 127 107
-979.190742052082 -94.1277379509766 2110.49868665402 147 116 96
-964.429452056302 -93.64689611889 2101.27759958411 137 110 91
-949.670003416186 -93.166638903757 2091.97459345113 131 108 90
-938.904690894488 -92.8301045450661 2082.86388981728 136 120 107
-866.271162071956 -90.2767417920715 2069.27445622583 28 14 3
-788.658536053645 -87.5474268196919 2054.9148546857 29 16 7
-804.846210007368 -88.1792189881281 2047.34332320899 23 19 10
-828.015431160845 -89.060382036225 2040.41676906087 25 22 17
-364.435694611873 -80.0361730863109 2412.01600033106 126 127 121
-416.716958188169 -81.855351259621 2400.50342707801 123 124 118
-436.975428313618 -82.5947230390454 2390.15754069713 112 113 107
-453.229521802634 -83.1987260457621 2380.01994155281 122 123 117
-645.774967378931 -89.7858590219701 2356.91207179878 33 36 29
-712.021497335311 -92.0658193412537 2346.64532278699 25 28 21
-719.250806308061 -92.3613789301133 2337.55731785395 21 24 17
-779.706373258288 -94.4953969308639 2319.11054504712 24 27 20
-803.928534202189 -95.3595658522551 2310.16718993097 24 27 20
-739.159860156628 -93.2396514462427 2301.61052725081 26 29 22
-832.366640539732 -96.415302245736 2292.67704100847 29 32 25
-834.586321287636 -96.5406507976726 2284.01528685681 24 27 20
-831.028105713864 -96.523642663265 2266.65896763947 14 17 10
-839.244378960956 -96.8495529075704 2258.07255348984 16 19 12
-835.466432100442 -96.7743011325213 2249.36663168527 15 18 11
-828.690919039797 -96.5990541455572 2240.5895379314 17 20 13
-809.924711761125 -96.0236350883666 2231.54474482415 16 19 12
-792.160551452656 -95.482307676658 2222.41736649795 20 21 15
-779.394576613214 -95.1083381009524 2213.31402347508 17 18 12
-789.609483296346 -95.5011379360753 2204.76791860178 20 21 15
-796.825912565586 -95.7936980926536 2196.18651765904 22 23 17
-811.033985272035 -96.3189721448169 2187.87338309645 21 22 16
-797.271566521958 -95.9124807766288 2178.64127751554 22 23 15
-848.433622872534 -97.6672086746229 2171.82291489119 21 24 13
-849.651789353741 -97.7589406419615 2163.2317407645 29 32 23
-841.881466591785 -97.5518176181257 2154.25199574011 24 27 18
-851.088679613978 -97.9091719297131 2146.01994679914 33 30 21
-913.216796367268 -100.024047026198 2140.45033632886 27 18 9
-959.360830203516 -101.606265318287 2134.38877042457 101 82 67
-964.564219865556 -101.828483172755 2126.33381053567 151 122 104
-968.768652394273 -102.017425741554 2118.24912258055 122 91 71
-963.988414151367 -101.908414261833 2109.64430684571 111 83 62
-957.212401025383 -101.733465530161 2100.88643713405 135 110 90
-953.431714025439 -101.657960653221 2092.28788123206 132 109 93
-957.635818862799 -101.846913512209 2084.2159895416 134 118 105
-831.325214327845 -97.7696070515589 2058.14965431556 25 15 5
-838.530535597 -98.0596375781312 2050.00510861822 25 22 13
-413.444311704779 -91.5615321251362 2400.65422890137 94 95 89
-426.700608921432 -92.0297429511356 2390.49288585568 60 61 55
-445.958099194994 -92.683027161164 2380.25303202001 83 82 77
-635.517995948671 -98.6511657421705 2357.16157092424 28 31 24
-703.770880923681 -100.812066374589 2346.83300300524 23 26 19
-717.002586183378 -101.273828590566 2337.63972284947 18 21 14
-849.687074652421 -105.520027837389 2309.96138356973 21 24 17
-742.91302455253 -102.285337736065 2301.65327191914 23 26 19
-761.137034210822 -102.899060824168 2292.73973653458 29 32 25
-856.342535142502 -105.878865697799 2284.12526007159 23 26 19
-838.785611881522 -105.442398634133 2266.77642426671 18 21 14
-819.013697843772 -104.887198022318 2257.90826440133 16 19 12
-811.460546344319 -104.759680343332 2240.36456481533 28 31 24
-817.678313634468 -105.002413505185 2231.75034731874 34 37 30
-803.909399241097 -104.632806629897 2222.7325102522 28 29 23
-788.14387419227 -104.202553308616 2213.58860322869 24 25 19
-789.366596242478 -104.292603116737 2204.82118785704 20 21 15
-801.578913354998 -104.718684183225 2196.3899528765 19 20 14
-824.778999342198 -105.480199370818 2188.38556276242 16 17 11
-851.971649088864 -106.362926787165 2180.64977377235 16 17 9
-819.227381561526 -105.414929192763 2170.7644788865 22 19 10
-853.408601885435 -106.510136581388 2163.4481047057 22 19 10
-847.634983785702 -106.385748595995 2154.56703849879 19 16 7
-885.803918043746 -107.600945189196 2147.70080181758 13 4 0
-957.920368157639 -109.84906568287 2142.71904637716 181 161 152
-969.116076741113 -110.239962429704 2134.95933558499 179 153 140
-965.332874427736 -110.174690418271 2126.43877479439 99 68 50
-961.550458395251 -110.10958585818 2117.8966284146 91 60 42
-954.773582216076 -109.95359751038 2109.15213161153 102 73 55
-951.990655839779 -109.919193208927 2100.62166532525 111 88 70
-951.204607989651 -109.945531051011 2092.20669692792 104 85 68
-958.403541405811 -110.214239409223 2084.33470475661 127 113 100
-799.149834002534 -105.486764180818 2055.83446291803 26 18 7
-830.307945634617 -106.48360514458 2049.44345698142 23 23 15
-854.476625626215 -107.267778159622 2042.6668914045 26 29 22
-418.176758670852 -101.509935414613 2400.56211216978 119 120 114
-425.429827670781 -101.773462447951 2390.57987715639 96 97 91
-441.687101454907 -102.290330778151 2380.41153956675 81 80 75
-638.265075026475 -107.937237494793 2357.1593458457 30 33 26
-708.52347210577 -109.967847834748 2346.80463680319 19 22 15
-707.751844708939 -110.00057796596 2337.81920358799 16 19 12
-697.978346209664 -109.780591023423 2328.92799433906 10 13 6
-789.444335810803 -112.454969983309 2310.35254567489 21 24 17
-761.66703337188 -111.729534684992 2301.65221242255 23 26 19
-786.890622427782 -112.489675215424 2292.78943707913 30 33 26
-811.110698565114 -113.220895901028 2284.06098821398 23 26 19
-841.326274005541 -114.119067493458 2275.49601870236 21 24 17
-784.561289265616 -112.584111924261 2266.39263709691 12 15 8
-780.785976743351 -112.531859646617 2257.54973635053 12 15 8
-779.010739498117 -112.53560260019 2248.71181505223 12 15 8
-801.224207656688 -113.208986115056 2240.25433466235 18 21 14
-815.438868582499 -113.658511493546 2231.76504275609 19 22 15
-809.663976739033 -113.550291163782 2222.91639928329 24 25 19
-791.898341692834 -113.108185876276 2213.7401217412 21 22 16
-798.116706582639 -113.334524952723 2205.12015068613 19 20 14
-798.339399290168 -113.393814081632 2196.35288812531 19 20 14
-809.552369617773 -113.758767484604 2187.94638453907 17 18 12
-805.777975009744 -113.706775172737 2179.0673293933 18 18 10
-847.95665629876 -114.931439496111 2171.92741948406 25 21 12
-854.169318927726 -115.156212142083 2163.54131923696 17 10 2
-890.345804553116 -116.212147603107 2156.50155597291 17 6 2
-940.499749200014 -117.654464875585 2150.31097163477 58 45 39
-963.682304594411 -118.347681474743 2143.06507158086 173 150 142
-968.886706807463 -118.542217576086 2135.00958501346 105 77 65
-959.112135669424 -118.321985391884 2126.16056152489 87 54 39
-951.335754281205 -118.157359873761 2117.37197805451 110 79 61
-941.563812687924 -117.93783138317 2108.41942727556 112 83 65
-940.778332964731 -117.966920638005 2099.97930025435 101 78 62
-936.99816392867 -117.913351943455 2091.33694714633 97 78 63
-940.205878512211 -118.052749188785 2083.15248540878 96 84 70
-773.956194446121 -113.572209076059 2054.03832449069 24 15 6
-864.217589356639 -116.164232969804 2043.51354916753 25 28 21
-869.425125655001 -116.359621272001 2035.33465666154 17 23 19
-417.154186371418 -111.344533116591 2390.85998458423 36 31 25
-645.014573814724 -117.308423277174 2357.07927664985 24 27 20
-663.25545522407 -117.827389105266 2347.60807783501 27 30 23
-672.490270293465 -118.117453168727 2338.36017156828 24 27 20
-683.724763279726 -118.45786347017 2329.13884041535 21 24 17
-707.960420670138 -119.127013733753 2319.86806864202 12 15 8
-712.418099770345 -119.350160954168 2301.84890105784 21 24 17
-761.647283571297 -120.649042527598 2292.84702248032 28 31 24
-802.869946703702 -121.744122766371 2284.09326472877 20 23 16
-761.097539247126 -120.7438133144 2275.12301566226 17 20 13
-750.324631265012 -120.526517023786 2266.17181549126 19 22 15
-741.553067132858 -120.360010958852 2257.18160327778 11 14 7
-747.777384206552 -120.571392042818 2248.34506099715 15 18 11
-800.982307401755 -121.964739505924 2240.30738096626 16 19 12
-831.19048798586 -122.778012345366 2232.12258579921 18 21 14
-813.420457542861 -122.384600194797 2223.05648786205 22 23 17
-804.647486878667 -122.217722631412 2214.11232189138 19 20 14
-808.867148428328 -122.377197875169 2205.47339557391 20 21 15
-814.085188705767 -122.561566327063 2196.88647865608 20 21 15
-782.333005834293 -121.819202779273 2187.11444650015 19 20 14
-797.543539083203 -122.254100604779 2178.83620689705 21 18 11
-837.72779517824 -123.313536858633 2171.59710331827 24 14 5
-904.878811841028 -125.046100754551 2165.68511926788 19 8 2
-939.056582018075 -125.952240359366 2158.69727041501 90 75 72
-949.257773317857 -126.258338816464 2150.78030349796 176 158 154
-957.459950977181 -126.514190838444 2142.8200168716 96 69 62
-963.663770924387 -126.719915575025 2134.7999714385 100 70 60
-959.880555334482 -126.67647415564 2126.26581432042 121 88 73
-953.102216620908 -126.558544267377 2117.53761418544 135 102 85
-938.33686404102 -126.242008185925 2108.28956332714 110 78 63
-927.56742226695 -126.025370092587 2099.21150980483 98 72 57
-915.800996238834 -125.78430411349 2090.00779681494 90 71 56
-882.074422513968 -124.998058897276 2079.23259192504 54 42 28
-734.784731847843 -121.448215412482 2051.20792148884 20 13 3
-804.876244652724 -123.240668399373 2047.63134303304 18 19 11
-856.994229379636 -124.585442667484 2043.00965121932 20 25 18
-858.210760886908 -124.66816287689 2034.48272888126 18 24 20
-813.526120082212 -123.615116066447 2022.05546255618 25 31 27
-408.628080994288 -120.892632109895 2400.95376104257 123 116 110
-409.878054975364 -120.98219250271 2391.11244651494 59 44 37
-430.141606382976 -121.502754062327 2380.80290758648 55 38 31
-606.739023183477 -125.621911582449 2357.8719577755 25 26 18
-641.99252562127 -126.477100330228 2348.01295937878 23 24 16
-694.248591140509 -127.715369695336 2338.10894862467 27 28 20
-685.474769064257 -127.573465022327 2329.17124482036 23 24 18
-702.710033948392 -128.018827586484 2319.96456633259 17 18 12
-748.949658515863 -129.117668356966 2310.68599706183 22 23 17
-747.175321668009 -129.132971294531 2301.8004728943 24 25 19
-761.402518202588 -129.508628176613 2292.90056027391 27 29 24
-787.628107280388 -130.153752007662 2284.10781088257 25 27 22
-772.851951405085 -129.876127575657 2275.24020990145 17 19 14
-736.080666868051 -129.104857164922 2266.11296186864 16 17 11
-734.307807194803 -129.120499592052 2257.1600152943 18 19 13
-759.528455128686 -129.741697246431 2248.56137534733 20 21 15
-786.744819997518 -130.40675658945 2240.13243244221 21 22 16
-820.954848178928 -131.227514846469 2231.98482973457 22 23 17
-812.180006585408 -131.085064912038 2223.0875576566 19 20 14
-813.401042924362 -131.16644300422 2214.38601195291 20 21 15
-800.630495850859 -130.935101199134 2205.30822496092 20 21 15
-816.84218853507 -131.351337393116 2197.02940569511 18 19 13
-795.079897699022 -130.919713846261 2187.59373012209 17 18 12
-870.459314349316 -132.707644265836 2172.9118659081 28 11 3
-937.613112984294 -134.255581843987 2167.08939026788 133 115 105
-948.814739503453 -134.556589449795 2159.18557729666 86 62 52
-948.028119913575 -134.590729478105 2150.78457708268 70 44 31
-946.242632305683 -134.602694889661 2142.32912203595 105 76 60
-954.445063531357 -134.836373140393 2134.38273364602 130 98 83
-955.655768452256 -134.914705630709 2126.09757047084 136 104 89
-950.874288394228 -134.860195313031 2117.47344523434 95 68 51
-930.116798486355 -134.452074562685 2107.85891971506 98 75 61
-916.351603280725 -134.199351811673 2098.57022273704 89 70 56
-895.599222127886 -133.792602088985 2088.74523248119 83 69 56
-762.26190044639 -130.953953445067 2062.20158731401 26 24 11
-741.524914143421 -130.551155357175 2051.77999482167 18 18 6
-803.636251863296 -131.975112402326 2047.60802169401 19 22 13
-810.845098361066 -132.187762212624 2039.40878330385 20 26 16
-788.113017015319 -131.741229229895 2028.7837271396 19 24 17
-830.249572133392 -132.721938327369 2023.55219425681 25 30 23
-399.348380491862 -130.531033834294 2401.28619883496 126 115 109
-401.59984076768 -130.638243924469 2391.39254153704 55 35 28
-501.171291670176 -132.74506403923 2369.53025652041 31 24 16
-618.490633138164 -135.139188339089 2357.69465353534 25 25 17
-673.988566048402 -136.358003666057 2338.44193329031 24 25 17
-677.220878539728 -136.479539522337 2329.31527828862 21 22 16
-699.459740058861 -136.977685582314 2320.04416909501 14 15 9
-782.938021173076 -138.743326228007 2301.74782785462 26 27 21
-788.162204257493 -138.902033593901 2292.94838165805 26 28 23
-780.384667953885 -138.803713396333 2284.14306752356 25 27 22
-801.608846560173 -139.278004964425 2275.44673288182 18 20 15
-788.831635125245 -139.081082278951 2266.59245562123 15 16 10
-780.055742594358 -138.963408632542 2257.70965494632 19 20 14
-774.280824073938 -138.905081149021 2248.81780779389 21 22 16
-790.724145651831 -139.33900083664 2231.46714178252 22 23 17
-814.937789248306 -139.869449489926 2223.20567244302 19 20 14
-782.174449453093 -139.281434555182 2213.67926620059 19 20 14
-818.379089889093 -140.046143786544 2205.85181170026 18 19 13
-815.60209867861 -140.046296311489 2197.05227411473 17 18 12
-817.822049840447 -140.144268134177 2188.40002148492 16 17 11
-840.027137686527 -140.632778736168 2180.46857503366 20 17 10
-910.190140986984 -142.057067105035 2174.49320716582 66 49 41
-936.382168476734 -142.620966692656 2167.09937323618 105 87 77
-946.58572207058 -142.872242553861 2159.14894396487 76 50 37
-939.805240033647 -142.792335238374 2150.46368662139 135 107 93
-937.021321836185 -142.790409152848 2141.93711153527 126 97 79
-940.230906101011 -142.90508572687 2133.70611932912 116 85 67
-944.438763779143 -143.039011792014 2125.54663715393 101 72 56
-940.656542111161 -143.017689419228 2116.94988439526 92 66 51
-924.891197494838 -142.764093937748 2107.60924386174 93 71 58
-908.129583612182 -142.491701875505 2098.11827799059 87 71 58
-883.382489921229 -142.065274649621 2088.00897294396 76 64 52
-822.695385482656 -140.944555125802 2075.29954437973 24 20 8
-747.041605448687 -139.53666747736 2061.18825756284 21 23 10
-738.283327537328 -139.42285995761 2051.61286538732 16 18 5
-741.504940411601 -139.540408785004 2042.90866945014 13 16 5
-760.921842986819 -140.024895104715 2026.61967280522 15 21 11
-714.241045966372 -139.181753664103 2013.75807774256 25 30 23
-720.457083205026 -139.356928691172 2005.28401537363 25 28 19
-407.084440109428 -140.511716788961 2401.10164552622 127 114 108
-406.332885252147 -140.561909491478 2391.3129579661 79 56 48
-423.597033782748 -140.921641460723 2381.06935005375 82 58 48
-603.224401696888 -144.127170916042 2358.04153298102 21 21 13
-657.495775973932 -145.116326353671 2347.8560776142 20 20 12
-674.73783240736 -145.469902941043 2338.4825145656 20 21 13
-637.949485558683 -144.899235167641 2329.80672911678 16 17 11
-608.169441649164 -144.449497136894 2320.86812421437 10 11 5
-815.705230750436 -148.104768772662 2301.70275874209 24 25 19
-779.917661460877 -147.551094987801 2293.00303441601 26 28 23
-765.138655991461 -147.355926448903 2284.1582706569 25 27 22
-795.366458430461 -147.925860856735 2275.46786349329 20 22 17
-803.589519616484 -148.121243126485 2266.76562884991 18 19 13
-782.812250079016 -147.824626965425 2257.79510994724 19 20 14
-719.270791700072 -146.861451556441 2239.15007710172 18 19 13
-786.705674376293 -148.11400513195 2222.6496992049 20 21 15
-791.927249438514 -148.25782117147 2213.97749749803 20 21 15
-815.139825899381 -148.704558842121 2205.82292025803 17 18 12
-830.353257547878 -149.01580849315 2197.55484025693 15 16 10
-812.584461236976 -148.771897883413 2188.28930971006 15 16 10
-857.776291011276 -149.586135126867 2181.15961421198 20 17 10
-901.962409807775 -150.381896777666 2174.23893872777 129 114 107
-921.162624619105 -150.757258322987 2166.53602032187 79 62 54
-931.367983799083 -150.981284206267 2158.54428141716 70 48 37
-932.580369694215 -151.054486815284 2150.189603229 63 39 27
-928.797799126878 -151.044137567762 2141.59470456901 68 42 27
-927.01346994165 -151.067239195996 2133.0820171398 75 49 34
-928.22621415535 -151.140337770601 2124.72277111303 81 55 40
-927.44092370492 -151.180075496196 2116.25448836057 80 61 47
-916.668929823451 -151.053605230419 2107.17936476766 77 59 47
-900.905153729239 -150.844477565102 2097.72967484019 61 47 36
-861.178020029345 -150.237889309944 2086.6166183532 21 11 1
-808.475954075809 -149.417372019958 2074.39515925199 29 25 13
-751.787361050226 -148.532555933375 2061.59873032178 22 24 11
-736.039808175057 -148.327457893059 2051.51997888103 19 21 8
-754.236007330472 -148.684236261262 2043.95993695261 15 18 7
-762.447489510495 -148.875388621695 2035.70546693828 15 21 11
-719.752287268696 -148.226040819026 2023.30691258471 16 22 12
-740.940358762583 -148.631363941865 2016.10514677056 15 20 13
-739.170990068647 -148.657810776226 2007.00415969094 28 31 22
-398.804571432381 -150.216499609655 2401.40340370763 127 114 106
-407.062451340857 -150.40008929501 2391.34366995273 90 67 59
-425.328922287202 -150.727845248932 2381.07764982132 99 72 63
-570.942000710651 -152.952310863814 2358.7194131358 20 20 12
-609.207876653665 -153.563709701355 2348.7126711086 20 20 12
-651.471327406961 -154.2311249956 2338.85800796738 20 21 13
-654.705617045268 -154.336942693881 2329.67095615993 16 17 11
-601.90997516582 -153.639609833412 2320.97450245518 11 12 6
-617.152936328608 -153.91798628711 2311.59692823536 15 16 10
-777.673624370312 -156.329643242264 2293.05640017619 25 27 22
-797.902399175483 -156.675044250613 2284.29412525351 23 25 20
-795.124280875158 -156.691992763221 2275.5206040055 20 22 17
-778.345124415853 -156.50982611146 2266.61838570375 22 23 17
-769.568557767623 -156.441895715618 2257.70852139854 18 19 13
-714.794888247988 -155.721542555247 2248.12863385539 16 17 11
-718.022933848359 -155.825078966492 2239.18807015138 14 15 9
-725.249834625486 -155.985052095346 2230.33976814398 13 14 8
-765.467846318558 -156.611103241004 2222.24671440921 18 19 13
-795.683384919344 -157.094469976968 2214.12857022615 18 19 13
-822.895857709429 -157.534365127703 2206.09350720955 16 17 11
-837.110389547135 -157.79019459562 2197.81723626449 14 15 9
-843.32722102313 -157.932965728894 2189.35624994259 15 16 10
-849.543214699777 -158.075461299472 2180.92830359955 17 17 9
-879.742504003768 -158.554209417345 2173.4501973423 57 47 38
-905.940569059395 -158.975773816422 2165.97322298607 42 29 21
-916.147733774068 -159.172551583677 2157.94017445925 70 52 42
-915.363122109081 -159.215271544723 2149.4514851137 66 46 35
-909.583215783262 -159.188218378673 2140.71167393326 76 54 41
-912.795141634908 -159.286705513579 2132.40654737534 81 58 44
-915.007790925236 -159.37111531715 2124.06356381906 78 56 43
-915.222352865467 -159.427603860394 2115.61708686396 76 58 46
-901.453753084721 -159.289778334797 2106.32875989576 74 58 45
-871.707873624495 -158.930701740593 2095.95754469466 29 19 9
-848.95664808935 -158.669538731367 2085.88167377036 35 26 17
-805.238638645865 -158.118930616118 2074.24378713277 29 27 15
-782.49526718747 -157.85970853801 2063.85886765869 20 22 11
-766.744106268736 -157.697745794957 2053.86549091112 16 18 7
-728.032748894504 -157.219706265418 2042.02251290669 13 16 7
-718.277439551717 -157.141694771215 2032.26796610962 13 18 11
-754.441921022893 -157.695515253426 2026.23649916973 16 21 14
-405.790143311069 -160.2091365125 2391.42951398428 81 59 48
-425.058988721847 -160.499465439184 2381.13557547928 80 56 44
-614.721765852059 -162.839815788264 2357.9184324726 27 27 19
-606.950317443521 -162.810358328291 2348.80124280516 22 22 14
-615.191677929259 -162.967226738085 2339.415836565 20 21 13
-632.438057562424 -163.228245792464 2329.97268904472 17 18 12
-606.656161041182 -162.990014072662 2320.9875068783 14 15 9
-587.881846848127 -162.833713565942 2311.81886763708 13 14 8
-679.160865703761 -163.949253033774 2302.21532041072 17 18 12
-787.434104293148 -165.257448408425 2293.10663593417 24 26 21
-750.645285902757 -164.89129379672 2284.22968948709 24 26 21
-744.869428678599 -164.88294921247 2275.31153755261 19 21 16
-800.105801999794 -165.575129887868 2266.84693186891 23 24 18
-779.325549373051 -165.394017704995 2257.86898315309 22 23 17
-742.54771212554 -165.030524002683 2248.55999852185 21 22 16
-711.774937484685 -164.73689103728 2239.14497415875 16 17 11
-717.002879900741 -164.854974158007 2230.24221944436 13 14 8
-800.440064711261 -165.920343764234 2214.30396122712 15 16 10
-802.661722399892 -166.00224966962 2205.60226196313 17 18 12
-819.877611873564 -166.25398475559 2197.3607439098 16 17 11
-855.083285603869 -166.708685197227 2189.80107058817 15 16 10
-817.321300025372 -166.337449327127 2179.84683831116 16 15 10
-844.527060508872 -166.700544296963 2172.16590239617 25 20 16
-877.724944204732 -167.130115803679 2164.87895200804 69 62 56
-893.930531819132 -167.367329100786 2157.03096101842 42 32 23
-895.145651332283 -167.435557667036 2148.57478431232 36 23 14
-894.362493927146 -167.48127187089 2140.02604246667 37 20 12
-902.570915846961 -167.627615539886 2131.93929014442 75 58 48
-903.785251092955 -167.695425245228 2123.5142150562 74 60 49
-904.999677176102 -167.763134728806 2115.09502213607 37 27 17
-882.241151883826 -167.56361849915 2105.23825944418 26 18 7
-867.476042345908 -167.453764106038 2095.75879078481 29 22 12
-821.752784181272 -167.000493530234 2084.16280868548 32 28 19
-810.9887872854 -166.936460180499 2074.7080952406 28 26 14
-772.26592929375 -166.563153071728 2063.20214759798 21 23 12
-766.499359071143 -166.555480380102 2053.9203060444 21 23 12
-719.027284918807 -166.144466635172 2032.40309035062 13 18 11
-750.203044928243 -166.544301063784 2025.96334432736 16 21 14
-395.5071322495 -169.942604422064 2391.76456748578 89 69 58
-405.768168244186 -170.100558633077 2381.66772846017 74 50 40
-619.471063225224 -172.137507037766 2357.8757527196 31 31 23
-617.703784483255 -172.183540066611 2348.67205292993 23 23 15
-578.906578888847 -171.90075827388 2339.97466804509 20 21 13
-598.15834109278 -172.13369989429 2330.41001851279 17 18 12
-628.414857085532 -172.463182424905 2320.85556490616 14 15 9
-643.658198774296 -172.658998949903 2311.55176490591 12 13 7
-751.174491420165 -173.725689006787 2293.16897327541 24 26 21
-745.39767608485 -173.73386842153 2284.27052544657 24 26 21
-769.631830622382 -174.004826713503 2275.49536302968 19 21 16
-797.863399832946 -174.309759328175 2266.88355578663 21 22 16
-796.08561043643 -174.352036952161 2258.10400584032 24 25 19
-752.302721141418 -174.028974291793 2248.74820298388 25 26 20
-730.527421074838 -173.898425233006 2239.50702739734 19 20 14
-709.75486601159 -173.77726948952 2230.16385462737 15 16 10
-759.979097207019 -174.270442169402 2222.24534684964 14 15 9
-789.422936096041 -174.639974366527 2205.30196562424 20 21 15
-792.645241908602 -174.725049808654 2196.60555467834 19 20 14
-806.863011368793 -174.904192861024 2188.28508619762 18 19 13
-826.076758972988 -175.125479676226 2180.21869294516 17 18 12
-802.309649073115 -174.979127676484 2170.61566513859 18 15 10
-825.518735932813 -175.233696869217 2162.80380931226 16 11 5
-852.72197661971 -175.521300366161 2155.2930879188 18 11 5
-857.937356164417 -175.621363619577 2146.91000687083 31 21 12
-865.150317861875 -175.738058210545 2138.65296154535 63 50 42
-876.358825612896 -175.888187765528 2130.64220742583 53 40 32
-880.572297184791 -175.978879212517 2122.30973683796 37 24 15
-866.803219169456 -175.91808023913 2112.966720543 36 27 18
-842.047636274475 -175.765483063487 2102.88586059142 22 15 5
-806.308087352536 -175.5216879607 2091.97661008417 19 15 4
-793.54610187195 -175.471127158561 2082.37942245257 27 24 15
-778.788133481331 -175.404290741991 2072.57466362835 21 21 9
-752.048516934291 -175.238170316893 2061.83490838701 19 21 10
-745.284375287949 -175.238822466145 2052.42451342423 21 23 12
-725.540457245955 -175.13206139809 2041.98067321663 18 21 12
-729.761986523713 -175.224117788044 2033.33181399953 9 14 7
-743.966712702543 -175.398336636979 2025.52640936925 12 17 10
-389.227538257527 -179.755630507899 2391.98876206692 48 34 23
-382.469839943287 -179.780797791844 2382.30021690108 108 90 80
-610.206482125988 -181.320960805761 2358.10575993564 27 27 19
-615.446627527357 -181.415973739453 2348.76016605999 18 18 10
-600.667988673797 -181.387875799071 2339.72168614177 22 23 15
-576.88421109462 -181.305151741784 2330.70177019829 15 16 10
-636.166394181392 -181.729851758085 2320.84207575236 16 17 11
-648.407993854777 -181.866232066744 2311.57743521461 12 13 7
-721.913217805687 -182.433651527385 2293.23035642565 23 25 20
-737.148107297289 -182.585549612043 2284.3040538093 23 25 20
-744.377529376412 -182.688714490034 2275.41820691019 22 24 19
-787.618114236704 -183.007180065311 2266.85659507526 21 24 17
-784.840432949304 -183.049246608388 2258.03902404163 21 24 17
-772.06121709454 -183.031779915555 2249.07040042819 21 24 17
-753.28325305591 -182.979109665303 2239.93313960775 19 22 15
-770.50979357354 -183.140024387156 2231.37285777156 18 21 14
-699.73497664078 -182.781240365598 2220.9984786808 17 20 13
-699.964352951432 -182.842389393233 2211.96800074063 13 16 9
-794.179581468418 -183.45430407931 2205.49109699814 15 18 11
-783.404685542768 -183.449264358109 2196.38968779028 16 19 12
-778.629859109471 -183.479463632418 2187.4238860023 16 19 12
-784.851678863354 -183.573615684695 2178.8201439249 15 18 11
-796.070384130863 -183.696371809152 2170.44022701633 19 20 14
-821.280726250642 -183.899373903805 2162.69340016965 16 15 10
-834.49433569754 -184.032368494653 2154.56037242056 17 14 9
-832.715620543274 -184.078830427563 2145.80318671727 22 17 11
-804.955605323449 -183.976736553547 2135.75791304288 26 21 15
-832.156934685011 -184.188761759567 2128.41236780091 26 19 11
-824.383883585103 -184.201041615532 2119.3036777606 22 18 9
-824.604726693672 -184.258770997619 2110.61037867056 21 18 9
-792.857366093072 -184.135946885715 2099.99398652077 23 20 11
-785.08875351226 -184.149108306528 2090.7108772219 22 22 12
-775.323647873809 -184.151251277328 2081.25313990438 21 21 11
-742.814049853535 -184.083961579579 2061.25051143248 16 18 7
-756.023247062918 -184.214761183401 2053.2922860183 18 20 9
-748.260251955857 -184.2288510899 2043.79795423709 13 16 7
-736.504077017805 -184.221071324612 2033.94310836638 11 16 9
-813.61193515844 -184.702699288837 2031.32669373491 19 24 18
-808.841767978172 -184.732338417418 2022.17939363935 22 27 21
-420.997260945669 -189.733994802106 2391.15837115529 121 111 101
-450.281763627054 -189.903058253839 2380.65764879477 130 116 107
-588.927391030368 -190.51230860183 2358.57004575884 42 42 34
-621.197156824989 -190.686433983397 2348.7139498622 22 22 14
-615.425987233452 -190.730146640799 2339.56601873754 19 20 12
-623.667976139391 -190.821273935505 2330.22663940516 16 17 11
-609.890754766507 -190.83809479216 2321.11855153794 15 16 10
-677.176991357482 -191.125869652272 2311.46368267113 12 13 7
-689.416051750581 -191.228356523791 2302.34400295417 13 14 8
-691.647007312322 -191.297256624086 2293.29287523123 21 23 18
-724.894940709472 -191.467745077114 2284.32799256417 22 24 19
-743.13118471522 -191.587924181302 2275.46622601743 21 23 18
-732.352687544486 -191.613195630822 2266.47302014224 19 22 15
-751.586222151177 -191.735583498064 2257.73947235966 20 23 16
-761.814596402492 -191.828266767234 2248.98925032192 20 23 16
-777.042713198682 -191.936423456992 2240.37461424518 20 23 16
-806.27055125854 -192.088300507202 2232.10699502534 19 22 15
-703.48573190669 -191.822914831726 2221.1396880822 18 21 14
