ply
format ascii 1.0
comment KinectMotionCapture
element vertex 768
property float x
property float y
property float z
property uchar red
property uchar green
property uchar blue
end_header
-656.250596046448 10.9621239826083 2125.99992752075 179 181 178
-651.732861995697 10.9835797920823 2130.00011444092 182 184 181
-648.102819919586 11.0205169767141 2137.00008392334 181 183 180
-644.43451166153 11.0574653372169 2144.00005340576 181 183 180
-641.02578163147 11.0995844006538 2151.99995040894 179 181 178
-636.982858181 11.1313983798027 2157.99999237061 183 185 182
-634.369313716888 11.1890183761716 2168.99991035461 193 195 192
-630.246937274933 11.2208565697074 2174.99995231628 194 196 193
-625.804424285889 11.2475473433733 2180.0000667572 191 193 190
-620.481073856354 11.2587660551071 2181.99992179871 189 191 188
-616.836190223694 11.300953105092 2190.00005722046 189 189 187
-615.936934947968 11.394758708775 2207.99994468689 182 182 180
-614.939570426941 11.488582007587 2226.0000705719 181 181 179
-614.938318729401 11.6030713543296 2247.99990653992 182 182 180
-612.108767032623 11.6659635677934 2259.99999046326 170 170 168
-610.554158687592 11.7546804249287 2276.99995040894 168 168 166
-584.859549999237 12.1230632066727 2346.99988365173 160 162 157
-578.503489494324 12.124071829021 2346.99988365173 109 111 108
-572.877705097198 12.1405767276883 2349.99990463257 103 105 102
-565.788149833679 12.1260862797499 2346.99988365173 109 111 108
-558.952212333679 12.1167600154877 2345.00002861023 133 135 132
-552.597224712372 12.1177649125457 2345.00002861023 142 144 141
-546.474039554596 12.1239367872477 2345.99995613098 147 149 146
-540.34435749054 12.1301077306271 2346.99988365173 148 150 147
-534.663140773773 12.1466144919395 2349.99990463257 149 151 148
-530.088543891907 12.1889701113105 2358.00004005432 156 158 155
-525.247156620026 12.2261578217149 2365.00000953674 159 161 158
-520.805537700653 12.2736897319555 2374.00007247925 174 176 173
-514.79709148407 12.2850323095918 2375.99992752075 152 154 151
-1068.35842132568 4.98653342947364 2052.00004577637 111 115 114
-1062.1622800827 4.98366076499224 2051.00011825562 97 101 100
-1053.91597747803 4.97108744457364 2046.0000038147 108 112 111
-1049.80111122131 4.9779717810452 2049.00002479553 110 114 113
-1043.12610626221 4.97272564098239 2046.99993133545 113 119 119
-1040.01474380493 4.9845022149384 2052.00004577637 113 122 121
-1035.87234020233 4.99143730849028 2055.0000667572 119 125 125
-1030.71486949921 4.99353045597672 2055.99999427795 119 123 122
-1026.05485916138 4.9980697222054 2058.00008773804 114 118 117
-1020.8922624588 5.00019686296582 2059.00001525879 114 116 113
-1018.19360256195 5.01448195427656 2065.00005722046 76 76 74
-1013.99505138397 5.02149760723114 2068.00007820129 92 91 89
-1012.22169399261 5.0406688824296 2075.99997520447 105 105 103
-1012.83252239227 5.07199438288808 2088.99998664856 119 120 115
-898.077666759491 5.0022560171783 2061.00010871887 12 17 13
-888.150572776794 4.97801229357719 2051.00011825562 2 7 3
-879.140377044678 4.95863379910588 2042.99998283386 0 2 0
-869.320452213287 4.93441196158528 2032.99999237061 1 3 0
-863.380670547485 4.93204593658447 2032.00006484985 0 2 0
-859.558820724487 4.94182668626308 2036.00001335144 11 11 9
-854.458749294281 4.94433753192425 2036.99994087219 5 7 2
-848.93810749054 4.94443066418171 2036.99994087219 0 2 0
-840.934693813324 4.92997094988823 2030.99989891052 5 8 1
-832.142651081085 4.91066509857774 2023.00000190735 13 16 9
-822.578012943268 4.88651404157281 2013.00001144409 21 24 17
-819.969713687897 4.90363966673613 2019.99998092651 22 25 18
-817.728102207184 4.92320349439979 2028.00011634827 17 20 13
-813.041269779205 4.92821168154478 2029.99997138977 13 16 9
-805.162191390991 4.9138069152832 2023.9999294281 10 13 6
-800.082623958588 4.91640577092767 2025.00009536743 5 8 1
-795.390903949738 4.92144096642733 2026.99995040894 2 5 0
-792.248249053955 4.93619777262211 2032.99999237061 7 9 4
-787.913143634796 4.94368001818657 2036.00001335144 1 3 0
-783.946931362152 4.95359906926751 2039.99996185303 0 1 0
-778.815150260925 4.95624216273427 2040.99988937378 1 3 0
-773.67889881134 4.95889456942678 2042.00005531311 0 1 0
-768.537700176239 4.96155396103859 2042.99998283386 0 1 0
-764.512360095978 4.97150700539351 2046.99993133545 2 4 0
-758.612155914307 4.96932538226247 2046.0000038147 2 4 0
-753.4539103508 4.97200805693865 2046.99993133545 0 2 0
-746.46407365799 4.96255373582244 2042.99998283386 3 5 0
-743.122935295105 4.97739622369409 2049.00002479553 4 6 1
-736.150145530701 4.96795494109392 2045.00007629395 3 5 0
-732.057511806488 4.97795455157757 2049.00002479553 0 2 0
-726.879775524139 4.98067261651158 2049.99995231628 1 3 0
-724.511981010437 5.00283529981971 2059.00001525879 3 5 0
-717.207312583923 4.99098794534802 2053.99990081787 5 7 2
-711.662173271179 4.99129621312022 2053.99990081787 13 15 10
-705.42973279953 4.98674903064966 2052.00004577637 8 9 4
-701.254606246948 4.99678961932659 2055.99999427795 35 36 31
-698.411345481873 5.01655833795667 2063.99989128113 38 39 34
-696.867644786835 5.0460584461689 2075.99997520447 34 35 30
-692.595303058624 5.05612045526505 2079.99992370605 0 1 0
-687.640786170959 5.06132654845715 2082.00001716614 1 2 0
-682.675421237946 5.06653916090727 2084.00011062622 5 7 2
-678.02369594574 5.0741876475513 2086.99989318848 15 17 12
-673.678040504456 5.0842734053731 2091.00008010864 6 8 3
-670.588314533234 5.10409148409963 2098.99997711182 25 27 22
-667.771995067596 5.12634869664907 2108.00004005432 87 89 84
-664.906740188599 5.14861335977912 2117.00010299683 194 196 191
-660.124242305756 5.15629118308425 2119.99988555908 192 194 189
-655.633926391602 5.16640720888972 2124.00007247925 197 199 194
-651.427447795868 5.17896050587296 2128.99994850159 200 202 197
-648.103475570679 5.19881816580892 2137.00008392334 197 199 194
-644.435167312622 5.21624786779284 2144.00005340576 191 193 188
-641.026377677917 5.23611670359969 2151.99995040894 199 201 196
-636.983573436737 5.25112589821219 2157.99999237061 187 189 184
-634.369969367981 5.27830654755235 2168.99991035461 125 127 122
-630.247533321381 5.29332645237446 2174.99995231628 81 83 78
-625.23090839386 5.30104991048574 2177.99997329712 10 12 7
-620.197415351868 5.30877616256475 2180.99999427795 0 1 0
-616.555094718933 5.32867666333914 2188.99989128113 6 7 2
-615.100681781769 5.3680595010519 2204.99992370605 0 1 0
-614.38775062561 5.41475461795926 2223.99997711182 0 1 0
-613.571286201477 5.46145904809237 2243.00003051758 4 5 0
-612.651228904724 5.50817232578993 2262.00008392334 0 1 0
-611.627399921417 5.55489398539066 2280.99989891052 2 3 0
-585.358679294586 5.72380889207125 2348.99997711182 142 144 139
-578.25779914856 5.71697391569614 2345.99995613098 90 92 89
-571.903347969055 5.71744935587049 2345.99995613098 102 104 101
-564.583599567413 5.70817478001118 2342.00000762939 106 108 105
-557.761073112488 5.70377381518483 2339.99991416931 134 136 133
-551.184058189392 5.70180919021368 2338.99998664856 131 133 130
-544.844210147858 5.7022818364203 2338.99998664856 135 137 134
-538.503289222717 5.70275355130434 2338.99998664856 138 140 137
-532.616198062897 5.7081007398665 2341.00008010864 145 147 144
-527.616381645203 5.72320213541389 2346.99988365173 160 162 159
-522.804915904999 5.74074359610677 2354.00009155273 161 163 160
-519.051194190979 5.77048026025295 2365.9999370575 160 162 159
-519.131183624268 5.84412552416325 2395.99990844727 156 158 155
-1075.12652873993 -0.60124188894406 2065.00005722046 151 153 152
-1065.78719615936 -0.5991505458951 2058.00008773804 101 103 102
-1057.00647830963 -0.597352918703109 2052.00004577637 96 98 95
-1051.33783817291 -0.597304257098585 2052.00004577637 98 100 97
-1045.16446590424 -0.59696682728827 2051.00011825562 89 95 93
-1040.01462459564 -0.597213627770543 2052.00004577637 83 89 89
-1034.86382961273 -0.597462290897965 2052.99997329712 74 80 80
-1030.71475028992 -0.598295300733298 2055.99999427795 76 80 79
-1026.05473995209 -0.598839134909213 2058.00008773804 75 77 74
-1021.38793468475 -0.599384948145598 2059.99994277954 72 72 70
-1017.20726490021 -0.600223604124039 2062.99996376038 101 100 96
-1013.99493217468 -0.601646199356765 2068.00007820129 146 142 139
-1011.73400878906 -0.603652209974825 2075.00004768372 137 134 129
-1012.34757900238 -0.607405498158187 2088.00005912781 137 132 126
-896.770417690277 -0.598468410316855 2058.00008773804 17 24 17
-889.882683753967 -0.597599253524095 2055.0000667572 24 29 23
-881.292045116425 -0.595568271819502 2048.00009727478 26 28 23
-873.596489429474 -0.594120239838958 2042.99998283386 20 21 16
-868.479311466217 -0.594418379478157 2043.99991035461 22 23 18
-860.825538635254 -0.592973025050014 2039.00003433228 23 24 19
-857.394993305206 -0.59443706413731 2043.99991035461 16 19 12
-853.105664253235 -0.595320772845298 2046.99993133545 14 17 8
-846.31735086441 -0.594460812862962 2043.99991035461 20 23 14
-834.610760211945 -0.590112002100796 2029.00004386902 24 27 18
-824.621200561523 -0.586927519179881 2017.99988746643 26 29 20
-823.623180389404 -0.590142910368741 2029.00004386902 28 31 22
-818.534553050995 -0.590450887102634 2029.99997138977 27 30 21
-815.043866634369 -0.591923599131405 2035.00008583069 32 35 26
-808.344781398773 -0.591070449445397 2032.00006484985 25 28 19
-803.638577461243 -0.591672782320529 2033.99991989136 23 26 17
-796.568214893341 -0.590530806221068 2029.99997138977 32 35 26
-793.417453765869 -0.592298922128975 2036.00001335144 13 16 9
-791.009068489075 -0.594649987760931 2043.99991035461 13 16 9
-789.326965808868 -0.597584119532257 2053.99990081787 11 14 7
-783.775866031647 -0.597610080149025 2053.99990081787 9 12 5
-778.983294963837 -0.59821893228218 2055.99999427795 10 13 6
-775.309085845947 -0.599701714236289 2061.00010871887 12 15 8
-771.98201417923 -0.601476465817541 2066.99991226196 9 12 5
-765.657007694244 -0.600924424361438 2065.00005722046 18 21 14
-759.711384773254 -0.600664119701833 2063.99989128113 14 17 10
-752.310156822205 -0.599240476731211 2059.00001525879 12 15 8
-746.024489402771 -0.598690705373883 2056.99992179871 17 20 13
-738.310217857361 -0.596977537497878 2051.00011825562 11 13 8
-734.201312065125 -0.598175742197782 2055.0000667572 11 13 8
-732.957124710083 -0.606397050432861 2082.99994468689 24 26 21
-723.492622375488 -0.603231252171099 2072.00002670288 25 27 22
-712.355315685272 -0.598610087763518 2055.99999427795 30 32 27
-705.42985200882 -0.597483012825251 2052.00004577637 30 31 26
-700.231432914734 -0.597812351770699 2052.99997329712 27 28 23
-696.042895317078 -0.599016027990729 2056.99992179871 29 30 25
-693.511009216309 -0.601676758378744 2065.99998474121 32 33 28
-692.595481872559 -0.605794601142406 2079.99992370605 19 20 15
-692.26485490799 -0.610496150329709 2095.99995613098 6 7 2
-686.933994293213 -0.610829563811421 2096.99988365173 12 14 9
-682.89715051651 -0.612328934948891 2101.99999809265 18 20 15
-677.866578102112 -0.612955074757338 2104.00009155273 19 21 16
-671.866416931152 -0.612707633990794 2102.9999256134 0 1 0
-669.356048107147 -0.615665805526078 2112.99991607666 0 2 0
-663.964688777924 -0.616002478636801 2114.00008201599 6 8 3
-659.812986850739 -0.617505167610943 2118.99995803833 1 3 0
-655.016660690308 -0.618425663560629 2121.99997901917 1 3 0
-652.651607990265 -0.621678482275456 2132.99989700317 4 6 1
-649.923205375671 -0.624640611931682 2142.99988746643 4 6 1
-646.238744258881 -0.626729219220579 2150.00009536743 1 3 0
-641.026496887207 -0.62736077234149 2151.99995040894 0 1 0
-636.393308639526 -0.62857597367838 2155.99989891052 4 6 1
-632.907807826996 -0.630957947578281 2164.00003433228 4 6 1
-629.958033561707 -0.633923744317144 2174.00002479553 2 4 0
-628.675878047943 -0.638640020042658 2190.00005722046 8 10 5
-623.894333839417 -0.639857724308968 2194.00000572205 12 14 9
-618.527054786682 -0.64049253705889 2196.00009918213 24 25 20
-613.985121250153 -0.642002676613629 2200.99997520447 24 25 20
-613.835513591766 -0.648180721327662 2221.99988365173 21 22 17
-613.844990730286 -0.654651666991413 2243.99995803833 24 25 20
-614.27640914917 -0.66170742502436 2267.99988746643 17 18 13
-587.601661682129 -0.688420841470361 2358.00004005432 137 139 134
-579.983413219452 -0.687018153257668 2352.9999256134 76 78 75
-572.634875774384 -0.685907201841474 2348.99997711182 91 93 90
-564.824819564819 -0.684212078340352 2342.99993515015 114 116 113
-557.761311531067 -0.683392689097673 2339.99991416931 135 137 134
-551.65559053421 -0.683741585817188 2341.00008010864 139 141 138
-545.776128768921 -0.684382335748523 2342.99993515015 141 143 140
-540.115058422089 -0.685315346345305 2345.99995613098 142 144 141
-534.436583518982 -0.686248415149748 2348.99997711182 149 151 148
-529.190301895142 -0.687765830662102 2354.00009155273 164 166 163
-524.137675762177 -0.68957544863224 2359.99989509583 163 165 162
-520.148396492004 -0.692846311721951 2371.00005149841 168 170 167
-516.098022460938 -0.696117465849966 2381.99996948242 181 183 180
-1068.37689876556 -6.21403241530061 2062.99996376038 139 141 138
-1059.06713008881 -6.19242014363408 2055.99999427795 109 110 105
-1053.89988422394 -6.19492726400495 2056.99992179871 108 107 103
-1046.69332504272 -6.18541054427624 2053.99990081787 99 101 100
-1040.52174091339 -6.18194136768579 2052.99997329712 102 106 105
-1034.86406803131 -6.18150411173701 2052.99997329712 101 105 104
-1031.21614456177 -6.19313167408109 2056.99992179871 97 99 96
-1027.55069732666 -6.20478112250566 2061.00010871887 106 105 101
-1022.87566661835 -6.21042679995298 2062.99996376038 115 114 110
-1018.19372177124 -6.21609389781952 2065.00005722046 151 146 142
-1014.48535919189 -6.22780015692115 2069.00000572205 130 123 117
-1012.2218132019 -6.24855561181903 2075.99997520447 148 141 135
-1012.83264160156 -6.28738757222891 2088.99998664856 137 128 121
-884.253263473511 -6.14380603656173 2042.00005531311 31 36 30
-878.279745578766 -6.14084489643574 2040.99988937378 33 35 30
-868.037581443787 -6.10780995339155 2029.99997138977 23 24 19
-859.556615352631 -6.08682446181774 2023.00000190735 24 25 20
-849.426567554474 -6.05381559580565 2012.00008392334 15 16 10
-844.391405582428 -6.05692621320486 2013.00001144409 19 22 13
-845.604062080383 -6.10518408939242 2029.00004386902 18 21 12
-840.106666088104 -6.10531261190772 2029.00004386902 21 24 15
-831.73131942749 -6.0843899846077 2022.0000743866 22 25 16
-824.621140956879 -6.07250584289432 2017.99988746643 23 26 17
-821.187496185303 -6.0877176001668 2023.00000190735 25 28 19
-810.87327003479 -6.05178251862526 2010.99991798401 24 27 18
-807.033479213715 -6.06400799006224 2015.00010490417 22 25 16
-803.570985794067 -6.07925513759255 2019.99998092651 30 33 24
-800.082504749298 -6.09451439231634 2025.00009536743 28 31 22
-793.821334838867 -6.08871784061193 2023.00000190735 18 21 12
-789.520442485809 -6.09798124060035 2026.00002288818 26 29 22
-789.074003696442 -6.13735429942608 2039.00003433228 20 23 16
-786.252558231354 -6.15868112072349 2046.0000038147 14 17 10
-780.341506004334 -6.15593837574124 2045.00007629395 17 20 13
-773.678779602051 -6.14718440920115 2042.00005531311 14 17 10
-770.042300224304 -6.16252282634377 2046.99993133545 10 13 6
-764.512240886688 -6.16281991824508 2046.99993133545 12 15 8
-756.38735294342 -6.14205002784729 2039.99996185303 10 13 6
-752.717792987823 -6.15741964429617 2045.00007629395 11 14 7
-749.752342700958 -6.17882097139955 2052.00004577637 23 26 19
-744.936287403107 -6.18517678231001 2053.99990081787 19 22 15
-736.870050430298 -6.16443902254105 2046.99993133545 12 14 9
-732.414722442627 -6.17382349446416 2049.99995231628 13 15 10
-727.943420410156 -6.18321634829044 2052.99997329712 23 25 20
-724.863767623901 -6.20466703549027 2059.99994277954 26 28 23
-716.858088970184 -6.18395674973726 2052.99997329712 26 28 23
-708.543837070465 -6.1602396890521 2045.00007629395 28 30 25
-703.023195266724 -6.16062665358186 2045.00007629395 29 30 25
-698.866963386536 -6.17307191714644 2049.00002479553 29 30 25
-694.350779056549 -6.18251133710146 2052.00004577637 27 28 23
-690.825402736664 -6.20099948719144 2058.00008773804 30 31 26
-689.598500728607 -6.24058907851577 2071.00009918213 26 27 22
-692.26461648941 -6.31635216996074 2095.99995613098 12 13 8
-689.881980419159 -6.34692516177893 2105.99994659424 10 12 7
-685.171008110046 -6.35641161352396 2108.99996757507 8 10 5
-680.121541023254 -6.36289129033685 2111.00006103516 4 6 1
-677.616834640503 -6.3934912905097 2121.00005149841 20 22 17
-672.523617744446 -6.39998447149992 2122.99990653992 21 23 18
-665.534794330597 -6.3883950933814 2118.99995803833 18 20 15
-659.501433372498 -6.38585351407528 2118.00003051758 12 14 9
-655.016422271729 -6.39839237555861 2121.99997901917 11 13 8
-653.569221496582 -6.44109304994345 2135.99991798401 14 16 11
-654.168903827667 -6.5049147233367 2157.00006484985 13 15 10
-650.146067142487 -6.52351044118404 2163.00010681152 9 12 5
-645.792305469513 -6.53909659013152 2167.99998283386 8 11 4
-640.230298042297 -6.54262257739902 2168.99991035461 9 12 5
-634.077429771423 -6.5401210449636 2167.99998283386 23 26 19
-629.667997360229 -6.55572256073356 2173.00009727478 31 34 27
-631.259202957153 -6.63468847051263 2198.99988174438 28 31 24
-626.737654209137 -6.65030675008893 2203.9999961853 22 25 18
-619.935035705566 -6.64178933948278 2200.99997520447 27 28 22
-613.984823226929 -6.64232624694705 2200.99997520447 30 31 25
-613.558888435364 -6.70322636142373 2220.99995613098 32 33 27
-610.288560390472 -6.73395721241832 2230.99994659424 34 35 29
-588.348925113678 -7.1316403336823 2361.00006103516 166 168 163
-580.229580402374 -7.11108790710568 2354.00009155273 89 91 88
-572.390794754028 -7.09355203434825 2348.00004959106 142 144 141
-564.342439174652 -7.07299215719104 2341.00008010864 136 138 135
-557.284295558929 -7.06451386213303 2338.00005912781 111 113 110
-550.948321819305 -7.06510012969375 2338.00005912781 107 109 106
-544.378161430359 -7.06266285851598 2336.99989318848 120 122 119
-538.963615894318 -7.07533722743392 2341.00008010864 119 121 118
-533.29873085022 -7.08498992025852 2344.00010108948 122 124 121
-528.515577316284 -7.10673304274678 2351.0000705719 145 147 144
-522.804796695709 -7.11638620123267 2354.00009155273 149 151 148
-518.831729888916 -7.15022534132004 2365.00000953674 144 146 143
-515.664398670197 -7.19616375863552 2380.00011444092 177 179 176
-1070.96707820892 -11.8561321869493 2068.00007820129 177 176 171
-1060.61327457428 -11.8035282939672 2059.00001525879 160 156 147
-1054.41296100616 -11.7968348786235 2058.00008773804 152 145 135
-1047.20366001129 -11.7787215858698 2055.0000667572 145 142 135
-1040.52233695984 -11.7663843557239 2052.99997329712 137 134 127
-1034.36064720154 -11.7598222568631 2052.00004577637 130 126 117
-1030.71546554565 -11.7819542065263 2055.99999427795 132 128 119
-1027.05252170563 -11.8041234090924 2059.99994277954 142 133 124
-1023.37193489075 -11.8263307958841 2063.99989128113 147 137 127
-1018.1941986084 -11.8313878774643 2065.00005722046 116 102 93
-1015.46657085419 -11.8651278316975 2071.00009918213 91 74 64
-1012.70985603333 -11.8989022448659 2076.99990272522 87 70 60
-1012.34817504883 -11.9613548740745 2088.00005912781 111 93 83
-1011.92998886108 -12.0238410308957 2098.99997711182 119 99 88
-891.541302204132 -11.7166340351105 2046.0000038147 10 17 10
-882.954120635986 -11.6766113787889 2039.00003433228 24 29 23
-876.128077507019 -11.6595225408673 2036.00001335144 24 27 20
-868.465065956116 -11.6310054436326 2030.99989891052 25 26 20
-856.15736246109 -11.5395216271281 2015.00010490417 26 27 21
-845.204710960388 -11.4652402698994 2002.00009346008 28 27 22
-836.840867996216 -11.4253424108028 1995.00000476837 27 28 20
-834.768116474152 -11.4713748916984 2003.00002098084 27 30 21
-829.341173171997 -11.4716170355678 2003.00002098084 28 31 22
-830.908417701721 -11.5692466497421 2019.99998092651 31 34 25
-823.395133018494 -11.5408999845386 2015.00010490417 30 33 24
-816.722095012665 -11.524030007422 2012.00008392334 30 33 24
-807.647287845612 -11.4728147163987 2003.00002098084 31 34 25
-802.227020263672 -11.4731695502996 2003.00002098084 32 35 26
-798.399090766907 -11.4964591339231 2006.99996948242 33 36 27
-794.945895671844 -11.5255005657673 2012.00008392334 32 35 26
-792.643785476685 -11.5717500448227 2019.99998092651 29 32 23
-787.181854248047 -11.5721933543682 2019.99998092651 27 30 21
-785.203695297241 -11.6242170333862 2029.00004386902 27 30 21
-782.025039196014 -11.6590782999992 2035.00008583069 26 29 20
-775.76208114624 -11.6481250151992 2032.99999237061 24 27 18
-772.541701793671 -11.683028191328 2039.00003433228 21 24 15
-767.408668994904 -11.6893025115132 2039.99996185303 20 23 14
-762.270987033844 -11.6955945268273 2040.99988937378 19 22 13
-754.903793334961 -11.6675216704607 2036.00001335144 19 22 13
-754.189610481262 -11.7426197975874 2049.00002479553 19 22 13
-750.117301940918 -11.7661627009511 2052.99997329712 18 21 12
-747.111856937408 -11.8069173768163 2059.99994277954 17 20 11
-740.109324455261 -11.7846438661218 2055.99999427795 11 14 7
-735.629677772522 -11.802508495748 2059.00001525879 13 16 9
-729.361176490784 -11.7917265743017 2056.99992179871 19 22 15
-723.807513713837 -11.7924241349101 2056.99992179871 22 25 18
-716.857492923737 -11.7702046409249 2052.99997329712 25 28 21
-710.275650024414 -11.75372954458 2049.99995231628 28 31 24
-704.397737979889 -11.7487339302897 2049.00002479553 32 33 27
-697.843194007874 -11.7322839796543 2046.0000038147 23 24 18
-693.335056304932 -11.7502501234412 2049.00002479553 22 23 17
-688.810765743256 -11.7682320997119 2052.00004577637 29 30 24
-687.600016593933 -11.8435826152563 2065.00005722046 26 27 21
-689.291417598724 -11.9705740362406 2086.99989318848 21 22 16
-690.209031105042 -12.0861260220408 2107.00011253357 9 10 4
-686.469852924347 -12.1213905513287 2112.99991607666 11 12 6
-682.054042816162 -12.1451988816261 2117.00010299683 14 15 9
-678.255140781403 -12.1804941445589 2122.99990653992 13 14 8
-671.889364719391 -12.1699012815952 2121.00005149841 16 17 11
-665.848195552826 -12.1650556102395 2119.99988555908 17 18 12
-658.877909183502 -12.1430028229952 2115.9999370575 14 15 9
-656.55916929245 -12.2070433571935 2127.00009346008 20 21 15
-652.650594711304 -12.2424010187387 2132.99989700317 21 22 16
-652.045249938965 -12.3409144580364 2150.00009536743 16 17 11
-648.942947387695 -12.3935248702765 2158.99991989136 9 10 4
-644.004285335541 -12.4117080122232 2161.99994087219 14 17 10
-638.458609580994 -12.4184191226959 2163.00010681152 19 22 13
-632.614374160767 -12.4193942174315 2163.00010681152 27 30 21
-628.797888755798 -12.4605717137456 2170.00007629395 26 29 20
-628.387749195099 -12.5706717371941 2188.99989128113 22 25 16
-624.177634716034 -12.6061365008354 2194.9999332428 22 25 16
-617.962598800659 -12.6014063134789 2194.00000572205 26 27 19
-613.147139549255 -12.6254009082913 2197.99995422363 19 20 12
-612.729370594025 -12.7413161098957 2217.99993515015 21 22 14
-605.637490749359 -12.7193732187152 2213.99998664856 33 34 26
-580.228686332703 -13.534844852984 2354.00009155273 116 118 115
-571.902394294739 -13.4899681434035 2345.99995613098 126 128 125
-564.582645893097 -13.4680867195129 2342.00000762939 105 107 104
-557.521760463715 -13.4519496932626 2338.99998664856 108 110 107
-551.654398441315 -13.4645700454712 2341.00008010864 123 125 122
-545.309126377106 -13.4656857699156 2341.00008010864 114 116 113
-540.113925933838 -13.4955616667867 2345.99995613098 118 120 117
-534.662842750549 -13.5196866467595 2349.99990463257 122 124 121
-530.088305473328 -13.5668301954865 2358.00004005432 154 156 153
-525.246977806091 -13.6082218959928 2365.00000953674 152 154 151
-521.24410867691 -13.672636821866 2375.99992752075 144 146 143
-517.180204391479 -13.7370573356748 2387.00008392334 148 150 147
-1071.48611545563 -17.4916405230761 2069.00000572205 175 171 162
-1062.15977668762 -17.4309778958559 2062.00003623962 145 137 126
-1057.48820304871 -17.4464620649815 2063.99989128113 157 147 135
-1049.75259304047 -17.4112934619188 2059.99994277954 143 133 121
-1043.5643196106 -17.4015499651432 2059.00001525879 141 133 122
-1036.88192367554 -17.3834171146154 2056.99992179871 138 128 116
-1031.71920776367 -17.3907019197941 2058.00008773804 126 116 104
-1027.55224704742 -17.4149423837662 2061.00010871887 87 73 62
-1023.86868000031 -17.4476858228445 2065.00005722046 76 60 47
-1020.16723155975 -17.4804870039225 2069.00000572205 86 67 53
-1016.44790172577 -17.5133384764194 2072.99995422363 100 81 67
-1013.68570327759 -17.5631437450647 2078.9999961853 115 93 80
-1010.89429855347 -17.6129993051291 2085.00003814697 140 117 103
-1009.03785228729 -17.6797974854708 2092.99993515015 135 109 96
-895.898759365082 -17.361905425787 2055.99999427795 14 21 14
-880.355775356293 -17.1677749603987 2032.99999237061 23 28 21
-871.82480096817 -17.1087961643934 2026.00002288818 25 28 21
-862.906038761139 -17.0414075255394 2017.99988746643 33 34 26
-852.75799036026 -16.948726028204 2006.99996948242 32 32 24
-843.937873840332 -16.8814137578011 1998.99995326996 35 35 27
-838.518440723419 -16.8816950172186 1998.99995326996 33 34 26
-832.68404006958 -16.8735682964325 1998.00002574921 33 36 27
-830.582916736603 -16.9414859265089 2006.00004196167 32 35 26
-829.262793064117 -17.0263331383467 2016.00003242493 31 34 25
-822.57741689682 -17.0014221221209 2013.00001144409 32 35 26
-815.503895282745 -16.9680994004011 2009.0000629425 33 36 27
-809.25977230072 -16.9516988098621 2006.99996948242 34 37 28
-805.430710315704 -16.986008733511 2010.99991798401 35 38 29
-799.194276332855 -16.9696733355522 2009.0000629425 36 39 30
-794.945418834686 -16.9956050813198 2012.00008392334 35 38 29
-791.073679924011 -17.0300118625164 2016.00003242493 33 36 27
-787.181258201599 -17.064455896616 2019.99998092651 32 35 28
-782.107174396515 -17.0735847204924 2020.99990844727 31 34 27
-776.64440870285 -17.0742981135845 2020.99990844727 30 33 26
-771.182358264923 -17.0750357210636 2020.99990844727 28 31 24
-769.131064414978 -17.1518474817276 2029.99997138977 25 28 21
-765.903234481812 -17.2033440321684 2036.00001335144 24 27 20
-760.029435157776 -17.1957220882177 2035.00008583069 18 21 14
-754.903078079224 -17.205024138093 2036.00001335144 17 20 13
-753.084659576416 -17.2904096543789 2046.0000038147 16 19 12
-750.847280025482 -17.3673816025257 2055.0000667572 14 17 10
-744.934976100922 -17.3598639667034 2053.99990081787 14 17 10
-744.068145751953 -17.4707006663084 2066.99991226196 14 17 10
-738.129734992981 -17.4632407724857 2065.99998474121 12 15 8
-730.424046516418 -17.4135323613882 2059.99994277954 6 9 2
-725.214242935181 -17.4230188131332 2061.00010871887 7 10 3
-720.697522163391 -17.4494311213493 2063.99989128113 10 13 6
-713.739514350891 -17.4166895449162 2059.99994277954 16 19 12
-704.740583896637 -17.3332281410694 2049.99995231628 12 13 7
-698.524415493011 -17.3174254596233 2048.00009727478 19 20 14
-693.672478199005 -17.3354651778936 2049.99995231628 18 19 13
-690.15246629715 -17.3873510211706 2055.99999427795 21 22 16
-685.934126377106 -17.4223463982344 2059.99994277954 27 28 22
-684.336364269257 -17.5250303000212 2072.00002670288 30 31 25
-684.311509132385 -17.6700353622437 2088.99998664856 16 17 11
-683.220028877258 -17.7896991372108 2102.9999256134 13 14 8
-679.153263568878 -17.8332589566708 2108.00004005432 13 14 8
-675.698161125183 -17.8937613964081 2115.00000953674 15 16 10
-669.987678527832 -17.8950596600771 2115.00000953674 17 18 12
-665.533006191254 -17.9302170872688 2118.99995803833 21 22 16
-661.679267883301 -17.9823208600283 2125 20 21 15
-658.410012722015 -18.0513672530651 2132.99989700317 21 22 16
-653.261423110962 -18.0696584284306 2134.99999046326 22 23 17
-649.31458234787 -18.1218199431896 2141.00003242493 19 20 14
-646.537184715271 -18.207861110568 2151.00002288818 19 20 14
-642.811596393585 -18.2685274630785 2157.99999237061 17 20 11
-637.867033481598 -18.2953532785177 2161.00001335144 22 25 16
-632.905542850494 -18.3221884071827 2164.00003433228 23 26 17
-629.665970802307 -18.3998439460993 2173.00009727478 21 24 15
-626.377046108246 -18.4775199741125 2181.99992179871 20 23 14
-618.48908662796 -18.4197146445513 2174.99995231628 21 24 15
-615.144789218903 -18.497422337532 2184.00001525879 19 20 12
-611.472189426422 -18.5666773468256 2191.99991226196 18 19 11
-610.241830348969 -18.7121909111738 2209.00011062622 19 20 12
-607.551038265228 -18.8153702765703 2220.99995613098 30 31 23
-605.877757072449 -18.952464684844 2236.99998855591 32 33 25
-578.255414962769 -19.8907349258661 2345.99995613098 176 178 175
-570.438265800476 -19.8415108025074 2339.99991416931 139 141 138
-563.858032226563 -19.8346786201 2338.99998664856 164 166 163
-557.043731212616 -19.8193658143282 2336.99989318848 147 149 146
-550.946056842804 -19.8294892907143 2338.00005912781 148 150 147
-544.143080711365 -19.8141690343618 2335.99996566772 136 138 135
-538.500964641571 -19.8412537574768 2338.99998664856 132 134 131
-532.841444015503 -19.8683440685272 2342.00000762939 141 143 140
-528.28848361969 -19.9378505349159 2349.99990463257 156 158 155
-524.357259273529 -20.0328249484301 2361.00006103516 159 161 158
-520.365118980408 -20.1278049498796 2371.99997901917 159 161 158
-518.478751182556 -20.3076563775539 2392.99988746643 160 162 159
-1070.97017765045 -23.1102667748928 2068.00007820129 142 132 120
-1063.70675563812 -23.0747740715742 2065.00005722046 149 132 114
-1058.51447582245 -23.0840649455786 2065.99998474121 141 123 103
-1051.28300189972 -23.0487491935492 2062.99996376038 123 102 81
-1045.59302330017 -23.0470336973667 2062.99996376038 120 99 78
-1038.89989852905 -23.0230633169413 2061.00010871887 123 102 81
-1033.72585773468 -23.032683879137 2062.00003623962 127 105 84
-1029.04903888702 -23.0535510927439 2063.99989128113 129 104 84
-1025.35736560822 -23.0968352407217 2068.00007820129 130 103 82
-1021.6475725174 -23.1401883065701 2072.00002670288 125 97 76
-1017.42959022522 -23.1724455952644 2075.00004768372 132 101 81
-1014.17422294617 -23.2271086424589 2079.99992370605 142 111 91
-1011.38019561768 -23.2930090278387 2085.99996566772 135 102 83
-1009.52100753784 -23.381307721138 2094.00010108948 132 97 78
-891.976892948151 -22.8494480252266 2046.99993133545 14 21 14
-882.520854473114 -22.7491091936827 2038.00010681152 23 28 21
-871.824562549591 -22.6153321564198 2026.00002288818 34 37 28
-862.905740737915 -22.5262548774481 2017.99988746643 52 52 44
-852.332830429077 -22.3925784230232 2006.00004196167 38 38 30
-845.204174518585 -22.348253056407 2002.00009346008 28 28 20
-839.357078075409 -22.3374608904123 2000.99992752075 28 29 21
-836.434423923492 -22.4048607051373 2006.99996948242 28 31 24
-835.551083087921 -22.5281286984682 2017.99988746643 25 28 21
-832.552969455719 -22.5956309586763 2023.9999294281 22 25 18
-825.845837593079 -22.5627012550831 2020.99990844727 27 30 21
-815.909206867218 -22.4405042827129 2009.99999046326 28 31 22
-810.065507888794 -22.4299915134907 2009.0000629425 28 31 22
-805.430054664612 -22.4530138075352 2010.99991798401 30 33 24
-800.3870844841 -22.4649142473936 2012.00008392334 31 34 25
-795.339703559875 -22.4768593907356 2013.00001144409 31 34 25
-789.503335952759 -22.4665123969316 2012.00008392334 31 34 25
-787.180542945862 -22.5567035377026 2019.99998092651 31 34 27
-781.719386577606 -22.5576031953096 2019.99998092651 30 33 26
-777.796387672424 -22.6032119244337 2023.9999294281 29 32 25
-770.03675699234 -22.5371830165386 2017.99988746643 27 30 23
-769.508957862854 -22.6833857595921 2030.99989891052 23 26 19
-766.654789447784 -22.7626282721758 2038.00010681152 22 25 18
-762.642800807953 -22.8083990514278 2042.00005531311 16 19 12
-758.239150047302 -22.8430386632681 2045.00007629395 15 18 11
-756.396234035492 -22.9559112340212 2055.0000667572 13 16 9
-753.769218921661 -23.0464860796928 2062.99996376038 12 15 8
-748.197913169861 -23.0477266013622 2062.99996376038 12 15 8
-737.947523593903 -22.9037590324879 2049.99995231628 11 14 7
-733.484029769897 -22.9385737329721 2052.99997329712 11 14 7
-729.359090328217 -22.9845941066742 2056.99992179871 11 14 7
-726.620554924011 -23.0753533542156 2065.00005722046 11 14 7
-724.886357784271 -23.1996718794107 2075.99997520447 10 13 6
-716.163575649261 -23.1005158275366 2066.99991226196 9 12 5
-706.801950931549 -22.979024797678 2055.99999427795 14 15 9
-700.228452682495 -22.9469612240791 2052.99997329712 21 22 16
-694.68629360199 -22.9484513401985 2052.99997329712 17 18 12
-690.822422504425 -23.0058580636978 2058.00008773804 18 19 13
-685.2667927742 -23.0074021965265 2058.00008773804 23 24 18
-682.022929191589 -23.0872258543968 2065.00005722046 26 27 21
-679.396331310272 -23.1894478201866 2073.99988174438 22 23 17
-680.619537830353 -23.4258901327848 2095.00002861023 18 19 13
-676.574349403381 -23.4834607690573 2099.99990463257 16 17 11
-673.14088344574 -23.5634278506041 2107.00011253357 18 19 13
-667.135179042816 -23.5539507120848 2105.99994659424 20 21 15
-667.415976524353 -23.7681940197945 2125 20 21 15
-664.791464805603 -23.8818116486073 2134.99999046326 21 22 16
-663.347244262695 -24.0402109920979 2148.9999294281 22 23 17
-656.931579113007 -24.0196511149406 2147.0000743866 19 20 14
-645.976901054382 -23.8312780857086 2130.00011444092 18 19 13
-642.026960849762 -23.9002425223589 2135.99991798401 22 23 17
-638.043999671936 -23.9692330360413 2141.99995994568 20 23 14
-636.389493942261 -24.1277739405632 2155.99989891052 22 25 16
-631.734013557434 -24.1744369268417 2160.00008583069 22 25 16
-630.24377822876 -24.3442375212908 2174.99995231628 20 23 14
-623.791813850403 -24.3237838149071 2173.00009727478 21 24 15
-613.653242588043 -24.1578090935946 2157.99999237061 22 25 16
-605.284988880157 -24.0589920431376 2148.9999294281 21 22 14
-611.470401287079 -24.5423745363951 2191.99991226196 21 22 14
-611.62132024765 -24.7907061129808 2213.99998664856 20 21 13
-608.369827270508 -24.9047037214041 2223.99997711182 29 30 22
-607.771873474121 -25.1307189464569 2243.99995803833 33 34 26
-608.941972255707 -25.4351813346148 2270.99990844727 34 35 27
-578.253448009491 -26.2925680726767 2345.99995613098 172 174 171
-570.436418056488 -26.2275021523237 2339.99991416931 133 135 132
-563.373982906342 -26.196051388979 2336.99989318848 153 155 152
-556.803464889526 -26.1870175600052 2335.99996566772 168 170 167
-550.237238407135 -26.1779762804508 2335.00003814697 169 171 168
-543.675303459167 -26.168929412961 2334.00011062622 158 160 157
-538.268864154816 -26.2159463018179 2338.00005912781 151 153 150
-533.522069454193 -26.2966062873602 2345.00002861023 149 151 148
-528.736174106598 -26.3772737234831 2351.99999809265 147 149 146
-525.243699550629 -26.525242254138 2365.00000953674 170 172 169
-522.33761548996 -26.7068799585104 2381.00004196167 160 162 159
-522.376835346222 -27.0455852150917 2411.00001335144 163 165 162
-1074.0795135498 -28.8207549601793 2073.99988174438 122 109 93
-1063.70902061462 -28.6932419985533 2065.00005722046 146 128 106
-1058.00426006317 -28.6908987909555 2065.00005722046 147 125 102
-1050.77540874481 -28.6469832062721 2062.00003623962 141 117 91
-1046.10180854797 -28.6726355552673 2063.99989128113 136 112 86
-1039.90960121155 -28.6567099392414 2062.99996376038 134 108 83
-1034.22880172729 -28.6547839641571 2062.99996376038 136 108 84
-1029.05058860779 -28.6668390035629 2063.99989128113 137 107 83
-1024.86300468445 -28.7067666649818 2066.99991226196 138 108 84
-1021.15595340729 -28.7606790661812 2071.00009918213 140 108 85
-1016.94059371948 -28.8007855415344 2073.99988174438 143 108 86
-1014.17541503906 -28.8826450705528 2079.99992370605 137 102 80
-1010.41173934937 -28.9368219673634 2084.00011062622 129 93 71
-1009.52219963074 -29.074389487505 2094.00010108948 130 93 74
-1008.10205936432 -29.1981473565102 2102.9999256134 114 94 83
-885.876357555389 -28.2186679542065 2032.99999237061 12 19 12
-883.819699287415 -28.3298548310995 2040.99988937378 21 26 19
-873.115360736847 -28.1635094434023 2029.00004386902 28 31 22
-859.912395477295 -27.9139373451471 2010.99991798401 41 41 33
-850.208044052124 -27.7754683047533 2000.99992752075 31 31 23
-842.670619487762 -27.7064647525549 1996.00005149841 26 26 16
-837.259232997894 -27.7069229632616 1996.00005149841 27 28 22
-839.351236820221 -27.9573071748018 2013.99993896484 26 29 22
-839.276909828186 -28.1383544206619 2026.99995040894 25 28 21
-837.077081203461 -28.2500572502613 2035.00008583069 24 27 20
-825.43671131134 -28.0425269156694 2019.99998092651 24 27 20
-815.09667634964 -27.8766863048077 2007.99989700317 22 25 18
-808.048725128174 -27.8219636529684 2003.99994850159 23 26 19
-806.630730628967 -27.9616545885801 2013.99993896484 23 26 19
-801.579594612122 -27.9764551669359 2015.00010490417 24 27 20
-798.104584217072 -28.0468463897705 2019.99998092651 26 29 22
-793.426394462585 -28.075635433197 2022.0000743866 27 30 23
-787.958979606628 -28.076708316803 2022.0000743866 24 27 20
-783.653378486633 -28.1194858253002 2025.00009536743 24 27 20
-780.10106086731 -28.1900856643915 2029.99997138977 23 26 19
-774.996221065521 -28.2051898539066 2030.99989891052 22 25 18
-769.507884979248 -28.2064583152533 2030.99989891052 19 22 15
-765.148758888245 -28.2494314014912 2033.99991989136 18 21 14
-759.280204772949 -28.2368995249271 2032.99999237061 20 23 16
-759.720861911774 -28.4605342894793 2049.00002479553 20 23 16
-757.499217987061 -28.5870004445314 2058.00008773804 20 23 16
-755.96010684967 -28.741305693984 2069.00000572205 21 24 17
-749.647259712219 -28.715068474412 2066.99991226196 21 24 17
-739.385962486267 -28.5360421985388 2053.99990081787 19 22 15
-728.123486042023 -28.3153597265482 2038.00010681152 18 21 14
-726.87566280365 -28.4837279468775 2049.99995231628 17 20 13
-726.970851421356 -28.7077371031046 2065.99998474121 17 20 13
-723.48815202713 -28.7928450852633 2072.00002670288 17 20 13
-715.122520923615 -28.6834388971329 2063.99989128113 19 22 15
-705.425202846527 -28.5184625536203 2052.00004577637 19 20 14
-701.591074466705 -28.5897776484489 2056.99992179871 21 22 16
-696.376502513886 -28.6055319011211 2058.00008773804 19 20 14
-691.492021083832 -28.6352168768644 2059.99994277954 20 21 15
-684.599041938782 -28.5815298557281 2055.99999427795 20 21 15
-679.709374904633 -28.6112818866968 2058.00008773804 18 19 13
-676.774024963379 -28.7244785577059 2065.99998474121 22 23 15
-678.993344306946 -29.0601886808872 2089.99991416931 21 22 14
-676.572442054749 -29.2013008147478 2099.99990463257 14 15 7
-671.861052513123 -29.2451065033674 2102.9999256134 16 17 9
-669.667422771454 -29.4002089649439 2114.00008201599 17 18 10
-667.414009571075 -29.5553561300039 2125 22 23 15
-667.591869831085 -29.8218224197626 2144.00005340576 23 24 16
-665.505945682526 -29.9909710884094 2155.99989891052 22 23 15
-656.623423099518 -29.8541188240051 2145.99990844727 17 18 10
-643.851935863495 -29.5364037156105 2122.99990653992 19 20 12
-640.822470188141 -29.6638924628496 2131.99996948242 21 22 14
-639.829158782959 -29.8888217657804 2148.00000190735 21 24 17
-639.634311199188 -30.1555525511503 2167.00005531311 20 23 16
-634.364128112793 -30.1857497543097 2168.99991035461 17 20 13
-628.503024578094 -30.1881320774555 2168.99991035461 17 20 13
-619.770765304565 -30.0513375550509 2158.99991989136 19 22 15
-612.798035144806 -29.9980565905571 2154.99997138977 20 23 16
-613.169193267822 -30.3067360073328 2177.00004577637 23 24 18
-612.305045127869 -30.5597838014364 2194.9999332428 23 24 18
-614.10528421402 -30.9521201997995 2223.00004959106 21 22 16
-609.188318252563 -31.0103390365839 2226.99999809265 23 24 18
-607.49876499176 -31.235683709383 2243.00003051758 27 28 22
-601.431787014008 -31.2382411211729 2243.00003051758 28 29 23
-579.237043857574 -32.7500812709332 2349.99990463257 154 156 153
-570.433974266052 -32.6134227216244 2339.99991416931 48 50 47
-563.371539115906 -32.5743108987808 2336.99989318848 48 50 47
-556.324303150177 -32.5351990759373 2334.00011062622 66 68 65
-549.76350069046 -32.5239486992359 2332.99994468689 98 100 97
-542.97411441803 -32.4987582862377 2331.00008964539 138 140 137
-537.575781345367 -32.5572155416012 2335.00003814697 166 168 165
-532.83703327179 -32.6575078070164 2342.00000762939 170 172 169
-528.059363365173 -32.7578112483025 2348.99997711182 163 165 162
-523.686647415161 -32.886017113924 2358.00004005432 171 173 170
-520.360827445984 -33.0839790403843 2371.99997901917 177 179 176
-521.507740020752 -33.5748828947544 2407.00006484985 171 173 170
-1088.15228939056 -34.7332023084164 2089.99991416931 179 170 155
-1077.18968391418 -34.5639362931252 2079.99992370605 139 123 107
-1066.28704071045 -34.3948230147362 2069.9999332428 149 123 100
-1058.00676345825 -34.3089401721954 2065.00005722046 156 126 102
-1049.2490530014 -34.2065840959549 2059.00001525879 144 113 85
-1043.57004165649 -34.2040322721004 2059.00001525879 141 110 81
-1038.39957714081 -34.218218177557 2059.99994277954 145 111 83
-1034.73222255707 -34.282349050045 2063.99989128113 147 113 85
-1030.04968166351 -34.3133695423603 2065.99998474121 146 110 84
-1025.36070346832 -34.3445092439651 2068.00007820129 145 109 83
-1021.15774154663 -34.3923605978489 2071.00009918213 144 108 84
-1017.43268966675 -34.4569273293018 2075.00004768372 143 107 83
-1014.66464996338 -34.5548093318939 2081.00008964539 140 104 80
-1009.44340229034 -34.5697775483131 2082.00001716614 126 88 65
-1007.11286067963 -34.6844680607319 2088.99998664856 127 89 68
-1005.22708892822 -34.8158627748489 2096.99988365173 107 85 74
-887.183487415314 -33.7939523160458 2036.00001335144 13 20 13
-879.922211170197 -33.7277315557003 2032.00006484985 21 26 19
-871.824085712433 -33.6283966898918 2026.00002288818 22 25 16
-865.898489952087 -33.6121283471584 2025.00009536743 29 29 19
-854.881525039673 -33.3967506885529 2012.00008392334 26 26 16
-852.802455425262 -33.53001922369 2019.99998092651 29 29 19
-845.648109912872 -33.464178442955 2016.00003242493 27 28 22
-838.933944702148 -33.4150046110153 2013.00001144409 26 29 22
-838.034152984619 -33.5982963442802 2023.9999294281 27 30 23
-829.260885715485 -33.4662608802319 2016.00003242493 28 31 24
-813.994228839874 -33.0686792731285 1991.99998378754 28 31 24
-812.254369258881 -33.21897611022 2000.99992752075 26 29 22
-806.838095188141 -33.2199335098267 2000.99992752075 26 29 22
-803.826212882996 -33.3205685019493 2006.99996948242 25 28 21
-800.782918930054 -33.4212705492973 2013.00001144409 24 27 20
-797.708332538605 -33.5220471024513 2019.00005340576 25 28 21
-790.286004543304 -33.4402434527874 2013.99993896484 26 29 22
-788.34742307663 -33.5909575223923 2023.00000190735 24 26 21
-781.71718120575 -33.5424765944481 2019.99998092651 24 26 21
-780.099809169769 -33.709928393364 2029.99997138977 24 26 21
-777.665972709656 -33.8442362844944 2038.00010681152 23 25 20
-771.779716014862 -33.829141408205 2036.99994087219 21 23 18
-761.761724948883 -33.6314141750336 2025.00009536743 21 23 18
-760.399162769318 -33.8157191872597 2036.00001335144 20 22 17
-759.719371795654 -34.0333171188831 2049.00002479553 21 23 18
-756.393313407898 -34.134715795517 2055.0000667572 21 23 18
-751.939296722412 -34.1863371431828 2058.00008773804 22 24 19
-748.194873332977 -34.2712327837944 2062.99996376038 22 24 19
-743.703842163086 -34.3229584395885 2065.99998474121 22 25 18
-732.0516705513 -34.0424552559853 2049.00002479553 20 23 16
-729.00116443634 -34.1607257723808 2055.99999427795 15 18 11
-726.968944072723 -34.3289040029049 2065.99998474121 16 19 12
-719.296097755432 -34.2312678694725 2059.99994277954 18 21 14
-710.269927978516 -34.0671949088573 2049.99995231628 23 26 19
-704.048216342926 -34.0360887348652 2048.00009727478 16 17 11
-700.906872749329 -34.1545976698399 2055.0000667572 22 23 17
-696.712791919708 -34.2232957482338 2059.00001525879 20 21 15
-690.147280693054 -34.1756865382195 2055.99999427795 19 20 14
-684.92990732193 -34.1945923864841 2056.99992179871 19 20 14
-679.04657125473 -34.1802909970284 2055.99999427795 21 22 14
-675.78911781311 -34.2990271747112 2062.99996376038 26 27 19
-676.067233085632 -34.600704908371 2081.00008964539 28 29 21
-676.570177078247 -34.9190831184387 2099.99990463257 19 20 12
-673.775553703308 -35.0712426006794 2108.99996757507 20 21 13
-669.348299503326 -35.1403057575226 2112.99991607666 21 22 14
-665.841162204742 -35.2592952549458 2119.99988555908 24 25 17
-662.91880607605 -35.4116037487984 2128.99994850159 24 25 17
-660.873413085938 -35.6138572096825 2141.00003242493 21 22 14
-658.456802368164 -35.7995256781578 2151.99995040894 17 18 10
-647.488713264465 -35.5194285511971 2134.99999046326 20 21 13
-645.328640937805 -35.721804946661 2147.0000743866 19 20 12
-645.783960819244 -36.0739901661873 2167.99998283386 20 23 16
-642.878532409668 -36.243200302124 2177.99997329712 19 22 15
-634.946465492249 -36.1295528709888 2171.0000038147 17 20 13
-626.761913299561 -35.9992608428001 2163.00010681152 17 20 13
-620.055198669434 -35.9521768987179 2160.00008583069 19 22 15
-614.78590965271 -35.9883382916451 2161.99994087219 19 22 15
-615.983128547668 -36.4074036478996 2187.00003623962 23 24 18
-615.928769111633 -36.7599613964558 2207.99994468689 24 25 19
-614.655017852783 -37.0459854602814 2224.99990463257 21 22 16
-611.647367477417 -37.2321605682373 2236.00006103516 23 24 18
-602.079153060913 -37.0187126100063 2223.00004959106 25 26 20
-599.015831947327 -37.2049398720264 2233.99996757507 26 27 21
-578.248083591461 -39.0960015356541 2345.99995613098 147 149 146
-569.943487644196 -38.9659181237221 2338.00005912781 60 62 59
-562.886476516724 -38.9191471040249 2335.00003814697 93 95 92
-556.559681892395 -38.9223694801331 2335.00003814697 102 104 101
-549.996256828308 -38.9089249074459 2334.00011062622 76 78 75
-543.902814388275 -38.9288067817688 2335.00003814697 141 143 140
-538.263499736786 -38.9820449054241 2338.00005912781 132 134 131
-533.516645431519 -39.1019731760025 2345.00002861023 107 109 106
-528.955578804016 -39.2385981976986 2352.9999256134 123 125 122
-524.794042110443 -39.4085831940174 2362.99991607666 135 137 134
-521.893441677094 -39.6786704659462 2378.99994850159 145 147 144
-521.071374416351 -40.1155836880207 2404.99997138977 150 152 149
-1090.75903892517 -40.51748290658 2095.00002861023 160 153 137
-1079.26452159882 -40.3011441230774 2084.00011062622 134 118 102
-1064.74494934082 -39.9689711630344 2066.99991226196 155 123 100
-1056.98502063751 -39.8883558809757 2062.99996376038 156 118 95
-1049.76141452789 -39.8272350430489 2059.99994277954 138 107 79
-1044.5864200592 -39.84360024333 2061.00010871887 140 110 82
-1038.40219974518 -39.8214347660542 2059.99994277954 146 112 85
-1034.2333316803 -39.8767329752445 2062.99996376038 148 112 86
-1029.5535326004 -39.9128310382366 2065.00005722046 149 113 89
-1023.87547492981 -39.9104133248329 2065.00005722046 145 111 86
-1019.18745040894 -39.9467721581459 2066.99991226196 128 96 73
-1015.96355438232 -40.0412380695343 2072.00002670288 134 104 80
-1013.20374011993 -40.1551499962807 2078.00006866455 138 108 84
-1008.4753036499 -40.1918813586235 2079.99992370605 122 87 65
-1005.66828250885 -40.3060354292393 2085.99996566772 119 82 63
-1004.26983833313 -40.4782593250275 2095.00002861023 115 91 81
-899.291634559631 -39.6172255277634 2051.00011825562 2 7 1
-878.032565116882 -38.9219485223293 2015.00010490417 20 23 16
-869.529187679291 -38.7869328260422 2007.99989700317 22 25 18
-867.52063035965 -38.941752165556 2016.00003242493 21 24 15
-862.904727458954 -38.9807634055614 2017.99988746643 19 20 12
-854.456067085266 -38.8460159301758 2010.99991798401 23 24 16
-850.691020488739 -38.9238372445107 2015.00010490417 26 28 17
-849.003195762634 -39.0983298420906 2023.9999294281 28 31 24
-847.268342971802 -39.2729192972183 2032.99999237061 30 33 26
-832.236766815186 -38.8294160366058 2009.99999046326 28 31 24
-822.267234325409 -38.6177934706211 1998.99995326996 27 30 23
-812.767326831818 -38.4255610406399 1988.9999628067 29 32 25
-810.223817825317 -38.5618284344673 1996.00005149841 27 30 23
-805.224239826202 -38.5822542011738 1996.99997901917 27 30 23
