ply
format ascii 1.0
comment KinectMotionCapture
element vertex 754
property float x
property float y
property float z
property uchar red
property uchar green
property uchar blue
end_header
-12.2776954814876 750.331783666843 2618.61721387175 188 189 193
-0.291973008810675 751.305556317507 2618.80916531436 206 207 211
11.7260347204726 752.274823602157 2618.97347867232 200 201 205
20.4265686411449 752.382541158694 2616.72507417503 194 195 199
26.6246447936225 751.846100264695 2612.67971580889 203 204 208
33.6679023687738 751.522928344486 2609.22400272071 208 209 213
45.7796975344036 752.479303391871 2609.30679516561 197 198 202
56.2327457493663 753.00510678347 2608.18355158647 196 197 201
65.0145498365173 753.101819677703 2605.86477862516 203 204 208
72.1132288724724 752.771363724131 2602.36107696551 219 220 225
84.3293853869316 753.713684270961 2602.35350675167 217 218 223
103.407105674576 756.347724930636 2606.97484370642 227 228 232
125.972453551282 759.819839279336 2613.86125673128 224 225 229
148.618879163628 763.280795222169 2620.6774690751 225 226 228
169.626986623188 766.308248673619 2626.26995801334 226 228 227
176.057270261225 765.74107502218 2622.0235362219 221 223 220
-243.368776890514 756.44189056654 2742.11775714288 187 189 186
-243.479533298861 754.162251012615 2732.96506869382 221 223 222
-242.855776004287 752.108186919358 2724.49754995414 213 214 216
-243.022827479521 749.835649617788 2715.39360844028 214 215 219
-242.451308249225 747.788141414214 2706.97132382626 215 216 220
-241.134857749478 745.964768032505 2699.22550449048 214 213 219
-238.295773947784 744.585506043609 2692.80360803279 209 208 213
-233.92169722272 743.648511300117 2687.69493387517 193 192 197
-231.103996377022 742.271552321298 2681.29187138332 246 245 250
-226.743344755603 741.335766695085 2676.19482541048 222 222 224
-222.387239074283 740.400375929604 2671.10203252146 217 216 221
-215.689372854993 740.123299182032 2667.94538383848 207 206 211
-208.199969450003 740.063796828875 2665.42421689694 192 191 196
-200.698825475418 740.002376235234 2662.89320192482 195 194 199
-195.550644301688 739.283910704669 2658.43574392688 176 175 180
-188.032235773902 739.219626092013 2655.88978370484 196 195 200
-182.08669991537 738.717876125717 2652.06340180369 189 188 193
-174.549009540268 738.650455822 2649.50074963086 178 177 182
-167.796219089689 738.363924018566 2646.29624189855 179 178 183
-160.237243243666 738.293217965112 2643.71516213472 186 185 190
-154.267761489786 737.787083134844 2639.86773836653 196 195 200
-150.702124479682 736.63107734345 2634.13824180668 186 185 190
-143.122441009957 736.556923815131 2631.53923634078 194 195 199
-136.337851635282 736.265091537617 2628.30720168516 200 201 205
-127.11956687676 736.618795266982 2626.93202631478 203 204 208
-120.3136964031 736.323617942335 2623.68156824172 208 209 213
-111.874506992717 736.457450657706 2621.65982671138 214 215 219
-103.419783115166 736.588869695255 2619.62432102781 213 214 218
-95.7660403182747 736.503544761995 2616.961198072 213 214 218
-86.4630087526299 736.844855135235 2615.51233439411 211 212 216
-77.9609806820227 736.969424556246 2613.43587285178 209 210 214
-66.9742284303547 737.732538086559 2613.1720874096 205 206 210
-55.1347072813733 738.704919957981 2613.49076580688 204 205 209
-39.1280310598416 740.737898173108 2616.8076838116 203 204 208
-21.4107629359592 743.18897867503 2621.28609827185 192 193 197
-9.45052120397971 744.144444175221 2621.5002534191 186 187 191
2.54175997422568 745.095415216257 2621.68666795088 204 205 209
12.8960224444015 745.618173308513 2620.64906526118 200 201 205
21.5997865171449 745.714436799996 2618.39793529761 195 196 200
26.9625564964464 744.963299441887 2613.75469718283 201 202 206
34.0074291476329 744.63440048915 2610.29762136151 206 207 211
47.8062674834496 745.99037037252 2611.5624407233 197 198 202
56.5734598769518 746.078031990024 2609.25639089457 195 196 200
64.5091958234656 745.95347300356 2606.34910857751 201 202 206
70.7580311184888 745.407643390541 2602.26013178999 211 212 217
82.9704357241168 746.328550873759 2602.25595224758 206 207 212
102.896378486955 749.128957098047 2607.46428711317 221 222 226
123.74676109184 752.128904250257 2613.19366009382 220 221 223
150.672843956518 756.580068451126 2622.91074296572 217 218 220
173.402501639059 759.974959672007 2629.6552431836 210 212 211
184.150648174942 760.444313484878 2628.27659307721 220 222 219
-246.897694566165 748.682763197993 2739.93331727522 208 210 207
-244.730471679685 747.081525323343 2732.77192435968 215 217 216
-244.107313997005 745.043890905601 2724.30481886047 215 216 218
-245.040522640286 742.571576441649 2714.5426514794 215 216 220
-244.471508991893 740.540776790248 2706.12274578429 214 215 219
-243.927723887942 738.51317284974 2697.72437035434 217 216 222
-239.550698383788 737.578715412126 2692.61312394209 211 210 215
-235.951742906435 736.426965953466 2686.85472148791 216 215 220
-229.258601424757 736.145951947603 2683.70187790554 192 191 196
-223.335523109925 735.646328080078 2679.89494698757 231 231 233
-218.968931743731 734.712197872499 2674.79274209727 208 208 210
-215.38870809652 733.56183322045 2669.05056622001 196 196 198
-209.465466097206 733.061326706088 2665.24318363754 179 179 181
-200.394567624619 733.424279316915 2663.99569332594 171 171 173
-192.880075934815 733.352617216084 2661.45317577447 173 173 175
-184.563813114075 733.494598380212 2659.53761082292 168 168 170
-178.60826540382 732.988603369675 2655.70226328516 164 164 166
-171.85495948427 732.696814247114 2652.49765835777 166 166 168
-166.686509121145 731.974481196921 2648.02265738643 173 173 175
-159.922299212316 731.680722331476 2644.80829883073 178 178 180
-153.150396992628 731.385710183013 2641.58759670686 186 186 188
-147.173280058994 730.875672575307 2637.73358054403 169 169 171
-140.388228787978 730.578470421029 2634.50149585603 185 186 188
-134.402149919961 730.066866579046 2630.63972221177 191 192 194
-127.603967640059 729.767536734928 2627.39627019386 194 195 197
-121.608832808207 729.254413881753 2623.52665726346 199 200 202
-113.172549665887 729.377656622418 2621.50718781057 209 210 212
-104.720343763662 729.498597559226 2619.47424795792 211 212 214
-94.6194566643204 730.040664014358 2618.65581417807 210 211 213
-87.7690472171433 729.733402366124 2615.3671463953 207 208 210
-79.2697829322431 729.847504593254 2613.29314815305 204 205 207
-69.9318897264765 730.170128929354 2611.81450523741 200 201 203
-56.4503508368288 731.543019068629 2613.35422979071 199 200 202
-39.6215349741835 733.751504763189 2617.28069339627 200 201 203
-21.9070243666155 736.162114254899 2621.76176014818 192 193 195
-11.6101792482945 736.67641336554 2620.77366244274 184 185 187
-0.456365875113995 737.396824685501 2620.36504032014 202 203 205
9.89056151677481 737.904221678959 2619.33389474675 200 201 203
20.2615083791273 738.408264161689 2618.28195237226 195 196 198
26.4611416630753 737.865924380129 2614.23528260924 199 200 202
33.5055628954897 737.531516806672 2610.7786337448 203 204 206
46.4593984122157 738.652417293734 2611.45410980661 196 197 199
54.3786124505541 738.521759159744 2608.56118714386 195 196 198
64.003793719122 738.804474058055 2606.83348443905 199 200 202
71.10152946071 738.463066197595 2603.33067133517 206 207 211
84.1656754352842 739.568931350085 2603.91063478745 200 201 205
102.385692865558 741.909524919782 2607.95369879796 217 218 222
122.377046406136 744.654530734198 2613.10569878736 216 217 219
149.296337695566 749.038481300166 2622.82941922051 211 212 214
173.738792056453 752.791112057107 2630.73389608745 202 204 203
187.933399097602 754.065816328669 2631.65621508978 217 219 216
188.352906388697 752.052014646611 2623.36546626837 136 138 133
-254.873716258476 741.883618029634 2742.9203824716 198 200 197
-251.184488782066 740.727175079111 2737.08345293216 212 214 211
-247.503801377159 739.571604998862 2731.25423523628 213 215 214
-246.885389966497 737.550958693621 2722.79113341824 210 211 213
-247.057385107565 735.317294540547 2713.69122485829 216 217 221
-247.258558843511 733.087320368253 2704.61658252416 209 210 214
-245.180701601175 731.50791663531 2697.53218902598 210 209 215
-240.805058412812 730.57654208929 2692.42243625213 201 200 205
-235.660547781579 729.860487233725 2687.96814402408 208 207 212
-229.741095410756 729.358934033894 2684.16405283139 185 184 189
-223.040327620611 729.071166105857 2681.00495853177 181 181 183
-217.111863560011 728.567800426429 2677.19306832854 227 227 229
-213.524903169323 727.421918282409 2671.44502442679 197 197 199
-208.379264673698 726.70427426752 2666.98976493592 170 170 172
-200.876821869532 726.626389719833 2664.45773090834 174 174 176
-190.211249069338 727.398899088424 2664.4719468433 158 158 160
-181.887425749437 727.528902899282 2662.54990654892 158 158 160
-175.131698390906 727.231577580936 2659.34323874801 150 150 152
-169.162427533668 726.720740144872 2655.49602824452 166 166 168
-163.985706264676 725.997293239287 2651.01386579959 167 167 169
-158.011561633912 725.485320355403 2647.16243837913 174 174 176
-152.834064050824 724.761349699224 2642.67960646878 183 183 185
-146.854813506662 724.248352074033 2638.82407572284 158 158 160
-140.0681688262 723.945403608304 2635.590331693 179 180 182
-133.273733433491 723.641308380037 2632.35015811671 182 183 185
-126.471962864409 723.335963570999 2629.10331946387 191 192 194
-120.472614256714 722.819540675161 2625.23039119969 198 199 201
-112.845304143756 722.721725977374 2622.59025933515 205 206 208
-106.020773126672 722.412836895036 2619.32371635088 202 203 205
-98.3720791414049 722.311842967992 2616.66507091707 201 202 204
-90.7117608372849 722.209163804019 2613.99636118864 198 199 201
-79.7578416992555 722.938649103534 2613.76093578515 195 196 198
-68.7758236737759 723.66423051107 2613.50118136322 193 194 196
-54.4674264414407 725.217404607356 2615.64664621025 195 196 198
-38.4616186589919 727.179654435361 2618.96477524405 197 198 200
-24.0607110552151 728.719808847785 2621.02982688193 186 187 189
-13.7689379106867 729.218464280722 2620.04654212275 180 181 183
-2.62050457250851 729.920556335524 2619.64270177917 200 201 203
10.2255402974056 731.031719252342 2620.41166696876 198 199 201
19.7603405929554 731.313011731893 2618.76230991928 194 195 197
25.9597235671705 730.767891009854 2614.71587512927 198 199 201
33.8445421386639 730.633720446009 2611.8527870146 198 199 201
45.1127273149043 731.319266136612 2611.34526066939 194 195 197
53.0292310744951 731.180708708262 2608.45473829028 195 196 198
62.6515587724228 731.450235937062 2606.72990984698 201 202 204
71.44463106619 731.512493930444 2604.40159359458 194 195 199
84.5090018412673 732.593775478312 2604.98152150655 191 192 196
101.02198803319 734.485686693641 2607.8605165785 206 207 209
120.152898415047 736.981473333087 2612.43664765619 210 211 213
151.348860924769 742.315132035264 2625.06408916052 195 196 198
177.511318952823 746.413610272144 2634.12205766822 185 187 186
192.575103986785 747.862577621828 2635.61316050495 205 207 204
193.871301639139 746.06570653185 2627.88472330448 188 190 185
-256.878092738471 734.59110186022 2742.05806604267 211 213 210
-253.951269371608 733.2262539947 2735.56002914621 212 214 211
-251.037132736373 731.862837436438 2729.07329453401 211 213 212
-249.662364762909 730.073268931125 2721.27639477827 212 213 215
-246.778149466507 728.713260866267 2714.81525646598 216 217 221
-245.441140616249 726.92832054656 2707.05136942165 215 216 220
-244.894569348553 724.932979352749 2698.65037006003 210 209 215
-242.05918894805 723.578709550715 2692.23152152328 208 207 212
-238.463296675753 722.438189818792 2686.47538577728 197 196 201
-231.774376662208 722.146927124139 2683.32658301768 206 205 210
-225.855429903159 721.642507593396 2679.52294863079 203 203 205
-218.374020888095 721.560269357269 2677.00917355629 219 219 221
-214.007005082532 720.631314283534 2671.90688276698 222 222 224
-206.510398009074 720.546430440199 2669.37995213258 178 178 180
-198.216617883578 720.670239678087 2667.48399149566 159 159 161
-186.756428409289 721.633042027437 2668.13151236587 161 161 163
-177.633127103946 721.960970627401 2666.83882959197 147 147 149
-170.865544922303 721.656457191347 2663.6216178561 141 141 143
-166.471548174738 720.722251626744 2658.49597573785 165 165 167
-161.286515543056 719.997625531213 2654.00661717731 161 161 163
-156.102056386657 719.27289700795 2649.51775633214 174 174 176
-150.918287149372 718.54802185245 2645.02949441484 173 173 175
-143.329175867928 718.448224994596 2642.42248369506 156 156 158
-136.532372608869 718.138481012907 2639.18029440796 171 172 174
-128.922047471576 718.035348163654 2636.5549184941 175 176 178
-122.916327440135 717.515350144029 2632.67617554199 185 186 188
-116.096835348146 717.202011647377 2629.41434432039 189 190 192
-108.457938764252 717.094290207378 2626.76391872811 198 199 201
-102.435434927932 716.571694767152 2622.87096099322 197 198 200
-95.5934773990133 716.254769643818 2619.58936589851 197 198 200
-88.7437023715334 715.936754036764 2616.30131767601 193 194 196
-77.78490185484 716.646478264864 2616.0617894584 191 192 194
-64.3310427238441 717.968779321329 2617.62583287198 192 193 195
-50.0126684475886 719.490524739041 2619.76253840219 194 195 197
-34.8234190168513 721.211119747432 2622.46671296742 193 194 196
-22.8996597888531 722.106244671204 2622.71319533351 187 188 190
-12.6050716330512 722.588089994476 2621.72726411996 182 183 185
-1.45391306853337 723.270651463983 2621.32118828343 197 198 200
10.5599213596728 724.153226621221 2621.48968055859 196 197 199
20.0957377760758 724.420668324922 2619.83953255401 196 197 199
27.135719070992 724.075779742792 2616.38679986018 198 199 201
35.8646034366008 724.135722852036 2614.11413259282 197 198 200
45.4521739064271 724.396216955949 2612.41948802333 193 194 196
53.3700468042557 724.249210851988 2609.52783371052 193 194 196
62.9931404407209 724.5048389144 2607.80211595486 199 200 202
72.6364374287871 724.75788813006 2606.05921945201 192 193 197
86.5538565876363 726.015724727218 2607.22189645828 181 182 186
103.923179259967 728.072908781815 2610.68086382199 201 202 204
129.898449436307 732.131739165602 2619.90133168823 207 208 210
158.542239096048 736.779149589291 2630.77549742807 194 195 197
180.42312986435 739.808365303587 2636.93444764054 177 179 178
191.187703636262 740.226040857929 2635.54189433462 202 204 201
192.482549506778 738.442766316915 2627.81454066608 188 190 185
-264.837264466761 727.816935689867 2745.03036490504 183 185 180
-259.638556487372 727.096336759422 2740.52912733296 214 216 213
-255.958029019308 725.952106704561 2734.69997477644 211 213 210
-253.047260026191 724.59732588048 2728.21578754809 212 214 213
-251.675372938977 722.82179939562 2720.42129376738 214 215 217
-248.794231021409 721.470491715826 2713.96307839713 214 215 219
-246.693291931635 719.910017626795 2706.85855636754 215 216 220
-245.378170806355 718.141379576376 2699.11353456208 204 203 209
-242.541895691806 716.795253573546 2692.69385777249 203 202 207
-238.945426258333 715.66010575608 2686.93718697001 201 200 205
-232.256653160827 715.363473091378 2683.78854634536 195 194 199
-227.114894016879 714.647249807218 2679.33664002166 201 201 203
-218.856613633168 714.76607840299 2677.47148056165 163 163 165
-213.70790929425 714.048261051039 2673.01356491742 185 185 187
-203.859442644138 714.579668462224 2672.41429759779 198 198 200
-196.343417930676 714.483665779584 2669.8706090472 190 190 192
-183.303412376673 715.83936358062 2671.79313782001 151 151 153
-174.170868125579 716.152311288995 2670.49222541651 138 138 140
-166.601571512897 716.048116334266 2667.90241728215 118 118 120
-162.988560395108 714.908008256073 2662.13175686275 162 162 164
-158.588936956284 713.9754780727 2657.00091151959 148 148 150
-151.800731943563 713.662101136102 2653.76619818329 177 177 179
-146.604522725909 712.935550669647 2649.26716494391 146 146 148
-139.805342856627 712.620276529329 2646.02295159887 147 147 149
-134.606299573941 711.89286530568 2641.52146755119 154 155 157
-126.184517126435 711.985842116452 2639.51476249569 158 159 161
-119.362835735338 711.666856717503 2636.25075480909 162 163 165
-112.533480075825 711.34668035151 2632.98041878854 170 171 173
-104.884639692881 711.229557328682 2630.32175098353 171 172 174
-98.8522136623535 710.70272891853 2626.41990524318 175 176 178
-92.8161392077675 710.175371480221 2622.51521622351 186 187 189
-86.7767597931 709.647367102633 2618.60735135548 183 184 186
-77.4535210191956 709.93116029349 2617.14134607663 176 177 179
-63.1771780353181 711.42906444301 2619.3149516436 187 188 190
-49.680859866692 712.71809983773 2620.84240984541 190 191 193
-33.6657039384169 714.608185509511 2624.15290413073 183 184 186
-22.5678298635552 715.279118623847 2623.7930872287 183 184 186
-10.6116269463787 716.147873885157 2624.01130484643 186 187 189
-0.288004823335797 716.609362659763 2623.00065627365 192 193 195
10.8937985399402 717.268513800623 2622.56817118804 191 192 194
18.7580936343972 717.120638467227 2619.72296031587 197 198 200
26.6339458045697 716.971086952636 2616.86774337247 198 199 201
40.4050446194026 718.221620068198 2618.15728880706 194 195 197
51.6887667188932 718.866746227977 2617.63655797157 190 191 193
58.7777919159018 718.509743301642 2614.14139566619 191 192 194
65.8742282762925 718.151600333595 2610.63950171377 194 195 197
73.8272351110707 717.9917181699 2607.71747899212 184 185 187
88.5975145330429 719.420827478354 2609.46341788614 158 159 161
107.675702068814 721.836460230982 2614.08576514883 187 188 190
137.930073618965 726.820237920476 2626.20800823564 194 196 195
166.588878510867 731.391906342791 2637.0696505441 183 185 184
182.474671772198 732.983281816645 2639.17062736733 166 168 167
192.383215434562 733.18641683915 2637.1981554829 183 185 182
194.545752438738 731.613118113649 2630.0406429436 198 200 195
-261.554114087119 722.012537164906 2748.83928849274 187 189 184
-259.371346102236 720.453581461596 2741.66414809213 213 215 212
-257.964299437499 718.687632778337 2733.83911817739 209 211 208
-255.056786762396 717.341494893047 2727.35769731045 212 214 213
-252.162135014228 715.996849463535 2720.88741380002 215 216 218
-250.04511492815 714.445430633336 2713.76921062745 211 212 216
-247.178211071837 713.103923192635 2707.32295687803 211 212 216
-245.861846587062 711.348771744263 2699.57677001469 211 210 216
-243.024775159855 710.010683020155 2693.15635095052 203 202 207
-239.42763016382 708.881013637627 2687.3990591133 202 201 206
-231.964029778094 708.785663198053 2684.90080438537 183 182 187
-226.043015283493 708.275515560614 2681.09541493602 183 183 185
-217.780999263355 708.383023872301 2679.22740653422 182 182 184
-213.409308089398 707.458806718296 2674.12071722039 164 164 166
-203.559744339116 707.97377734264 2673.52060551539 175 175 177
-192.1157261605 708.895661657986 2674.18272329155 192 192 194
-178.27794970167 710.427633493785 2676.73591395757 169 169 171
-168.342402174571 710.929826829535 2676.0613598197 128 128 130
-163.131289058955 710.202167525195 2671.54941602155 118 118 120
-161.094402465421 708.657827450886 2664.50062155682 158 158 160
-157.483695594991 707.523277475482 2658.73160678194 147 147 149
-152.286733587021 706.796805288132 2654.2319205649 173 173 175
-144.691760241243 706.680109597027 2651.61993848811 138 138 140
-137.88666173515 706.358528857149 2648.37063611472 142 142 144
-131.074228052684 706.035698536502 2645.11466866478 151 152 154
-123.448514185263 705.914084452661 2642.47607454424 152 153 155
-115.811139914103 705.79066049994 2639.82738566064 155 156 158
-109.781717344696 705.261781237396 2635.92815641757 166 167 169
-102.936925681149 704.933896781274 2632.6444914061 159 160 162
-96.8985592198033 704.403513600428 2628.73751991583 166 167 169
-90.0406278034995 704.073620049259 2625.44247922733 182 183 185
-80.7217168295264 704.344461796667 2623.98030893391 177 178 180
-72.202875420468 704.412150751387 2621.88964325363 169 170 172
-58.7362563294813 705.67819929913 2623.44330718173 184 185 187
-47.7016952702805 706.339034273562 2623.13843138234 187 188 190
-30.8568080434801 708.392765647722 2627.05196817076 180 181 183
-18.9240685728866 709.242942086512 2627.29064279226 179 180 182
-9.44936744967206 709.491747584803 2625.69390188497 187 188 190
0.877136179992188 709.93643949151 2624.68086465095 190 191 193
7.89065806640643 709.584192757861 2621.2507974457 187 188 190
17.420700846182 709.825245880774 2619.60614017102 195 196 198
26.1321649036779 709.865676556564 2617.34869815193 198 199 201
41.5820155315787 711.484402926469 2619.82766040369 192 193 195
52.8684224005871 712.110063835506 2619.30472871726 189 190 192
59.9608702422518 711.746948479507 2615.80632397858 190 191 193
66.2147660996291 711.186244330215 2611.71305740714 192 193 195
75.8659374862498 711.410663252942 2609.96320589218 177 178 180
90.6401189076318 712.809184215043 2611.7059609963 155 156 158
111.42611668837 715.572306554204 2617.49235773617 182 183 185
145.103411904629 721.258688003138 2631.93695147023 184 186 185
170.348725466446 724.973832547392 2640.46906519297 172 174 173
184.525160109229 726.141452315256 2641.40782877641 165 167 166
193.577825697807 726.135453775868 2638.85495598845 171 173 170
195.745000551658 724.572250088877 2631.69335824203 199 201 198
-262.045003108938 715.146043036243 2749.30925470574 196 198 193
-259.8611928736 713.597846254739 2742.13314123111 209 211 208
-258.452876063053 711.845440452346 2734.30692267714 210 212 209
-257.826096008858 709.889482031936 2725.83614827584 210 212 211
-254.936552976082 708.55387097551 2719.37054964255 210 211 213
-253.589362885022 706.808739022055 2711.59726467881 209 210 214
-249.196396972548 705.886649515912 2706.47243751003 207 208 212
-246.345637147497 704.555221190963 2700.04011105987 206 205 211
-242.737017784836 703.429815496796 2694.27284634785 209 208 213
-239.909966891478 702.101041113961 2687.86105208338 202 201 206
-233.221496369918 701.793549914369 2684.71274407576 194 193 198
-226.525623428848 701.484800078273 2681.55771276822 186 186 188
-218.264183329141 701.581426780612 2679.69027405046 181 181 181
-211.549131314079 701.269375435578 2676.51864094397 179 179 179
-201.694368632263 701.767356873252 2675.91413322849 142 142 142
-187.890571584009 703.274440771144 2678.49693634549 126 126 126
-174.829329062801 704.572804338259 2680.40174531558 131 131 131
-166.462900307593 704.653413391588 2678.44309743824 120 120 120
-162.036807282563 703.723127467694 2673.28929541041 138 138 138
-159.201530439512 702.390512716681 2666.8707118182 140 140 140
-156.379360333776 701.059401328305 2660.46316305166 143 143 143
-150.38088487639 700.533252491982 2656.59073908973 150 150 150
-142.780238831598 700.407528558233 2653.97389878404 138 138 138
-136.770792889586 699.879423220794 2650.09197898694 134 134 134
-129.954355838888 699.550746088011 2646.83289507418 145 147 146
-121.519573015196 699.620173551976 2644.8150747257 137 139 138
-113.876517301151 699.487839951405 2642.16151926608 163 165 164
-108.650571282273 698.756266720073 2637.63674461985 159 161 160
-104.236776798988 697.825922557198 2632.49391807046 157 159 158
-98.2004855106493 697.293183851482 2628.58876047109 174 176 175
-88.8981498861381 697.552903209961 2627.1410287022 180 182 181
-77.9405390836296 698.205656250862 2626.90290082736 153 155 154
-70.2338964840688 698.06380112958 2624.19429402815 153 155 154
-57.5849096827943 699.104606328471 2625.13451244876 181 183 182
-45.7235886166223 699.943163397551 2625.43547877513 174 176 175
-29.7011466653938 701.761362622312 2628.74012382843 171 173 172
-18.5935907468484 702.392904262924 2628.37217058221 178 180 179
-9.94794267801113 702.431658511147 2626.1717845095 189 191 190
1.20939175915646 703.056137086402 2625.76073220076 176 178 177
7.39058111101176 702.502507357557 2621.73012161579 179 181 180
16.0836621847538 702.534656383439 2619.48898196762 203 205 204
25.6303446553656 702.759732483924 2617.82969049345 195 197 196
41.9179378136834 704.540846012988 2620.90475978105 187 189 188
54.0470737739036 705.341876580655 2620.97352897207 186 188 187
60.2991907718371 704.778537456811 2616.88182127675 189 191 190
67.4008341215897 704.408734086216 2613.37548979918 189 191 190
77.0552038199126 704.619150323293 2611.6232724431 161 162 164
94.3820122095764 706.567617366455 2615.1197929527 157 158 160
118.584120269225 710.053304836808 2623.23431639721 174 176 175
153.981945361037 716.03372124805 2638.83228143472 168 170 169
177.532470307397 719.298594591581 2646.18972539335 149 151 150
188.291411194423 719.667502871043 2644.80237032439 159 161 160
193.050968483501 718.689314502204 2639.35985324172 164 166 163
194.356211356351 716.945122833246 2631.62323485955 189 191 188
-268.498539980517 708.795782461247 2753.62065605661 182 185 178
-264.044480598193 707.870234102137 2748.44258388214 197 199 194
-260.351136382249 706.74110601072 2742.60222472845 209 211 208
-258.941602998522 705.002130531555 2734.77486469794 212 214 213
-259.073654460075 702.859204408386 2725.63974753049 209 211 210
-256.185470519176 701.5318388193 2719.17495792731 208 209 211
-252.545631579143 700.408658754639 2713.38093517611 211 212 216
-248.914716631414 699.286298983682 2707.59432634144 208 209 213
-244.523965436201 698.367022956071 2702.47140051631 198 197 202
-240.138134803315 697.447908301855 2697.35242296086 215 214 219
-236.529333187519 696.32777024329 2691.58528166192 209 208 213
-231.380119908622 695.611022188885 2687.12691797205 189 188 193
-224.678332702676 695.295906455832 2683.96680180973 194 194 196
-217.190130167634 695.180235134867 2681.44735519449 166 166 166
-208.909325934881 695.263175098382 2679.56322157699 172 172 172
-196.699064909452 696.344177819612 2680.88312340355 148 148 148
-180.528094946457 698.419220887712 2685.38094592072 145 145 145
-169.022202407936 699.288674070336 2685.9894592073 116 116 116
-163.00684996686 698.758395913793 2682.10243411507 113 113 113
-159.360911476552 697.630441926147 2676.30315559954 147 147 147
-156.516925297251 696.304776598215 2669.87666276726 132 132 132
-153.685818087328 694.980666042036 2663.46132252572 141 141 141
-149.273353263517 694.054393547573 2658.31962205547 140 140 140
-140.869972167481 694.117929166637 2656.32905689238 139 139 139
-133.251961861685 693.981482697579 2653.69723583983 133 133 133
-124.819212447763 694.040524265347 2651.68124522155 141 143 142
-118.786642435376 693.506130807306 2647.77932370864 131 133 132
-113.557899545754 692.77442046185 2643.25212580251 169 171 170
-109.139053703684 691.846270561097 2638.10490684002 155 157 156
-103.913623215525 691.114766757065 2633.5805785729 161 163 162
-95.4350883049853 691.166624257895 2631.5249505719 181 183 182
-86.1252508079957 691.41176136369 2630.07112666669 180 182 181
-75.1607550032167 692.0446032745 2629.82716033752 143 145 144
-68.2662214938912 691.698379894731 2626.5001856042 148 150 149
-55.6127467881598 692.71408725652 2627.43667683132 181 183 182
-42.9232067918455 693.724638220266 2628.34194238832 170 172 171
-27.7208078986506 695.312529002534 2631.03526425563 166 168 167
-18.26377732761 695.536585785007 2629.45399942336 180 182 181
-8.78714217098775 695.757860419174 2627.85544510764 190 192 191
2.37313158994867 696.362981431621 2627.44228613167 170 172 171
7.72444400432404 695.613027764064 2622.80897102991 176 178 177
16.4185905270302 695.634111824278 2620.56666410724 202 204 203
24.2906821101712 695.460573309398 2617.71486203614 194 196 195
38.8937331808519 696.822591602965 2619.60586299179 185 187 186
50.1733205386312 697.411023414509 2619.08908326635 185 187 186
58.9488542263474 697.420847511362 2616.77630812718 189 191 190
67.7403686185327 697.428541659391 2614.45001125199 188 190 189
79.0917629028987 698.007183351275 2613.87105732243 157 157 159
96.4219235374841 699.916991565001 2617.36492283103 158 159 161
124.034359750379 704.104202090851 2627.81240539667 171 173 172
161.148094162724 710.368518407416 2644.56812772702 165 167 166
180.431572506368 712.624754758968 2649.01357496008 142 144 143
190.339215228644 712.786809426304 2647.04215015452 132 134 131
191.663827252254 711.053221931694 2639.28835960502 163 165 162
190.380811274983 708.755656178728 2629.82856595084 151 153 150
-271.997732390264 701.122938096356 2751.40957760367 204 207 200
-266.797281570647 700.402643430529 2746.90682747767 214 216 211
-262.353403501805 699.480883847956 2741.73787077504 215 215 215
-260.946518864455 697.756061095756 2733.91303031104 208 208 210
-260.320965375064 695.83320525312 2725.44310451202 206 206 208
-258.196116999358 694.313969000623 2718.31790773555 205 205 207
-253.031315384723 693.596798454295 2713.84603581253 206 206 208
-248.633553288088 692.679550369784 2708.71670473316 213 213 215
-244.240319089108 691.76263483003 2703.59161150339 191 191 193
-241.392588372761 690.44784359226 2697.16180268189 184 184 186
-237.012891349322 689.532152262676 2692.04843467584 199 199 201
-232.638034529267 688.616791142942 2686.93894419543 193 193 195
-225.161782478477 688.495003895601 2684.4298951258 179 179 181
-217.673923596577 688.371294221744 2681.91079845583 165 163 164
-207.832675376898 688.83887691208 2681.3182011951 153 152 150
-192.489172558036 690.684850895268 2685.21112721748 145 144 142
-175.523767644787 692.917633339744 2690.34262312464 130 128 129
-164.791533058871 693.566662904616 2690.29986104598 110 108 109
-158.763959788908 693.032044072852 2686.40227184977 128 126 127
-155.105388825644 691.907756409641 2680.59170504514 140 138 139
-152.248207557928 690.588540681531 2674.15404927472 139 137 138
-148.609315864764 689.466603824505 2668.36052396757 160 158 159
-143.385295329352 688.736547510546 2663.83740837741 134 132 135
-135.765109522374 688.59184320262 2661.20375525078 133 131 134
-129.735372954647 688.055555654328 2657.30430185996 136 134 137
-123.702152859596 687.518619315632 2653.40183337497 138 138 140
-117.665423198696 686.981112762853 2649.49664223095 150 150 152
-113.239664856592 686.054884284719 2644.3431039925 151 151 153
-108.818515325788 685.129119020449 2639.19387288767 143 143 145
-103.59093305724 684.397325432901 2634.66768147295 180 180 182
-94.2976709097128 684.631340149766 2633.22829609227 176 176 178
-84.1695893742096 685.055301814958 2632.3870572391 151 151 153
-74.01747981746 685.475750356155 2631.5253307142 137 137 139
-67.1189653542821 685.12368318283 2628.19525892586 153 153 155
-54.4631096957242 686.114576453876 2629.12984729151 170 170 172
-40.9478019944114 687.292121553203 2630.64156904265 159 159 161
-27.3924031581587 688.4638483156 2632.11858006906 159 160 162
-17.9344590464998 688.674165712404 2630.53629695702 186 187 189
-6.79746928969749 689.263416303647 2630.14310639225 195 196 198
3.53581353973365 689.658208356823 2629.12451673441 159 159 161
10.5585146254912 689.288338832277 2625.68692329612 188 188 190
16.7530193592427 688.727406373034 2621.64481911291 196 196 198
25.4642568641401 688.735289481598 2619.38778436414 191 191 193
38.3899040609497 689.688172705679 2620.08878101209 186 186 188
51.3517193216648 690.636065349595 2620.7584618381 186 186 188
60.1304875333879 690.63449467879 2618.44295705909 189 189 191
69.7710736656827 690.819459075236 2616.70285134369 190 190 192
81.1271251849215 691.378369881488 2616.11998867789 167 165 166
101.860250831067 694.001592039378 2621.95311815393 164 164 164
135.445518721404 699.430879174692 2636.47914125681 172 172 172
170.87269624442 705.216567503411 2652.0532428428 154 154 154
185.041298984363 706.30313806406 2652.99931981883 127 127 127
192.385617108344 705.889215056101 2649.28293928795 164 164 162
191.99706058032 703.79502588055 2640.36982846495 215 215 213
205.37365558935 704.686161216381 2640.68037256277 138 139 134
-271.736487098461 694.465595380535 2752.54986305048 215 217 212
-268.79511540519 693.148853109458 2746.03890487113 209 211 208
-264.354837927875 692.230452960229 2740.87304716139 212 212 212
-262.193147528056 690.717790971013 2733.71555996411 207 207 209
-259.288309608524 689.405070465878 2727.23624085851 209 209 211
-257.920279826388 687.698535541178 2719.44495878858 210 210 212
-252.753191945091 686.981057099864 2714.97110727123 200 200 202
-249.884981828751 685.672311137588 2708.52350904409 198 198 200
-244.725226711935 684.955161462859 2704.05601096688 200 200 202
-240.336287395532 684.041399426816 2698.93461983144 182 182 184
-233.635548476079 683.716363991242 2695.77547653662 183 183 185
-227.70125092898 683.194209166485 2691.95896750793 192 192 194
-220.987474475393 682.866699312427 2688.78854014795 181 181 183
-213.487752153926 682.733187565713 2686.25922452615 167 165 166
-203.635123006033 683.182888644372 2685.65687887914 158 157 155
-185.934304443145 685.576388400719 2691.47318476194 141 140 138
-169.737814834629 687.571677520044 2695.94908977976 123 121 122
-158.990379511817 688.199676062276 2695.89328895761 103 101 102
-153.734989253718 687.46617366059 2691.34300643196 125 123 124
-151.642632071366 685.958199955948 2684.24589795906 132 130 131
-148.774679344527 684.645655941717 2677.79854743213 151 149 150
-143.535556444276 683.91380531415 2673.26235370671 160 158 159
-137.500422872165 683.374575154769 2669.35824160639 135 133 136
-131.461748021253 682.834590851958 2665.45138055215 132 130 133
-126.220566260664 682.101804206669 2660.91340840389 135 133 136
-120.177227916421 681.560870236509 2657.00219597338 148 148 150
-116.545203343758 680.444349647855 2651.21458754885 159 159 161
-112.114941079627 679.520291580431 2646.05744704781 145 145 147
-106.071556797224 678.978752561992 2642.14619872178 147 147 149
-99.2135991129666 678.627416223808 2638.85127421569 185 185 187
-89.9091171823958 678.84624371159 2637.40194714653 166 166 168
-82.2150041187091 678.681822062299 2634.7043463781 136 136 138
-73.691976822515 678.705611905754 2632.61065261915 137 137 139
-65.1535003447332 678.727059443095 2630.50326816457 163 163 165
-52.4932059824126 679.692801616799 2631.43417232586 157 157 159
-38.9736114856825 680.842521198783 2632.94235886737 159 159 161
-27.0646092518376 681.608999531973 2633.202149771 164 165 167
-16.7780441193752 681.994033633982 2632.22411525213 197 198 200
-5.63841004987697 682.563884309036 2631.82875847844 194 195 197
5.5292288776192 683.129783869029 2631.40915449101 168 168 170
13.3910310563747 682.941342005083 2628.56636719062 198 198 200
20.4291632195299 682.564004598571 2625.11544747495 192 192 194
27.4746168885507 682.185539224661 2621.65787374339 187 187 189
40.4046131316069 683.113283425713 2622.35526381813 182 182 184
50.8460047881014 683.476688285528 2621.24317574374 186 184 187
59.624026508232 683.464378748796 2618.92838756394 190 188 191
70.9547448231831 684.007597527179 2618.36758378162 190 188 191
85.7043895346368 685.289470883161 2620.1323616136 153 151 152
111.544572719835 688.974478756206 2629.47233660989 163 161 162
152.813806652356 695.976737353718 2649.23849164023 156 154 155
178.885048219415 699.629550294218 2658.37840865563 127 127 127
189.648729152417 699.948533905213 2656.98726873154 121 121 121
197.862770590018 699.711697269238 2653.83949660375 168 168 166
200.069092032763 698.186018067936 2646.64341042918 153 154 149
-272.184522100253 689.701699215214 2762.23251838713 197 199 194
-269.972754127159 688.194352520838 2755.03190822668 214 216 211
-265.517230927441 687.276991091267 2749.85251425756 207 209 206
-262.577613234087 685.968390008674 2743.34302357788 211 211 213
-261.16617538294 684.27032204876 2735.51406330811 207 207 209
-259.775985060636 682.57479389801 2727.70318706444 204 204 206
-259.168428656599 680.686962024258 2719.24894854285 204 204 206
-255.530878957672 679.580596641751 2713.4564854868 205 205 207
-251.902137555007 678.475118054955 2707.67165115127 206 206 208
-247.514114031282 677.564593431024 2702.55103278774 216 216 218
-242.360939443333 676.848150307547 2698.08923371296 201 201 203
-235.664239545791 676.518411026843 2694.9339371775 180 180 182
-228.960150344544 676.187235217446 2691.7719298628 188 188 190
-220.69611121359 676.240513633036 2689.90251936921 174 174 176
-213.194848989636 676.09868767535 2687.37160742202 148 146 147
-201.000488944576 677.108972531468 2688.7060649662 150 149 147
-183.294376143618 679.458222057944 2694.51806888515 137 136 134
-165.523529506578 681.798154919174 2700.27402603376 112 110 111
-156.337725969024 682.022604697782 2698.92752536109 96 94 95
-151.073899160532 681.28808590545 2694.36993716021 123 121 122
-148.972471008091 679.789849768979 2687.26490345179 128 126 127
-145.303000587318 678.674955853229 2681.44514433669 162 160 161
-139.259062470507 678.132024753296 2677.53342500319 160 158 159
-133.211734855823 677.588397639876 2673.61877238023 137 135 138
-128.758069337809 676.664601332672 2668.44134574162 133 131 134
-125.1098857933 675.551713549516 2662.63970821469 137 135 138
-120.667718297034 674.629166267418 2657.47223923111 153 153 155
-115.425702277784 673.896027726568 2652.93354628117 164 164 166
-110.184358135204 673.162680237506 2648.39543702489 146 146 148
-102.517267317058 672.994352057222 2645.72128272238 158 158 160
-95.6496246325202 672.636179700821 2642.41769266315 181 181 183
-86.3355967490422 672.840209542691 2640.96050317544 157 157 159
-79.446597726299 672.478823975716 2637.63873914478 133 133 135
-72.5502547833115 672.116307422765 2634.31030169043 144 144 146
-63.1892900807127 672.313417350557 2632.81247521568 175 175 177
-50.5247044236219 673.254125854258 2633.7395066635 149 149 151
-37.0007118073681 674.37602712351 2635.24437697294 150 150 152
-25.9120672169928 674.9340601432 2634.8932911923 158 159 161
-17.2768915171253 674.930867132863 2632.70225371749 204 205 207
-5.30943636362791 675.667315639501 2632.9115759686 181 182 184
5.02778461577158 676.02893937249 2631.88978790617 178 178 180
12.8890370400385 675.83242702546 2629.04752939469 197 197 199
20.7619405694732 675.634285720319 2626.19518300725 189 189 191
30.3210114472927 675.803256925205 2624.52551761638 184 184 186
44.9362603300521 677.073765574054 2626.40685478746 180 180 182
54.5471270206082 677.235402041536 2624.69234363319 186 184 187
61.6477429694116 676.844020549047 2621.18735798057 190 188 191
72.137822379422 677.18433997213 2620.03322007436 189 187 190
89.4317086725867 678.984710604448 2623.55923501679 160 158 159
128.020522958485 685.342942450184 2641.68268128167 165 163 164
168.470589343521 692.043869471577 2660.83721452122 146 144 145
186.893615273221 693.988127186628 2664.70720754728 123 123 123
195.109330906496 693.742681020153 2661.55804012389 125 125 125
203.336934904535 693.495753601972 2658.39857822598 139 139 137
204.698580956654 691.797781503194 2650.61245816414 154 155 150
-273.42655398044 682.627559276364 2762.03161179292 213 215 210
-268.961788487758 681.712127140333 2756.8441946944 204 206 201
-265.254875974363 680.603688986355 2750.99194133829 212 214 211
-262.312346272849 679.302960030918 2744.47987570489 208 208 210
-263.927815882588 676.847099739436 2733.98568093149 206 206 208
-262.542314015155 675.165999006276 2726.17909036301 200 200 202
-261.178108877259 673.48738482204 2718.39062680977 198 198 200
-256.016656303674 672.770844954647 2713.92165353419 190 190 192
-251.621412153034 671.862461998906 2708.79476291572 188 188 190
-247.231075448915 670.95441830875 2703.67180804624 213 213 215
-242.075583436053 670.237782866501 2699.20800162222 211 211 213
-235.37699511799 669.902339627728 2696.0511052866 174 174 176
-228.67085259949 669.565579622507 2692.88766998661 180 180 182
-219.629605100073 669.798058722425 2691.66640919799 185 185 187
-212.902284255909 669.457787852194 2688.4846406324 155 153 154
-197.587397403289 671.202096156256 2692.40302793744 153 152 150
-179.09188104163 673.696108596794 2698.85315022036 138 137 135
-160.527614298104 676.180323343968 2705.24374756541 109 107 108
-152.114369204177 676.200490470992 2703.2449139497 100 98 99
-148.414363450719 675.087413046844 2697.39867699327 121 119 120
-147.094145601139 673.410590551349 2689.64832719373 132 130 131
-143.418197917777 672.300311663858 2683.82260858398 162 160 161
-137.367925957686 671.753974667093 2679.90573706398 147 145 146
-129.721734997069 671.581574192459 2677.2497238078 135 133 136
-125.257695866075 670.659053536049 2672.06298220685 137 135 138
-121.59857172119 669.550283976472 2666.25215089498 144 142 145
-117.948537767836 668.442536751415 2660.44887624125 157 157 159
-112.698206013961 667.708278318016 2655.90298300214 156 156 158
-108.255029936308 666.788050541778 2650.73462481436 157 157 159
-100.582324918415 666.610821769378 2648.05566215919 177 177 179
-92.8979999536041 666.431848462652 2645.36663938298 164 164 166
-81.1388585869368 667.176468692754 2645.75646172793 135 135 137
-75.8653979017208 666.438137272473 2641.19054820572 136 136 138
-69.7758513188487 665.884392890101 2637.23936844565 170 170 172
-61.2263389341559 665.88269760782 2635.12288425276 182 182 184
-49.3780807042419 666.61435815653 2635.43554978811 149 149 151
-35.8520151963715 667.708769747585 2636.93848606884 147 147 149
-25.5854329830174 668.064096560616 2635.97796396822 152 153 155
-14.468107315369 668.599103481342 2635.60216847666 184 185 187
-4.15183624090876 668.947379303328 2634.59862494467 145 146 148
5.3571678332216 669.109678577864 2632.97239748646 189 189 191
11.5538877771888 668.540445242702 2628.92874260367 183 183 185
21.0942632381097 668.698399912828 2627.27535259004 186 186 188
30.6546047910339 668.853628029797 2625.60499042777 181 181 183
47.7871096495512 670.638303286478 2629.27098216683 177 177 179
55.7228786294495 670.423311732083 2626.36425722384 186 184 187
62.8271761490953 670.025984795261 2622.85611914806 190 188 191
71.6294234773769 669.988554306597 2620.5204965473 185 183 186
91.4625285791542 672.291831797786 2625.81251855732 157 155 156
138.543374938151 680.343366377875 2649.79819799752 165 163 164
174.755187705883 686.031681236885 2666.01611986814 125 123 124
189.777666445866 687.215765416183 2667.54474080414 119 119 119
198.856351975002 687.14020828469 2664.96976633983 129 129 129
208.808449891727 687.241420370528 2662.96020488077 150 150 148
210.185066201888 685.55490659311 2655.16103530798 182 183 178
-272.421128670571 676.131288135998 2763.84879128027 215 217 214
-268.702688217922 675.027226228019 2757.98651788665 205 207 204
-264.99325211652 673.923815777288 2752.13172915362 216 218 217
-264.313636917998 672.059973354664 2743.61456371963 203 203 205
-265.931164935386 669.629003488621 2733.12199175155 202 202 204
-266.067361246304 667.582453433307 2723.98984255472 203 203 205
-262.425630955078 666.487075328967 2718.19400034406 202 202 204
-257.265913587252 665.770948802871 2713.72652835522 184 184 186
-251.34140473049 665.243412730892 2709.91822289407 173 173 175
-247.716043267945 664.149198779731 2704.13624507902 195 195 197
-241.790594831619 663.620929565147 2700.32744551412 212 212 214
-237.405188801859 662.715705798539 2695.20874596416 175 175 177
-229.929639486965 662.561974087841 2692.70051298192 164 164 166
-220.891014856494 662.78132427856 2691.48192611661 175 175 177
-211.054851329304 663.184854780504 2690.8941510014 175 173 174
-194.176605927431 665.267061405975 2696.10185141219 162 161 159
-174.110113320581 668.087188967188 2703.83507613826 137 136 134
-157.10223534981 670.150882024414 2708.93085482323 107 105 106
-151.037237438628 669.600683193442 2705.00092930404 107 105 106
-147.332749302316 668.492489451022 2699.15046014605 119 117 118
-146.007111022657 666.828732994306 2691.39564310951 139 137 138
-141.534480170392 665.908528675768 2686.20143974499 155 153 154
-134.684040207659 665.543652420777 2682.91311885737 141 139 140
-127.826180530761 665.177477510809 2679.61837545209 134 132 135
-123.355686678975 664.256842351294 2674.42602709456 140 138 141
-120.490311153037 662.968599881284 2667.98075284567 149 147 150
-116.835433310407 661.865791933103 2662.1735633252 157 157 159
-112.3853671471 660.947488598063 2656.99890526925 155 155 157
-107.133515587385 660.212965603944 2652.45169647415 167 167 169
-98.6486279667269 660.210092217964 2650.3912325213 182 182 184
-90.9586576439172 660.022333895336 2647.69737363752 153 153 155
-80.007242195554 660.562197433875 2647.46534702559 129 129 131
-73.1006315401768 660.187578487844 2644.12808859966 131 131 133
-66.1863646588268 659.811830890745 2640.784517074 179 179 181
-58.4460904334039 659.616459659131 2638.04710732151 173 173 175
-46.5911258958802 660.325478378933 2638.35410697863 144 144 146
-34.70401495996 661.029950546793 2638.63358917137 151 151 153
-22.7851103881935 661.729939162356 2638.88522821781 166 167 169
-10.8340637899667 662.425321928582 2639.10935397345 161 162 164
0.320048216297497 662.936091430208 2638.70183149903 141 142 144
6.51704724484592 662.364163321951 2634.65763667295 189 189 191
10.2188829156327 661.253152823971 2628.80948475482 181 181 183
19.7564091778495 661.397979121984 2627.15896482914 185 185 187
30.9875468437824 661.897896372249 2626.68475176969 180 180 182
48.1193289021706 663.64452147814 2630.35161655152 177 177 179
57.7387354457364 663.778021404069 2628.63020143802 187 185 188
64.8484816480241 663.374428960328 2625.11706588095 190 188 191
76.1915029571853 663.858881664878 2624.54629496979 184 182 185
97.7276117805506 666.46963333378 2631.00679174442 159 157 158
141.418771336623 673.677749479662 2652.64254094881 167 165 166
175.078220768719 678.737070696529 2667.10666563139 118 116 117
190.100481634304 679.891181245277 2668.63566963683 121 121 121
199.180549290067 679.80462078042 2666.05988404842 128 128 128
208.276155230232 679.716005440697 2663.47032867319 161 161 159
211.372407115167 678.39463437269 2656.82516025935 183 184 179
206.703662663865 675.495514137647 2645.01012274615 141 142 137
-276.642106600616 670.345683895226 2770.19159269014 113 114 109
-274.412172937218 668.869187511353 2762.97503776216 207 209 206
-270.697321464138 667.771066324591 2757.11552105728 206 208 207
-270.003369711896 665.92206130469 2748.58583347013 210 211 213
-269.334590938588 664.076116993958 2740.07794437518 203 203 205
-270.205142234008 661.858646177893 2730.26013373818 202 202 204
-267.313242669682 660.580755210473 2723.79180307383 196 196 198
-262.150578643063 659.864680999672 2719.3217767709 200 200 202
-256.988548222259 659.148302857407 2714.85230160639 203 203 205
-251.061896263309 658.617903065235 2711.04215719852 197 197 199
-245.899084601773 657.900760964211 2706.57200985505 173 173 175
-238.428717183359 657.740301222052 2704.06831180656 164 164 166
-233.261138893556 657.021798557936 2699.59404187152 222 222 224
-225.773627737708 656.85837129486 2697.07550395918 201 201 203
-217.499089408541 656.877785208786 2695.19689736308 176 176 178
-207.653676505113 657.263691215294 2694.60121968819 141 139 140
-186.089853372621 660.409521512906 2703.68138092196 162 161 159
-167.567714455157 662.807454461425 2710.10905107633 114 113 111
-153.679165765516 664.093463240559 2712.61982947165 104 102 103
-149.961172297957 662.989139901082 2706.75762967732 112 110 111
-146.251840272369 661.885885435538 2700.90324565259 127 125 126
-144.131205514916 660.417880338641 2693.78136899135 165 163 164
-139.65204395485 659.499671056056 2688.58149229975 144 142 143
-132.795748226506 659.128556554636 2685.28813643358 137 135 136
-126.728067049236 658.574223535348 2681.35591202086 140 138 141
-122.252894887027 657.65597484608 2676.15980885198 149 147 150
-119.382733288961 656.375232347857 2669.71033774234 158 156 159
-114.921192886446 655.458460151237 2664.52604014187 164 164 166
-111.268749405514 654.361287714709 2658.72060853908 161 161 163
-106.818837139087 653.445841952061 2653.54638086679 182 182 184
-98.3327003824965 653.431938749183 2651.48459020358 180 180 182
-89.0205968660731 653.595744696399 2650.0293292858 137 137 139
-78.8767372578074 653.936196197342 2649.17495615777 124 124 126
-72.780439636654 653.376414628472 2645.21827966412 134 134 136
-64.2317607264928 653.353250372857 2643.1023414802 181 181 183
-54.8491883623981 653.506585798323 2641.58575501557 153 153 155
-43.8056675263256 654.014185352902 2641.27442193769 139 139 141
