ply
format ascii 1.0
comment KinectMotionCapture
element vertex 759
property float x
property float y
property float z
property uchar red
property uchar green
property uchar blue
end_header
-85.6876224279404 612.129032611847 2782.99999237061 134 133 129
-78.3154368400574 613.675236701965 2789.99996185303 129 128 124
-71.0570439696312 616.540729999542 2802.99997329712 117 116 112
-63.6824667453766 618.965625762939 2813.99989128113 109 108 104
-56.028850376606 618.970394134521 2813.99989128113 152 151 147
-47.9968786239624 614.135563373566 2792.00005531311 192 191 187
-40.1133671402931 609.739780426025 2772.0000743866 140 139 135
-32.2445295751095 603.583693504334 2743.99995803833 156 155 151
-24.6091969311237 599.406599998474 2724.99990463257 162 161 157
-17.0897729694843 595.668911933899 2707.99994468689 148 147 143
-9.6915066242218 593.69021654129 2698.99988174438 179 178 174
-2.3456544149667 592.590987682343 2694.00000572205 151 150 146
4.97300317510962 591.490924358368 2688.99989128113 146 145 140
12.269014492631 590.610384941101 2684.99994277954 150 149 144
19.4994937628508 588.40948343277 2674.99995231628 166 165 160
26.7455745488405 587.747693061829 2671.99993133545 150 149 144
33.9625328779221 586.865365505219 2667.99998283386 157 156 151
41.1576293408871 585.98256111145 2664.00003433228 167 168 163
48.2763275504112 584.439218044281 2657.00006484985 172 173 168
55.4194822907448 583.555221557617 2653.00011634827 155 156 151
62.6115277409554 583.330452442169 2651.99995040894 154 155 150
69.8769465088844 583.765149116516 2654.00004386902 152 153 148
77.0949423313141 583.759248256683 2654.00004386902 153 154 149
84.3444466590881 583.972632884979 2654.99997138977 152 153 148
91.4612263441086 583.305776119232 2651.99995040894 152 153 148
98.486989736557 582.198441028595 2647.0000743866 156 157 152
105.605058372021 581.750392913818 2644.99998092651 157 158 153
112.839870154858 581.961691379547 2645.99990844727 157 158 153
120.03443390131 581.952393054962 2645.99990844727 155 156 151
127.132475376129 581.502795219421 2644.00005340576 157 158 153
134.270071983337 581.272482872009 2642.99988746643 154 155 150
141.401842236519 581.041634082794 2641.99995994568 154 155 150
148.696467280388 581.47007226944 2644.00005340576 157 158 153
156.178444623947 582.557678222656 2648.9999294281 156 157 152
163.74883055687 583.864629268646 2654.99997138977 150 151 146
171.286955475807 584.951102733612 2660.00008583069 154 155 150
178.784683346748 585.817039012909 2664.00003433228 143 144 139
186.233818531036 586.462557315826 2667.00005531311 152 153 148
193.771257996559 587.327361106873 2671.0000038147 170 171 166
201.179385185242 587.751984596252 2673.00009727478 142 143 138
208.831742405891 588.835477828979 2677.99997329712 141 142 137
216.349333524704 589.478850364685 2680.99999427795 137 138 133
224.216252565384 591.001093387604 2687.99996376038 163 164 159
232.292875647545 592.962443828583 2697.00002670288 153 154 149
240.240082144737 594.483554363251 2703.9999961853 131 132 127
248.499318957329 596.663534641266 2713.99998664856 140 141 136
256.906479597092 599.06280040741 2724.99990463257 150 151 146
265.857696533203 602.560520172119 2740.9999370575 132 133 128
274.595975875854 605.398178100586 2753.99994850159 121 122 117
282.687157392502 606.696367263794 2759.99999046326 109 110 105
290.074229240417 606.455445289612 2759.0000629425 119 120 115
297.023683786392 605.334758758545 2753.99994850159 121 120 115
303.502976894379 603.334546089172 2744.99988555908 124 123 118
310.04598736763 601.553916931152 2736.99998855591 134 133 128
316.428780555725 599.553167819977 2727.9999256134 138 137 132
323.355466127396 598.650932312012 2723.99997711182 141 140 135
329.774051904678 596.869468688965 2716.00008010864 144 143 138
336.644858121872 595.966637134552 2711.99989318848 151 150 145
344.127476215363 596.16231918335 2713.00005912781 162 161 156
352.132797241211 597.236454486847 2717.99993515015 165 164 159
359.767705202103 597.650945186615 2720.00002861023 155 154 149
366.872668266296 597.186207771301 2717.99993515015 160 161 156
374.516755342484 597.599983215332 2720.00002861023 160 162 159
383.15361738205 599.551320075989 2729.00009155273 182 184 181
-154.632791876793 607.780814170837 2798.00009727478 209 211 208
-146.500363945961 605.620443820953 2788.00010681152 204 206 203
-138.521507382393 603.8938164711 2779.99997138977 172 174 171
-130.774199962616 603.035569190979 2776.00002288818 154 154 152
-123.181447386742 602.828443050385 2775.00009536743 151 150 146
-115.760438144207 603.489577770233 2778.00011634827 149 148 144
-108.244858682156 603.715717792511 2779.00004386902 140 139 135
-100.723534822464 603.941261768341 2779.99997138977 146 145 141
-93.2299718260765 604.383528232574 2782.00006484985 147 146 142
-85.7560560107231 605.042338371277 2785.00008583069 135 134 130
-78.4339904785156 607.004165649414 2793.99991035461 128 127 123
-71.1387991905212 609.617173671722 2805.99999427795 117 116 112
-63.7781172990799 612.229704856873 2818.00007820129 107 106 102
-56.0930892825127 612.017214298248 2816.99991226196 216 215 211
-48.0007268488407 606.589913368225 2792.00005531311 233 232 228
-40.1310659945011 602.465569972992 2773.00000190735 135 134 130
-32.2353765368462 595.950603485107 2743.00003051758 157 156 152
-24.5750527828932 591.173052787781 2720.99995613098 156 155 151
-17.0722156763077 587.698519229889 2704.99992370605 152 151 147
-9.69946943223476 586.83055639267 2700.99997520447 170 169 165
-2.34932638704777 586.179196834564 2697.99995422363 151 150 146
4.98080253601074 585.092842578888 2693.00007820129 147 146 141
12.2700026258826 583.353996276855 2684.99994277954 151 150 145
19.5302218198776 582.049131393433 2678.99990081787 161 160 155
26.7777591943741 581.178188323975 2674.99995231628 151 150 145
33.9907296001911 580.089449882507 2670.00007629395 161 160 155
41.1454886198044 578.565657138824 2663.00010681152 172 173 168
48.2983812689781 577.475726604462 2657.99999237061 175 176 171
55.4865971207619 577.037036418915 2655.99989891052 154 155 150
62.6873895525932 576.815068721771 2654.99997138977 154 155 150
69.8562115430832 576.375246047974 2653.00011634827 153 154 149
77.0139545202255 575.934886932373 2651.00002288818 154 155 150
84.2876583337784 576.362907886505 2653.00011634827 152 153 148
91.4685279130936 576.13867521286 2651.99995040894 153 154 149
98.4948426485062 575.044870376587 2647.0000743866 157 158 153
105.613455176353 574.602246284485 2644.99998092651 158 159 154
112.848818302155 574.810802936554 2645.99990844727 157 158 153
120.043940842152 574.801564216614 2645.99990844727 157 158 153
127.046346664429 573.92293214798 2641.99995994568 158 159 154
134.128257632256 573.478221893311 2640.00010490417 155 156 151
141.412973403931 573.90171289444 2641.99995994568 154 155 150
148.820638656616 574.759185314178 2645.99990844727 160 161 156
156.249657273293 575.616121292114 2650.00009536743 160 161 156
163.699939846992 576.472461223602 2654.00004386902 151 152 147
171.300321817398 577.762722969055 2660.00008583069 153 154 149
179.067060351372 579.486668109894 2667.99998283386 154 155 150
186.527594923973 580.124139785767 2671.0000038147 138 139 134
194.003880023956 580.760955810547 2674.00002479553 157 158 153
201.270118355751 580.745697021484 2674.00002479553 155 156 151
209.003761410713 582.033038139343 2680.0000667572 146 147 142
216.527312994003 582.668304443359 2683.00008773804 131 132 127
224.233344197273 583.737313747406 2687.99996376038 168 169 164
232.138231396675 585.240066051483 2694.9999332428 151 152 147
240.169391036034 586.959481239319 2703.00006866455 147 148 143
248.701184988022 589.763939380646 2716.00008010864 135 136 131
257.302939891815 592.56786108017 2729.00009155273 135 136 131
266.265541315079 596.022307872772 2744.99988555908 136 137 132
275.114983320236 599.041998386383 2759.0000629425 114 115 110
283.117800951004 600.10689496994 2763.99993896484 168 169 164
290.305882692337 599.434435367584 2760.99991798401 108 109 104
297.2611784935 598.327279090881 2756.00004196167 123 122 117
304.078042507172 597.002804279327 2750 126 125 120
310.634940862656 595.243811607361 2742.00010299683 134 133 128
316.915661096573 593.050301074982 2732.00011253357 138 137 132
323.734879493713 591.941833496094 2726.99999809265 142 141 136
330.161899328232 590.181946754456 2719.00010108948 144 143 138
337.413638830185 589.941143989563 2717.99993515015 151 150 145
344.532310962677 589.48290348053 2716.00008010864 158 157 152
352.287113666534 590.109527111053 2719.00010108948 161 160 155
359.792798757553 590.301632881165 2720.00002861023 155 154 149
367.033153772354 590.059399604797 2719.00010108948 161 162 156
374.542534351349 590.250790119171 2720.00002861023 160 162 159
382.618188858032 591.30984544754 2724.99990463257 181 183 180
394.154906272888 597.576022148132 2753.99994850159 197 199 196
-154.258027672768 598.71643781662 2790.99988937378 208 210 207
-146.354228258133 597.441136837006 2785.00008583069 194 196 193
-138.532415032387 596.379637718201 2779.99997138977 170 172 169
-130.831643939018 595.746695995331 2776.99995040894 153 153 151
-123.324364423752 595.971286296844 2778.00011634827 150 149 145
-115.894623100758 596.624255180359 2780.99989891052 152 151 147
-108.448207378387 597.276747226715 2783.99991989136 138 137 133
-100.876465439796 597.285032272339 2783.99991989136 142 141 137
-93.4049636125565 597.936391830444 2786.99994087219 147 146 142
-85.9784632921219 599.01636838913 2792.00005531311 136 135 131
-78.6648467183113 601.1683344841 2802.00004577637 130 129 125
-71.321964263916 603.534340858459 2812.99996376038 120 119 115
-63.9642849564552 606.328964233398 2825.99997520447 99 100 95
-56.4361214637756 608.050227165222 2834.00011062622 222 223 218
-48.1593199074268 600.974023342133 2801.00011825562 215 214 210
-40.1777029037476 595.613658428192 2776.00002288818 124 123 119
-32.2497114539146 588.750660419464 2743.99995803833 157 156 152
-24.5770234614611 583.818018436432 2720.99995613098 150 149 145
-17.0925222337246 581.030428409576 2707.99994468689 161 160 156
-9.71102155745029 580.173254013062 2703.9999961853 152 151 147
-2.35038576647639 579.100906848907 2698.99988174438 148 147 143
4.97565371915698 577.16977596283 2690.00005722046 149 148 143
12.2572779655457 575.452566146851 2681.99992179871 155 154 149
19.5172112435102 574.378550052643 2677.00004577637 150 149 144
26.7799086868763 573.947548866272 2674.99995231628 155 154 149
33.9934527873993 572.872340679169 2670.00007629395 168 167 162
41.1487892270088 571.36744260788 2663.00010681152 177 178 173
48.3204163610935 570.505559444427 2658.99991989136 177 178 173
55.4701462388039 569.643259048462 2654.99997138977 152 153 148
62.6687854528427 569.423973560333 2654.00004386902 153 154 149
69.8617920279503 569.204151630402 2653.00011634827 154 155 150
77.1072506904602 569.412767887115 2654.00004386902 155 156 151
84.3261405825615 569.406390190125 2654.00004386902 154 155 150
91.5103033185005 569.184839725494 2653.00011634827 153 154 149
98.6143127083778 568.533658981323 2650.00009536743 155 156 151
105.661764740944 567.667365074158 2645.99990844727 157 158 153
112.815111875534 567.444264888763 2644.99998092651 159 160 155
119.917318224907 567.00599193573 2642.99988746643 160 161 156
127.008274197578 566.567242145538 2641.00003242493 161 162 157
134.189635515213 566.556990146637 2641.00003242493 155 156 151
141.47761464119 566.975176334381 2642.99988746643 154 155 150
148.776069283485 567.392826080322 2644.99998092651 163 164 159
156.084969639778 567.80993938446 2647.0000743866 166 167 162
163.527652621269 568.655550479889 2651.00002288818 163 164 159
171.120434999466 569.929599761963 2657.00006484985 159 160 155
179.013788700104 572.060942649841 2667.00005531311 151 152 146
186.681687831879 573.333859443665 2673.00009727478 144 145 139
194.236516952515 574.177086353302 2677.00004577637 145 146 141
201.436132192612 573.947429656982 2676.00011825562 185 186 181
209.331721067429 575.647532939911 2684.00001525879 153 154 149
216.86664223671 576.274633407593 2687.00003623962 146 147 142
224.500671029091 577.115774154663 2690.99998474121 170 171 166
232.155829668045 577.956259250641 2694.9999332428 172 173 168
240.365236997604 580.083012580872 2704.99992370605 145 146 141
248.903006315231 582.852363586426 2717.99993515015 149 150 145
257.699340581894 586.049973964691 2733.00004005432 139 140 135
266.479432582855 589.032530784607 2746.99997901917 133 134 129
275.633990764618 592.657566070557 2763.99993896484 130 131 126
283.650904893875 593.708992004395 2769.00005340576 196 197 192
290.642648935318 592.615842819214 2763.99993896484 112 113 108
297.606557607651 591.522336006165 2759.0000629425 125 124 119
304.431915283203 590.214014053345 2753.00002098084 126 125 120
310.997307300568 588.476598262787 2744.99988555908 132 131 126
317.402541637421 586.524546146393 2736.00006103516 136 135 130
323.995530605316 585.000991821289 2729.00009155273 139 138 133
330.671161413193 583.691477775574 2723.00004959106 138 137 132
337.685823440552 583.024680614471 2720.00002861023 145 144 139
344.683468341827 582.357585430145 2717.00000762939 149 148 143
352.182179689407 582.547426223755 2717.99993515015 152 151 146
359.685570001602 582.736968994141 2719.00010108948 156 155 150
367.058515548706 582.711815834045 2719.00010108948 163 164 158
374.430596828461 582.686305046082 2719.00010108948 160 162 159
381.801754236221 582.660377025604 2719.00010108948 180 182 179
392.893493175507 588.205456733704 2744.99988555908 196 198 195
-162.72859275341 594.336032867432 2805.99999427795 208 210 207
-154.270082712173 591.171205043793 2790.99988937378 208 209 204
-146.313115954399 589.700222015381 2783.99991989136 187 188 183
-138.493448495865 588.65225315094 2779.00004386902 167 168 163
-130.889058113098 588.451027870178 2778.00011634827 155 156 151
-123.46725910902 589.096426963806 2780.99989891052 150 151 146
-116.112157702446 590.165078639984 2786.00001335144 149 150 144
-108.65157097578 590.809404850006 2789.00003433228 137 138 132
-100.956939160824 590.182185173035 2786.00001335144 141 142 137
-93.445897102356 590.613603591919 2788.00010681152 147 148 143
-86.0160812735558 591.679930686951 2792.99998283386 140 141 136
-78.7553414702415 594.228625297546 2805.0000667572 121 122 117
-71.4797750115395 597.200393676758 2819.00000572205 110 110 108
-64.1504749655724 600.383579730988 2834.00011062622 103 105 102
-56.5003640949726 601.023852825165 2836.99989318848 221 223 220
-48.2491366565228 594.460606575012 2805.99999427795 221 221 219
-40.1519611477852 587.684810161591 2773.9999294281 122 121 117
-32.2875529527664 581.967651844025 2746.99997901917 166 165 161
-24.5970543473959 576.885402202606 2723.00004959106 155 154 150
-17.1065144240856 574.132859706879 2710.00003814697 180 179 175
-9.7117992118001 572.862803936005 2703.9999961853 146 145 141
-2.35144491307437 572.015881538391 2700.00004768372 153 152 148
4.98160067945719 570.532739162445 2693.00007820129 148 147 143
12.2628295794129 568.413496017456 2683.00008773804 162 161 157
19.5260606706142 567.352890968323 2677.99997329712 147 146 142
26.7620291560888 566.291809082031 2673.00009727478 153 152 148
33.9707061648369 565.230071544647 2667.99998283386 175 174 170
41.1675237119198 564.379632472992 2664.00003433228 183 182 177
48.3787953853607 563.952386379242 2661.99994087219 172 171 166
55.5581450462341 563.312649726868 2658.99991989136 155 154 149
62.7210065722466 562.672436237335 2655.99989891052 156 155 150
69.8936879634857 562.243461608887 2654.00004386902 158 157 152
77.0843327045441 562.025845050812 2653.00011634827 157 156 151
84.2692852020264 561.807572841644 2651.99995040894 156 155 150
91.4140716195107 561.376988887787 2650.00009536743 155 154 149
98.5476821660995 560.945749282837 2648.00000190735 159 158 153
105.590261518955 560.090363025665 2644.00005340576 160 159 154
112.696036696434 559.657990932465 2641.99995994568 160 159 154
119.745261967182 559.013426303864 2638.99993896484 161 162 156
126.922070980072 559.00377035141 2638.99993896484 158 159 153
134.301766753197 559.840798377991 2642.99988746643 158 159 153
141.702830791473 560.677289962769 2647.0000743866 155 156 150
149.068936705589 561.301350593567 2650.00009536743 159 160 154
156.274035573006 561.289489269257 2650.00009536743 166 167 161
163.602039217949 561.700701713562 2651.99995040894 160 161 155
171.198084950447 562.958538532257 2657.99999237061 157 158 152
179.09474670887 565.062999725342 2667.99998283386 158 159 151
186.765879392624 566.319584846497 2674.00002479553 145 146 138
194.323986768723 567.152142524719 2677.99997329712 141 142 136
201.451569795609 566.713452339172 2676.00011825562 171 172 167
209.19169485569 567.968428134918 2681.99992179871 185 186 181
216.883152723312 569.011092185974 2687.00003623962 146 147 142
224.767968058586 570.476651191711 2694.00000572205 158 159 154
232.517942786217 571.518182754517 2698.99988174438 167 168 163
240.738779306412 573.617875576019 2709.00011062622 148 149 144
249.379575252533 576.563894748688 2723.00004959106 142 144 139
258.190035820007 579.720973968506 2737.99991607666 143 145 140
267.178267240524 583.089113235474 2753.99994850159 124 126 121
276.153028011322 586.244881153107 2769.00005340576 123 125 120
284.081608057022 587.071120738983 2773.00000190735 214 216 211
290.874302387238 585.568070411682 2766.00003242493 110 112 107
297.951847314835 584.699749946594 2762.00008392334 123 124 119
304.896354675293 583.61941576004 2756.99996948242 125 126 121
311.359643936157 581.691980361938 2747.99990653992 127 128 123
317.54133105278 579.340994358063 2736.99998855591 129 130 125
324.256122112274 578.048050403595 2730.99994659424 135 136 131
331.180423498154 577.178120613098 2726.99999809265 148 149 144
338.33047747612 576.731145381927 2724.99990463257 141 142 137
345.342010259628 576.072156429291 2721.99988365173 147 148 143
352.465957403183 575.624465942383 2720.00002861023 151 152 147
359.84280705452 575.599670410156 2720.00002861023 155 156 151
367.083877325058 575.363039970398 2719.00010108948 162 163 158
374.180793762207 574.914276599884 2717.00000762939 159 161 158
381.26602768898 574.465334415436 2714.99991416931 175 177 174
391.488671302795 578.670918941498 2734.99989509583 197 199 196
-162.335246801376 585.285246372223 2799.00002479553 207 209 206
-154.06097471714 582.788228988647 2786.99994087219 202 203 198
-146.16684615612 581.545174121857 2780.99989891052 179 180 175
-138.404607772827 580.719888210297 2776.99995040894 163 164 159
-130.946427583694 581.148624420166 2779.00004386902 156 157 152
-123.654559254646 582.41331577301 2785.00008583069 147 148 142
-116.288013756275 583.468317985535 2789.99996185303 145 146 140
-108.777016401291 583.89538526535 2792.00005531311 136 137 131
-101.14610940218 583.694517612457 2790.99988937378 139 140 135
-93.6543941497803 584.329605102539 2793.99991035461 150 151 146
-86.3000750541687 586.009860038757 2802.00004577637 147 148 143
-78.9862051606178 588.316917419434 2812.99996376038 116 118 113
-71.6883167624474 591.250836849213 2826.99990272522 115 117 114
-64.4498467445374 595.43913602829 2846.99988365173 122 124 121
-48.2357814908028 586.663901805878 2805.0000667572 219 221 218
-40.1262082159519 579.765498638153 2772.0000743866 119 118 114
-32.301876693964 574.748694896698 2747.99990653992 162 161 157
-24.6170796453953 569.940447807312 2724.99990463257 156 155 151
-17.1331278979778 567.64143705368 2713.99998664856 185 184 180
-9.71975736320019 565.969288349152 2706.00008964539 156 155 151
-2.35250336118042 564.924001693726 2700.99997520447 148 147 143
4.98199788853526 563.250660896301 2693.00007820129 163 162 158
12.2683765366673 561.367630958557 2684.00001525879 163 162 158
19.5203255861998 559.902250766754 2677.00004577637 151 150 146
26.7341192811728 558.436334133148 2670.00007629395 166 165 161
33.9097417891026 556.969881057739 2663.00010681152 179 178 174
41.1244332790375 556.548595428467 2661.00001335144 183 182 177
48.3281165361404 556.126713752747 2658.99991989136 170 169 164
55.4998703300953 555.495202541351 2655.99989891052 154 153 148
62.6551359891891 554.863095283508 2653.00011634827 155 154 149
69.846548140049 554.648637771606 2651.99995040894 156 155 150
77.0613700151443 554.642856121063 2651.99995040894 157 156 151
84.2759534716606 554.636538028717 2651.99995040894 156 155 150
91.3867875933647 554.002165794373 2648.9999294281 155 154 149
98.5182374715805 553.576469421387 2647.0000743866 159 158 153
105.598576366901 552.941024303436 2644.00005340576 161 160 155
112.704895436764 552.5141954422 2641.99995994568 159 158 153
119.754649698734 551.877677440643 2638.99993896484 162 163 157
126.980111002922 552.077174186707 2640.00010490417 161 162 156
134.41389799118 553.1125664711 2644.99998092651 161 162 156
141.767397522926 553.729116916656 2648.00000190735 158 159 153
149.080544710159 554.136097431183 2650.00009536743 158 159 153
156.286150217056 554.124236106873 2650.00009536743 164 165 159
163.73810172081 554.948329925537 2654.00004386902 163 164 158
171.275690197945 555.980801582336 2658.99991989136 159 160 152
179.041415452957 557.640135288239 2667.00005531311 159 160 152
186.710387468338 558.880627155304 2673.00009727478 148 149 141
194.338858127594 559.911370277405 2677.99997329712 143 144 136
201.54219865799 559.687256813049 2677.00004577637 157 158 153
209.285631775856 560.926079750061 2683.00008773804 174 175 170
216.899573802948 561.74623966217 2687.00003623962 162 163 158
224.951833486557 563.611090183258 2696.00009918213 148 149 144
232.793897390366 564.848124980927 2701.99990272522 172 173 168
241.201162338257 567.338943481445 2713.99998664856 148 149 144
249.856144189835 570.247173309326 2727.9999256134 139 141 136
258.775055408478 573.57269525528 2743.99995803833 139 141 136
267.683207988739 576.688647270203 2759.0000629425 119 121 116
276.871562004089 580.221891403198 2776.00002288818 118 120 115
284.409791231155 580.201327800751 2776.00002288818 216 218 213
291.316211223602 578.926205635071 2769.99998092651 105 107 102
298.51296544075 578.277826309204 2766.99995994568 121 122 117
305.803209543228 577.838003635406 2765.00010490417 123 124 119
312.061965465546 575.516939163208 2753.99994850159 128 129 124
318.376272916794 573.404669761658 2743.99995803833 131 132 127
324.754178524017 571.501016616821 2734.99989509583 135 136 131
331.689715385437 570.641994476318 2730.99994659424 138 139 134
338.478475809097 569.573581218719 2726.0000705719 147 148 143
345.366179943085 568.713843822479 2721.99988365173 144 145 140
352.620124816895 568.480670452118 2720.99995613098 141 142 137
360.132366418839 568.664848804474 2721.99988365173 158 159 154
367.379069328308 568.430840969086 2720.99995613098 161 162 157
374.206393957138 567.56991147995 2717.00000762939 152 154 151
381.151497364044 566.917538642883 2713.99998664856 160 162 159
390.369862318039 569.606900215149 2726.99999809265 186 188 185
-161.361768841743 574.20688867569 2782.00006484985 206 208 205
-153.575375676155 573.39346408844 2778.00011634827 200 201 196
-146.073088049889 573.611497879028 2779.00004386902 177 178 173
-138.564914464951 573.828876018524 2779.99997138977 162 163 158
-131.192252039909 574.665009975433 2783.99991989136 155 156 151
-123.753018677235 575.294196605682 2786.99994087219 148 149 143
-116.297118365765 575.922846794128 2789.99996185303 146 147 141
-108.785554766655 576.344549655914 2792.00005531311 136 137 131
-101.226538419724 576.55918598175 2792.99998283386 138 139 134
-93.7623232603073 577.392518520355 2796.99993133545 149 150 145
-86.3684788346291 578.844606876373 2803.99990081787 149 150 145
-79.1047587990761 581.534862518311 2816.99991226196 127 129 124
-71.9222277402878 585.463106632233 2835.99996566772 94 96 93
-48.2395961880684 579.077661037445 2805.0000667572 223 225 222
-40.0280505418777 570.823311805725 2765.00010490417 121 120 116
-32.2809256613255 566.903650760651 2746.00005149841 165 164 160
-24.5828963816166 561.744749546051 2720.99995613098 166 165 161
-17.1218607574701 559.888362884521 2711.99989318848 180 179 175
-9.72052849829197 558.650732040405 2706.00008964539 158 157 153
-2.35443213023245 558.031857013702 2703.00006866455 149 148 144
4.99164359644055 556.999444961548 2697.99995422363 169 168 164
12.292206287384 555.140733718872 2688.99989128113 161 160 156
19.5583365857601 553.694367408752 2681.99992179871 156 155 151
26.7362408339977 551.215171813965 2670.00007629395 173 172 168
33.8869579136372 549.354732036591 2661.00001335144 181 180 176
41.1122404038906 549.145340919495 2660.00008583069 182 181 176
48.3137592673302 548.728823661804 2657.99999237061 169 168 163
55.5460602045059 548.724830150604 2657.99999237061 153 152 147
62.6837015151978 547.894358634949 2654.00004386902 155 154 149
69.8520615696907 547.476291656494 2651.99995040894 156 155 150
76.9802629947662 546.85115814209 2648.9999294281 157 156 151
84.0919017791748 546.225488185883 2645.99990844727 156 155 150
91.2214666604996 545.805811882019 2644.00005340576 155 154 149
98.3770787715912 545.59189081192 2642.99988746643 160 159 154
105.526946485043 545.377492904663 2641.99995994568 161 160 155
112.671069800854 545.162618160248 2641.00003242493 159 158 153
119.854778051376 545.153498649597 2641.00003242493 162 163 157
127.038091421127 545.143842697144 2641.00003242493 162 163 157
134.47517156601 546.165764331818 2645.99990844727 162 163 157
141.778409481049 546.567916870117 2648.00000190735 159 160 154
149.14833009243 547.175884246826 2651.00002288818 157 158 152
156.416192650795 547.370493412018 2651.99995040894 158 159 153
163.812398910522 547.977268695831 2654.99997138977 171 172 166
171.288877725601 548.790037631989 2658.99991989136 166 167 161
178.987979888916 550.221264362335 2665.99988937378 162 163 157
186.724647879601 551.652073860168 2673.00009727478 158 159 151
194.426223635674 552.875816822052 2678.99990081787 152 153 145
201.708093285561 552.860796451569 2678.99990081787 142 143 138
209.301456809044 553.670704364777 2683.00008773804 152 153 148
216.915920376778 554.480075836182 2687.00003623962 169 170 165
225.052163004875 556.527018547058 2697.00002670288 145 146 141
233.328312635422 558.779656887054 2707.99994468689 161 162 157
241.930186748505 561.650633811951 2721.99988365173 145 146 141
250.515878200531 564.314723014832 2734.99989509583 143 145 140
259.643048048019 568.009734153748 2753.00002098084 134 136 131
269.061326980591 572.116672992706 2773.00000190735 116 118 113
278.388023376465 575.810194015503 2790.99988937378 127 129 124
285.14775633812 574.139177799225 2782.99999237061 220 222 217
291.33740067482 571.43634557724 2769.99998092651 106 108 103
298.858225345612 571.414947509766 2769.99998092651 124 125 120
306.488871574402 571.599423885345 2770.99990844727 123 124 119
312.990933656693 569.72074508667 2762.00008392334 124 125 120
318.863093852997 566.810429096222 2747.99990653992 132 133 128
325.014740228653 564.518690109253 2736.99998855591 136 137 132
331.956028938293 563.670516014099 2733.00004005432 147 148 143
338.750571012497 562.615752220154 2727.9999256134 140 141 136
345.770984888077 561.97315454483 2724.99990463257 149 150 145
352.644562721252 561.12402677536 2720.99995613098 155 156 151
360.157191753387 561.305522918701 2721.99988365173 150 151 146
367.40431189537 561.074435710907 2720.99995613098 152 153 148
374.507367610931 560.636758804321 2719.00010108948 161 163 160
381.458193063736 559.992551803589 2716.00008010864 157 159 156
390.253007411957 562.028348445892 2726.0000705719 172 174 171
-161.258175969124 566.274523735046 2779.99997138977 201 203 200
-153.531923890114 565.675556659698 2776.99995040894 195 196 191
-146.084383130074 566.094517707825 2779.00004386902 174 175 170
-138.675346970558 566.71667098999 2782.00006484985 160 161 156
-131.249561905861 567.338168621063 2785.00008583069 152 153 148
-123.807072639465 567.959249019623 2788.00010681152 153 154 148
-116.30617082119 568.375945091248 2789.99996185303 150 151 145
-108.794040977955 568.792223930359 2792.00005531311 140 141 135
-101.306945085526 569.41157579422 2795.00007629395 138 139 134
-93.8367322087288 570.23411989212 2799.00002479553 146 147 142
-86.4676609635353 571.870923042297 2806.99992179871 149 150 145
-79.3075561523438 575.340867042542 2823.99988174438 136 138 133
-72.5619345903397 582.884967327118 2861.00006103516 212 214 211
-47.9338094592094 567.822515964508 2786.99994087219 215 217 214
-39.9588160216808 562.325060367584 2759.99999046326 136 135 131
-32.2599560022354 559.067964553833 2743.99995803833 167 166 162
-24.6029049158096 554.791688919067 2723.00004959106 178 177 173
-17.1358399093151 552.959620952606 2713.99998664856 159 158 154
-9.72488708794117 551.534473896027 2707.00001716614 151 150 146
-2.35287565737963 550.312459468842 2700.99997520447 150 149 145
4.9864873290062 549.089908599854 2694.9999332428 166 165 161
12.2840330004692 547.459304332733 2687.00003623962 153 152 148
19.5525866001844 546.23556137085 2680.99999427795 162 161 157
26.7383493483067 543.992578983307 2670.00007629395 177 176 172
33.8641591370106 541.749000549316 2658.99991989136 182 181 177
41.0536453127861 541.134834289551 2655.99989891052 180 179 174
48.2266843318939 540.520191192627 2653.00011634827 155 154 149
55.4250292479992 540.31229019165 2651.99995040894 154 153 148
62.5469088554382 539.492726325989 2648.00000190735 156 155 150
69.7258487343788 539.283812046051 2647.0000743866 155 154 149
76.8991187214851 539.074301719666 2645.99990844727 158 157 152
84.1302797198296 539.271771907806 2647.0000743866 156 155 150
91.2631079554558 538.857460021973 2644.99998092651 156 155 150
98.4219908714294 538.646340370178 2644.00005340576 161 160 155
105.495244264603 538.027226924896 2641.00003242493 162 161 156
112.679846584797 538.018763065338 2641.00003242493 158 157 152
119.909472763538 538.213431835175 2641.99995994568 161 162 156
127.192288637161 538.611352443695 2644.00005340576 162 163 157
134.536430239677 539.212346076965 2647.0000743866 161 162 156
141.735807061195 539.201676845551 2647.0000743866 160 161 155
149.103567004204 539.80153799057 2650.00009536743 157 158 152
156.310245394707 539.789855480194 2650.00009536743 156 157 151
163.824960589409 540.795981884003 2654.99997138977 173 174 168
171.301960945129 541.597902774811 2658.99991989136 169 170 164
179.068803787231 543.214082717896 2667.00005531311 162 163 157
186.599135398865 544.014871120453 2671.0000038147 162 163 157
194.295808672905 545.222461223602 2677.00004577637 157 158 152
201.798662543297 545.818507671356 2680.0000667572 147 148 143
209.473252296448 546.821296215057 2684.99994277954 147 148 143
217.093661427498 547.619938850403 2688.99989128113 178 179 174
225.15244781971 549.436211585999 2697.99995422363 162 163 158
233.518049120903 551.862895488739 2710.00003814697 150 151 146
242.214813828468 554.8996925354 2724.99990463257 146 147 142
250.992447137833 557.935953140259 2740.00000953674 142 144 139
260.322421789169 561.989545822144 2759.99999046326 133 135 130
269.954383373261 566.449642181396 2782.00006484985 120 122 117
280.004411935806 571.519792079926 2806.99992179871 147 149 144
286.193192005157 568.648755550385 2792.99998283386 208 210 205
291.884422302246 564.963102340698 2775.00009536743 112 114 109
299.419283866882 564.941823482513 2775.00009536743 125 126 121
307.063966989517 565.123617649078 2776.00002288818 125 126 121
313.806593418121 563.676476478577 2769.00005340576 123 124 119
319.930136203766 561.211109161377 2756.99996948242 129 130 125
325.750261545181 558.338582515717 2743.00003051758 136 137 132
332.465261220932 557.094156742096 2736.99998855591 140 141 136
339.146822690964 555.849432945251 2730.99994659424 142 143 138
346.048802137375 555.011451244354 2726.99999809265 152 153 148
352.798521518707 553.96968126297 2721.99988365173 147 148 143
360.049605369568 553.741633892059 2720.99995613098 149 150 145
367.159336805344 553.309857845306 2719.00010108948 163 164 159
374.532788991928 553.284645080566 2719.00010108948 164 166 163
381.343454122543 552.445113658905 2714.99991416931 159 161 158
390.422314405441 554.860949516296 2726.99999809265 167 169 166
-161.270529031754 558.753669261932 2779.99997138977 199 201 198
-153.59902381897 558.363795280457 2778.00011634827 191 192 187
-146.148189902306 558.777213096619 2779.99997138977 171 172 167
-138.636186718941 558.989226818085 2780.99989891052 157 158 153
-131.212577223778 559.602558612823 2783.99991989136 151 152 147
-123.772241175175 560.215473175049 2786.99994087219 154 155 149
-116.398587822914 561.229825019836 2792.00005531311 152 153 147
-108.880430459976 561.640501022339 2793.99991035461 143 144 138
-101.423569023609 562.452793121338 2798.00009727478 140 141 136
-93.9110890030861 563.063383102417 2801.00011825562 145 146 141
-86.5668281912804 564.879596233368 2809.99994277954 150 151 146
-79.5384347438812 569.308638572693 2832.00001716614 134 136 131
-47.9031689465046 559.880077838898 2785.00008583069 206 208 205
-39.8750752210617 553.651452064514 2753.99994850159 149 148 144
-32.2154611349106 550.839781761169 2740.00000953674 163 162 158
-24.6229078620672 547.826409339905 2724.99990463257 174 173 169
-17.1498134732246 546.018719673157 2716.00008010864 156 155 151
-9.72924381494522 544.411420822144 2707.99994468689 150 149 145
-2.35218950547278 542.803645133972 2700.00004768372 151 150 146
4.98317833989859 541.396260261536 2693.00007820129 160 159 155
12.2804287821054 539.988398551941 2686.00010871887 150 149 145
19.5541214197874 538.981914520264 2680.99999427795 177 176 172
26.7704967409372 537.371814250946 2673.00009727478 181 180 176
33.9177660644054 535.359084606171 2663.00010681152 185 184 180
41.0877838730812 534.350872039795 2657.99999237061 176 175 170
48.2304580509663 533.342242240906 2653.00011634827 154 153 148
55.4293729364872 533.137142658234 2651.99995040894 158 157 152
62.5754296779633 532.529473304749 2648.9999294281 161 160 155
69.7312951087952 532.122313976288 2647.0000743866 157 156 151
76.8760591745377 531.714498996735 2644.99998092651 160 159 154
84.0414762496948 531.507194042206 2644.00005340576 156 155 150
91.2012085318565 531.299412250519 2642.99988746643 157 156 151
98.3179584145546 530.889987945557 2641.00003242493 162 161 156
105.463497340679 530.681133270264 2640.00010490417 162 161 156
112.603224813938 530.471622943878 2638.99993896484 158 157 152
119.82798576355 530.663669109344 2640.00010490417 161 162 156
127.057790756226 530.855119228363 2641.00003242493 164 165 159
134.394288063049 531.448066234589 2644.00005340576 162 163 157
141.639605164528 531.638443470001 2644.99998092651 162 163 157
148.946195840836 532.029330730438 2647.0000743866 163 164 158
156.322225928307 532.620668411255 2650.00009536743 160 161 155
163.775771856308 533.412396907806 2654.00004386902 176 177 171
171.443864703178 534.806549549103 2661.00001335144 176 177 172
179.08239364624 535.999119281769 2667.00005531311 164 165 160
186.613246798515 536.789119243622 2671.0000038147 168 169 164
194.237917661667 537.779629230499 2676.00011825562 167 168 163
201.738521456718 538.367629051209 2678.99990081787 151 152 147
209.410935640335 539.357006549835 2684.00001525879 147 148 143
217.190653085709 540.546774864197 2690.00005722046 157 158 153
225.336164236069 542.539775371552 2700.00004768372 178 179 174
233.621552586555 544.732987880707 2710.99996566772 160 161 156
242.49941110611 548.131227493286 2727.9999256134 147 148 143
251.652181148529 551.930606365204 2746.99997901917 145 147 142
261.284798383713 556.532979011536 2769.99998092651 134 136 131
270.847529172897 560.732662677765 2790.99988937378 110 112 107
281.720727682114 567.342400550842 2823.99988174438 182 184 179
285.394191741943 559.486925601959 2785.00008583069 216 218 213
292.221069335938 558.059871196747 2778.00011634827 215 217 212
299.764513969421 558.038592338562 2778.00011634827 124 125 120
307.196468114853 557.815968990326 2776.99995040894 128 129 124
314.055532217026 556.588709354401 2770.99990844727 126 127 122
320.416986942291 554.557681083679 2760.99991798401 132 133 128
326.60448551178 552.325546741486 2750 134 135 130
332.974463701248 550.494909286499 2740.9999370575 136 137 132
339.418858289719 548.864841461182 2733.00004005432 136 137 132
346.199691295624 547.83695936203 2727.9999256134 134 135 130
353.082090616226 547.009587287903 2723.99997711182 145 146 141
360.338926315308 546.784400939941 2723.00004959106 153 154 149
367.58941411972 546.558797359467 2721.99988365173 143 144 139
374.833554029465 546.332836151123 2720.99995613098 153 155 152
381.930977106094 545.905947685242 2719.00010108948 187 189 186
390.018790960312 546.883940696716 2723.99997711182 189 191 188
403.384834527969 555.088818073273 2765.00010490417 187 189 186
-161.398857831955 551.628053188324 2782.00006484985 196 198 195
-153.66604924202 551.045179367065 2779.00004386902 186 187 182
-146.211951971054 551.453113555908 2780.99989891052 164 165 160
-138.646811246872 551.464021205902 2780.99989891052 154 155 150
-131.222665309906 552.069246768951 2783.99991989136 150 151 146
-123.781770467758 552.673935890198 2786.99994087219 153 154 148
-116.449236869812 553.8729429245 2792.99998283386 152 153 147
-108.966790139675 554.476618766785 2796.0000038147 149 150 144
-101.61267220974 555.872917175293 2802.99997329712 141 142 137
-94.0860211849213 556.475460529327 2805.99999427795 145 146 141
-86.7583975195885 558.465600013733 2815.99998474121 150 151 146
-47.8380955755711 551.550269126892 2780.99989891052 212 214 211
-39.8926734924316 546.397268772125 2755.00011444092 158 157 153
-32.2062186896801 543.226718902588 2739.00008201599 160 159 155
-24.6519427746534 541.047275066376 2727.9999256134 170 169 165
-17.1700995415449 539.263963699341 2719.00010108948 158 157 153
-9.74437687546015 537.876665592194 2711.99989318848 152 151 147
-2.35324469394982 535.695552825928 2700.99997520447 152 151 147
4.98356763273478 534.108757972717 2693.00007820129 156 155 151
12.2813861817122 532.719731330872 2686.00010871887 148 147 143
19.5556506514549 531.726837158203 2680.99999427795 182 181 177
26.7826002091169 530.336678028107 2674.00002479553 181 180 176
33.9331515133381 528.351068496704 2664.00003433228 186 185 181
41.0755313932896 526.959836483002 2657.00006484985 175 174 169
48.2342205941677 526.163041591644 2653.00011634827 154 153 148
55.4754957556725 526.357352733612 2654.00004386902 159 158 153
62.6039281487465 525.559484958649 2650.00009536743 162 161 156
69.7894021868706 525.355935096741 2648.9999294281 157 156 151
76.9110918045044 524.755299091339 2645.99990844727 160 159 154
84.1115638613701 524.749040603638 2645.99990844727 156 155 150
91.1737605929375 523.949086666107 2641.99995994568 157 156 151
98.3255654573441 523.743450641632 2641.00003242493 162 161 156
105.43168336153 523.338973522186 2638.99993896484 163 162 157
112.569242715836 523.132264614105 2638.00001144409 158 157 152
119.701012969017 522.925019264221 2637.00008392334 162 163 157
126.923188567162 523.113906383514 2638.00001144409 164 165 159
134.201258420944 523.500502109528 2640.00010490417 162 163 157
141.650438308716 524.481415748596 2644.99998092651 163 164 158
148.901298642159 524.66869354248 2645.99990844727 166 167 161
156.393125653267 525.648534297943 2651.00002288818 162 163 157
163.788214325905 526.231169700623 2654.00004386902 177 178 172
171.521306037903 527.804732322693 2661.99994087219 179 180 175
179.095923900604 528.782844543457 2667.00005531311 165 166 161
186.627313494682 529.56211566925 2671.0000038147 170 171 166
194.179877638817 530.340909957886 2674.99995231628 170 171 166
201.678320765495 530.920803546906 2677.99997329712 152 153 148
209.426581859589 532.095074653625 2684.00001525879 152 153 148
217.287555336952 533.466875553131 2690.99998474121 142 143 138
225.436329841614 535.432934761047 2700.99997520447 173 174 169
233.724981546402 537.596464157104 2711.99989318848 170 171 166
242.695063352585 541.14705324173 2730.00001907349 143 144 139
252.220332622528 545.687973499298 2753.00002098084 134 136 131
262.058556079865 550.624549388886 2778.00011634827 135 137 132
271.449506282806 554.370999336243 2796.99993133545 125 127 122
293.083608150482 552.129924297333 2786.00001335144 218 220 215
300.433397293091 551.712393760681 2783.99991989136 125 126 121
307.328969240189 550.501704216003 2778.00011634827 129 130 125
313.964456319809 548.89452457428 2769.99998092651 130 131 126
320.671647787094 547.485053539276 2763.00001144409 138 139 134
326.983749866486 545.480966567993 2753.00002098084 136 137 132
333.362132310867 543.67470741272 2743.99995803833 125 126 121
339.814990758896 542.066395282745 2736.00006103516 124 125 120
346.604257822037 541.052043437958 2730.99994659424 146 147 142
353.624761104584 540.433704853058 2727.9999256134 152 153 148
360.495805740356 539.617002010345 2723.99997711182 142 143 138
367.614269256592 539.196074008942 2721.99988365173 142 143 138
374.721050262451 538.775026798248 2720.00002861023 123 125 122
382.096976041794 538.749635219574 2720.00002861023 134 136 133
390.18788933754 539.714276790619 2724.99990463257 137 139 136
400.493502616882 543.649315834045 2744.99988555908 189 191 188
-170.010641217232 547.411322593689 2799.00002479553 208 213 209
-161.17899119854 543.316662311554 2778.00011634827 196 198 195
-153.401210904121 542.546272277832 2773.9999294281 186 187 182
-146.065354347229 543.339967727661 2778.00011634827 164 165 160
-138.457953929901 543.155133724213 2776.99995040894 154 155 150
-131.138414144516 544.143378734589 2782.00006484985 150 151 146
-123.702421784401 544.739961624146 2785.00008583069 152 153 147
-116.499871015549 546.509444713593 2793.99991035461 151 152 146
-109.092094004154 547.496140003204 2799.00002479553 148 149 143
-101.874269545078 549.655914306641 2809.99994277954 143 144 139
-94.2609310150146 549.859046936035 2811.00010871887 142 143 138
-86.9191661477089 551.822125911713 2821.00009918213 147 148 143
-79.6069428324699 554.371476173401 2834.00011062622 138 140 135
-47.6181693375111 541.480243206024 2767.99988746643 213 215 212
-39.8523211479187 538.353741168976 2752.00009346008 157 156 152
-32.1969576179981 535.617709159851 2737.99991607666 153 152 148
-24.6357843279839 533.272504806519 2726.0000705719 157 156 152
-17.1777494251728 532.100379467011 2720.00002861023 153 152 148
-9.74513404071331 530.536353588104 2711.99989318848 150 149 145
-2.35517020337284 528.776288032532 2703.00006866455 169 168 164
4.98580560088158 527.015507221222 2694.00000572205 154 153 149
12.2960582375526 526.03667974472 2688.99989128113 151 150 146
19.5717588067055 524.861693382263 2683.00008773804 185 184 180
26.8047153949738 523.490607738495 2676.00011825562 177 176 172
33.9357815682888 521.14075422287 2664.00003433228 181 180 176
41.078720241785 519.768476486206 2657.00006484985 169 168 163
48.2743233442307 519.373774528503 2654.99997138977 158 157 152
55.5425100028515 519.761025905609 2657.00006484985 158 157 152
62.7268925309181 519.365131855011 2654.99997138977 160 159 154
69.8738470673561 518.773198127747 2651.99995040894 158 157 152
76.9170299172401 517.593801021576 2645.99990844727 158 157 152
84.0226784348488 517.000794410706 2642.99988746643 157 156 151
91.1117568612099 516.407310962677 2640.00010490417 159 158 153
98.2958972454071 516.39997959137 2640.00010490417 163 162 157
105.4797321558 516.392230987549 2640.00010490417 160 159 154
112.620539963245 516.188263893127 2638.99993896484 159 158 153
119.664765894413 515.592575073242 2635.99991798401 160 161 155
126.788526773453 515.38759469986 2634.99999046326 164 165 159
133.957296609879 515.377640724182 2634.99999046326 165 166 160
141.446992754936 516.540765762329 2641.00003242493 165 166 160
148.800030350685 517.116487026215 2644.00005340576 171 172 166
156.404957175255 518.474042415619 2651.00002288818 170 171 165
163.738861680031 518.85312795639 2653.00011634827 171 172 167
171.405345201492 520.209491252899 2660.00008583069 178 179 174
178.975030779839 521.174132823944 2664.99996185303 176 177 172
186.571434140205 522.138297557831 2670.00007629395 159 159 157
194.19439136982 523.10186624527 2674.99995231628 166 166 164
201.843976974487 524.064898490906 2680.0000667572 161 162 157
209.598213434219 525.222957134247 2686.00010871887 154 155 150
217.38438308239 526.380360126495 2691.99991226196 143 144 139
225.536420941353 528.319358825684 2701.99990272522 154 155 150
233.914539217949 530.648827552795 2713.99998664856 174 175 170
243.068441748619 534.541785717011 2733.99996757507 141 142 137
252.422004938126 538.629531860352 2755.00011444092 138 140 135
262.454926967621 543.88952255249 2782.00006484985 138 140 135
271.857410669327 547.584712505341 2801.00011825562 127 129 124
293.630540370941 545.569002628326 2790.99988937378 215 217 212
300.886422395706 544.961512088776 2788.00010681152 138 139 134
307.461351156235 543.180823326111 2779.00004386902 124 125 120
314.213275909424 541.790843009949 2772.0000743866 127 128 123
320.578038692474 539.814054965973 2762.00008392334 127 128 123
327.362865209579 538.618862628937 2756.00004196167 138 139 134
333.749741315842 536.837041378021 2746.99997901917 157 158 153
340.459406375885 535.641252994537 2740.9999370575 140 141 136
347.135722637177 534.44516658783 2734.99989509583 119 120 115
354.167461395264 533.835113048553 2732.00011253357 129 130 125
360.652595758438 532.443046569824 2724.99990463257 146 147 142
367.774128913879 532.027721405029 2723.00004959106 145 146 141
374.746143817902 531.416773796082 2720.00002861023 148 150 147
382.403373718262 531.782209873199 2721.99988365173 157 159 156
389.784097671509 531.756639480591 2721.99988365173 160 162 159
399.498403072357 534.85631942749 2737.99991607666 157 159 156
-170.084148645401 540.027797222137 2799.99995231628 208 213 209
-161.423236131668 536.568582057953 2782.00006484985 193 195 192
-153.412774205208 535.037398338318 2773.9999294281 183 184 179
-146.076411008835 535.820245742798 2778.00011634827 162 163 158
-138.468474149704 535.638093948364 2776.99995040894 154 155 150
-131.148397922516 536.612749099731 2782.00006484985 150 151 146
-123.534142971039 536.429464817047 2780.99989891052 151 152 146
-116.341963410378 538.174629211426 2789.99996185303 149 150 144
-109.022460877895 539.53343629837 2796.99993133545 147 148 142
-101.809561252594 541.663408279419 2808.00008773804 145 146 141
-94.2346155643463 542.056679725647 2809.99994277954 142 143 138
-86.8950113654137 543.992578983307 2819.9999332428 145 146 141
-47.621838748455 533.987045288086 2767.99988746643 215 217 214
-39.8698784410954 531.096637248993 2753.00002098084 149 148 144
-32.2229638695717 528.591513633728 2740.00000953674 159 158 154
-24.6376860886812 525.892913341522 2726.0000705719 152 151 147
-17.1727575361729 524.54400062561 2719.00010108948 151 150 146
-9.73151251673698 522.422969341278 2707.99994468689 153 152 148
-2.35360930673778 521.073043346405 2700.99997520447 175 174 170
4.98619070276618 519.722521305084 2694.00000572205 152 151 147
12.3015819117427 518.950164318085 2690.00005722046 158 157 153
19.551383331418 517.019748687744 2680.0000667572 186 185 181
26.766711845994 515.474617481232 2671.99993133545 179 178 174
33.9256636798382 513.736069202423 2663.00010681152 180 179 175
41.1128103733063 512.961506843567 2658.99991989136 166 165 160
48.3144111931324 512.572228908539 2657.00006484985 159 158 153
55.5676892399788 512.761175632477 2657.99999237061 160 159 154
62.7080872654915 511.984944343567 2654.00004386902 160 159 154
69.8792189359665 511.59405708313 2651.99995040894 158 157 152
76.9520103931427 510.623931884766 2647.0000743866 159 158 153
84.0927287936211 510.231971740723 2644.99998092651 157 156 151
91.2222638726234 509.839415550232 2642.99988746643 159 158 153
98.3778759837151 509.639322757721 2641.99995994568 163 162 157
105.527743697166 509.438693523407 2641.00003242493 160 159 154
112.629130482674 509.044587612152 2638.99993896484 158 157 152
119.673885405064 508.457064628601 2635.99991798401 158 159 151
126.798167824745 508.254826068878 2634.99999046326 163 164 156
