ply
format ascii 1.0
comment KinectMotionCapture
element vertex 795
property float x
property float y
property float z
property uchar red
property uchar green
property uchar blue
end_header
113.925655511264 325.702419870608 2855.51767766016 14 14 6
112.01951702299 325.710169209741 2873.08686149959 12 12 4
116.889850033387 325.292558655498 2879.37773729225 24 19 13
132.534768095889 324.201411210277 2867.37950000092 31 22 17
144.528474369055 323.339444639539 2861.45308998009 55 44 40
151.909803169755 322.765663233527 2863.36727877229 63 50 44
156.764846388999 322.349131242513 2869.65169843487 85 71 60
161.641172696419 321.930885202304 2875.94500568792 83 65 55
166.53901508061 321.510902537567 2882.24678058488 104 84 77
171.458229765926 321.089200433426 2888.55722200829 101 82 75
180.353672284751 320.421014580259 2887.84849864001 138 121 113
-166.493372341636 340.101059822723 2763.44656493185 25 30 24
-158.374545742329 339.483021005765 2764.58088868265 36 41 35
-179.682776445501 340.651075915778 2805.57325899798 35 40 34
-130.567055578794 337.546150641886 2751.04023785419 34 39 33
-129.817205316504 337.375610168438 2762.13399268623 19 21 16
-113.88243227496 336.28599755268 2752.41072027921 25 27 22
-100.433253432876 335.347850224599 2745.99564732062 27 29 24
-98.4445442711011 335.101897529552 2755.43370545031 37 39 34
-80.2734148193591 333.880469512918 2742.30168448894 46 48 43
-81.5605159655528 333.703494186793 2768.75389193313 51 52 47
-85.9451187544853 333.837631162853 2787.47647863502 40 42 37
-49.0882638428292 331.499004074012 2747.39395374616 34 36 31
-39.9942915063807 330.826347530855 2746.7656475836 37 39 34
-23.343383498547 329.702522500643 2735.17497619372 26 28 23
-5.03586074696094 328.481457516639 2721.01911179322 21 23 18
0.461995955738592 328.025560791985 2725.40648417628 27 29 24
4.82073990136356 327.637214495057 2731.48974213305 29 31 26
17.7914989778012 326.736763929905 2724.88041743711 32 34 29
18.7338493430762 326.55099464018 2736.05248685628 34 36 31
25.4046197637632 326.024841290936 2738.75742272135 36 38 33
34.9024970071701 325.331414981283 2737.21374685833 38 40 35
45.5016393268812 324.57340508866 2733.95883867545 40 43 36
40.9431539067371 324.710029499304 2753.68981081902 39 42 35
47.638876822528 324.181865586583 2756.40486501241 36 39 32
51.6402470914949 323.676667282225 2776.3698453717 32 35 28
64.983362549351 322.757886895059 2768.83261593287 30 33 26
58.0078496285368 323.029356094149 2792.97848381856 26 29 22
53.3398253986457 323.163385043028 2813.74393228905 26 29 22
69.9367198834771 322.054777178777 2801.05246772033 23 26 19
92.3840997100687 320.60730233936 2778.8644733262 24 27 20
92.1127743911276 320.483645957851 2792.78108767552 27 30 23
88.1635101905316 320.572047745221 2812.75909469667 27 30 23
86.4460629087993 320.528976785037 2829.32625533178 30 33 26
84.8105044476637 320.479425399096 2845.92662129108 30 33 26
92.2225262593697 319.905691083612 2847.85323710942 18 21 14
101.205449990137 319.241473866688 2847.17964695744 19 22 15
103.901198239506 318.939378823767 2856.90466298359 26 27 21
105.079188389718 318.723535268933 2869.25092015676 29 29 21
109.417556275914 318.325269850244 2876.40506854536 19 16 9
114.297334335915 317.895420704634 2882.69960411044 13 6 0
136.102687355259 316.498365993027 2860.25127543179 39 30 25
146.039144588175 315.781082888535 2857.80655018938 69 55 52
152.396072888924 315.268085591154 2861.46337925032 97 82 75
157.24535147381 314.840535177589 2867.74554836986 122 104 90
162.115975209795 314.411273079676 2874.03637296423 130 110 99
165.00951151344 314.093339349605 2883.84133480114 128 104 94
164.961935577726 313.940465209157 2898.92783052591 134 112 101
-184.331120382796 333.588331825094 2786.48249465953 25 30 24
-182.297391059619 333.316276676302 2795.93897898366 35 40 34
-148.956304279791 331.283047355391 2763.06186643758 35 40 34
-134.146536115388 330.294905752741 2755.04019190282 39 44 38
-127.305632909972 329.754789289013 2757.81411916581 37 39 34
-122.280415139512 329.316229189548 2763.08880012433 45 47 42
-112.414750210273 328.606973463815 2761.69441610343 42 44 39
-97.1682658330193 327.598296277274 2752.77065515888 38 40 35
-121.460387193403 328.791664094691 2799.02804069844 36 38 33
-85.3438465959644 326.622921796683 2760.80235361237 49 51 46
-67.2621967228537 325.460063379844 2747.63365906084 53 54 49
-57.5415472321852 324.762257537398 2746.1802153009 35 37 32
-46.6690048861558 324.001369445415 2743.0360266711 33 35 30
-40.5141160768061 323.501483763236 2746.61069476182 25 27 22
-25.0258355997754 322.487630467953 2736.70632366467 23 25 20
-9.03126199214088 321.447740348015 2725.92807905757 25 27 22
-0.051090187888958 320.794446877512 2725.25354909753 27 29 24
0.854289026224864 320.583595844611 2736.41058204529 29 31 26
12.1235505535142 319.805296226505 2732.34808881096 31 33 28
15.3681717053786 319.465480714095 2740.1377519911 33 35 30
22.0514075713827 318.937777482016 2742.84774677451 32 34 29
30.4319971146887 318.317853860974 2743.00900540644 30 32 27
43.3015097437173 317.454976862919 2736.35865916914 31 34 27
38.1863706397871 317.566148185049 2756.9432472438 30 33 26
40.987476560667 317.247376851904 2765.63198287782 28 31 24
45.4908046022437 316.83599399818 2771.77421374987 29 32 25
56.0964131232577 316.096091866516 2768.52152920773 30 33 26
54.0117614795919 316.037621719191 2784.94012811529 29 32 25
60.7729425160557 315.503681393244 2787.68172962244 27 30 23
67.5353621130077 314.969629862448 2790.42383345688 27 30 23
80.8114168712903 314.088509102458 2782.8594233919 26 29 22
82.6844777466891 313.81505322038 2793.32967295838 26 29 22
79.7649865053196 313.794557185304 2811.56783689694 26 29 22
75.3322258639917 313.851715376922 2832.42912458998 27 30 23
82.7242163029942 313.281820921425 2834.34760074209 24 29 22
96.4737261036976 312.377184712818 2825.89600214614 19 24 17
106.993434312856 311.643922239611 2822.60874407498 16 19 12
117.479041743739 310.913342827119 2819.307658503 18 21 14
112.254464829968 311.005060869555 2842.00595694634 22 23 15
98.3070196428044 311.548552250184 2879.51002796773 21 21 13
99.0524456388522 311.322162192511 2892.76003105709 22 19 12
114.278526915081 310.342646636751 2881.67042894376 18 11 3
133.524819750542 309.157194775429 2863.57864894656 33 24 17
142.962527564406 308.481367080998 2862.01073474089 54 41 35
150.854215512375 307.885779031276 2863.0526642609 89 72 64
157.222297824912 307.368653110831 2866.71378356961 129 106 92
163.596514554004 306.851020814063 2870.37764772495 144 118 105
165.478728921996 306.56259763451 2881.93078229383 161 133 121
165.423517738617 306.371369155415 2897.0142200497 160 132 120
162.966400182031 306.300066962594 2916.51878906344 155 131 119
-182.394450526652 325.894410878302 2783.00946661083 31 36 30
-163.130886433344 324.706368753686 2769.24044628398 38 43 37
-160.524694799152 324.383265432152 2777.85029533708 35 40 34
-135.895301876503 322.921669773812 2756.54588964581 36 41 35
-127.832880841495 322.317867462745 2757.65701004716 41 43 38
-120.991027944224 321.777079863687 2760.43132692069 51 53 48
-112.338419540396 321.143360647507 2760.70282863231 43 45 40
-98.8940631516202 320.264725167006 2754.28535201291 40 42 37
-107.039469977464 320.490323729261 2777.95788581714 37 39 34
-90.0386288099015 319.430958051112 2766.50815407797 49 51 46
-61.8515855568644 317.805266948456 2739.09354541332 41 42 37
-51.5644511429758 317.092535483779 2736.79077238123 28 30 25
-41.8944421244158 316.411855173563 2735.31669484541 30 32 27
-39.2763512220047 316.087812831318 2743.93136894558 26 28 23
-24.375956467575 315.14426991778 2734.86724228689 21 23 18
-8.96404156816044 314.177020339789 2724.93159806397 25 27 22
0.0144714317140693 313.534257277085 2724.2560594216 30 32 27
6.09582277583476 313.0368346807 2727.80119126976 29 31 26
14.4758506896452 312.424638653718 2727.96216392882 30 32 27
14.8538570227754 312.210719945646 2739.98449872231 32 34 29
23.2413211584566 311.597925420727 2740.14848679147 31 33 28
24.8282368881505 311.321899078866 2750.50315492207 29 31 26
26.461702099678 311.042186576811 2760.87669854875 32 35 28
29.8232683613675 310.676071211223 2768.71365409596 31 34 27
37.6801706384922 310.088458556013 2769.74169591909 31 34 27
52.7498501092789 309.148213247347 2759.66702107993 32 35 28
53.9208219099538 308.888300697453 2770.93196246058 33 36 29
52.9414704079225 308.731426506907 2785.64121916757 32 35 28
58.0613998218131 308.276478168142 2790.95411519253 33 36 29
71.9241919036053 307.398133039391 2782.54844173836 30 33 26
74.8648480291256 307.048498967047 2791.29391419445 29 32 25
75.1401962849985 306.825879538115 2804.35355755098 32 35 28
74.9393559717806 306.624154633117 2818.29930251875 34 37 30
80.6940289420499 306.135709039964 2822.79090470383 36 39 32
90.1898103770826 305.468664334345 2821.24618029746 28 31 24
99.6615654234962 304.803500968463 2819.69197074275 20 23 16
117.026018804116 303.765424937226 2805.15287721717 17 20 13
114.856458339216 303.652337982242 2822.61631926742 19 22 15
98.6602292736436 304.196219887189 2863.52536044044 22 23 15
88.4095147589516 304.454169548819 2894.97620443847 22 22 12
102.140064986788 303.586165140021 2886.5166515865 24 21 12
111.684890179301 302.915154655321 2884.99207193675 16 9 1
121.205757627082 302.24602903177 2883.45752045231 29 20 11
136.313843275784 301.319300405049 2872.31948540681 48 35 27
147.281541697887 300.585979276828 2868.13480770577 72 55 47
156.189819039348 299.948502711255 2867.43104829838 122 99 83
163.068946412643 299.404476120835 2870.2204818943 139 111 97
166.449250452622 299.019876940039 2879.14422970766 159 130 116
166.383725935803 298.790508360056 2894.22378075933 164 135 121
164.905240087692 298.622609082374 2911.96744949694 161 135 122
-181.803840963038 318.504602697605 2769.27907820722 158 163 159
-163.138304008777 317.39857050288 2756.34610745164 31 36 30
-159.350285506728 317.001212028938 2763.27715916585 32 37 31
-126.703825190203 315.237930003261 2731.19581652037 31 36 30
-133.978544394364 315.364525047493 2753.06376249124 26 31 25
-125.925861249415 314.766376277595 2754.17089723747 37 39 34
-105.15768528204 313.572065841327 2737.77444947281 41 43 38
-97.6153410327163 312.78001849729 2751.62314793478 37 39 34
-75.0712008710184 311.288990158794 2744.57926138004 36 38 33
-56.4365702402172 310.204932534684 2730.55480216801 25 26 21
-45.5824203164388 309.482729819799 2727.40261612536 18 20 15
-37.1159154694969 308.871358946685 2727.59859642862 18 20 15
-31.5926197157477 308.395258920434 2731.99642203906 16 18 13
-21.9747724729695 307.731825796527 2730.5013510667 15 17 12
-10.6382711921846 306.99097430431 2726.46579888644 18 20 15
6.44228591155538 305.990830713617 2713.96934376193 20 22 17
21.7062554982042 305.075865131148 2703.97314400319 21 23 18
19.6971537063091 304.94197718229 2719.3440960144 22 24 19
18.3355374776115 304.776378474457 2733.89838533994 22 24 19
13.635950963504 304.757763522239 2753.57340332051 22 24 19
19.7873402578217 304.251474186592 2757.14670302029 22 24 19
21.4390807667419 303.945040617535 2767.52784872404 24 27 20
21.455219486983 303.709454492718 2780.48289548335 23 26 19
44.4192162910986 302.458505890655 2758.50258603448 22 25 18
56.1249157048256 301.707935046904 2753.53778509383 23 26 19
54.5103550077572 301.54280142262 2769.06872083775 23 26 19
45.8143296237976 301.684205424573 2795.75537568392 20 23 16
53.7043545672893 301.098880437033 2796.79681130051 19 22 15
63.7680886103744 300.41964813617 2794.40333112369 19 22 15
74.3459323673143 299.719252770892 2791.13936260096 20 23 16
74.0782555288475 299.486567124193 2805.05828060632 22 25 18
78.719889378005 299.041123840812 2811.25651146396 23 26 19
84.4540655133077 298.548274871078 2815.73959077537 24 27 20
99.7936028128506 297.646782930815 2804.69533480576 20 22 17
103.383162296644 297.24552960622 2812.62486953233 20 23 16
105.420158619523 296.908543987064 2823.16223416675 19 22 15
99.6221611594483 296.898666584908 2846.70793689542 17 20 13
88.1942109853535 297.119505291297 2879.84028130491 19 22 13
90.9951208104036 296.741577073771 2889.60819407757 24 26 15
104.195025148564 295.931260712176 2882.01241456799 30 30 20
115.78963293548 295.189396181632 2877.00256742183 21 17 6
117.596331352434 294.851066267266 2888.52550439565 23 16 6
131.191663337738 294.02896906088 2880.01085466949 38 30 19
142.691545161139 293.294578668826 2874.9625969987 49 37 25
152.125993261212 292.645516200974 2873.39316008485 109 83 70
158.520064679369 292.119885667322 2877.06486666127 133 105 91
163.419780437343 291.653919383903 2883.36774861732 154 122 109
165.354858982655 291.305383594532 2894.94274315492 160 128 115
166.351256060117 290.992064321267 2908.29527878653 160 131 117
170.365201378533 290.55710850233 2916.39715701845 151 133 119
-174.260546238193 310.636465690271 2758.3674084565 96 101 97
-178.51442154615 310.57171372314 2776.06536794492 31 36 30
-156.182695103231 309.360637600595 2758.14450150255 28 33 27
-142.566129137904 308.52749253173 2751.79614929132 30 35 29
-129.615034880421 307.724741818908 2746.25718728097 23 28 22
-124.016695364429 307.236625439094 2750.6854886607 33 35 30
-115.982674060036 306.644841557994 2751.78501911555 33 35 30
-67.3921369410988 303.844653606801 2720.77262470134 43 45 40
-60.6890797938175 303.31366491131 2723.49066988428 28 30 25
-56.3592552986025 302.881402220304 2729.56255143439 21 22 17
-47.8706736427175 302.275926579137 2729.76742579721 15 17 12
-42.3389355626018 301.793086089004 2734.16872073677 14 16 11
-25.6610845217262 300.851343752448 2722.58757825325 15 17 12
-11.4015832449652 300.0119012641 2714.34197744855 18 20 15
-7.08360272478892 299.580576131786 2720.4090563505 22 24 19
18.0820479956292 298.301240270952 2696.08371451267 22 24 19
17.7440935268509 298.060189886951 2708.89543286157 22 24 19
25.4964496163586 297.490717142889 2709.88074995057 22 24 19
12.1140083672937 297.76967768829 2742.22129419872 22 24 19
14.8255003834061 297.398655398332 2750.87414184447 23 25 20
19.8372333925958 296.934689045469 2756.14355549099 23 25 20
25.4286867294227 296.447115676219 2760.5690645896 25 28 21
29.9096174875488 296.002879834971 2766.70221875013 24 27 20
40.5542745169707 295.315877082464 2763.46520093655 22 25 18
48.3856266674663 294.740143994051 2764.48255042368 22 25 18
51.7811205329186 294.337252074448 2772.33377900051 22 25 18
51.3522966473368 294.081079366432 2786.18762773169 20 23 16
52.6351792751225 293.756266889892 2797.49837293852 22 25 18
65.4315047128491 292.988087232392 2790.81767594504 22 25 18
74.914076576267 292.348503946029 2789.26739492646 22 25 18
80.587197610215 291.854456695701 2793.72601976832 20 23 16
76.0451451632991 291.745570272919 2814.54431455512 19 22 15
85.0032154410949 291.125211960285 2813.86058620382 18 21 14
95.0088494469243 290.466507894102 2811.44342613438 16 18 13
98.0865937019335 290.066464506472 2820.24478669345 19 22 15
105.426111148671 289.507364052959 2822.14193508651 20 23 16
95.9414700179815 289.566822973774 2851.74658777222 16 19 12
96.0305282163307 289.26961803792 2865.8104343097 22 25 16
101.912873193603 288.758990980958 2870.35389811694 21 23 12
113.505439040684 288.041527439147 2865.34303925094 24 26 15
121.445065976493 287.457206602419 2866.40429352569 19 17 5
120.654275664464 287.185057322767 2882.26957922211 16 12 1
126.066497670773 286.689351287038 2887.70138860936 33 25 14
138.098694786366 285.959375402666 2881.78982003155 40 28 16
148.059817040656 285.304188579112 2879.35461080897 97 71 58
155.980135316302 284.72139297808 2880.40803558291 125 97 85
162.890762749494 284.173941015107 2883.2102492937 154 120 108
165.819429701209 283.763373301973 2893.03039464844 156 124 111
170.275926098198 283.298736550994 2900.23261828568 156 127 113
177.222801255639 282.748410297014 2903.04953023002 146 128 114
-189.080612612302 303.708999087584 2777.2337645849 5 10 6
-175.952564303166 302.919033665744 2771.76635310959 34 39 33
-165.339103827892 302.228031644656 2769.59554248864 25 30 24
-148.002416515616 301.280094727263 2758.2812051052 27 32 26
-128.304636451469 300.245371691755 2743.60776826722 21 26 20
-123.322995433301 299.77497144503 2748.86504664655 35 37 32
-131.058090981804 299.785673399285 2771.62653329946 30 32 27
-79.8826840220193 297.008050849595 2737.34481633673 40 42 37
-80.8811318989828 296.760760947952 2750.96796101305 17 19 14
-58.6561441354805 295.65118077653 2731.92404215267 15 16 11
-51.9333517504672 295.118040307631 2734.65009430365 17 19 14
-42.265676537919 294.476922598219 2733.1750291791 19 21 16
-32.0357367362796 293.816333287311 2730.84870322969 21 23 18
-7.8252783162871 292.649752707439 2708.29362964382 21 23 18
-4.10686326138898 292.229310588995 2715.19667438226 23 25 20
-11.3575929261871 292.201612668059 2738.15431118998 25 27 22
-4.08176963984475 291.649732355478 2740.02561554124 21 23 18
1.46915320350893 291.159304267832 2744.43473576768 21 23 18
18.4546964488257 290.264338591875 2731.89875575738 21 23 18
14.8794281814373 290.09584374172 2749.87252200658 21 23 18
26.1155901749921 289.405697734659 2745.79595882479 22 24 19
27.7311094874133 289.051579665209 2756.16280025775 27 30 23
35.5652869035807 288.48054877751 2757.18125803357 25 28 21
35.5704333405276 288.178803991473 2770.13235555972 23 26 19
41.7540239777252 287.663337129396 2773.71876291865 24 27 20
49.6044735434229 287.091018620829 2774.74407615909 26 29 22
57.9971359001144 286.500820446152 2774.909997677 27 30 23
60.8908457215946 286.09558272951 2783.63688336706 23 26 19
63.8210513356348 285.687453519628 2792.37856786216 22 25 18
82.5487170674744 284.75481041869 2776.23275671042 22 25 18
78.4463276344356 284.577925196384 2796.15103243766 22 25 18
77.6767400605909 284.287425028802 2810.9459766976 23 26 19
66.2605967045167 284.338981945679 2843.00531934407 23 26 19
72.6193134369013 283.809659785355 2846.66273903978 20 22 17
85.885590717518 283.059008672536 2839.09338121889 18 21 14
94.8658260158461 282.447360572111 2838.4185613066 23 26 19
96.4655339707996 282.069440463839 2849.85798938912 18 21 14
99.1635702828022 281.654652717563 2859.58452878906 17 20 11
110.756627548088 280.961379644258 2854.57368553766 24 25 17
107.275830181451 280.73525086056 2874.74375552276 17 19 8
109.570255673156 280.327370012054 2885.38588877355 15 15 3
103.699991410793 280.1651818726 2909.98255102888 15 13 1
120.427569937484 279.315868715106 2896.26296875135 27 23 12
129.946192136533 278.686682827754 2894.72720544926 29 21 10
142.980057821656 277.954511097146 2887.06360574834 69 47 34
152.935889213581 277.315772911004 2884.62612961683 103 77 64
161.360839500843 276.723107222261 2884.80514299256 155 123 110
165.289246124463 276.261026083509 2892.87259281444 156 124 111
166.77153466669 275.86737890323 2905.34340595748 154 125 111
171.761526615463 275.371350548038 2911.68306796703 145 126 112
-147.25133587003 295.00462430153 2709.00410293365 181 186 180
-172.831438979369 295.584259698433 2754.74464569639 21 26 20
-172.769141089643 295.272340363138 2766.63989519195 30 33 26
-167.101860150419 294.766599081172 2771.09624405832 31 34 27
-144.84466835824 293.697282395545 2753.14386733856 24 27 20
-131.884790876412 292.947465359258 2747.60806037079 23 26 19
-122.019000595315 292.30375428278 2746.21297306685 33 36 29
-124.307660377335 292.066831888314 2761.47151499796 34 37 30
-97.3781579055906 290.542842536814 2748.65105178031 53 56 49
-108.55287010784 290.592780052833 2776.49267066797 39 42 35
-93.3312019703461 289.775021461297 2767.55767191909 19 22 15
-72.239013797982 288.770275828283 2750.21216941181 11 14 7
-38.8455866612747 287.37499226864 2715.19354013776 15 18 11
-46.9030198821663 287.316982647532 2738.90384350517 18 21 14
-46.0373472980919 286.969180991685 2750.04583756763 21 24 17
-22.9311160475836 285.916181965697 2729.20042557977 23 26 19
-12.174104677362 285.257532578396 2726.00868433342 25 28 21
-15.3445092325344 285.034814516029 2743.06772266362 22 25 18
-12.6645557597425 284.626709612206 2751.70808165233 21 24 17
1.52920232424658 283.862669556959 2743.43529036395 19 22 15
15.0874023268994 283.121180724535 2735.98406054107 20 23 16
24.6047117035773 282.505160395091 2734.44766589515 22 25 18
22.7714062163045 282.232118169255 2749.89085133832 22 25 18
22.7063283217841 281.902425147772 2762.81372736931 23 26 19
24.9480274663549 281.501234600176 2772.35539601442 25 28 21
32.2601976028505 280.948665762549 2774.2414221671 23 26 19
45.6875466088282 280.217601727397 2766.73687545741 24 27 20
44.1045602202497 279.924716914531 2782.28156373472 26 29 22
40.9447551832676 279.673307461357 2800.42391935119 22 25 18
58.7277262938224 278.81972531695 2786.05288228125 27 28 22
74.2265136782605 278.035861690796 2775.07195672766 22 23 17
72.2483790500277 277.746472283548 2791.53543392649 21 22 16
83.3397303845844 277.089271306526 2787.40024544521 22 23 17
77.1558967294541 276.910537762119 2810.79100571075 23 24 18
66.2692395210758 276.854007046221 2841.98674468516 22 23 17
64.0877163662232 276.552897865906 2859.44676828407 21 22 17
74.7387758392493 275.902782949074 2856.21206317489 24 25 20
77.4276817061217 275.466195609136 2865.93507095716 19 22 15
77.0019864727776 275.109440641962 2880.87001421355 17 20 13
99.6824265778635 274.14620244657 2857.69364852623 18 21 14
100.331456251604 273.759960040964 2870.90609029019 21 24 17
102.079200929263 273.342319232502 2882.40575846686 17 20 11
84.273248536626 273.416609439273 2926.98234045284 15 15 5
104.189791476764 272.533303980051 2908.0808416521 16 16 6
106.61115575318 272.090127418172 2918.77463905096 23 20 11
122.296570306944 271.319495534323 2906.79036908196 30 23 13
138.403199057793 270.543343993937 2893.89762222998 48 32 17
151.903505764564 269.834582900142 2885.34363838375 92 73 58
160.331482561334 269.249466066112 2885.52381995352 141 113 101
163.762984820699 268.781972404835 2894.46892588138 152 122 111
163.760839629855 268.391746289809 2909.57561525671 156 128 116
165.310353336625 267.962074220974 2922.07392045228 146 124 111
-182.726275047272 288.733624374576 2755.10571229934 61 66 60
-175.223484724196 288.168044096405 2757.06876061408 18 23 16
-166.486590012235 287.565767565578 2757.37440815534 27 30 23
-160.847245544238 287.056173107399 2761.81921772157 28 31 24
-145.369464326511 286.255864293429 2752.98778508303 21 24 17
-127.513788631699 285.38937742286 2740.80389968618 21 24 17
-125.587102341053 284.990623362571 2750.21826061322 27 30 23
-101.171094321564 283.940454200327 2728.82433838309 29 32 25
-87.1708826822777 283.196168479754 2721.55183991898 34 37 30
-106.924187828232 283.415212718676 2761.02336555101 41 44 37
-104.286061156839 282.99061803789 2769.64691415166 26 29 22
-87.8884334547056 282.17859845209 2759.0301361004 13 16 9
-47.2096190152291 280.695550600436 2714.01550445025 13 16 9
-28.1149095748707 279.822694615218 2699.09666167364 22 25 18
-49.1860781963969 280.054370312576 2741.27117961839 24 27 20
-44.7949001609014 279.582562312449 2747.36820252572 25 28 21
-33.3732298205318 278.92041857817 2743.366538112 25 28 21
-14.4297682765295 278.059583230397 2728.38662224521 24 27 20
-15.8587603797871 277.743339648691 2742.91477340271 22 25 18
-18.3692797193584 277.451651993809 2759.16270921716 21 24 17
0.441918715352818 276.601340436359 2744.12916118534 19 22 15
12.8619027184242 275.921280520844 2738.37422642632 20 23 16
1.33341334497339 275.855107041334 2768.23109981585 23 26 19
20.5590455167941 275.002581601279 2752.28656171044 23 26 19
17.6791024786829 274.709586600086 2769.46373853473 23 26 19
19.3778306319825 274.298311538214 2779.86470387332 24 27 20
36.7743177725393 273.499084026184 2766.41557832733 21 24 17
49.6247119487223 272.815557521008 2759.75613173584 22 25 18
45.248977272158 272.549376821249 2779.56415151596 25 28 21
40.9752095435476 272.2751043953 2799.41351832525 24 27 20
47.7814388897222 271.734266194487 2802.17341185842 24 25 19
66.0631270286893 270.926141923666 2786.924891858 22 23 17
63.029367705149 270.614750122962 2805.11899436882 22 23 17
70.9145929979307 270.049595772733 2806.1580765263 22 23 17
75.5579704121487 269.557899888691 2812.3573639232 21 22 16
72.1782278545808 269.24335106962 2831.49021234217 20 21 15
69.9631126330635 268.897660590576 2848.93697266494 19 22 15
73.6788236949239 268.418332391909 2856.91843428611 22 25 18
83.8360307628265 267.396599118005 2868.59093151039 15 20 13
96.5365170291024 266.725149411899 2861.87069672752 16 22 12
99.8017462253074 266.250990125666 2870.74853039165 18 21 12
99.9915734058841 265.837066619811 2884.85406227231 17 20 11
106.441859229203 265.294011843906 2888.54866173483 16 16 8
110.330304064081 264.801074860292 2896.60016518996 16 13 4
113.739315800074 264.315565048995 2905.53630142148 21 17 8
119.727626674499 263.778578742987 2910.12286986699 29 22 12
133.823574414664 263.088443034643 2900.73110754392 47 31 15
146.843070907674 262.422481450012 2893.06093077733 49 27 13
156.797273899673 261.81595289909 2890.62255117795 131 103 91
160.740951928687 261.318746369212 2898.69645052476 138 108 97
160.252804975526 260.897491962396 2914.68540455304 131 103 91
160.335105029505 260.461629219914 2929.82637389743 124 105 91
-172.013324709848 280.959605983734 2740.08214512608 16 21 15
-185.079640525713 280.927348625784 2769.31636361652 24 29 22
-183.737672359866 280.519119077685 2779.57285627511 26 29 22
-163.22494512097 279.623963911862 2764.14951975489 26 29 22
-153.881042581947 279.014510589886 2763.6219295006 21 24 17
-143.332438611317 278.376191445827 2761.42445961776 20 23 16
-130.984593652568 277.695203735192 2756.71913144571 25 28 21
-85.3018396561638 276.204246134017 2706.17844802999 27 30 23
-110.456597458082 276.061871308726 2765.04315214069 36 39 32
-91.6244674618627 275.233418926346 2751.09672160691 22 25 18
-82.4412538283046 274.636735913235 2750.50397275576 12 15 8
-37.0217914384872 273.200225537226 2698.77720636553 22 25 18
-33.9480652020878 272.754672099623 2706.49847686765 25 28 21
-40.86164098999 272.534321462676 2728.51527700735 28 31 24
-45.3113660187434 272.251923698857 2747.21465339467 26 29 22
-30.9666948445597 271.546052856877 2739.00252484243 25 28 21
-12.0318385112304 270.742938761866 2724.01868727533 24 27 20
2.16443021750279 270.048890947598 2715.74638200714 21 24 17
3.60784765711641 269.632599289606 2726.04375464126 19 22 15
16.5825585549688 268.968760270354 2719.4344937854 19 22 15
18.0683593583295 268.549105243921 2729.74930986371 21 24 17
3.09321639914595 268.46777679069 2764.68413577598 23 26 19
14.3789712804927 267.837851854392 2760.62745317097 22 25 18
23.3690010553158 267.256612668559 2759.95636848167 21 24 17
30.655179962314 266.710467466793 2761.83156505338 22 25 18
34.5823595650867 266.230601764835 2768.81984472193 18 21 14
42.4327265166236 265.673086532031 2769.84475508114 20 23 16
46.9494136757405 265.179846459534 2775.99275819426 24 27 20
46.5228987539923 264.778457412833 2789.84864250882 23 26 19
46.1631496866963 264.371767424604 2803.73160002536 24 25 19
63.3605156232524 263.64004484731 2790.20159726964 23 24 18
57.6131106994338 263.327097066224 2812.6912736059 24 25 19
50.8998127599947 263.024031061878 2836.94740807677 25 26 20
79.8888318585223 262.091072192924 2804.45770786862 24 25 19
75.4097581450852 261.744262153723 2825.30330569536 23 24 18
80.1153745519503 261.236124555163 2831.52791784393 18 21 14
88.5626055239881 260.664775591204 2831.71579093639 22 25 18
80.598923019404 260.360803813654 2858.70259928866 17 22 15
104.362487845265 259.542231816882 2833.80607032352 15 21 11
117.488179317894 258.900167454601 2826.17871001871 17 23 13
114.913426653677 258.502451538726 2844.55931539295 17 20 11
122.288776880744 257.949495698882 2846.47092565084 20 20 12
122.431850653691 257.503070739646 2860.55777375956 18 18 8
125.724616902704 257.007040990487 2869.44692275377 16 13 4
115.249663861485 256.702104047185 2901.89004882869 20 16 7
120.210017634237 256.173933524841 2908.21795417924 30 22 11
131.266228910839 255.56270112698 2904.06818930772 46 27 12
142.787038487027 254.948029912942 2899.02749769729 44 21 7
153.261191707578 254.349669281786 2895.72077221423 130 100 89
157.218798848038 253.834395837356 2903.80044830204 129 99 88
158.231317146334 253.352522234398 2917.16053167127 132 104 92
156.837579303045 252.89465965828 2934.94096934598 122 102 91
-158.794584235196 273.229869666229 2721.7575864382 3 8 2
-201.784220791136 273.750801790344 2790.65826301506 23 28 21
-194.802300356467 273.194697083575 2793.48940834339 23 26 19
-182.265247599269 272.522733842986 2788.86062066779 22 25 18
-168.543193605909 271.828953973348 2782.5541806894 22 25 18
-159.772086476381 271.239194628939 2782.87332849317 21 24 17
-112.00107208269 269.865644645642 2729.94059536917 22 25 18
-100.38299089833 269.23056934961 2726.01825114575 25 28 21
-102.10474288844 268.859626719118 2740.4282804994 36 39 32
-82.6828812835159 268.074737822894 2725.64148978052 25 28 21
-107.133154742785 268.135090237519 2771.8434286016 16 19 12
-85.9455169997112 267.31842763023 2754.5351473324 9 12 5
-62.4990254055209 266.467023409843 2733.82597631764 12 15 8
-43.3363451710409 265.702777311998 2718.93408842807 25 28 21
-48.4481323339825 265.384113928681 2738.44448356642 28 31 24
-41.7181780564559 264.848061692432 2741.17345758743 25 28 21
-33.2335748892201 264.281124808169 2741.37642897506 22 25 18
-13.7051202935574 263.52406779837 2725.55352067621 22 25 18
-9.93198184343291 263.042086375598 2732.47944620806 21 24 17
-0.939646770281577 262.471031773082 2731.80896049484 19 22 15
19.5225624626445 261.712202163586 2714.20651999391 19 22 15
18.7038091550848 261.305674450761 2727.90362870974 20 23 16
0.869140888253073 261.165779189109 2767.07565213871 22 25 18
-10.512171908897 260.911071623311 2796.99380254663 21 24 17
9.31008273727274 260.16697166144 2780.21094545613 19 22 15
31.265339557639 259.398147969067 2759.97642345986 19 22 15
36.3053242851163 258.887941886129 2765.25762651186 16 19 12
41.9185929986907 258.368387156426 2769.69195368568 18 21 14
53.6405969673752 257.761469440502 2764.73266549247 24 27 20
53.1788668138677 257.326625564304 2778.57454498723 22 25 18
65.9666406331572 256.707431098691 2771.88925623678 22 23 17
75.9665556025946 256.128859467758 2769.46917318795 23 24 18
70.6984034033871 255.750297429024 2791.07458475779 24 25 19
56.8748364156551 255.472574397229 2826.47716425405 27 28 22
64.2730537111584 254.919844833916 2828.39803151112 27 28 22
83.474718330653 254.225357641441 2811.3635258565 26 27 21
97.2200582081004 253.602602856016 2802.90810230378 16 22 12
94.9516710655487 253.166683033071 2820.3339771163 19 25 15
107.585627960214 252.559906826492 2813.58631485388 17 23 13
115.952675756998 252.002709538626 2813.74161507991 16 22 12
131.642930376805 251.370282277646 2801.75825726605 17 23 11
132.644993677218 250.89171832981 2814.03527425089 18 21 10
138.375062044424 250.363188304986 2818.51721803527 21 21 11
145.149477878215 249.824084199779 2821.26421735831 20 20 10
123.655806391067 249.540716460703 2871.90255036995 17 14 5
119.319418752229 249.088330404231 2893.88552916001 22 15 5
122.220324000771 248.567553120827 2903.69526935598 30 20 10
131.239823512173 247.994916261801 2903.0360515513 52 31 14
141.75209991352 247.412282292673 2899.74438544418 41 15 0
151.227270014874 246.839699325997 2898.19085688688 134 104 93
155.191231930969 246.306962803451 2906.27323834378 135 105 94
154.223651960405 245.804198061617 2923.14749930349 127 99 88
150.869328188208 245.31016074481 2944.44961636958 115 97 85
-178.057774674257 266.1783983599 2746.37806443425 2 7 1
-219.742811417991 266.453667913417 2813.65095279059 12 17 10
-199.054923767689 265.663950275641 2798.297995521 21 24 17
-180.328086212574 264.91334219452 2785.38715092729 19 22 15
-175.221193697197 264.388872453546 2790.69555258407 21 24 17
-154.178689393478 263.609936512746 2774.40702999724 21 24 17
-127.152571513798 262.744727545707 2749.7530310422 21 24 17
-100.898093930633 261.901969097595 2725.8652383629 24 27 20
-79.0367454349428 261.135893985804 2707.75054622996 38 41 34
-86.8104037860207 260.817687223954 2730.49865488869 22 25 18
-126.249315981315 260.952889865545 2797.6032367152 13 16 9
-85.27037856019 259.913141223472 2752.70676265063 8 11 4
-77.2865723245357 259.354687138854 2753.7857087485 12 15 8
-53.9140822795985 258.58537745559 2733.04621000214 22 25 16
-41.8854357900327 257.977997012448 2728.21108270434 26 29 20
-40.4705068892448 257.513397659109 2738.49754391627 23 26 17
-38.4245368988207 257.037578540597 2747.96052887534 20 23 14
-29.9331155404257 256.477756540987 2748.16620697146 20 23 14
-31.3101022196982 256.040369927893 2762.71659021504 20 23 14
-9.52936599558263 255.319861501568 2743.48984799046 19 22 13
7.5248462626043 254.66357297306 2730.97986247012 19 22 13
7.89796626172623 254.203925629046 2743.00233860414 20 23 14
3.20127096564282 253.796794727589 2762.68147206343 20 23 14
3.7102697062219 253.326350019476 2774.75878915343 18 21 12
13.3091173776243 252.756485610215 2773.2550589371 15 18 9
26.8183612129971 252.148412165835 2765.78299585605 17 20 11
38.5899307067992 251.561664707679 2760.84362350837 17 20 11
43.6330442008057 251.042431123341 2766.12616180181 19 22 13
43.7018271701373 250.568094920106 2779.10433350577 23 26 17
54.3202040513078 249.995183970029 2775.85581026127 21 24 15
68.7510766112507 249.391898532837 2766.59874110114 20 21 13
102.256338510618 248.635642884107 2727.30505947406 18 19 11
100.671533685497 248.175987649639 2742.8502755536 19 20 12
66.6482263349717 247.957878306097 2809.99265920309 22 23 15
66.4471300741336 247.466126952767 2823.94049886089 23 24 16
81.8823855360327 246.86103608441 2812.93249463241 22 25 16
111.131698223254 246.170656721665 2779.467281401 13 21 8
109.855468241935 245.686546208677 2795.13762261683 17 25 12
102.304396965103 245.233814196329 2821.21355652921 16 24 11
105.953477340461 244.708805894469 2829.16838609936 15 23 10
108.585542626258 244.186753288579 2838.86902733576 18 24 12
118.041849620371 243.62865864087 2837.30775142223 21 23 10
135.262728646452 243.037725335673 2822.70687920938 20 20 8
129.132082588878 242.550087406916 2847.20058153799 22 20 8
138.554188609264 241.994825726463 2845.62543641896 20 16 5
125.439674969818 241.517004802508 2882.39543143223 22 13 4
125.251386630096 240.985578080205 2897.42782302514 28 16 4
134.254005226106 240.42481588054 2896.76142302398 38 15 0
143.237476791507 239.865606346322 2896.08751598331 59 33 20
150.697278755187 239.310687469803 2898.03333503138 132 102 92
152.164999240929 238.764647427391 2910.49940476773 132 104 93
150.71042264102 238.217173503566 2928.25563126318 116 92 82
-202.851135115973 258.566516005926 2790.34136969713 3 8 1
-186.569103064076 257.895036499702 2780.75553067252 20 23 16
-164.18649176413 257.155340469278 2762.85169421629 18 21 14
-151.767906037627 256.540950160318 2758.17450369066 21 24 17
-152.868179364953 256.084345362581 2771.75800651212 20 23 16
-129.503193114842 255.349976548986 2752.09401283343 20 23 16
-105.05766853297 254.613109083404 2730.70966690921 24 27 20
-91.0407129200894 253.996751383372 2723.44297830207 40 43 36
-76.4806962416713 253.378914849373 2715.31737434548 21 24 17
-98.5812838600604 253.132840685991 2758.15751717578 13 16 9
-118.647662759523 252.850021861309 2798.58489358775 9 12 5
-61.1468743358177 251.819791806787 2730.16898494534 13 16 9
-50.872339626103 251.250893590585 2727.86002016532 21 24 15
-44.166209954458 250.715567035208 2730.57934227144 24 27 18
-37.4590336110263 250.180157553988 2733.29908879611 22 25 16
-43.0330437330067 249.745638850291 2753.70201942244 19 22 13
-43.8415278028634 249.2657480163 2767.40384215245 20 23 14
-20.2296463217089 248.59546110203 2745.68171259658 20 23 14
2.66051118795319 247.940929379066 2724.74579360565 18 21 12
0.118533749337901 247.473816124573 2740.9823219365 19 22 13
4.52602080435405 246.954525875997 2747.08630815299 19 22 13
15.7923788274121 246.390309230735 2743.02127384631 19 22 13
23.0488831834346 245.853038155237 2744.88438813874 17 20 11
26.9127824077995 245.335311629352 2751.84733300433 15 18 9
25.1805769109885 244.845530439929 2767.33283871434 17 20 11
33.600293770629 244.299210972841 2767.50963904706 18 21 12
34.2051329968187 243.790433141848 2779.62605182651 21 24 15
43.7418931882005 243.238761838074 2778.09704492983 24 27 18
53.2546580806708 242.689019846945 2776.55856510921 22 25 16
63.8428958363895 242.137217891469 2773.29767874554 22 23 15
72.755789024717 241.593543340834 2772.59482004165 19 20 12
89.8190339080429 241.027466905677 2759.00925706742 18 19 11
75.3453211132675 240.549883560565 2795.22917738103 21 22 14
68.6237609860925 240.039832388941 2819.48353544166 22 23 15
78.6787252495156 239.488868312578 2817.0855322049 21 24 15
107.948473379651 238.91172799147 2783.62799204528 13 21 8
111.470406350405 238.3797924529 2791.53113581055 17 25 12
84.3119808945212 237.868005422475 2849.5876263289 16 24 11
76.4493861108249 237.323613108723 2876.61692948001 15 23 10
89.7077898889445 236.768368564575 2869.04290260512 18 24 12
107.08248815551 236.219601928731 2854.50424832958 21 23 10
106.697248785195 235.664735942281 2869.45681627977 19 21 8
108.45154403351 235.106633749827 2880.96020139517 21 19 7
139.062270591511 234.590206964096 2843.72940669854 22 15 5
130.029863718006 234.013839418467 2873.52198522796 22 12 3
131.85093243749 233.450544025213 2885.05244581264 26 12 3
135.243926692749 232.887438211365 2893.98294206258 51 28 12
143.716255815787 232.33768804449 2894.18081350589 112 86 73
148.16082789427 231.774510503654 2901.37895598322 121 93 82
150.135600244429 231.19915327603 2912.97174150635 120 93 84
147.691887432982 230.599687112304 2932.48574134551 128 105 97
-195.98493305673 251.410697820734 2768.36129761853 0 4 0
-202.761009769005 250.969404517645 2789.3566367033 5 10 3
-179.036239897597 250.279761861927 2769.83772062977 15 18 11
-151.739905742994 249.572726522594 2745.29193142043 15 18 11
-139.302446800268 248.489484778192 2752.49385477625 16 19 12
-132.464594198305 247.943045844775 2755.26659479408 18 21 14
-103.142176616416 247.252769099603 2727.22553560979 19 22 15
-72.7940852402997 246.569869806424 2697.44183505856 27 30 23
-75.7859373026857 246.094146279095 2713.49627759938 22 25 18
-96.1003442451249 245.707157468493 2753.82376156441 14 17 10
-75.5492914065987 245.09237056138 2737.33500955005 11 14 7
-96.1755734994865 244.685632131039 2778.615432539 9 12 5
-62.6429458255739 244.016291328609 2743.64791935636 17 20 11
-46.4476903874669 243.43687787426 2732.94743911555 22 25 16
-41.495727531526 242.907127425639 2738.19315087524 29 32 23
-37.6975867406488 242.380258758479 2745.12928268457 27 30 21
-29.2126917291158 241.836256511403 2745.3321983996 22 25 16
-16.6815224420451 241.281635381002 2739.62133098394 22 25 16
-10.5522663607893 240.747195878976 2743.18613969942 18 21 12
9.38376427760867 240.181636652894 2726.44799641341 17 20 11
12.030199673833 239.657514013458 2735.07566355278 17 20 11
18.7029139815442 239.124379101952 2737.78143940229 16 19 10
29.9167721345719 238.585764541812 2733.69469698616 16 19 10
27.5324122898042 238.061652760271 2749.99547559934 20 23 14
28.0419015050317 237.529672849098 2762.07371492567 20 23 14
26.368403879937 236.993483001256 2777.58334280272 21 24 15
30.9032725249019 236.452604856302 2783.73906855448 21 24 15
33.7947387698825 235.909061409971 2792.46609415601 21 24 15
48.8749370367632 235.374328711341 2782.39286185452 20 23 14
53.4336084204938 234.831631968124 2788.55823895134 19 20 12
61.2977305603339 234.292861585665 2789.58883383471 22 23 15
62.6151257909415 233.741204674303 2800.91527236932 23 24 16
72.1188078439436 233.205506576387 2799.37275129581 24 25 17
69.1833548643894 232.636383582663 2817.60861088224 24 25 17
77.0852823501442 232.094739183677 2818.65427744051 23 26 17
101.55549323282 231.613973450189 2792.96249584343 15 23 10
99.2493811795032 231.039358193664 2810.37414737996 17 25 12
74.2529934683331 230.357115918315 2864.99157666831 18 26 13
79.6097405357179 229.795653831932 2870.40142305806 15 23 10
84.4582985739155 229.230184184754 2876.68434582353 16 22 10
95.5938053756136 228.698421906471 2872.56608478748 28 30 17
98.3765130247696 228.119437727136 2882.32815157723 18 20 7
108.439942281063 227.584086559283 2879.93371464118 20 18 6
122.591004614314 227.079502053456 2870.56260417299 26 22 11
124.383524589244 226.490463419585 2882.08170069965 93 84 75
127.756289358139 225.909196876052 2891.00414382701 129 116 107
131.165670090928 225.325079564378 2899.94117688068 96 77 63
139.151810107107 224.777304885378 2901.0209869628 89 67 54
143.113486734036 224.193827654477 2909.10282772302 66 44 33
145.608367800069 223.593618173227 2919.82758181678 113 93 86
144.174945515762 222.950051878327 2937.593101899 99 82 75
-202.766488429644 243.907657341473 2776.46121792377 0 5 0
-191.457940070872 243.335332141826 2773.49213578968 7 12 5
-193.831925958287 242.813260658941 2788.71803390997 14 17 10
-191.582501580575 241.73145869818 2810.13590777993 14 17 10
-157.596515954374 241.101230662932 2776.4304677052 15 18 11
-131.764705170779 240.506250420528 2753.44847028011 16 19 12
-112.166023245893 239.935207677447 2738.73165196272 17 20 13
-90.2500400588053 239.368660829846 2720.63731143355 26 29 22
-90.1607121947012 238.839334262347 2732.54541028867 21 24 17
-110.425995525872 238.324433010909 2772.89375359792 14 17 10
-111.33438029472 237.779993541491 2786.55561650248 10 13 6
-79.434566951895 237.221713201765 2754.16282819354 9 12 5
-70.2705305941687 236.678472395489 2753.56165229514 15 18 9
-55.8129437227879 236.138973159826 2745.39398145871 20 23 14
-43.7707645686995 235.602825539366 2740.56405074224 27 30 21
-33.5282592129385 235.068262099502 2738.24185725509 25 28 19
-24.4803192305023 234.534333529674 2737.59386139772 24 27 18
-20.6732666950387 233.992476049142 2744.53371512052 25 28 19
-16.2622822321379 233.449782827743 2750.63929480088 18 21 12
-3.77709125921233 232.925733607284 2744.90957936426 16 19 10
10.9498467339055 232.412243081456 2735.77196160978 16 19 10
17.625055692289 231.878350122489 2738.4787532715 16 19 10
14.6510979177876 231.309431381538 2755.61995562065 16 19 10
19.1107499774816 230.762936679794 2761.7455265075 19 22 13
25.2798076632035 230.222125011676 2765.32624168387 20 23 14
32.015230945057 229.683506216799 2768.05744951986 22 25 16
30.3879370061642 229.101909601739 2783.58612911361 21 24 15
29.3922493401628 228.517271773307 2798.2920137551 20 23 14
47.2557948708967 228.037861086774 2783.9507645804 18 21 12
54.5690276536528 227.500623564137 2785.83684755729 16 17 9
55.3079176579714 226.91972132556 2798.00834045865 25 26 18
59.3737030143804 226.357536784867 2805.05310734441 28 29 21
67.2633310842599 225.821749805942 2806.09374955854 24 25 17
66.5044428150206 225.218403109231 2820.8956544092 23 24 16
81.4036735084025 224.739005008694 2810.74847296932 21 24 15
89.2743269030649 224.204857911994 2811.78167726833 15 21 11
104.057665075055 223.734821087015 2801.58750081025 17 23 13
87.502858215301 222.971322022323 2842.36126596168 19 25 15
78.0269145031169 222.258636848401 2871.97555003893 16 22 12
89.7026720763738 221.752549202731 2866.99677274283 18 24 12
102.378899308476 221.26139338505 2860.26534907007 39 41 30
97.8474841726156 220.58053139632 2882.17109439115 24 26 15
87.2208065355964 219.817764122741 2914.5565157059 23 20 11
112.285265855013 219.474886053278 2886.94642243394 49 45 34
114.636013044005 218.860683713271 2897.61292380229 62 55 45
119.072294015885 218.269556460097 2904.8079211204 46 36 26
120.99913735003 217.641934046208 2916.38169667977 62 46 33
129.53807834641 217.102427774179 2916.60671838012 71 53 41
133.544098053648 216.498458852914 2924.70641143483 66 48 38
138.580631073993 215.907036043251 2931.06589788562 68 53 46
-208.808884179901 235.788220308235 2795.65394396423 4 9 2
-193.741959789192 235.235054766501 2787.73309316688 15 18 11
-208.406731000382 234.650333277274 2819.56097755666 15 18 11
-187.192319135437 234.107432315756 2803.34027004481 15 18 11
-170.383555519111 233.565511762358 2792.88791074053 15 18 11
-145.716858002459 233.047692578361 2771.59145584716 15 18 11
-124.84287099764 232.532031832909 2755.23270624359 16 19 12
-113.166258320984 231.998987973847 2751.33354486352 23 26 19
-106.352891906058 231.453319665123 2754.09636475626 20 23 16
-110.948093075885 230.866332801863 2772.73889035868 13 16 9
-108.868999119958 230.297704196662 2782.21624767428 10 13 6
-101.389098032208 229.748915229489 2784.17015825249 7 10 3
-53.5899254840795 229.389024634581 2729.08326939091 11 14 5
-50.4216607749572 228.833735745185 2736.8433923903 15 18 9
-46.6343790004811 228.279122874408 2743.77559498073 20 23 14
-38.7225117871644 227.746042193512 2744.82522115375 18 21 12
-29.0708737890941 227.224424741777 2743.3427568951 19 22 13
-25.8277815172934 226.663164630804 2751.1334795322 21 24 15
-25.4428963770816 226.079522783135 2763.16140190664 19 22 13
-10.0410551880061 225.60009226347 2753.21772414762 18 21 12
-2.16105586573212 225.069635610059 2754.25468457407 17 20 11
5.13972009417207 224.535337271542 2756.13595881982 18 21 12
10.1654054581306 223.982233206648 2761.41144008912 19 22 13
12.9458056389018 223.407885970373 2770.09398653762 20 23 14
29.2707637541412 222.955170046405 2758.36599629081 21 24 15
35.425565151024 222.412217193747 2761.9412126528 23 26 17
38.2399937360891 221.835246612867 2770.63729961923 23 26 17
29.9853003581718 221.139556339313 2796.43018347644 22 25 16
47.2948706183891 220.708625142056 2782.94307431463 20 23 14
50.7539188372739 220.130412158435 2790.82136448557 22 23 15
56.4352419432663 219.575291940947 2795.28377320483 29 30 22
55.5855603495381 218.940140136085 2810.04890032802 28 29 21
62.4052425149593 218.394479539161 2812.81427736501 21 22 14
65.4449878028724 217.799754674396 2821.60172804357 21 22 14
78.7366408452253 217.339002490282 2814.04019010774 22 23 15
89.2933615783362 216.846021602253 2810.76609687686 16 19 12
92.3595575055121 216.249320655121 2819.56427221035 18 21 14
99.1728932922455 215.704394502283 2822.32707407661 18 23 16
98.6270864115162 214.392707777483 2851.24615786924 17 23 13
111.782536799218 213.943172579142 2843.6293874201 26 29 20
124.878580569231 213.498426247916 2835.9885273533 32 32 24
89.2730764909566 212.229716461428 2910.05042545923 20 20 10
98.8829508034335 211.712483838074 2908.55101814384 17 14 5
109.493744896267 211.215674611888 2905.29884785165 23 19 10
112.422093983494 210.58032692934 2915.12031104965 45 41 30
112.347764571718 209.883977056756 2930.19983665251 55 49 37
118.908262580024 209.309681127352 2933.93955427527 56 48 37
122.963520304377 208.684812341058 2942.05934187015 172 163 154
-207.471276685005 228.186740981839 2793.01646726329 2 7 0
-193.651044569772 227.662437468318 2786.74849432754 15 18 11
-197.814462576964 227.041254927374 2804.48729692936 14 17 10
-197.576483764359 226.438581638008 2816.45613945039 14 17 10
-181.951113761823 225.92868040251 2807.68200603022 13 16 9
-171.280939573445 225.391573242535 2805.53324913607 13 16 9
-153.340891516349 224.908315622093 2793.38062073876 14 17 10
-128.827071579744 224.481632650062 2772.02157600677 16 19 12
-117.125326450629 223.967930190567 2768.13244397642 19 22 15
-104.86186597045 223.462249017861 2763.39162035002 12 15 8
-95.0352962627477 222.93969863687 2761.97999177479 9 12 5
-90.593881618362 222.371393889346 2768.09808654881 7 10 3
-50.5406416959737 222.131435544822 2723.89955006473 11 14 5
-39.7101515408627 221.634532865162 2720.73633386277 15 18 9
-50.0870932961326 220.927845346905 2747.82763400393 20 23 14
-43.3337523701705 220.386439592318 2750.56611769171 18 21 12
-30.164673872209 219.91431604844 2744.03410175149 17 20 11
-28.0815950536057 219.322910859428 2753.51324515009 19 22 13
-26.5350988265478 218.721489046114 2763.85375689235 18 21 12
-15.1571876177059 218.233846829849 2759.83330926837 18 21 12
-6.683616973435 217.713804158809 2760.03145822012 19 22 13
-1.07680038733693 217.158317934468 2764.46370255064 19 22 13
6.24553748473322 216.624498527785 2766.35344620542 19 22 13
14.1295245591118 216.098732180855 2767.39198569325 20 23 14
29.324026475543 215.676645505477 2757.36392307838 21 24 15
33.7947091259805 215.106253541089 2763.4938840816 22 25 16
