ply
format ascii 1.0
comment KinectMotionCapture
element vertex 756
property float x
property float y
property float z
property uchar red
property uchar green
property uchar blue
end_header
74.3592749501629 850.723891186702 2860.03108149627 254 255 255
59.2494820343279 847.518757843321 2863.88305297884 254 255 253
42.6694684209221 843.859375983491 2869.1370025018 254 255 253
30.7047844282011 841.579120077091 2870.3328797784 252 254 251
21.8017340234584 840.216999891335 2868.81270460306 251 253 252
14.4253152635496 839.313796908746 2865.93087958066 249 251 250
4.79948636684657 837.725431995067 2865.12063750669 248 250 249
-2.55401182149728 836.824026090576 2862.25543719832 245 246 248
-9.89946190216862 835.923222787124 2859.39636866427 245 246 248
-15.7449451547962 835.479127153866 2855.15660367371 245 246 248
-22.3346798041133 834.807047247928 2851.6111968065 247 248 252
-31.1452709920821 833.452058826975 2850.15808341437 247 248 252
-38.4600951186216 832.553546977535 2847.32093341771 252 250 251
-45.7670056709285 831.655447598979 2844.48981670616 252 251 249
-47.9213668428535 832.348572373903 2836.75581302987 253 252 250
-56.6926526777707 830.996339559809 2835.33091240766 254 252 253
-63.9861622685343 830.099027089514 2832.50951432497 254 254 255
-72.7280113806037 828.748820515367 2831.10596327466 254 254 255
-76.3703455078699 828.98567156321 2824.76135286718 252 253 255
-80.7505406437643 828.99494690182 2819.1160296582 227 228 232
-83.6968104440738 829.455759044665 2812.04210891397 244 245 249
-87.3807805484503 829.689057882578 2805.66729770548 245 245 247
-91.0786548067881 829.921051097511 2799.28240046582 255 255 255
-94.7904157484172 830.151859592414 2792.88743047224 247 247 247
-98.5161049167707 830.381360514174 2786.48235698675 246 246 246
-100.834238328328 831.06044124165 2778.62956018302 245 245 245
-101.049764810544 832.413110639046 2768.59928998603 231 231 231
184.86343189909 863.889273481221 2851.27547260405 253 254 255
171.711145244589 861.370100178403 2852.84455230894 253 254 255
160.160337612774 859.310242247012 2853.10653712212 252 253 255
147.081755156945 856.797159293889 2854.72907742237 251 252 254
136.372659480699 854.970313324228 2854.36738081749 250 251 253
123.365850898756 852.463153984589 2856.0416870579 249 250 252
111.170196270055 850.186362194629 2857.07044081478 250 251 253
97.4689125567485 847.458069332614 2859.47551823297 251 252 254
86.1149719819747 845.414159828368 2859.88029695907 251 252 254
70.9621957645909 842.238463200369 2863.70125803181 251 252 254
55.8617525316083 839.066936025548 2867.55988304387 252 252 254
41.5745401115903 836.125825161577 2870.77446137931 250 250 250
31.1314604696493 834.320220379937 2870.60541858854 245 245 247
22.9850114245025 833.195259495891 2868.39959003784 243 243 245
13.3414279163455 831.619197338174 2867.57653958301 241 241 243
2.21409319880284 829.593047997392 2868.14567968976 239 239 241
-5.88145282085994 828.471971850836 2865.97677150552 238 238 240
-13.2161779712303 827.577474073528 2863.12550964106 238 238 240
-16.0664260862657 828.035599517709 2856.12088898001 239 239 241
-22.6543308123586 827.366366686021 2852.57711756121 243 243 245
-31.4632163092421 826.022379461056 2851.12500190715 244 244 246
-38.0368230167112 825.354234826141 2847.5913064621 248 248 250
-45.3440339642397 824.461547799404 2844.75999940227 241 241 241
-48.9678985527362 824.691949158444 2838.42874528865 249 249 251
-57.7354553817764 823.350951553594 2837.00660481093 253 253 255
-64.2942517032537 822.683469030777 2833.48364908448 254 254 255
-73.0348161254606 821.344190519764 2832.08137916308 255 255 255
-77.4007083227601 821.349237254167 2826.44610856379 249 250 252
-81.0521645643116 821.577044918708 2820.09483953447 254 255 255
-84.7174801153443 821.803610336986 2813.73351730371 250 251 255
-89.8360978941757 821.582266918586 2808.78676426187 247 247 249
-94.242237415854 821.583575220343 2803.12229858231 239 239 241
-95.7969087754389 822.476065667717 2794.58899604625 244 244 244
-99.5179733076315 822.697706948462 2788.1875297246 239 239 239
-103.252877580276 822.918097209878 2781.77572986606 240 240 240
-105.584255497224 823.582244419586 2773.9132561965 238 238 238
-101.580523402574 826.245390383853 2759.53744567825 229 229 229
218.050662030275 863.148727796108 2843.21654479148 205 205 207
198.498044898297 858.839693784912 2850.01799881073 253 254 255
183.734134076318 855.890543509092 2852.88667310312 253 254 255
173.7191625623 854.29812550018 2851.79401823439 252 253 255
162.162873710955 852.256951908118 2852.05241871144 249 250 252
149.078882496069 849.768034878674 2853.67086601497 248 249 251
136.810668014411 847.507231167775 2854.64710056871 247 248 250
122.252913035001 844.574841558133 2857.66530652703 247 248 250
108.515555556657 841.870869498572 2860.04435649275 248 249 251
94.0512609469346 838.945871989729 2863.13035131005 248 249 251
85.011607236118 837.594730880544 2861.51120509407 249 250 252
69.8615913665761 834.451987123854 2865.33403963763 249 250 252
54.7634874802121 831.313339687486 2869.19482151136 249 249 251
40.4791905572166 828.402386304323 2872.41137162937 247 247 249
30.7987386636643 826.837078473715 2871.56164896794 242 242 244
22.6540553704178 825.720385794131 2869.35714232856 241 241 243
13.7670349794696 824.381300608618 2867.84840985212 238 238 240
1.13292473727977 821.927883412512 2869.79345976437 237 237 239
-7.70916927553755 820.59231827703 2868.31731320795 235 235 237
-13.5408281600242 820.149223084134 2864.08757486431 235 235 237
-17.8806885139031 820.151419951509 2858.47116086873 236 236 238
-23.718028570493 819.707864520314 2854.23730179099 240 240 242
-31.7814672535468 818.597335353515 2852.0917223228 241 241 243
-39.0928302384013 817.709748652633 2849.25743119666 244 244 246
-46.3959166964656 816.822822084347 2846.4288487681 245 245 247
-52.220533129927 816.380058433263 2842.20421732683 251 251 253
-60.2448960817341 815.272157142143 2840.08697800084 250 250 252
-68.9876533977987 813.943634100452 2838.68317288247 249 249 251
-76.2560486685562 813.059039954702 2835.87975065011 238 238 240
-81.3373320833259 812.838152052103 2830.96006439281 244 244 246
-85.6993960577985 812.837833252805 2825.32754177646 246 246 248
-87.9050300807218 813.498974095484 2817.55650178837 232 232 234
-93.0124270441042 813.275781114398 2812.6175791097 246 246 248
-95.2547106811195 813.933713954347 2804.81995478505 242 242 244
-96.804137854533 814.810139946292 2796.29037250182 243 244 246
-101.233503638118 814.803831255549 2790.60903102777 237 238 240
-106.383564868084 814.576535169473 2785.63945380573 236 237 239
-108.703556349986 815.227754600657 2777.78546340122 235 236 238
-102.566713815058 818.512692258465 2761.25344081982 227 228 230
217.706277764552 855.306715903763 2844.1625030577 255 255 255
198.941639300016 851.267255013738 2850.30121396406 252 253 255
181.03269521619 847.456252796995 2855.82606207043 251 252 254
167.891079557866 844.987053379962 2857.40313053576 245 246 248
157.133043738996 843.188922579863 2857.00610162505 243 244 246
149.518035932172 842.282581797569 2853.95130241722 242 243 245
137.248616568581 840.043486970342 2854.92677348611 242 243 245
125.014046761251 837.807264731264 2855.92722781526 245 246 248
108.177844895478 834.242255097776 2860.99593902067 245 246 248
95.2550025086598 831.790778755564 2862.73169067024 245 246 248
83.9078561865603 829.785655703279 2863.14159115613 245 246 248
68.760182964684 826.675732208648 2866.9665846531 245 246 248
52.1369136266725 823.127375046448 2872.18973954015 245 245 247
39.3830884455384 820.689113032309 2874.0480823023 243 243 245
32.7445119978877 820.021321042504 2870.46729069228 239 239 241
25.3522714428946 819.133156737987 2867.57436676386 238 238 240
14.9476468943908 817.363237985436 2867.43367612478 235 235 237
2.31015330629525 814.934091050247 2869.37610183402 233 233 235
-7.28566610037973 813.388842778082 2868.58783267409 231 231 233
-13.1172801403863 812.945810961904 2864.35812716019 231 231 233
-17.4568334969507 812.942476524673 2858.74190769636 232 232 234
-25.5266911675749 811.83955250716 2856.59171348867 236 236 238
-33.5840758458414 810.737579197316 2854.45056603484 237 237 239
-43.1084723296888 809.197698771725 2853.71410006512 239 239 241
-48.9236489389491 808.755640107863 2849.49631532477 246 246 248
-55.4748596924741 808.094388019275 2845.97889009678 252 252 254
-61.289252769128 807.65215385503 2841.761672467 248 248 250
-71.4902388073224 805.897298241291 2841.76868002768 236 236 238
-78.0215631228776 805.237179225437 2838.26567664221 235 235 237
-81.6429561594498 805.450933051862 2831.9361298863 254 254 255
-86.0027554380125 805.445192157939 2826.30551600938 235 235 237
-91.8162970302552 805.002429535276 2822.08891296207 225 225 227
-96.9104607319742 804.777381149021 2817.15957395919 249 249 251
-98.4209932973792 805.640528488802 2808.65811994837 246 246 248
-97.8120626449537 807.154135081629 2797.9912948725 241 242 244
-102.950211551432 806.92516494036 2793.03005019154 237 238 240
-108.804757592289 806.478363574282 2788.78370168731 235 236 238
-110.406374654112 807.333664461906 2780.21647331439 234 235 237
-104.967307807494 810.355858495304 2764.41261850324 229 230 232
-96.0765387070133 814.456087879905 2744.94066468043 222 223 225
229.062948595367 849.484626697833 2844.95489734745 248 249 251
211.829012367157 845.925811418497 2849.73531380109 255 255 255
196.232331416259 842.81267110777 2853.23479571919 250 251 253
179.902002981671 839.483517909202 2857.43638340088 249 250 252
167.547511327692 837.259207924238 2858.34996416205 244 245 247
158.354084961503 835.917226417769 2856.61909678469 242 243 245
147.618925244867 834.137378386251 2856.23874385452 241 242 244
136.13230419981 832.140074346802 2856.54757574204 242 243 245
120.80057798328 829.048219092973 2860.2392368145 241 242 244
105.521041517259 825.960591790971 2863.96875276631 239 240 242
91.835081230371 823.315210092756 2866.38535842471 238 239 241
78.961051850249 820.892113010502 2868.15634493408 237 238 240
65.3595005741035 818.253390152068 2870.63417421409 238 239 241
47.9808487169455 814.525207002783 2876.54415644449 239 239 241
37.5245228504375 812.767529416062 2876.36604842055 237 237 239
30.8923937928025 812.102948208435 2872.78994692439 234 234 236
25.7789626194049 811.874855705095 2867.84691957808 234 234 236
16.1288831865138 810.339061972429 2867.01906957926 230 230 232
4.24058723655385 808.151692983618 2868.27108714584 228 228 230
-6.11124633265181 806.402181719234 2868.16876918223 227 227 229
-12.693730750579 805.741502793446 2864.62867591069 227 227 229
-20.7656294669272 804.646598331149 2862.47704272602 228 228 230
-29.5692814862081 803.3355357117 2861.02888770118 232 232 234
-38.3560344257581 802.025842106173 2859.59299011421 233 233 235
-46.3859785824205 800.93397796821 2857.47178608506 238 238 240
-52.1902643995977 800.492622348518 2853.26189987337 235 235 237
-58.7306913646941 799.834872594926 2849.75230978377 246 246 248
-63.8008996894901 799.60962444239 2844.84063001002 251 251 253
-72.5317642059755 798.303741496634 2843.44526643539 228 228 230
-79.0591335930562 797.646522216524 2839.94543922674 252 252 254
-83.4024152388144 797.636732133323 2834.32648434738 250 250 252
-87.0307813116589 797.841497188103 2827.99183715876 217 217 219
-90.6730099950313 798.045079473014 2821.64713467696 238 238 240
-95.049418826681 798.032317357612 2816.00444461668 249 249 251
-97.9992926199453 798.448616755215 2808.9273913182 242 242 244
-101.683322488723 798.648573702667 2802.55236790197 238 239 241
-106.808446983626 798.417681851606 2797.6008496381 239 240 242
-110.515976135724 798.615376632147 2791.20877963157 231 232 234
-109.273512469951 800.312320657788 2779.76681369135 228 229 231
-106.662151458539 802.433976336356 2766.84926864056 228 229 231
-101.989975059409 805.19343323931 2751.7231843916 220 221 223
253.961386506461 847.340533890135 2834.58554228468 190 191 193
231.095287987928 842.287248564929 2843.9213596708 254 255 255
213.854902691614 838.766206624694 2848.69729238674 251 251 253
195.09873616565 834.814598282541 2854.84258977266 249 250 252
179.557013117884 831.738590041786 2858.38209992885 248 249 251
162.499597326741 828.232071952927 2863.29074471003 243 244 246
154.102870150076 827.119396128327 2860.90354642684 242 243 245
145.718757101302 826.007742188763 2858.52549757021 240 241 243
132.682944698077 823.596283175248 2860.17955753964 240 241 243
118.910932288804 820.971233218983 2862.53388516237 238 239 241
102.863199598324 817.700162534433 2866.94062672925 236 237 239
93.8094586021903 816.380549706565 2865.31113355943 235 236 238
77.8550451458644 813.116799945447 2869.7855613126 234 235 237
63.4900788754726 810.289524606435 2872.94405634491 235 236 238
48.4083810995788 807.250006873453 2876.81723346972 237 237 239
37.9511026008332 805.50862191826 2876.63851738774 235 235 237
29.7991057364437 804.415652490633 2874.42882914751 233 233 235
23.1750643177642 803.754355199826 2870.85860718711 233 233 235
15.0438148741641 802.663126288481 2868.66396801104 229 229 231
5.41869581478593 801.142916470485 2867.85429125527 227 227 229
-5.68750878320001 799.194483396339 2868.43943716186 225 225 227
-13.7678564040034 798.107069022861 2866.2814226478 225 225 227
-22.5826070368202 796.806110512313 2864.82556765748 226 226 228
-32.8693111678087 795.07776731361 2864.77057063399 230 230 232
-39.4188964955036 794.422083589824 2861.25435191674 231 231 233
-45.9647713166269 793.766640714637 2857.74082424484 235 235 237
-51.7691019782838 793.325221718226 2853.53090520342 230 230 232
-59.0456157599175 792.45629030248 2850.72197150111 241 241 243
-64.846951495805 792.014934697012 2846.51422386637 243 243 245
-72.1114749430309 791.146844786066 2843.71369199873 232 232 234
-78.6390891682518 790.492294143019 2840.21370081885 255 255 255
-83.7089826047443 790.263894719366 2835.30193887552 218 218 220
-86.6101636261967 790.67345498998 2828.2604443485 222 222 224
-90.2520089834566 790.868823682084 2821.91597814451 249 249 251
-95.3485474304605 790.637857867096 2816.98518214218 242 242 244
-100.450137856679 790.406423041635 2812.05072147666 236 236 238
-106.272742641882 789.9622690173 2807.82754127963 237 238 240
-110.66861038289 789.941886029517 2802.17041196244 238 239 241
-112.939582641524 790.555902717418 2794.35147372274 231 232 234
-111.686916829007 792.226310563364 2782.91676912544 227 228 230
-111.186287362394 793.681436698089 2772.17113799366 225 226 228
-107.906333554546 795.978635643795 2758.50382818452 223 224 226
249.640798646722 838.351399832489 2838.81873293232 250 251 253
229.956449497015 834.217307734167 2845.52528323888 248 249 251
207.974056549619 829.443810331709 2854.26809820451 245 245 247
189.233104823461 825.536987799296 2860.42465197245 248 249 251
175.279908032882 822.924503067247 2862.64769881584 247 248 250
166.075079836324 821.603225146462 2860.90867087606 243 244 246
156.887381543989 820.283514170402 2859.1820687063 240 241 243
146.157063538652 818.53667849459 2858.80539285007 237 238 240
133.119949152979 816.149549226391 2860.4586322196 233 234 236
117.020322128075 812.909881835866 2864.82791353984 232 233 235
104.843154562 810.743430577057 2865.87033338247 230 231 233
93.4715688158785 808.79350249001 2866.26279678171 229 230 232
76.7484258170201 805.351653443376 2871.41438508222 229 230 232
61.6195548761018 802.341162897915 2875.25321792439 230 231 233
48.0715323987551 799.760964109534 2877.77014780896 233 233 235
39.1400263550006 798.461828331301 2876.22936908505 233 233 235
29.465339597111 796.951234925172 2875.38410283284 231 231 233
21.3276744669866 795.86755168672 2873.18485100901 231 231 233
12.4469685555715 794.572411798115 2871.68091862513 227 227 229
2.82963632369082 793.066225772968 2870.87725221709 225 225 227
-5.26386945567747 791.98594070296 2868.71002966142 221 221 223
-12.5956551922388 791.118555409412 2865.86074149382 220 220 222
-21.4130813768638 789.828243165317 2864.40270638731 221 221 223
-32.44780543767 787.904181138382 2865.03979350493 225 225 227
-40.4823143437303 786.82824690798 2862.91506660262 226 226 228
-46.2837595748558 786.387121407437 2858.70724075798 223 223 225
-51.3480311768069 786.156857764663 2853.79983923687 233 233 235
-59.3606577039147 785.082348146482 2851.69127703102 236 236 238
-66.6272551260552 784.219477522182 2848.88956260843 213 213 215
-73.8855694193132 783.357148077691 2846.09356106691 238 238 240
-80.4068259434787 782.705681463386 2842.59819434142 241 241 243
-85.470133501983 782.474947866168 2837.69119481855 221 221 223
-88.3641352665596 782.874096874659 2830.65485195295 238 238 240
-89.8311170623889 783.691483664934 2822.18473703821 253 253 255
-94.9275485057384 783.457718559121 2817.25400442614 236 236 238
-101.465579311852 782.804285244377 2813.74617322694 239 239 241
-110.148000364785 781.522639656592 2812.38605011988 237 238 240
-112.38915635494 782.125400819459 2804.58896379508 232 233 235
-113.941277877376 782.935352648037 2796.057091616 230 231 233
-112.682856777204 784.578744581478 2784.62642230862 229 230 232
-112.883741487648 785.800924756992 2774.60610529083 223 224 226
-109.5953206101 788.063202315916 2760.9447565575 217 218 220
-104.959167878089 790.737593154197 2745.79212710708 216 218 217
251.509626623516 829.867680319553 2847.54132323284 232 233 235
242.137444640736 828.543300043359 2845.68096124788 254 255 255
224.851730929765 825.094819104206 2850.42440196446 245 246 248
203.672555755595 820.589152528055 2858.51580662215 244 244 246
185.731133137533 816.938978266196 2864.01792497122 246 247 249
171.787555987422 814.354456268219 2866.24808693404 246 247 249
162.593108684149 813.044903048303 2864.51693819028 237 238 240
152.633737411173 811.525097228307 2863.46495691791 232 233 235
143.475721864437 810.218664260038 2861.75993965963 229 230 232
131.223736109404 808.068028488265 2862.74849678596 226 227 229
118.23100204096 805.708979126557 2864.43375614781 227 228 230
106.823561850305 803.775155321251 2864.80060394342 225 226 228
95.4465484295839 801.843726321446 2865.18922640703 224 225 227
78.7170995965125 798.439592115262 2870.33614002982 223 224 226
62.8151145691218 795.250706831145 2874.84895347334 227 228 230
49.2634235669827 792.697394287255 2877.36336015013 235 235 237
36.5171872629131 790.357667169893 2879.22770334989 234 234 236
26.8506568871705 788.861226265537 2878.38812704136 231 231 233
17.9634282855772 787.576431340649 2876.87951861945 230 230 232
11.3602400656414 786.922031461801 2873.32474300162 225 225 227
3.25381235160549 785.848884473657 2871.14818921554 223 223 225
-4.84018721455204 784.776624816464 2868.98064935359 220 220 222
-13.6707768709385 783.496059814903 2867.51312113719 220 220 222
-22.4844641465469 782.21680435087 2866.05785245039 221 221 223
-31.2812938858578 780.938795047648 2864.61481046346 224 224 226
-39.318750797861 779.870757513132 2862.48828096407 226 226 228
-45.1224971111095 779.429266367829 2858.27878516383 222 222 224
-51.6650897522299 778.779167610117 2854.76766388327 221 221 223
-58.9400826201036 777.921173035897 2851.95988812106 231 231 233
-66.9408644750822 776.855449408044 2849.85995687359 212 212 214
-75.66066330319 775.58284405429 2848.47278361018 229 229 231
-81.4461020776975 775.14217884183 2844.27656351898 235 235 237
-86.5050613224998 774.908999905578 2839.37299827241 215 215 217
-89.3941641406062 775.297433433742 2832.34015248163 241 241 243
-93.0243728252747 775.477016557848 2826.00404199294 252 252 254
-98.8303225594245 775.034271522206 2821.79294253466 233 233 235
-104.637053490573 774.591224225633 2817.58127523899 233 233 235
-111.160673088553 773.941288388259 2814.08390874753 233 234 236
-114.110715904208 774.324127915032 2807.00685791729 232 233 235
-117.079122937101 774.70541999159 2799.91648663592 228 229 231
-117.936910248566 775.703754315694 2790.65357523246 225 226 228
-117.411740893173 777.111460319923 2779.92549339745 222 223 225
-113.400754621258 779.545349138025 2765.55348587744 219 220 222
-110.858325119338 781.56272381288 2752.58544270051 220 222 221
258.948198533317 822.88674652566 2851.66301184509 201 202 204
252.755434436688 822.41290418804 2847.17134488646 251 252 254
239.403447503584 820.049077428953 2848.59644445844 243 244 246
222.12453464738 816.639263988974 2853.34501111829 239 240 242
202.533436788089 812.605209711062 2860.11966798664 239 239 241
186.171834701197 809.415175583706 2864.29928939589 244 245 247
172.226848564983 806.857782621869 2866.52856736853 239 240 242
164.60078213233 805.977381298953 2863.46617739233 228 229 231
153.854080263287 804.261718982928 2863.07778242286 225 226 228
142.353143124603 802.339368800793 2863.37661592466 223 224 226
131.660213206345 800.628182100094 2863.02722405973 218 219 221
119.441785737726 798.501941570312 2864.03993739375 218 219 221
108.804800921028 796.795287046757 2863.73112428324 215 216 218
93.5658087296836 793.841544263178 2867.4907097965 216 217 219
76.0716544419817 790.267751567966 2873.31744939111 221 222 224
59.4096830310007 786.906961364334 2878.51349838314 222 223 225
45.8673742427429 784.381532576501 2881.03484766372 231 231 233
34.6556847947408 782.482027603318 2881.54377318185 229 229 231
25.7552960224325 781.206920444572 2880.02567374178 226 226 228
17.6298833384618 780.140360621003 2877.83539071112 225 225 227
11.7848598039423 779.695824279516 2873.59595674776 221 221 223
4.4317707006285 778.837586550045 2870.73127164917 219 219 221
-2.9133632850189 777.979884144569 2867.8726505737 218 218 220
-10.2504536667278 777.122773616902 2865.01986347636 217 217 219
-19.0736453540987 775.85356182007 2863.55775571179 216 216 218
-28.6248131929994 774.379430975655 2862.80192117303 215 215 217
-38.8976406641808 772.700813534813 2862.75723550714 217 217 219
-46.1826128285852 771.847477085372 2859.94224913423 213 213 215
-52.7210176183801 771.20034631819 2856.43417874992 213 213 215
-59.255809843179 770.553478337153 2852.92872852214 221 221 223
-67.2548275967806 769.49605265196 2850.83011814012 206 206 208
-75.9731952000879 768.234257386296 2849.44403715734 222 222 224
-81.7564865471057 767.793676523688 2845.24937420941 220 220 222
-86.8131930112868 767.557812384661 2840.3474284505 233 233 235
-91.8751100608859 767.321287154844 2835.44170207847 248 248 250
-96.2190680816364 767.288829243676 2829.82214206343 246 246 248
-101.293420846645 767.051117350779 2824.90739476523 216 216 218
-105.654283864135 767.016961355361 2819.27557135615 227 227 229
-111.457485317155 766.57393113871 2815.06646274102 229 230 232
-115.119005567078 766.742135592186 2808.70759619523 228 229 231
-118.0825136535 767.112712188417 2801.62072198869 224 225 227
-119.64486520005 767.888707325428 2793.08126184948 221 222 224
-119.1118295654 769.272316646514 2782.35876039372 218 219 221
-117.208270701954 771.059001869711 2770.16115992141 215 216 218
-115.354077270948 772.841638556904 2757.928047364 217 219 218
-112.14714587938 775.025920699512 2744.20723010105 243 245 244
262.596060629146 816.049103744892 2849.33234992508 220 221 223
252.405907752492 814.537198397386 2848.11340463755 249 250 252
238.259281988388 811.990594069039 2850.19656438729 239 240 242
220.18940374998 808.411981983798 2855.60592499232 234 235 237
202.976032591675 805.045534962569 2860.40222388716 241 241 243
188.979569423053 802.511155222932 2862.59430162695 242 243 245
175.813315974037 800.186989399274 2864.15424425575 234 235 237
164.25533915656 798.278957156448 2864.41180100029 222 223 225
153.510002242635 796.579655734743 2864.02447838706 220 221 223
142.790419884234 794.882500463073 2863.65583667144 217 218 220
132.09673321689 793.187562518807 2863.30597852611 214 215 217
119.877145710817 791.083094249414 2864.31796120501 216 217 219
106.918309791193 788.775612071193 2866.02834973334 211 212 214
90.9125941436226 785.649358846268 2870.46628388029 213 214 216
74.1942019092843 782.322233968444 2875.6216027349 221 222 224
59.0706166649486 779.410042351017 2879.46505967179 220 221 223
47.0588533092808 777.321902333099 2880.62778121832 227 227 229
33.5560209898889 774.82673552778 2883.17790111656 226 226 228
23.1383922373789 773.153444427518 2883.02827289059 223 223 225
14.2630724927608 771.891092154419 2881.5284111297 222 222 224
9.94110756039435 771.855885757106 2875.92507492918 218 218 220
3.34807357437228 771.2075257099 2872.37739644814 216 216 218
-3.24111042006869 770.559507426856 2868.83251063926 219 219 221
-11.3257911161302 769.504073788354 2866.67181145222 216 216 218
-19.3979955187875 768.449531381128 2864.52016111079 214 214 216
-27.4576787835601 767.395943581894 2862.3775924447 211 211 213
-36.2477528877327 766.139989333929 2860.93955947506 212 212 214
-43.5397094228986 765.291374400209 2858.11953389814 210 210 212
-51.5620584479874 764.240422755954 2856.0040429718 207 207 209
-58.8354768571691 763.393179771175 2853.19716855019 210 210 212
-66.1010796336936 762.546371194827 2850.39625652489 196 196 198
-75.5541925673724 761.092700220557 2849.71160771279 218 218 220
-80.6079257185615 760.85423912182 2844.81180421781 216 216 218
-86.3942370295503 760.41317463319 2840.61494958388 243 243 245
-91.4560711482586 760.173848162387 2835.70926914139 253 253 255
-97.2461453778302 759.73218011631 2831.50968363034 237 237 239
-102.316123658014 759.491895158525 2826.59809445646 211 211 213
-106.672417148589 759.452523299028 2820.96955717558 224 224 226
-111.038260924041 759.412258272317 2815.33409216532 227 228 230
-114.699437740762 759.572096541677 2808.97543220522 226 227 229
-116.950413055108 760.13262989394 2801.17101375057 222 223 225
-119.224014668456 760.691200417641 2793.34988858978 220 221 223
-119.397445410405 761.849617626897 2783.34915056765 217 218 220
-118.901204626398 763.205531728774 2772.59954098066 213 214 216
-117.038865292631 764.958597954448 2760.37218378178 212 214 213
-115.225732337265 766.707707786615 2748.10913578917 206 208 207
267.045526319539 809.394135216562 2846.34838173271 252 253 255
254.449897173774 807.28066176865 2847.08801266589 235 236 238
240.297577471726 804.760839347556 2849.16718041414 240 241 243
219.046838626444 800.404828723077 2857.2074650763 236 237 239
202.627064791438 797.280878456377 2861.34525127168 247 247 249
189.420744406521 794.977951369924 2862.87596162495 234 235 237
177.82696789213 793.085908356377 2863.10794187081 225 226 228
163.909351028702 790.585218970323 2865.35734762817 214 215 217
152.382822708724 788.69873293975 2865.63781119551 211 212 214
141.666861543084 787.018240830441 2865.271878962 205 206 208
132.533148403412 785.746217519822 2863.58465332893 204 205 207
120.312359316453 783.663398657707 2864.59587461472 218 219 221
108.899934243283 781.786186134549 2864.95910103289 207 208 210
91.3445947413027 778.289296139815 2870.74217016428 209 210 212
73.8546439139665 774.797483895232 2876.57237218417 220 221 223
57.9642315107964 771.715521650889 2881.09411645623 213 214 216
49.0155111910879 770.458256204902 2879.54136529482 218 218 220
37.0325043255546 768.393983428763 2880.72505392702 217 217 219
27.3657591551504 766.938101532537 2879.88582182565 216 216 218
17.7204823857418 765.483948457837 2879.06186690612 216 216 218
11.1214293994699 764.837729532353 2875.50983596855 214 214 216
3.0179497134859 763.789017612512 2873.33554303935 213 213 215
-4.32127221236867 762.942428548917 2870.48126403346 214 214 216
-10.152941280348 762.49864547717 2866.25151482335 209 209 211
-18.2278541640044 761.451949067828 2864.09794078777 205 205 207
-26.2902907542559 760.40614388976 2861.95341559779 204 204 206
-34.3402543521498 759.361289419361 2859.81793716169 203 203 205
-41.6367525925856 758.51773288567 2856.99435035046 205 205 207
-49.66402314236 757.474418086172 2854.87533038797 200 200 202
-57.6788638937333 756.431960879429 2852.76532539547 205 205 207
-65.6812283517016 755.39039490396 2850.66436924859 193 193 195
-72.9391710063769 754.549344851017 2847.86903937714 212 212 214
-79.4591303913459 753.908398256827 2844.37437178449 213 213 215
-85.2477444349813 753.466997861634 2840.1758461491 250 250 252
-91.7626079616938 752.826165369718 2836.6848732308 254 254 255
-97.550600379972 752.38445687022 2832.48679666428 224 224 226
-103.339332451815 751.942568962905 2828.28818299838 212 212 214
-106.972214741355 752.09669373328 2821.95000540487 225 225 227
-112.052488067527 751.852378467844 2817.03093271814 224 225 227
-114.27989261704 752.401159494778 2809.24324720908 223 224 226
-116.530246525203 752.947882622747 2801.43920927353 220 221 223
-118.803231683936 753.492732136744 2793.61846149422 218 219 221
-119.683381052179 754.431373486316 2784.33933147891 216 217 219
-119.183884853613 755.762708244334 2773.59225178921 213 214 216
-118.021029537833 757.288419305127 2762.09141425141 212 214 213
-115.500748263467 759.205123712402 2749.1068054369 197 199 198
275.311315343244 802.580705409987 2849.83584397307 221 222 224
269.095454598177 802.104753011002 2845.3274230732 242 243 245
256.494619988063 800.012653996593 2846.06309424288 236 237 239
236.765221780965 796.106419706093 2852.73814167106 236 237 239
216.31629009985 792.004444299178 2860.1259235672 240 241 243
197.528779115143 788.311735641588 2866.24981006398 240 240 242
186.704331318836 786.638406503975 2865.80526983855 229 230 232
175.118641615862 784.766126274824 2866.04291801197 221 222 224
162.77831419594 782.695280607617 2866.96754405571 212 213 215
151.255212026633 780.828100538597 2867.25058910128 206 207 209
141.323325675937 779.364749174491 2866.2191126656 199 200 202
130.634442477505 777.702641256426 2865.87290294794 200 201 203
118.419102494381 775.641891093592 2866.88818618771 219 220 222
107.786212543035 773.984319252995 2866.58259014595 205 206 208
89.4611806015186 770.328329757926 2873.04192356073 207 208 210
71.9754797571164 766.877577219413 2878.87541445946 217 218 220
54.5548395761415 763.431896575237 2884.75638938873 207 208 210
47.1471271324284 762.585394448026 2881.8521661081 213 213 215
37.4582576613389 761.141252210848 2880.9969550927 212 212 214
28.5516968284698 759.898056066106 2879.47454302978 212 212 214
19.6620350753318 758.656228935285 2877.96438840474 213 213 215
12.3018599739964 757.813349246075 2875.09493878349 212 212 214
4.19572325358564 756.772427748049 2872.91875917335 210 210 212
-3.89798696946952 755.73242331917 2870.75159244148 212 212 214
-11.2292726566667 754.891754148681 2867.90280209276 204 204 206
-19.3002482881695 753.853412243816 2865.7521245725 201 201 203
-25.8679864828426 753.212070532854 2862.22311357673 194 194 196
-32.4319688786288 752.570933109388 2858.69653179745 186 186 188
-38.2512397885013 752.127706348102 2854.47577309457 199 199 201
-46.2879110474306 751.091695401374 2852.34997535284 184 184 186
-55.7852442432312 749.661864503888 2851.63339108371 197 197 199
-63.7925767208887 748.627901734655 2849.52887202507 184 184 186
-71.7874777496212 747.594766819979 2847.4333689823 201 201 203
-79.770041969959 746.562422221015 2845.34681315833 215 215 217
-85.5565775033476 746.121040848794 2841.14979437572 209 209 211
-89.8927202665905 746.072468278857 2835.53611266074 217 217 219
-93.5149243400053 746.219362816867 2829.20563931143 200 200 202
-101.478529406474 745.187867066929 2827.13283168229 217 217 219
-106.553458972452 744.941285875603 2822.21732684698 213 213 215
-111.633716634453 744.694074304102 2817.29825084518 216 217 219
-112.431259398914 745.620439048511 2808.07894193644 216 217 219
-116.822585020431 745.566579151755 2802.42493573146 215 216 218
-120.513253963121 745.707090858399 2796.044798407 214 215 217
-121.385859869569 746.627016188288 2786.7710420078 213 214 216
-119.466791439755 748.324306978151 2774.58452642773 211 212 214
-118.300556235091 749.822760307211 2763.08629545475 208 210 209
-113.671895226515 752.290995636172 2747.92719087583 199 201 200
274.155715336221 794.481555733234 2851.42717433483 242 243 245
267.944431717199 794.005914388689 2846.92207306686 207 208 210
253.750117991412 791.537007469729 2848.97135082518 230 231 233
236.415354220364 788.275195442968 2853.68017962127 230 231 233
215.966020512212 784.222196909368 2861.06762367993 235 236 238
198.761840612675 780.970724657251 2865.87116788428 233 233 235
187.934466217551 779.313528237858 2865.4245878203 217 218 220
175.558185602058 777.261437452233 2866.32354009949 218 219 221
162.431636597221 775.013873049938 2867.9123588515 210 211 213
150.909517913093 773.165662058163 2868.1965074056 204 205 207
140.198691080792 771.518046292295 2867.83416920804 195 196 198
130.291864695708 770.070227167114 2866.82093795009 198 199 201
118.853796994672 768.228934371587 2867.16575742058 219 220 222
107.445966334676 766.390061241689 2867.53250862349 204 205 207
90.6646351080909 763.172217137765 2872.6427551881 205 206 208
72.4045671497571 759.564774843941 2879.14942828184 215 216 218
55.7490246004959 756.356623561663 2884.35120531618 203 204 206
45.2774609472733 754.72788295921 2884.16240970969 205 205 207
37.8840057652003 753.887743899492 2881.26884852951 204 204 206
30.4986373810223 753.048289832498 2878.38115311133 205 205 207
22.3626812967366 752.013107664217 2876.18338587878 206 206 208
14.2392883416043 750.978903019221 2873.994436401 206 206 208
6.88262294371711 750.141624854683 2871.1275594115 204 204 206
-1.21817865375373 749.10914123235 2868.95529008535 206 206 208
-7.80644040844303 748.468904613171 2865.41111224341 198 198 200
-16.634467572104 747.242376379587 2863.94571533955 195 195 197
-23.9545242142483 746.407735341554 2861.10539017593 188 188 190
-32.0099944630996 745.378446113487 2858.96599869205 178 178 180
-37.8293052658822 744.935066760892 2854.74521029704 201 201 203
-45.866470311601 743.907081226979 2852.61909524903 179 179 179
-54.6279705414081 742.685255363092 2851.2019489577 186 186 188
-62.6380596455909 741.65913469142 2849.09547128344 173 173 175
-69.1708530827668 741.022435723516 2845.59152152751 198 198 200
-77.1605327502831 739.997609980935 2843.49984564852 220 220 222
-83.68193953324 739.361485354497 2840.00444770742 176 176 178
-88.7478509067137 739.113185240914 2835.09547164563 195 195 197
-93.0956168600252 739.057935656698 2829.47333021172 196 196 198
-101.059832776052 738.034396092369 2827.40012006435 218 218 220
-106.854027029522 737.591587736904 2823.19754208416 203 203 205
-112.649028203277 737.148504908544 2818.99437775998 215 215 217
-114.156025448841 737.862997317383 2810.49473361143 214 215 217
-119.253106379378 737.611216221022 2805.56314444067 213 214 216
-121.514032250309 738.129272156133 2797.75129745871 213 214 216
-121.672964674071 739.222866488595 2787.76044675917 212 213 215
-119.750109162149 740.890263575763 2775.57652509825 211 212 214
-118.58026114575 742.361527427876 2764.08077540953 205 207 206
-115.350475247242 744.405022681654 2750.37581275306 202 204 203
290.475255433694 789.628088463252 2848.4116504777 200 204 205
279.421492616088 787.968384167909 2847.80094391202 236 237 239
266.792604832344 785.917296927685 2848.51648647017 204 205 207
251.803175753788 783.279334426912 2851.22325399299 230 231 233
232.084027152453 779.466483996896 2857.90649906381 230 231 233
217.20341026438 776.837276753246 2860.69219121279 235 236 238
198.411229140089 773.231326116725 2866.81313167221 232 232 234
187.585174855603 771.590427214933 2866.36759113475 212 213 215
175.997533424749 769.755926196705 2866.60401581812 209 210 212
166.01080030264 768.31521509426 2865.53259998772 198 199 201
156.828354457158 767.071654910729 2863.81019114755 200 201 203
144.539313942067 765.048408166804 2864.77253173808 194 195 197
130.727548949209 762.637694910959 2867.09912752225 203 204 206
117.735431306391 760.42534703937 2868.78587129318 222 223 225
104.008023877703 758.021348199375 2871.17365368573 208 209 211
90.3238145397682 755.620639783137 2873.59276796281 208 209 211
73.6033647981715 752.445605337299 2878.74736565452 194 195 197
59.2468565279995 749.858050195219 2881.91320630175 193 194 196
45.7033996707645 747.468326092927 2884.43441069361 197 197 197
36.7829428954618 746.24555222563 2882.90232308536 191 191 191
27.8795251327351 745.024148349998 2881.38229988321 195 195 195
20.5109085700972 744.191238720915 2878.50648688981 193 193 193
13.9068571265302 743.552391918998 2874.95116428215 198 198 198
8.0611510216726 743.10708335592 2870.71123159753 197 197 197
1.46244087831393 742.468629028603 2867.15948852332 188 188 188
-4.38249489812259 742.023382870718 2862.92011458231 187 187 187
-13.9680139220089 740.614079682491 2862.14000097834 185 185 185
-22.0406025710962 739.591637961215 2859.98794020775 181 181 181
-30.1008997041041 738.570023116752 2857.8450884848 174 174 174
-35.9247262832199 738.126098704467 2853.62102374632 174 174 172
-43.2276780277432 737.297831962468 2850.79313057508 208 208 206
-50.5226758572883 736.470030344842 2847.97100572251 172 172 170
-57.8094403540002 735.642795744896 2845.15455778365 168 168 168
-67.2860412735639 734.241210877228 2844.45344033275 201 201 201
-76.0110355775765 733.032588464762 2843.0628248442 201 201 201
-82.5347088629425 732.398868723936 2839.56550157133 196 196 196
-87.6029799710167 732.147430485059 2834.65509346937 197 197 197
-92.6764201210752 731.895454008504 2829.74093549229 187 187 187
-101.362757148869 730.689156725024 2828.37835526549 209 209 211
-106.435599746334 730.436870194003 2823.46462889655 209 209 211
-111.513471452938 730.184046403047 2818.54695962072 214 212 215
-113.736890527531 730.691608832807 2810.76224896418 213 211 214
-118.8340022889 730.436897791861 2805.83062260276 209 207 210
-121.094261909167 730.941206879396 2798.01918896963 208 208 210
-121.960594824383 731.823045886918 2788.74978708091 210 210 212
-120.740097467579 733.270960617381 2777.29063591207 211 211 213
-119.56442359576 734.715244145674 2765.79897284962 209 209 209
-117.030112039145 736.534168917851 2752.82374513598 206 206 206
-113.15041812001 738.72702992625 2738.35563461118 198 198 198
292.536500254094 782.28894991012 2847.39834891809 207 211 212
281.477604396078 780.645050227083 2846.78400135534 225 226 228
265.640108924888 777.838990820325 2850.11046711376 199 200 202
247.459337917043 774.455539800563 2855.44042771293 229 230 232
230.140209521296 771.271018418405 2860.16098241861 231 232 234
214.470117695575 768.47849070196 2863.60887119288 232 233 235
198.852363357987 765.690143161924 2867.09472170266 228 228 230
188.815445345976 764.258749138321 2865.98697296741 209 210 212
181.162666868786 763.408266270655 2862.90537040294 205 206 208
170.376482406796 761.787056690212 2862.48883208096 195 196 198
158.832853805283 759.975149607145 2862.75727704634 199 200 202
143.414229364471 757.202933809507 2866.38756277839 195 196 198
129.605393434448 754.819611404423 2868.71642064277 206 207 209
118.94645639578 753.208640182181 2868.39188407584 220 221 223
105.989730263647 751.023475150437 2870.1044215946 200 201 203
93.8440856883802 749.033293106489 2871.17088044135 213 214 216
77.1126760539156 745.895397725471 2876.31772118951 186 187 189
65.8171146607005 744.103198518001 2876.76609519248 189 190 192
51.4889056857379 741.547748098217 2879.95261321949 190 190 190
39.498613239302 739.56952399918 2881.13175070915 182 182 182
28.3041291120694 737.78515471461 2881.65343743943 190 190 190
20.176050833137 736.76662207889 2879.46146532927 189 189 189
14.3310270182639 736.321219429372 2875.22202677465 191 191 191
9.24016234129788 736.066357289964 2870.29492829268 190 190 190
4.14396131569283 735.811013461366 2865.36425341487 180 180 180
-1.70760864023412 735.36505062951 2861.12006658547 179 179 179
-10.552330341111 734.158737469513 2859.64266984864 178 178 178
-17.8885222734615 733.333363948316 2856.7906948106 174 174 174
-26.703959940686 732.129214018277 2855.33453765191 170 170 170
-34.7611798389209 731.115764519662 2853.1939580412 143 143 141
-41.3272649104961 730.482014348629 2849.66588940526 189 189 187
-47.152755126231 730.037566828426 2845.44061601144 165 165 163
-55.1837607508339 729.025822771619 2843.31904832553 160 160 160
-66.133266146251 727.259298078597 2844.01841575298 169 169 169
-74.1306463872184 726.249919589974 2841.92123580734 162 162 162
-79.9307035263197 725.806875250649 2837.71440650093 153 153 153
-86.457848813362 725.175244478043 2834.21487135801 186 186 186
-93.7050395867336 724.355606961443 2831.42714973647 187 187 187
-100.944437149689 723.536372164916 2828.64537409635 207 207 209
-105.297585394521 723.469085896537 2823.01897547925 205 205 207
-110.377839257966 723.213092291928 2818.09985774838 214 212 215
-114.032954942731 723.33169052566 2811.74538274328 211 209 212
-118.414986517212 723.261556563034 2806.09803155998 207 205 208
-121.385327132312 723.564845806673 2799.00586348388 207 207 209
-122.956961462669 724.240585610468 2790.45916624355 208 208 210
-122.437071967602 725.474606823068 2779.72637717741 210 210 212
-121.253421511826 726.891934900999 2768.24035997623 209 209 209
-121.518347405586 727.932523053723 2758.17240386152 205 205 205
-119.720352868112 729.52916503705 2745.897609427 201 201 201
293.792836097807 774.746526562663 2847.03585309232 216 220 221
286.746790766132 774.076463241946 2843.15966708771 201 202 204
271.695234612825 771.493162185012 2845.8219687162 192 193 195
251.899370837717 767.766719397449 2852.44974451509 229 230 232
227.398357811086 762.900108398979 2863.07169076117 231 232 234
210.146894467965 759.759035835261 2867.84151738437 224 225 227
196.916937119795 757.576230992086 2869.35599571841 215 215 217
187.675923333401 756.349254694197 2867.59121372863 198 198 200
178.451896665175 755.123803901864 2865.83875379031 195 195 197
168.459203391455 753.709534907789 2864.76344573032 194 194 196
158.488064906643 752.297180965071 2863.70347841991 198 198 200
146.194511079238 750.316912730437 2864.66276490864 190 190 192
130.819635334382 747.580671598343 2868.32465274578 204 204 206
118.603841483521 745.60661317329 2869.34034055489 221 221 223
107.197252771299 743.824657023261 2869.70828036798 180 180 182
96.5931349782916 742.234238087851 2869.42388202053 220 220 222
81.3934855614886 739.511744163895 2873.21286479471 182 182 184
68.5497265870954 737.359807489297 2875.00746292514 192 192 194
54.9790485779145 735.022245041945 2877.50919833209 183 183 183
41.451522164484 732.687939379828 2880.04223174796 170 170 170
31.0129600508362 731.110364734531 2879.87791330448 182 182 182
22.8778418440609 730.099297329287 2877.68087561325 177 177 177
17.0262319952235 729.653181906122 2873.43665909172 177 177 177
11.9287450540568 729.394866200894 2868.50503697314 187 187 187
6.07356913522672 728.948521630105 2864.25823417069 167 167 167
-1.283248409224 728.126963276925 2861.39103203383 163 163 163
-9.38041308656601 727.118701683667 2859.22152187805 163 163 163
-16.7191151567785 726.298471884769 2856.36775324147 157 157 157
-23.3059069151713 725.66573271286 2852.82467900727 161 161 161
-31.3724312315082 724.659594867664 2850.67739146028 151 151 149
-35.7291644187723 724.587627008551 2845.04837032873 142 142 140
-43.0446372379831 723.768860831337 2842.21144848547 172 172 170
-50.3520162093705 722.95056075624 2839.38010192912 143 143 143
-62.0488370691203 721.015707099997 2840.77220291481 157 157 157
-70.7884971961517 719.827344621963 2839.37105847872 161 161 161
-78.7829123135457 718.825973037392 2837.27606857098 211 211 211
-86.7649424770183 717.825395668857 2835.19006080351 188 188 188
-94.010586407693 717.011091534065 2832.40378201291 184 184 184
-99.0823528821099 716.753265904006 2827.49051321488 204 204 206
-103.439947780382 716.679924231134 2821.86115492901 205 205 207
-109.241972564322 716.235734717683 2817.65289343433 214 212 215
-113.614193351615 716.160928979142 2812.01263063658 208 206 209
-119.422285437308 715.715829739878 2807.79996621744 206 204 207
-123.809363385949 715.639461942685 2802.14892523422 208 208 210
-126.080215740701 716.115042410805 2794.32966718568 208 208 210
-123.428496901792 717.877610925962 2781.43926506102 210 210 212
-122.943436306157 719.08389743835 2770.68108730067 209 209 209
-122.498648995436 720.286821391419 2759.89340306756 201 201 201
-121.394571294232 721.670041802375 2748.34952911636 207 207 207
295.855105332405 767.387187973247 2846.02319183525 215 219 220
286.394557464583 766.152802876762 2844.09952185475 193 194 196
271.344035831727 763.599566664372 2846.76243123653 188 189 191
253.944431136601 760.48478878456 2851.42500021993 227 228 230
227.842181789487 755.303491980923 2863.35494987499 229 230 232
212.177771153424 752.57668426392 2866.80699547262 220 221 223
200.526859966149 750.793814314251 2866.99781608086 210 210 212
192.066591135082 749.764680600662 2864.56497825361 194 194 196
181.255218780165 748.173811667823 2864.13033437188 192 192 194
168.898071721358 746.210048805241 2865.04360437299 193 193 195
156.575581636707 744.249142929509 2865.98171794845 195 195 197
143.506180963417 742.103899675623 2867.61277749941 187 187 189
129.696471037996 739.774664235637 2869.94127574702 207 207 209
119.037866088551 738.196141294444 2869.61743875262 220 220 222
109.179855640094 736.806274855099 2868.63959427366 179 179 181
97.0252700146159 734.858682752385 2869.69978728875 224 224 226
82.5940822485882 732.354932436341 2872.81191566366 181 181 183
69.7468082480603 730.227116353931 2874.60408785218 191 191 193
56.9384395816646 728.102292319556 2876.42418402599 183 183 183
44.1687910242403 725.980495916573 2878.27265904569 166 166 166
36.0075623096381 724.97543842787 2876.05672373152 178 178 178
27.8587135973876 723.971264369792 2873.84976742001 173 173 173
21.2368479790612 723.338730758648 2870.28126843744 170 170 170
13.108514212584 722.336129024245 2868.08919181206 183 183 183
7.25104381372388 721.889299855908 2863.84072323749 161 161 161
0.642142098321585 721.257677464319 2860.28192115733 155 155 155
-5.96300051714671 720.626199883831 2856.72555038541 156 156 156
-14.0570846586694 719.626044160028 2854.55831443361 150 150 150
-19.1624945480997 719.363999442771 2849.62063543555 156 156 156
-27.2405313746558 718.364874883276 2847.46503774789 143 143 141
-31.6081211724497 718.28645182929 2841.82840820785 134 134 132
-39.6724714653511 717.288197056397 2839.68273658616 158 158 156
-45.5185946550669 716.841689700398 2835.44249547571 131 131 131
-56.4968704870366 715.110801475713 2836.12118710544 146 146 146
-68.9069192990641 713.01550793461 2838.23047789704 123 123 123
-80.5494014411468 711.106195272702 2839.66180507196 206 206 206
-88.5254672887918 710.114047007685 2837.58016365939 191 191 191
-94.3163612381024 709.671028063141 2833.37997707344 185 185 185
-97.941925848007 709.775650458137 2827.04685348278 196 196 198
-102.301357427573 709.696533716592 2821.41584001856 207 207 209
-108.823514949829 709.069578691346 2817.91994429636 212 210 213
-113.910953914471 708.807018273513 2812.99529019306 206 204 207
-119.716989912156 708.361906368862 2808.78411621185 207 205 208
-123.390748474241 708.461758230937 2802.41603163305 209 209 211
-125.660955350046 708.923530424926 2794.59717156434 208 208 210
-124.420869591352 710.290376466078 2783.15180981717 209 209 211
-125.338895609605 711.109807407851 2773.84461838572 210 210 210
-124.88407382042 712.288780454186 2763.06408704413 201 201 201
-121.669711724341 714.187999514384 2749.34721255675 207 207 207
301.140330136873 760.761411085089 2842.41019449287 210 214 215
290.862926115762 759.35069321496 2841.12851152322 186 187 189
274.998449383229 756.640398010138 2844.43590305404 173 174 176
254.392048017308 752.819833990234 2851.71066274223 215 216 218
230.67644633476 748.263045052375 2861.66850311376 218 219 221
215.00368553579 745.568181002148 2865.11465730106 210 211 213
200.175309843375 743.062614250996 2867.93914094814 200 200 202
191.716954501834 742.041700966449 2865.50773188838 187 187 189
180.906902257554 740.467129551211 2865.07412753316 185 185 187
167.765087456784 738.340385063636 2866.65249176059 185 185 187
157.013239852754 736.77058861719 2866.2611053774 185 185 187
144.723892004864 734.833915636003 2867.22366168899 178 178 180
133.248523923735 733.084354784598 2867.54190595831 214 214 216
119.471838966655 730.784858683635 2869.89449534587 202 202 204
107.288360277888 728.856722054739 2870.93354723156 185 185 187
