ply
format ascii 1.0
comment KinectMotionCapture
element vertex 757
property float x
property float y
property float z
property uchar red
property uchar green
property uchar blue
end_header
176.068099531795 706.591364945204 2792.55966262609 205 205 207
179.69128373267 707.148924918087 2800.49580144595 206 206 206
179.799362547925 708.942643501732 2814.55150066644 205 205 205
179.973930464462 710.731064390452 2828.6341610089 202 202 202
-282.522183230693 766.832670286623 2867.51369318711 205 209 210
-269.025579544183 764.453594273582 2862.20755220265 240 244 245
-255.578667324707 762.078425334286 2856.88126188006 138 139 141
-237.841901088936 758.427922724515 2845.74939833447 153 154 156
-217.102435071155 753.871012894654 2830.44562184436 175 176 178
-193.398422446037 748.410743123299 2810.95471858814 174 175 177
-179.627712862324 745.876048434544 2804.6816753201 159 160 162
-168.961326003006 744.255717283006 2802.53959550575 164 164 166
-157.716804426378 742.455954228615 2799.55363579815 182 180 183
-146.506965481128 740.658963488183 2796.55386955154 186 184 187
-137.740953797427 739.590438870719 2796.87458315558 169 167 170
-128.989315876469 738.52311283564 2797.18946783981 170 168 171
-117.862708578761 736.732806046794 2794.15595102522 165 163 166
-104.391010605848 734.221586857189 2787.76191935932 192 190 193
-88.6042126251689 730.991806897114 2777.99495478168 145 143 146
-74.0718006991048 728.12871046861 2769.87519231398 221 219 222
-61.3658151673462 725.811556336869 2764.24846627912 205 203 206
-49.8789000870752 723.858347523759 2760.28326214704 184 182 185
-37.8489395484272 721.728212457579 2755.46020896333 178 176 179
-27.6027630984499 720.140700994315 2753.14748293523 183 183 183
-19.1178169481907 719.094050713622 2753.35448651757 185 185 185
-12.3713764509115 718.586681228633 2756.08991828493 159 159 159
-1.61808872054081 716.824851405459 2752.90477394354 168 168 168
6.82178494908858 715.781622692668 2753.09350206269 167 167 167
15.2474761028945 714.739463271893 2753.27622245 146 146 146
21.4002014669383 714.412711148747 2756.84870227183 150 150 150
27.5588212457805 714.085492022165 2760.4235722403 182 182 182
33.7233540386412 713.757769116543 2764.00109739137 171 171 171
41.0082975652597 713.073474610007 2765.87684090037 150 150 150
48.8436992357009 712.211506289028 2766.89825682106 145 145 145
53.9093087918296 712.23851395789 2772.18576325117 144 144 142
58.9910872127839 712.264156347714 2777.4795694622 149 149 147
65.1829819267569 711.934026503955 2781.06819150556 131 131 129
73.0148078492479 711.071928464036 2782.08790338788 124 124 124
83.5479242008879 709.325893149731 2778.81375072082 115 115 115
97.2842576876358 706.52192330109 2770.37121355974 129 129 129
110.956117215891 703.722762722822 2761.90253489587 155 155 155
122.425451453842 701.633578013696 2756.85217769535 174 174 174
130.658236350026 700.604520366394 2756.95669239535 179 179 179
138.347308428476 699.752352181638 2757.91878621676 179 179 181
142.865458309211 699.955266397317 2764.0621049158 196 196 198
149.502650192176 699.45407176701 2766.75325588813 193 191 194
155.096813467548 699.303383086872 2771.1773087276 195 193 196
160.702211030424 699.151660308907 2775.60566086225 208 206 209
165.284718847929 699.348907692907 2781.77508058777 208 208 210
170.917107112889 699.194712309668 2786.21463703504 205 205 207
176.560555456612 699.03946132881 2790.65867963111 204 204 206
178.64980843223 700.104103941439 2801.20632142822 205 205 205
177.74429014976 702.210549442959 2817.0071254808 205 205 205
177.419781583454 704.136791861959 2831.96547677871 206 206 206
177.166891604876 706.057419850592 2846.95286849214 199 201 200
-283.729057647354 759.163531100233 2868.16197639878 189 193 194
-269.603097483843 756.630782427657 2862.03301405437 187 191 192
-257.399648629924 754.643105886969 2858.35793340918 177 178 180
-241.515025333479 751.578331656512 2849.70839228156 154 155 157
-221.376679917923 747.259975666542 2835.23848350775 163 164 166
-200.112872253824 742.590380945503 2819.06905521933 165 166 168
-184.47726767825 739.545037121047 2810.31854089556 147 148 150
-172.57191043738 737.580828379887 2806.5225871849 156 156 158
-158.883420801995 735.082500572885 2800.21623521676 182 180 183
-146.45946880617 732.946256265174 2795.55275269405 175 173 176
-137.695648410154 731.885915257096 2795.87251703168 162 160 163
-129.546049214107 731.005275783726 2797.02103360411 166 164 167
-118.418118183546 729.233693590375 2793.98791083226 156 154 157
-104.94426606055 726.752161894822 2787.59452634337 189 187 190
-89.1546041943503 723.562892448491 2777.82841427408 140 138 141
-73.4395805606927 720.379321819098 2768.03229574336 218 216 219
-60.1492071600747 717.911818701949 2761.56451568459 202 200 203
-51.0082487906189 716.69029624034 2760.95913686198 182 180 183
-40.1390529785852 714.938615392373 2757.82110318321 173 171 174
-31.0441909599994 713.720620092067 2757.19729076576 184 184 184
-21.3909939659305 712.327266767688 2755.72180802729 187 187 187
-12.912260526537 711.2891187062 2755.92623168244 154 154 154
-2.73008446275869 709.722518540808 2753.58743384865 166 166 166
4.57317631918475 709.039522493192 2755.47058404282 173 173 173
11.3047115420475 708.532885604387 2758.1999752171 147 147 147
17.4721868409218 708.202120092698 2761.77871483017 141 141 141
24.2081249005597 707.695074599285 2764.50989177903 180 180 180
32.0648747048884 706.836830056943 2765.53966595638 178 178 178
38.7976134588512 706.329978262419 2768.26954606082 154 154 154
46.0861591330539 705.647754106569 2770.14698958775 148 148 148
50.6089654683137 705.840526007284 2776.29227052828 146 146 144
56.8023942823819 705.507321116535 2779.88127979939 148 148 146
63.5491001715329 704.999004075453 2782.61682620425 130 130 128
71.3863825929437 704.141698722371 2783.63896828368 122 122 122
80.8415328793843 702.762392424609 2782.08319136128 118 118 118
93.5109966814134 700.340765237472 2775.36366167022 118 118 118
107.200732675174 697.575456240973 2766.90196447505 152 152 152
118.687070480391 695.509342909057 2761.85831702391 178 178 178
127.467885881758 694.313628673141 2761.10718046777 181 181 181
136.759351529711 692.945856176024 2759.4850413698 179 179 181
143.39061935272 692.445101009832 2762.17379040114 198 198 200
150.022861950222 691.944029509673 2764.8629365095 191 189 192
156.13389887667 691.61537434839 2768.41880862884 195 193 196
161.211801335003 691.630947255668 2773.71137904049 208 206 209
166.822925178301 691.472852961065 2778.14209799995 208 208 210
171.415897946308 691.657883879077 2784.3158475074 205 205 207
175.517887108592 692.013026362529 2791.3685771959 204 204 206
177.607923322577 693.052794424036 2801.91698188955 203 203 203
177.209261437725 694.946445949356 2816.8455560633 205 205 205
178.395715196165 696.320357244599 2829.18319018321 207 207 207
177.630602407694 698.374343506939 2845.04124105407 200 202 201
-285.564200179511 751.666294306059 2869.63364069043 199 203 204
-272.056623544312 749.340565852058 2864.33153821534 172 176 177
-261.090004590823 747.728911712195 2862.31069725667 137 138 140
-249.532695143037 745.942439024518 2859.45153963518 145 146 148
-232.449247524859 742.564280166499 2849.13189585376 145 146 148
-209.292338096132 737.422873136584 2830.49586563331 158 159 161
-189.94218181597 733.352069319717 2816.78375641825 133 134 136
-176.794833943988 731.054761563237 2811.33558444341 141 141 143
-162.481257713655 728.408484654671 2804.20438166072 180 178 181
-150.648555747585 726.471755454134 2800.37905928224 159 157 160
-140.663510645072 725.066187698308 2799.03803207803 152 150 153
-130.702908111515 723.662491291334 2797.68735129274 156 154 157
-118.375579929915 721.55820129309 2792.98450426605 152 150 153
-104.902164893471 719.106532502359 2786.59071645123 168 166 169
-90.2976802424906 716.308500792607 2778.49964254731 138 136 139
-75.1672899041751 713.340280630968 2769.54372874898 211 209 212
-64.2206240506666 711.601500665545 2766.43696435695 195 193 196
-53.8935832615328 710.040125146233 2764.15703885109 176 174 177
-42.4302644016394 708.131919689544 2760.18168243654 176 174 177
-32.7468982461834 706.749709992357 2758.71858773904 186 186 186
-23.087746923997 705.369274764737 2757.24541795025 185 185 185
-14.6032440177899 704.338595346794 2757.45186378488 151 151 151
-4.41481014289669 702.7876389345 2755.11548111917 156 156 156
2.32338022079093 702.280325331105 2757.84757204221 172 172 172
9.06250287796118 701.772878087741 2760.58004145725 162 162 162
15.8025578286141 701.26529720441 2763.31288936428 142 142 142
23.6686858848818 700.41168407602 2764.34668285121 162 162 162
31.5258012916173 699.558611088623 2765.3765658594 179 179 179
37.7011268988254 699.224001116142 2768.95825592022 163 163 163
44.437363968947 698.716483611918 2771.68955751403 157 157 157
49.5169906527357 698.725493981 2776.98287579462 141 141 139
56.8128065682238 698.045025085567 2778.86324968644 139 139 137
61.9145130296928 698.052136674991 2784.1655223051 132 132 130
67.5772369277261 697.886272560475 2788.61744988146 120 120 120
75.9636458507285 696.862049870702 2788.78412921579 116 116 116
89.1956587734724 694.29724898056 2781.21439153291 111 111 111
103.44308819828 691.394615087678 2771.90073320572 139 139 139
115.481390388638 689.180661846094 2766.00288467331 156 156 156
125.340651791069 687.653125115247 2763.53304488668 148 148 148
135.700478094752 685.957103341013 2760.18834921576 179 179 181
142.334424217578 685.455837097632 2762.87818654558 192 192 194
148.969374760054 684.954282059606 2765.56843274679 189 187 190
154.560672232767 684.792348833884 2769.99115324707 194 192 195
160.682724385619 684.459652823413 2773.55151598221 208 206 209
167.328214001 683.956724809469 2776.2460397863 207 207 209
171.915521444616 684.130966673196 2782.41757722206 204 204 206
175.499476344459 684.641781440375 2790.33818669129 205 205 207
177.075669290403 685.825980602226 2801.75625327475 200 200 200
178.19609250349 687.174846777771 2814.06734192902 203 203 203
179.877654063808 688.35048856544 2825.52813638182 207 207 207
179.601928976083 690.195724900265 2840.50685376923 200 202 201
-277.013359737724 742.733397930867 2869.92684277431 208 212 213
-267.897349972753 741.660994286431 2870.38929752816 124 125 127
-256.313810717701 739.891362596809 2867.54063251996 134 135 137
-240.438429873135 736.90350527145 2858.88676617976 138 139 141
-213.553208771197 730.784743805167 2835.29434775499 156 157 159
-192.958020062395 726.418682768488 2819.93070782102 134 134 134
-179.18831299103 723.973726247066 2813.65683567853 139 139 141
-166.081148688557 721.706680734029 2808.19216428102 173 171 174
-153.628702559404 719.616956189388 2803.53986622426 153 151 154
-141.220881903482 717.530707461247 2798.86947328325 150 148 151
-130.658957332774 715.967315822652 2796.68440861448 149 147 150
-118.93034620363 714.060352941017 2792.81671497171 150 148 151
-106.050330690486 711.811005120296 2787.25993849218 153 151 154
-90.8478213981303 708.875292512841 2778.33323597645 136 134 137
-74.5339184109275 705.6001258338 2767.7012283637 210 208 211
-64.1788235663461 704.052702494023 2765.43229876623 191 189 192
-54.4385891741697 702.679556408354 2763.99216091588 175 173 176
-44.7223492633078 701.308167334181 2762.54203732553 180 178 181
-34.4501235631418 699.767070456983 2760.23950664469 186 186 186
-25.3629080212887 698.570991153328 2759.61243210561 185 185 185
-15.1441323783719 697.033919807623 2757.28822936217 152 152 152
-6.10033667748566 695.841131136329 2756.64354949446 152 152 152
1.78371355154971 694.991363778797 2757.68431316595 168 168 168
9.09064910630342 694.313032588375 2759.56917311785 169 169 169
16.3934997452351 693.634905485973 2761.45237756928 148 148 148
22.5666913588369 693.29753555677 2765.0332245109 157 157 157
29.3061172288176 692.789675745757 2767.76581982181 178 178 178
34.9308378211348 692.621442712675 2772.20237808421 167 167 167
42.2327081510785 691.943069923722 2774.08493025116 162 162 162
47.8720207569296 691.773591128604 2778.52740615917 148 148 148
54.6229348026039 691.264462474346 2781.26466256866 137 137 135
59.1839345909855 691.431732564721 2787.42560106501 129 129 127
63.7661390527169 691.597262872468 2793.59513837072 123 123 123
71.6254675282688 690.748552117615 2794.62614159685 120 120 120
83.2570813429341 688.720423452844 2789.64102746108 98 98 96
99.145656674468 685.348544395562 2777.75873259863 139 139 139
112.274002778835 682.823817495903 2770.14671720422 153 153 153
124.277632528598 680.639331204731 2764.23460669438 145 145 145
134.111484782127 679.129678148408 2761.75434336968 191 191 193
141.278193133536 678.460095740419 2763.58236000528 197 197 199
147.915743546172 677.958095615142 2766.27366224918 191 189 192
155.076890340751 677.28859518226 2768.09942642839 195 193 196
161.193969907534 676.953249973194 2771.65753865227 209 207 210
168.352080788113 676.283511861266 2773.48207541292 208 208 210
171.901238325204 676.78049568976 2781.3887005108 205 205 207
174.969143233246 677.441356017221 2790.17803582693 207 207 209
178.073399910387 678.099246597997 2798.98211222715 199 199 199
180.199041754921 679.086310534384 2809.54533287169 203 203 203
182.876021526191 679.903651778489 2819.25400742537 205 207 206
180.570583443796 682.37466647498 2837.72165494661 200 202 201
-282.598430012526 736.259886336457 2876.34553437234 195 199 198
-274.085295734249 735.365951144595 2877.64160173303 146 148 147
-260.615757651058 733.097692443381 2872.32366211219 130 130 130
-244.722681603951 730.146515951717 2863.67642517709 136 136 136
-217.816269586308 724.113283488846 2840.09219574424 144 144 144
-197.201879909901 719.805686514607 2824.7358870046 142 141 139
-182.193606236174 717.046886583841 2816.80800705411 135 134 132
-169.682539665404 714.976906301407 2812.17929434346 162 162 162
-156.610382762657 712.739683045532 2806.7002226528 155 155 155
-143.587643988164 710.50631531923 2801.20111268766 138 138 138
-131.815807908159 708.617596643003 2797.35078223569 145 145 145
-119.485001843623 706.561718734305 2792.64897642876 147 147 147
-107.198660190677 704.509244105391 2787.9291415001 139 139 139
-92.5840915102887 701.78097914619 2779.84162173542 132 132 132
-76.852763901641 698.718329025497 2770.05118802438 204 204 204
-67.0770687197499 697.355768708912 2768.62507053321 183 183 183
-56.7400712585793 695.825829074492 2766.34868091146 170 170 170
-46.432472184192 694.298183317132 2764.0606279304 165 165 165
-34.992675857467 692.434940076743 2760.07540660718 187 187 187
-27.0610079076337 691.586894043923 2761.13569453643 183 183 183
-17.4114915351471 690.233942093241 2759.65841530891 142 142 142
-8.93243468540339 689.21947504727 2759.86253318843 161 161 161
-1.60863307350212 688.542288299018 2761.75421341303 174 174 174
6.27919821324396 687.697421896309 2762.79647086014 172 172 172
13.5923064518342 687.020992699827 2764.68381567147 154 154 154
20.9013318757656 686.344797312944 2766.56950560781 150 150 150
27.0853860587845 686.003577957589 2770.15477990456 158 158 158
32.7173562558685 685.828972269943 2774.59432178364 177 177 177
39.4713510265874 685.319539759511 2777.33282786006 176 176 176
45.6735144497689 684.976676426641 2780.92544692098 153 151 154
52.9824023826002 684.300103388252 2782.81108405064 145 143 146
56.9998808100227 684.622195804467 2789.82958922422 136 134 135
61.5888422888304 684.775952859099 2796.00195163641 124 123 121
69.4562486852173 683.931802626657 2797.03619098803 116 115 113
80.5570370034492 682.093116975417 2792.91352157989 105 104 100
96.9969885786903 678.600732396716 2780.17658031465 106 105 101
111.206027930942 675.776846511465 2770.84678123016 143 142 140
123.747195252414 673.453887948112 2764.07430009363 145 144 142
133.58239828373 671.960207643837 2761.5944626202 170 168 169
139.693817456632 671.622854662985 2765.15055543553 180 178 181
145.811375278076 671.284871302228 2768.7088812978 188 188 190
152.98040668647 670.617197006385 2770.53782405977 201 201 203
159.625210032027 670.113964707697 2773.23207230445 206 206 208
166.788866928183 669.446183653431 2775.05858254708 210 210 212
170.857158325994 669.762302115931 2782.0979640405 211 211 213
175.464391250964 669.912399842327 2788.27775216873 198 199 201
179.582596797799 670.22423493179 2795.33737601489 202 203 205
182.204285476377 671.023869515569 2805.02379780782 206 207 209
183.857032569749 672.1465013244 2816.47332728792 201 202 204
181.540503873774 674.568864794315 2834.93711028774 203 207 208
-294.446202101449 731.437974957074 2891.00509395793 195 199 198
-282.146966122548 729.529534171258 2887.3681962568 176 178 177
-265.540834452969 726.43998610938 2877.93216840227 132 132 132
-250.246179381855 723.694242826715 2870.1201432884 132 132 132
-220.233901127266 716.902176094619 2842.40465371628 143 143 143
-200.220936493136 712.822074027396 2827.88191602446 143 142 140
-182.756559452503 709.423828283538 2816.63785198189 137 136 134
-172.069131693435 707.882802246101 2814.50343314134 160 160 160
-158.987632157129 705.671947253479 2809.0279443527 150 150 150
-147.162377747178 703.800695068392 2805.1991102135 138 138 138
-134.174595486749 701.597085791573 2799.68562104209 141 141 141
-121.236284341398 699.397366130426 2794.15207188384 156 156 156
-110.73077182939 697.870543680687 2791.94388918698 134 134 134
-96.6943941850749 695.343454527662 2784.69954724653 131 131 131
-80.9450534939948 692.320114678236 2774.91610894403 202 202 202
-68.8001411006132 690.302875217782 2770.13874323543 182 182 182
-59.0427345079896 688.955093942759 2768.7051088027 172 172 172
-47.5597413145199 687.110181383013 2764.73749587032 166 166 166
-34.9543941225281 684.935885414167 2759.06893925748 186 186 186
-26.4464547324772 683.927199832535 2759.28470765139 185 185 185
-17.3768649979771 682.753707616987 2758.6503253436 143 143 143
-10.6195077587803 682.244038592531 2761.39019465244 155 155 155
-3.86121402377415 681.734295371268 2764.13044370419 174 174 174
3.46636868690031 681.059175623677 2766.02338197509 172 172 172
10.7897875119745 680.384410247017 2767.91488885867 164 164 164
19.235554032081 679.380172296517 2768.10545018541 147 147 147
23.7423815257236 679.529497646045 2774.24459071898 156 156 156
29.9446986678744 679.183807243508 2777.83755067459 167 167 167
36.7088616037199 678.673240359846 2780.5801823674 174 174 174
43.4739610353743 678.162599279377 2783.32319380312 163 161 164
49.6895126708028 677.8155668662 2786.92126525699 146 144 147
54.2666728179613 677.959110675056 2793.08892680707 131 129 130
60.5017950862965 677.610432639191 2796.69519197171 125 124 122
67.2860357217573 677.097856604301 2799.44596821192 116 115 113
77.8555017535389 675.44315392488 2796.18558377026 108 107 103
93.2331269059574 672.324502951379 2785.17355476395 98 97 93
109.60243181304 668.88625918519 2772.40734156325 144 143 141
121.617890476482 666.755082524607 2766.49961642444 158 157 155
131.461997643538 665.276866198141 2764.02326695986 136 134 135
139.164837119443 664.449400636627 2764.99074786398 174 172 175
145.282371329033 664.108340677302 2768.54908748576 191 191 193
152.451769941938 663.443117996798 2770.37816034366 199 199 201
158.055970404428 663.262707869376 2774.80624522312 185 185 187
164.189026508621 662.919934516641 2778.37113976385 197 197 199
167.751378702797 663.38249341777 2786.28311099009 204 204 206
173.909114454831 663.037376198126 2789.85801591157 195 196 198
180.583341776497 662.530736723111 2792.56420354155 198 199 201
184.719480939701 662.826989443381 2799.63094946571 206 207 209
184.839399051165 664.404605939917 2813.69308032841 200 201 203
183.014815445087 666.617957089065 2831.27856730244 203 204 206
-298.160825389285 724.348502594487 2894.9491034707 202 206 205
-285.847817934295 722.460604255659 2891.31788326324 178 180 179
-271.089729119308 719.9100788893 2884.36593471179 134 134 134
-257.628439593181 717.696750407102 2879.04423895244 131 131 131
-230.045841079693 711.667147376815 2854.65469976956 145 145 145
-205.082435278077 706.31379197579 2833.51503200865 145 144 142
-185.763866610166 702.463016024155 2819.78846544155 137 136 134
-175.065386283797 700.937283748322 2817.6584057848 129 128 126
-161.365807977041 698.587188894989 2811.3554199759 144 144 144
-150.738615710466 697.067044862414 2809.19645393054 138 138 138
-135.933196196721 694.394553607266 2801.18578556907 139 139 139
-123.58660692737 692.386107446554 2796.49026797698 178 178 178
-113.07246782073 690.874741075635 2794.28546097442 130 130 130
-99.6197889083197 688.543794579801 2787.882104981 127 127 127
-83.8574460406221 685.56019189437 2778.10362997099 209 209 209
-70.5235641471209 683.238268919013 2771.65210550895 185 185 185
-60.7603456887995 681.903441501862 2770.22098329937 168 168 168
-48.6871741480248 679.915945816053 2765.41434477721 165 165 165
-36.077389254638 677.76837683099 2759.74738237504 184 184 184
-26.409383852543 676.440794085311 2758.27765415974 184 184 184
-19.0693930094847 675.767231749014 2760.17560459093 154 154 154
-12.3070416737792 675.25689805919 2762.91750101211 148 148 148
-6.11472770297561 674.909190712341 2766.50642604227 174 174 174
1.22057645871076 674.235939916923 2768.40247650793 177 177 177
7.98583695200494 673.725226299739 2771.14555370618 175 175 175
18.1324228405786 672.241809433401 2768.79197238197 140 140 140
23.7628493467346 672.055854451736 2773.23071802952 151 151 151
30.5209908824979 671.545525527906 2775.97090989634 162 162 162
36.1683437980993 671.358134420421 2780.41677703936 161 161 161
42.9335853809243 670.847153309015 2783.15984860843 169 167 170
48.0472341015019 670.819455573424 2788.46722040854 161 159 162
53.7254029834515 670.629449060347 2792.9253273159 144 142 143
58.8687908133119 670.599275598661 2798.24475903637 120 119 117
64.5715963219715 670.40719220565 2802.71311410838 118 117 115
72.9894778965747 669.412067666985 2802.89231594072 109 108 104
85.1610606819082 667.296407136785 2797.04768674667 101 100 96
102.640807139075 663.58408471394 2782.57554463101 146 145 143
117.354738059308 660.678290858981 2772.3717280418 145 144 142
129.340619921115 658.576177430886 2766.4518071738 135 133 134
138.107990270621 657.434370496063 2765.6948182086 172 170 173
143.702247914062 657.249362856339 2770.11916938538 198 198 200
150.877137454555 656.586101598015 2771.95019338744 192 192 194
156.485999947382 656.399637962936 2776.3804690005 167 167 169
162.624137023456 656.053418887053 2779.94718968191 185 185 187
167.22161981314 656.181962724015 2786.12319342191 195 195 197
174.405539499088 655.517233408936 2787.95814202002 196 197 199
181.074898066109 655.010680795712 2790.66235766729 196 197 199
185.713218322521 655.135451171803 2796.85492481057 205 206 208
185.823176058428 656.677961260522 2810.91328888465 199 200 202
184.993725779526 658.530249434165 2826.74681877716 205 206 208
182.739696120147 660.848468194006 2845.23643935685 194 198 199
-297.492957204891 716.082334685635 2893.12455758768 201 205 204
-288.302754281901 715.036033071323 2893.61685478023 187 189 188
-275.398919760533 713.008459126721 2889.14684960654 139 139 139
-263.777382676955 711.311642926708 2886.31301772882 135 135 135
-238.01463813484 705.859830232075 2864.41893470688 141 141 141
-209.9463964388 699.766760882658 2839.14744470148 145 144 142
-187.549879846636 695.153738209755 2821.27859715974 135 134 132
-176.236542793173 693.480802135539 2818.31979626464 130 129 127
-163.744967411544 691.485382613001 2813.68262655912 142 142 142
-152.505448263033 689.818294993036 2810.69389298667 136 136 136
-137.692485484003 687.18041422364 2802.68601650193 140 140 140
-124.740345219199 685.03369628027 2797.15766491776 184 184 184
-114.818796643411 683.700048694226 2795.79038328366 130 130 130
-100.171512862897 681.074875928628 2787.71532822092 125 125 125
-83.8150599101624 677.970311028662 2777.09951289987 210 210 210
-71.0702763695832 675.839459110896 2771.48682655784 185 185 185
-62.4785580724885 674.840150465054 2771.73670259064 167 167 167
-51.5660042788009 673.198225910002 2768.61513510268 164 164 164
-37.7818026630905 670.755310311451 2761.26830808564 183 183 183
-28.1077555584468 669.44061426594 2759.80067120875 181 181 181
-20.1864638111993 668.608782666662 2760.85663498597 161 161 161
-13.9952153815892 668.258056797272 2764.44489423907 146 146 146
-7.22688046673992 667.746950159174 2767.18921922786 169 169 169
1.24837838876268 666.756335805654 2767.39161852947 178 178 178
8.57720569725151 666.085983789314 2769.28528181767 173 173 173
17.0293149904916 665.097024203914 2769.47829548255 147 147 147
22.6618149316331 664.905136553965 2773.91792561726 140 140 140
28.8638644981192 664.553310412363 2777.51082374061 170 170 170
33.9599027044548 664.518639270422 2782.81111802457 172 172 172
40.7326682289453 664.006733282656 2785.55724299472 157 155 158
45.8533753484334 663.969958228706 2790.86754149422 156 154 157
51.5387408483246 663.773613147162 2795.32861030592 146 144 145
57.2351955320149 663.576324300297 2799.79443342974 123 122 120
62.9428060735526 663.378067345541 2804.26452359295 121 120 118
69.202439855353 663.021140929565 2807.88077581652 107 106 102
79.2373775753432 661.561190409455 2805.4815538434 107 106 102
95.6746117894689 658.215597540105 2792.74214247017 140 139 137
113.089017521574 654.562429761225 2778.24309598096 134 133 131
126.687361276282 652.015132138836 2769.74274224777 131 129 130
136.522450654199 650.569694740057 2767.26275031536 168 166 169
143.173250414751 650.065479259774 2769.95943391831 173 173 175
150.348500856265 649.404580452049 2771.79058613991 161 161 163
155.957123088549 649.212367458446 2776.22080805174 196 196 198
162.095266197926 648.863099323316 2779.78755428703 205 205 207
167.207851313466 648.824666380559 2785.09457681092 194 194 196
173.876379358329 648.318119791946 2787.79845613998 191 191 193
180.545962708504 647.811220601009 2790.50276542732 194 195 197
186.200045825119 647.614419521053 2794.95142890615 202 203 205
186.808338148707 648.966599190055 2808.1339424132 200 201 203
185.968515437378 650.778344088973 2823.96357988814 205 206 208
182.702182170541 653.357062524277 2844.19922489325 202 203 205
-298.077056423322 708.149189479535 2892.94819102297 212 216 215
-288.886464057198 707.110747455936 2893.44058632473 193 195 194
-279.088878461236 705.91260378955 2893.10115124397 152 152 152
-269.310482084586 704.716015751066 2892.75367756623 144 144 144
-249.07072876445 700.789916074974 2878.32185493988 123 123 123
-219.72526528467 694.464817390584 2851.41164543421 143 142 140
-193.617130787614 688.95487656928 2828.5790408143 131 130 128
-179.843856116388 686.658634743692 2822.30522872436 131 130 128
-166.731586886946 684.526487985442 2816.8416017799 144 144 144
-154.272682366907 682.557896123699 2812.19100052722 135 135 135
-139.452424758663 679.954729773361 2804.18607176794 147 147 147
-126.493121498062 677.834408755574 2798.66016312207 191 191 191
-114.17997590523 675.877120582053 2793.95071665828 136 136 136
-98.9411118437735 673.12841185875 2785.03705926644 122 122 122
-80.2232285849345 669.432495302593 2771.06610563339 203 203 203
-70.4389038774165 668.12274548286 2769.64333911349 180 180 180
-61.8515565057682 667.131649108731 2769.89112591616 169 169 169
-52.1105070756338 665.825183881828 2768.45055541964 164 164 164
-39.486676913165 663.73053971331 2762.78887869191 188 188 188
-29.806707766846 662.428788796633 2761.32379871381 182 182 182
-22.4563828078266 661.759274046102 2763.22615990242 169 169 169
-15.6839944946043 661.247517496283 2765.9721310097 147 147 147
-7.76787504886323 660.421182071465 2767.02570167257 163 163 163
0.139254548892298 659.595409455196 2768.07562814363 176 176 176
8.03704409126671 658.77043119614 2769.12202409786 174 174 174
15.9259862480754 657.945979984522 2770.16457658682 153 153 153
22.1219635698795 657.591621656268 2773.75477806797 141 141 141
27.7650369943341 657.393062705065 2778.1989971245 165 165 165
33.4192360913572 657.193592399626 2782.64772779498 174 174 174
39.6384458362793 656.837184193673 2786.24735145747 154 152 155
44.7610902728854 656.791767443127 2791.55849986468 150 148 151
48.8025119461695 657.056042336725 2798.58713773024 141 139 140
53.416212700464 657.162942077789 2804.77012929231 125 124 122
59.6822855145231 656.802581894294 2808.38875743498 121 120 118
67.0367257211384 656.131724906662 2810.29279503203 111 110 106
76.0033174522266 654.99670492794 2809.61616072547 112 111 107
90.3122179387748 652.317127077851 2800.32570089244 131 130 128
108.286957307338 648.562021893252 2784.97549404417 138 137 135
121.9081650917 646.048210585323 2776.48414397775 133 131 132
133.879266496319 644.001096565677 2770.55782172664 162 160 163
141.592445494701 643.188149807505 2771.52912175517 160 158 161
149.29648798035 642.375742175832 2772.49697561442 156 154 157
155.949495920523 641.870634432384 2775.1945600568 208 206 209
162.603537925503 641.36526543361 2777.89256516494 198 198 200
168.226715993549 641.165717795759 2782.32847899979 184 184 186
173.860866765927 640.965145956881 2786.76910059474 187 187 189
180.017178364467 640.610762136088 2790.34324189829 194 194 196
185.162677513864 640.560695284605 2795.66367926358 199 200 202
187.794885322003 641.270519728516 2805.35504091405 200 201 203
187.448044219611 642.88957331144 2820.30693556022 202 203 205
184.668779153562 645.262385625436 2839.66228637748 204 205 207
-311.012688339544 702.041689502784 2896.38791792896 201 205 204
-299.287709580118 700.374097652999 2893.59574734161 222 226 225
-291.966975426683 699.818896690033 2896.56406909837 231 233 232
-282.780385948384 698.788871469657 2897.05477986209 150 150 150
-273.608115144839 697.760040467148 2897.53968404381 136 136 136
-255.816253943966 694.521363901978 2886.42700653081 115 115 115
-228.895470218438 688.922885550878 2862.84504355665 135 134 132
-200.299412349898 682.863929716941 2836.70845309866 139 138 136
-183.452958568715 679.808508918925 2826.2904059222 128 127 125
-170.326280711911 677.702299166683 2820.83241633362 134 134 134
-157.249025185686 675.599885500854 2815.35438721962 138 138 138
-140.611000783467 672.560529851101 2804.85182669223 169 169 169
-128.246637239896 670.623577839237 2800.16270664536 184 184 184
-116.523361126902 668.846452903392 2796.29186875605 126 126 126
-103.056750910564 666.603648377871 2789.89348535696 124 124 124
-83.7282657264546 662.804561454417 2775.09173398499 207 207 207
-72.7521038441199 661.195430208795 2771.99592962448 162 162 162
-61.8101621086276 659.588860721011 2768.88625035109 169 169 169
-52.6547360759422 658.451313183882 2768.28609287597 159 159 159
-40.6106922312655 656.538897221971 2763.46734889837 184 184 184
-33.2434138406674 655.870495517016 2765.3763087484 184 184 184
-26.4568868248007 655.357349791824 2768.12801504595 185 185 185
-19.0953719726401 654.689399307246 2770.03489508645 152 152 152
-10.5948116712142 653.71268081092 2770.24743343777 151 151 151
-2.67737573036353 652.891346525476 2771.30175645947 174 174 174
5.2310496621184 652.070582102605 2772.35216962791 180 180 180
12.0024127729306 651.558428568829 2775.09772864702 156 156 156
18.7747590628875 651.046077587407 2777.843687245 149 149 149
24.4300442134249 650.840812618171 2782.29290157284 149 149 149
30.0965932966235 650.634541090428 2786.74642699025 156 156 156
35.7741255899708 650.42739396956 2791.20466329507 178 176 179
40.9113733787858 650.372272240097 2796.52179805741 159 157 160
46.0647619483099 650.315871706831 2801.84547780069 138 136 137
51.2342828938908 650.258073483442 2807.17570002305 121 120 118
58.0516003508971 649.741651423871 2809.93989798619 118 117 115
65.4115865730891 649.072751493902 2811.84590906521 114 113 109
73.3062422160364 648.252026526708 2812.89100388693 113 112 108
84.9464360561054 646.36877289281 2807.90826562954 112 111 109
103.482106061427 642.51694871429 2791.70684336272 127 126 124
119.782710988612 639.27928159221 2778.91155093629 138 136 137
133.349772124361 636.804699353822 2770.39797992913 168 166 169
142.115983896774 635.694695433401 2769.64028080608 162 160 163
148.768099923311 635.189508914342 2772.33750471603 163 161 164
155.942578487681 634.533363685062 2774.16830837921 198 196 199
160.519463344417 634.629915399846 2780.3362146534 176 174 177
166.66600208926 634.273730077545 2783.90666987905 187 185 188
171.791345942243 634.217130542444 2789.21899602332 197 197 199
178.97757994647 633.559187198208 2791.05457301017 196 196 198
185.142336235161 633.200930884974 2794.63242008803 197 197 199
189.288932821667 633.440195434659 2801.70383210373 201 201 203
189.43309380002 634.87215957522 2815.77688273693 204 205 207
186.637500060072 637.193926187513 2835.12626632866 203 204 206
-314.115528565055 694.710601403803 2899.502657315 202 206 205
-301.125522579291 692.748972246721 2895.06729974087 191 195 194
-293.175378920967 692.037230583958 2897.21258612071 186 188 187
-285.229827245174 691.326056537753 2899.35626616347 137 137 137
-277.908044318789 690.770802370524 2902.32501296425 133 133 133
-262.565505213868 688.197754268989 2894.53106677462 120 120 120
-236.842386139774 682.994103271103 2872.61905868291 130 129 127
-207.59734903672 676.872847469033 2845.66664217407 140 139 137
-189.501355329369 673.549100121534 2833.59868520543 126 125 123
-175.743430676562 671.313606033505 2827.31845477685 136 136 136
-161.43550009131 668.928036156233 2820.18324725071 138 138 138
-144.779273501965 665.930665719961 2809.68773842369 179 179 179
-133.596939227084 664.324477615248 2806.67538949862 168 168 168
-121.255112456332 662.413520471268 2801.9769474378 129 129 129
-108.363279753135 660.352487538046 2796.42352827943 125 125 125
-87.8267672505906 656.30202187069 2779.95493049425 203 203 203
-73.8874632478139 653.944706582953 2772.66999728325 163 163 163
-61.1812597997197 651.89784272276 2767.04131075459 165 165 165
-50.8615553358078 650.465721921893 2764.75717788046 155 155 155
-41.7346737021347 649.340980972161 2764.14562313616 183 183 183
-34.9440953890581 648.827155613668 2766.89897492674 182 182 182
-26.9989316134387 648.00889021486 2767.96424426477 187 187 187
-20.2115484037109 647.495317998416 2770.71630046185 155 155 155
-11.1359725980515 646.374372920812 2770.08394357896 150 150 150
-2.64891133015155 645.406524709021 2770.29094903273 175 175 175
4.1239669292239 644.893862588197 2773.03712537973 180 180 180
10.8977837855717 644.381155992145 2775.7836820951 160 160 160
15.9875633702311 644.321426425141 2781.08163224343 153 153 153
22.7710122199605 643.807837152101 2783.83209557526 148 148 148
28.4420814111974 643.595463584835 2788.28775463079 151 151 151
34.1244675219217 643.382049372964 2792.74774648824 172 170 173
39.2661845741744 643.318055457493 2798.06675807248 168 166 169
43.3257122869442 643.552915213458 2805.10320713066 153 151 152
48.5048277800821 643.485868625458 2810.43738421755 121 120 118
54.7882653772092 643.118035500266 2814.06309988093 121 120 118
61.6194885779253 642.600063393915 2816.83293993029 115 114 110
68.4516398697976 642.081898204435 2819.6031572207 110 109 105
78.5043108837076 640.668662471401 2817.21076124752 104 103 101
97.0720443618902 636.87436753332 2801.02214242469 117 116 114
116.593261395152 632.790644366501 2783.06364539723 141 139 140
131.233596122757 630.052997992996 2772.8290129446 165 163 166
140.534828457574 628.804571778067 2771.20992369678 165 163 166
148.764003440516 627.854136720083 2771.31238083065 179 177 180
155.414763736709 627.348579404176 2774.00905862551 193 191 194
161.028811929312 627.138302571594 2778.44161438928 178 176 179
166.65403932143 626.926996005703 2782.87844711042 187 185 188
172.290264860711 626.714633334947 2787.3199981351 198 198 200
177.937662755896 626.501236059116 2791.7660806097 206 206 208
184.105016854647 626.139670982888 2795.34474737545 202 202 204
188.253186945778 626.364847732787 2802.41716050027 202 202 204
189.908841483806 627.320952072367 2813.86912941697 203 204 206
188.107168467429 629.298105959539 2831.4656830376 202 203 205
-317.849528106705 687.510518802752 2903.43991714164 198 202 201
-300.455131749953 684.499197755923 2893.24339377476 197 201 200
-293.759354981327 684.096424279123 2897.03632749087 215 217 216
-285.813800476439 683.387641052884 2899.17999055734 148 148 148
-279.111773551123 682.9847310445 2902.97545595256 133 133 133
-265.615737557744 680.904012649513 2897.66682364375 134 134 134
-241.10603609378 676.085498055428 2877.41846562767 137 136 134
-211.838896586849 670.060613593995 2850.47426775736 152 151 149
-193.114829657135 666.632431213283 2837.58259664025 126 125 123
-179.342307272273 664.425549073475 2831.30805985938 141 141 141
-165.019337211874 662.071221596492 2824.17844767494 130 130 130
-148.347442482887 659.116037141533 2813.68896300862 193 193 193
-136.551768107635 657.376454125461 2809.84715410616 129 129 129
-125.392463193264 655.790860290081 2806.82532465693 127 127 127
-113.078076026332 653.906286456096 2802.11557251629 131 131 131
-93.7035087929041 650.217875748735 2787.3313833181 194 194 194
-76.7916762229477 647.139064565492 2775.86117670018 173 173 173
-63.4863819282188 644.968034397529 2769.39719082178 160 160 160
-53.7424660536561 643.701332280349 2767.95747953481 157 157 157
-44.6048124930705 642.586348149276 2767.35021231351 184 184 184
-36.6453251535022 641.772143028311 2768.42150761203 179 179 179
-29.2717589728324 641.108055129806 2770.33298064631 189 189 189
-22.4767458477879 640.593489864805 2773.08813366919 167 167 167
-12.8209710665061 639.333466706756 2771.61294127875 144 144 144
-3.75887045364576 638.224079949453 2770.97504077668 170 170 170
2.44968923183286 637.859638776489 2774.57041319312 187 187 187
8.66419421777187 637.494666792411 2778.16819684306 166 166 166
13.760919924201 637.425838914505 2783.46902838969 152 152 152
21.6708225393802 636.614999839311 2784.51996444373 152 152 152
26.2302623972623 636.692514735595 2790.6812088817 150 150 150
32.4741166742359 636.325038133889 2794.29089483634 150 148 151
37.6203538755895 636.252108224732 2799.61180432939 166 164 167
42.7827276553259 636.177840068612 2804.93925755245 166 164 165
47.9612931014342 636.102229301011 2810.27327684333 122 121 119
53.7003810215342 635.878285324682 2814.75630667513 118 117 115
58.9087957529026 635.800190101951 2820.10243056202 110 109 105
64.6726262733637 635.574101073491 2824.59575198317 107 106 102
73.6681348279429 634.468555653686 2823.93085971136 99 98 96
92.7948469176234 630.585975367218 2806.89017118403 101 100 98
114.465426133718 625.981764375101 2785.49039105928 154 152 153
129.645709382778 623.138182130643 2774.39611753942 160 158 161
140.006359787085 621.611321211356 2771.05047334784 150 148 151
147.187962427054 620.95965722163 2772.88438475881 202 200 203
154.365526834536 620.308074069085 2774.71666050529 184 182 185
159.98193074568 620.091847617395 2779.14995795277 192 190 193
166.125998935428 619.729616843776 2782.71920146446 191 189 192
172.27603312602 619.366848205019 2786.29112187112 194 192 195
177.920765328115 619.147779594906 2790.73591078606 206 206 208
183.067548707971 619.07199693622 2796.05706304598 201 201 203
187.723930320049 619.138902289984 2802.25763893207 200 200 202
190.385736402478 619.779611811324 2811.96150858675 202 202 204
191.083012170564 620.99185379841 2825.18136877719 205 205 207
-303.547867115422 677.16294541232 2896.36226369074 192 196 195
-295.592953228003 676.455692151651 2898.50970470829 205 207 206
-287.642378684716 675.748962017391 2900.65538479093 213 213 213
-280.935610260226 675.342597879623 2904.45279616699 174 174 174
-269.901976740201 673.887448211413 2902.45790267115 132 132 132
-246.601257658224 669.442665461279 2883.87481974011 121 120 118
-217.919513837874 663.663278310222 2857.77080386362 144 143 141
-197.339844529442 659.836999644303 2842.39678883097 141 140 138
-182.335493505861 657.360444486393 2834.46518128874 148 148 148
-167.395440670989 654.888834113201 2826.50750238452 131 131 131
-149.508330140093 651.678951683542 2814.35410702997 195 195 195
-137.708608879811 649.960567437344 2810.51377600174 127 127 127
-126.545395299441 648.393433621948 2807.49338922182 128 128 128
-114.226878116438 646.532801672249 2802.78512782252 133 133 133
-96.6225067702788 643.344627299101 2790.51734605706 190 190 190
-77.9280240249962 639.867791079178 2776.53525715234 178 178 178
-66.9668745196035 638.316163738808 2773.4326812961 160 160 160
-54.8707158833197 636.472515776946 2768.63451698636 160 160 160
-46.3119097926377 635.514943576753 2768.87049352211 187 187 187
-37.7672613150686 634.558493057711 2769.10072923841 179 179 179
-30.3910845706124 633.896554071217 2771.01350020989 188 188 188
-22.4442127145241 633.088345169914 2772.07938491211 175 175 175
-13.3621341771366 631.988075521489 2771.44950422519 145 145 145
-4.86873854075642 631.035386788477 2771.65895951525 162 162 162
0.774999477318294 630.813617356922 2776.10336636359 192 192 192
6.99421367598885 630.445218275533 2779.70333994348 172 172 172
11.5333374457516 630.513050507951 2785.85617470647 153 153 153
18.8915302919102 629.852177695396 2787.7616560434 153 153 153
24.5746457161387 629.627139025499 2792.22203130495 152 152 152
30.8232621926694 629.256201240385 2795.83392890189 151 149 152
35.9739665562979 629.174369423641 2801.15671459138 161 159 162
41.6905056815668 628.946473440198 2805.63064453076 162 160 161
46.8710063436302 628.862191254422 2810.96551310389 133 132 130
52.6121841967726 628.632248112625 2815.44969183338 123 122 120
58.3646789694021 628.401264326223 2819.93820336479 116 115 111
64.1282120401689 628.169400582178 2824.43144812145 108 107 103
72.5877420859238 627.218020106073 2824.62718155713 104 103 101
89.0496324403052 624.115017813308 2811.89591451029 102 101 99
111.272734779403 619.442270006203 2789.64181566399 154 152 153
127.527836016376 616.354635033875 2776.82670468588 156 154 157
138.951354228155 614.560040422781 2771.75556398774 155 150 154
147.184413725118 613.625073079188 2771.85973391935 200 195 199
154.359974992552 612.976015201704 2773.69092224114 170 168 171
162.050695524078 612.184777702063 2774.65322167156 184 182 185
168.69882068808 611.678383080942 2777.34883886658 188 186 189
174.833816127673 611.313583438662 2780.91442835722 202 200 203
179.439712344255 611.373465378699 2787.09435907274 206 204 207
183.557492445534 611.573104542496 2794.15466107353 203 203 205
187.70160094324 611.770513730506 2801.2253829319 201 201 203
190.359410943925 612.389267841666 2810.92805824391 201 201 203
191.052125998534 613.568641066373 2824.14606374343 203 203 205
-306.014350734922 669.656529082431 2898.65718016289 184 188 187
-298.676907196096 669.098689191919 2901.63228743398 156 158 157
-290.093764638267 668.246101727896 2902.95638724744 136 136 136
-281.519889158282 667.394373443258 2904.27647114772 128 128 128
-271.720322105035 666.249333297278 2903.9374358348 126 126 126
-252.09962543306 662.755812517422 2890.33049086301 118 117 115
-225.840840571559 657.656379082239 2867.55551474961 124 123 121
-200.956758503029 652.861788981607 2846.37949408152 143 142 140
-181.684827632537 649.395063397067 2832.631133203 143 143 143
-166.747424911467 646.958841223895 2824.67211305353 134 134 134
-151.27189042468 644.381673355532 2815.85323883675 186 186 186
-140.065539226818 642.829981187974 2812.85020112959 124 124 124
-129.49092479341 641.426501423955 2810.66906240807 126 126 126
-116.565684477105 639.443878063496 2805.1285754328 134 134 134
-98.3576803991781 636.15847074241 2792.02687192069 186 186 186
-79.6542503538105 632.735321898177 2778.04799877883 181 181 181
-68.0994710553409 631.057205804376 2774.10818726093 157 157 157
-55.4140240940801 629.092863508756 2768.47047108659 162 162 162
-47.4370921084748 628.287503408725 2769.54850532952 191 191 191
-38.8893060918234 627.338605089751 2769.77995416959 182 182 182
-32.0878388096959 626.822870936852 2772.53772929487 183 183 183
-24.1356269341548 626.019374286682 2773.60599764217 190 190 190
-15.6200228087613 625.072876238377 2773.82439806866 160 160 160
-7.68828398557986 624.270797827384 2774.88410904544 150 150 150
-2.03501705481535 624.042469741998 2779.3326810225 163 163 163
4.75905162751089 623.527082661883 2782.08745787633 200 200 200
10.9917943996851 623.154449017498 2785.69268395024 179 179 179
17.7904820684154 622.638576431541 2788.449334679 151 151 151
24.0329670099488 622.265051381132 2792.058512045 150 150 150
29.7267089043161 622.033307323883 2796.52349794071 151 149 152
34.8793972683985 621.942710559705 2801.84715337387 151 149 152
40.0482794000159 621.850800905625 2807.17737550032 150 148 149
45.7806004648214 621.615766602572 2811.65774954192 139 138 136
52.613464155965 621.096708105595 2814.42826204879 129 128 126
57.8208910704152 621.001505516205 2819.77411564476 120 119 115
63.0444503609218 620.904905236693 2825.12651171982 115 114 110
70.9700110712028 620.102115369979 2826.18398384156 111 110 108
86.3713190987692 617.32895239374 2815.17866793253 111 110 108
108.610617840128 612.733980685904 2792.93028014679 145 143 144
124.879464337581 609.694243218558 2780.12037147739 145 143 146
137.896116730957 607.502436329378 2772.46086587296 172 167 171
146.132515519738 606.575040503385 2772.56607324362 186 181 185
153.832924670874 605.788330991637 2773.53200398014 221 216 220
161.004672447914 605.141841327783 2775.36188600683 226 224 227
168.68957245792 604.355942143498 2776.32153105972 224 222 225
174.821897420912 603.988329970914 2779.88631783803 205 203 206
179.424598867945 604.03710756703 2786.06503918185 199 197 200
183.029636068708 604.361872634079 2793.99559493163 199 199 201
187.679831995585 604.406618339115 2800.19357701508 199 199 201
191.846933259853 604.588009028923 2807.27372989787 200 200 202
193.029037948338 605.596848162725 2819.61262748413 203 203 205
187.776620637482 608.396282573362 2843.35793793908 204 205 207
-310.365135496422 662.568535170005 2903.42266655775 200 204 203
-303.012729036283 662.009210914768 2906.40384346094 175 177 176
-294.41421096015 661.160491659954 2907.7338821665 140 140 140
-286.445384027412 660.457276839618 2909.88692586743 135 135 135
-276.009890798398 659.177052329858 2908.72758908287 123 123 123
-258.215938146171 656.168861569363 2897.61375413761 122 121 119
-231.928608621524 651.151624813239 2874.84996975457 125 124 122
-206.406161699211 646.290040998489 2852.85411815181 141 140 138
-184.679473799474 642.301471612599 2835.78787944087 141 141 141
-167.913943209189 639.469234829987 2825.33563258928 139 139 139
-152.433120924313 636.92955148241 2816.51835801555 187 187 187
-142.423393898102 635.682402093748 2815.1863808062 123 123 123
-133.035513740256 634.579961738019 2814.68033348607 129 129 129
-120.690888016749 632.765799453027 2809.98229102279 136 136 136
-101.278919942635 629.245678667576 2795.2122267953 187 187 187
-82.5613871277844 625.875784266775 2781.23840288435 182 182 182
-70.4073829659755 624.076181171936 2776.46332597071 157 157 157
-57.1272480587195 621.996216142159 2769.98820575879 163 163 163
-47.3972001925846 620.770478007858 2768.542826144 192 192 192
-38.8513977186433 619.829567510717 2768.77341131614 182 182 182
-32.052383724307 619.313609294492 2771.53019482088 181 181 181
-23.5271904616554 618.374241962379 2771.75242377235 195 195 195
-16.7336894685228 617.858660754803 2774.50697224427 166 166 166
-9.36909235282513 617.202182184401 2776.4150133175 148 148 148
-2.57609345508114 616.686551092748 2779.16935887265 142 142 142
4.21800300011155 616.170773267572 2781.92414993326 209 209 209
9.32553475440367 616.075355634513 2787.22955831534 191 191 191
13.8892898262344 616.118611120143 2793.39255240337 152 152 152
20.1467584305262 615.740760696823 2797.0078293336 150 150 150
26.9651911697755 615.222875425167 2799.77248995738 151 149 152
32.6798890722972 614.983523340446 2804.24601845936 152 150 153
37.8556622376953 614.882519739982 2809.57909964629 151 149 150
44.1426390934985 614.50206244074 2813.20634401828 138 137 135
50.9806537404642 613.98220729852 2815.97894814909 131 130 128
56.1925457160259 613.878073079962 2821.32667731604 121 120 116
60.3410700548979 614.049398796919 2828.39938482287 120 119 115
67.7398011697439 613.389139883893 2830.32127516491 112 111 109
81.5525943932214 611.072354785489 2821.9060032829 114 113 111
