ply
format ascii 1.0
comment KinectMotionCapture
element vertex 788
property float x
property float y
property float z
property uchar red
property uchar green
property uchar blue
end_header
-71.5338549077269 -238.824855828163 2787.54821792398 17 20 13
0.729483487961868 -253.044533945865 2837.49250639169 16 19 12
41.841044385019 -260.943873625271 2861.4619831665 13 16 9
53.9240070438534 -262.969270694048 2861.589087739 9 12 5
50.9998125273885 -261.96520507699 2849.56026973356 6 9 2
47.2360868719708 -260.795041891075 2836.93445084152 7 10 3
52.1744820608827 -261.380424792107 2831.33469864644 8 11 4
73.0610294219414 -265.1741938325 2838.40001065523 9 10 4
72.4322658953356 -264.638224289524 2828.35447599309 11 14 5
66.9597867127725 -263.132002665411 2814.56099579221 13 16 7
52.5877488288531 -259.844424220015 2793.91240812768 16 19 10
80.0155173076584 -264.942255901216 2805.90369254598 17 20 11
96.2424051238835 -267.789204789943 2809.06136729535 18 21 12
114.951051922293 -271.129073337279 2814.04098907703 17 20 13
154.83448241871 -278.697396814478 2835.10268749234 17 22 18
-297.399029467699 -207.959239672351 2787.25686623395 34 36 33
-189.75048421581 -230.165711719599 2876.72115306324 4 6 3
-186.484481931881 -230.417140469093 2869.92192262411 23 26 19
-195.919488390076 -228.006091181713 2851.61684768034 21 24 15
-195.707958528168 -227.621889293515 2842.1675603775 26 28 17
-192.524085824427 -227.861688609703 2835.43943923862 17 20 13
-190.105704930615 -227.942195124547 2828.05050427326 17 20 13
-196.758991910907 -226.129325789638 2812.63164829247 18 21 14
-190.616595662065 -226.990816098349 2808.63665602851 19 22 15
-167.022165544408 -231.488858282707 2819.97644781214 20 23 16
-150.176612868206 -234.574018666882 2825.24596885033 20 23 16
-152.338521031463 -233.700877268368 2813.8805591268 21 24 17
-172.13186138859 -229.167211555473 2787.33601650324 22 25 18
-185.926307356771 -225.88897613824 2766.18718521994 23 26 19
-159.074471459713 -231.047335564352 2780.00098868904 21 24 17
-133.650640967282 -235.900887790383 2792.40399886895 20 23 16
-107.348479787012 -240.92794087813 2805.37011343248 19 22 15
-132.89578664171 -234.813405052694 2765.27558205784 13 16 9
-79.9828411363443 -245.322002452532 2800.20671865676 13 16 9
-78.3751624753655 -245.234372846161 2792.1960980586 14 17 10
-47.0287336137529 -251.273246745387 2808.73691739096 16 19 12
-10.0519521038702 -258.460330876379 2829.66860526368 18 21 14
34.1725931078418 -267.124929665555 2856.23826453739 14 17 10
43.8678423988161 -268.683037696897 2854.46207545027 10 13 6
52.7911163142032 -270.081091801364 2852.03037163113 7 10 3
60.9365530234447 -271.318430076011 2848.94854496291 8 11 4
58.7530701226346 -270.439478695659 2837.60179719108 9 12 5
50.1482474326029 -268.249762699667 2821.22512812427 9 10 4
64.6545586802767 -270.789602870913 2823.22557661467 9 12 3
47.9449587516139 -266.951113363161 2800.62936995046 10 13 4
66.4776153926656 -270.311664449578 2805.76197826363 13 16 7
89.1025758320185 -274.501599567628 2813.96963408118 13 16 7
83.5448105505554 -272.945505299632 2800.24975123182 14 17 8
95.7421931365774 -275.006343397346 2800.2779135994 16 19 12
138.816887473293 -283.341754568345 2823.87195868427 14 19 15
-197.722015861314 -235.843510760405 2870.43360309347 8 10 7
-215.310813701316 -231.633660080935 2844.62723981548 21 24 17
-195.719944509635 -235.367051284449 2852.8151714164 27 30 21
-188.023345855065 -236.558578282694 2850.1217564524 24 25 17
-202.822276017511 -232.959203600165 2827.19462947855 17 20 11
-193.659228845256 -234.465221946078 2825.87938155505 17 20 11
-198.80888117792 -232.928276934946 2811.80589663118 16 19 10
-181.325328497711 -236.199756601017 2817.84690835894 16 19 12
-171.361168107753 -237.871332148294 2817.16164050087 15 18 11
-152.247536494334 -241.478650826391 2824.43913323976 15 18 9
-168.899542655789 -237.51209603051 2800.46891724898 18 21 14
-182.612741962875 -234.176134981756 2779.24897698775 16 19 12
-192.595801694713 -231.636003595328 2761.41808306057 12 15 8
-167.303451490588 -236.543353261259 2773.93540054111 10 13 4
-122.638016070702 -245.524515692438 2802.7718130211 8 11 4
-111.765687049628 -247.374778202692 2802.62382153476 9 12 5
-105.514298974065 -248.250766946898 2798.53445608714 9 12 5
-133.439995444304 -241.945919241222 2765.79348625801 7 10 3
-65.6556650793472 -255.301241657608 2803.73389841901 9 12 5
-54.6382439983208 -257.169456951285 2803.46026676352 13 16 9
-80.4880159667385 -251.320339126804 2772.89306982054 20 23 16
-12.8441612093049 -265.029548534479 2818.8977266947 17 20 13
37.761500347659 -275.154742141166 2850.5328257587 12 15 8
61.7010028239098 -279.697751150572 2860.25024592686 9 12 5
60.3523926521063 -278.96211210044 2849.50438900406 9 12 5
39.8812494508234 -274.247096852003 2823.54614731936 10 13 6
52.7586994877147 -276.480636170965 2824.30925076285 10 11 5
28.1058635833111 -270.91069442028 2795.35327263477 9 12 3
57.7871809807164 -276.635099907292 2809.36516803261 9 12 3
72.3260257720981 -279.208687840964 2811.33732170478 9 12 3
103.822492896931 -285.293339324784 2826.42513324913 10 13 4
77.3129192934006 -279.357371203781 2796.42924730751 10 13 4
87.0658188887208 -280.935242519865 2794.60290318314 14 17 10
103.330620590112 -283.857453978954 2797.72820430876 14 19 15
-195.024731526053 -243.311796426977 2864.17406635536 11 13 8
-190.299486772384 -243.865569557461 2858.75885447201 17 20 11
-199.790916440371 -241.337090432246 2840.50192260399 15 18 9
-201.114634422611 -240.584404663144 2829.73406474975 18 21 12
-200.971751555883 -240.151852310245 2820.34396295291 18 21 10
-185.775633997582 -242.974817544911 2824.39488792075 18 21 10
-178.088822788259 -244.171951052236 2821.71030793052 18 21 12
-181.005642042813 -243.081055602041 2809.674534861 19 22 13
-182.447732024888 -242.311530204265 2799.00916515264 19 22 11
-182.402756829926 -241.864894184678 2789.70383219166 15 18 7
-187.737885711463 -240.263977122353 2775.79037640624 16 19 10
-184.70029704359 -240.465728781032 2769.18911386243 16 19 8
-168.61232352981 -243.467879003722 2773.79145721155 14 17 6
-150.1564599877 -246.972504431563 2780.31481934129 13 16 7
-120.043744177948 -252.966591966337 2796.60139103213 10 13 6
-123.108159217585 -251.854584155913 2784.69309221335 11 14 7
-113.792093188847 -253.391091000797 2783.24541491297 11 14 7
-104.456678985968 -254.929866373297 2781.78066704187 10 13 6
-81.8294129914201 -259.300616342124 2791.31107262154 9 12 5
-77.901853290264 -259.226682142665 2775.99614197122 10 13 6
-60.6235055295818 -262.44690951331 2780.89173470334 15 18 11
58.7423542837211 -286.86179205858 2858.89125351126 8 11 4
51.8385754439032 -284.92446105628 2843.68870131424 10 13 6
33.7387640210167 -280.622255830261 2819.64791428905 11 14 7
34.644549037679 -280.349426045512 2810.92087365498 15 16 10
63.4927672592958 -285.982267903351 2824.33099184718 16 17 11
68.4248382611869 -286.557359298227 2818.73633885025 16 17 11
82.1868884944106 -288.994775432029 2820.05762501877 16 17 11
75.0537668376152 -287.027157347707 2805.05365622381 15 18 11
68.6619807862963 -285.220676983055 2790.73176577396 14 19 13
70.3007995374061 -285.10770943074 2782.69367523701 13 18 12
104.371048731088 -291.808620340685 2799.52478885434 9 14 10
-187.392773634588 -252.346412465516 2872.17485030472 18 20 15
-189.356657852777 -251.418673715929 2860.63745231792 24 27 20
-207.813611558072 -246.857744806127 2834.25769955326 17 20 11
-216.654433655057 -244.426255861917 2816.76075208853 19 22 13
-201.513712004981 -247.277512890417 2820.85987401274 18 21 12
-199.13712443951 -247.318794892251 2813.50690865148 16 19 10
-189.218005689731 -249.01700246353 2812.86085257812 16 19 10
-195.193567954989 -247.22746216872 2798.17800027114 16 19 10
-192.110415785082 -247.427467155203 2791.53691937104 16 19 10
-200.4717830718 -245.124183608921 2774.94881834756 15 18 9
-195.152972364269 -245.817269993003 2770.34330514196 15 18 9
-184.47149635808 -247.681055481797 2770.360820453 15 18 9
-174.530387504028 -249.380667453186 2769.69571386639 16 19 10
-159.173583671168 -252.257850628679 2773.60771759788 17 20 11
-138.358150393792 -256.318237342224 2782.05965530043 17 20 13
-133.723656505326 -256.853612894575 2776.72266572433 16 19 12
-108.130677643667 -261.940743911503 2788.98058252905 16 19 12
-104.229011679897 -262.312819296461 2782.95475770808 15 18 11
-122.190447115722 -257.947414920095 2758.79362570896 16 19 12
-114.451488251771 -259.156354378319 2756.06360846205 11 14 7
-69.0407056445266 -268.511124499969 2784.25642273071 10 13 6
-39.9417858907545 -274.323880604408 2798.77367561453 12 15 8
50.2495430634857 -292.815284372791 2853.05698627251 8 11 4
55.2198494418965 -293.392777965995 2847.42952437955 11 14 7
36.3416593613657 -288.83956547439 2822.73849870999 12 15 8
56.3806345969575 -292.661652461649 2829.21503906161 14 15 9
70.1013698487838 -295.120902568026 2830.57227589425 15 16 10
79.8576496179981 -296.726275450051 2828.74349577533 15 16 10
84.8155943821043 -297.301677336484 2823.12641907066 15 16 10
94.5987954518173 -298.910346376786 2821.27432665212 14 17 10
97.1382741816633 -298.968265251687 2813.78028547099 14 17 10
101.278758368962 -299.369560479 2807.54734214393 17 22 16
105.410471228361 -299.769742090791 2801.32230953863 7 11 10
-220.472842666648 -251.786627525463 2833.35155508119 20 23 16
-228.541068350345 -249.474224173509 2816.50931859695 23 26 17
-220.192104716541 -250.84449085156 2814.57521007899 19 22 13
-211.075872792841 -252.384649879901 2813.30044433379 19 22 13
-204.954559106511 -253.253579192796 2809.32408880234 17 20 11
-189.005134435427 -256.315132458286 2814.0469023467 16 19 10
-189.67089840775 -255.667530483855 2804.03302943274 15 18 9
-190.370296871358 -255.015301326109 2794.04796324424 15 18 9
-198.722025657244 -252.663879776557 2777.45119625017 16 19 10
-195.689070996406 -252.848381207569 2770.85352287208 15 18 9
-168.923502608891 -258.300542333499 2784.74400133489 14 17 8
-164.317067409812 -258.8299011946 2779.43160775798 15 18 9
-168.186448961907 -257.482708611636 2766.89621747445 16 19 10
-164.384340688589 -257.836675347493 2760.95656553786 17 20 13
-137.366349819121 -263.320794460684 2774.62846745089 17 20 13
-111.787076277834 -268.476835273275 2786.89870968659 16 19 12
-103.223942274203 -269.871632794316 2784.77913097131 17 20 13
-130.538588619683 -263.363306757624 2752.83079987539 19 22 15
-122.820747166312 -264.577427049261 2750.11911941921 22 25 18
-71.9504457881359 -275.27373974154 2782.85212288864 22 25 18
-8.26127223548578 -288.762846101002 2825.66639796578 18 21 14
26.5559704321241 -295.89324998665 2844.49937035827 9 12 5
59.9423820088303 -302.696719706157 2861.92353968929 10 13 6
55.4288313161781 -301.19345795747 2848.62220175009 12 15 8
50.8615886940542 -299.68306301105 2835.36766982564 11 14 7
42.2571598043766 -297.295805625208 2818.98937936477 13 14 8
77.5049126439478 -304.481462145475 2837.44957115517 12 13 7
89.6826361077174 -306.626225926977 2837.495632144 12 13 7
99.4837583051069 -308.250685245711 2835.62779364849 13 14 8
107.695004452113 -309.527577839789 2832.48918388804 12 15 8
131.247297957647 -314.136386956775 2841.21937750343 13 16 9
150.035333328738 -317.703413197081 2846.13197785593 11 16 10
125.910165930371 -311.96027955428 2818.04047353833 8 12 11
163.416531344748 -319.579797474995 2837.19269331498 12 16 15
-261.261307025633 -249.721570241461 2797.22986634396 15 17 12
-251.499675710258 -251.432703859831 2796.72039405193 15 18 11
-222.229452189523 -257.581134898467 2813.73786872961 20 23 14
-210.112550039211 -259.817298175684 2815.16049888012 20 23 14
-193.438424356084 -263.084460168938 2820.58009674289 17 20 11
-185.770550815986 -264.302990034123 2817.91175384737 16 19 10
-183.3942836789 -264.321292479618 2810.55891730481 15 18 9
-185.592986259628 -263.305817043409 2799.22447629735 15 18 9
-188.595041083651 -262.112475695449 2787.26191610768 16 19 10
-185.532970374284 -262.292304563075 2780.63897652543 15 18 9
-177.123445599121 -263.679051279418 2778.65248428047 14 17 8
-161.787860275548 -266.624192324241 2782.58331922533 14 17 8
-163.337140561853 -265.765074300723 2772.0102746441 14 17 8
-171.871102858162 -263.339435509508 2755.57097505426 16 19 12
-170.41805223594 -263.162733872542 2747.69348343351 15 18 11
-141.049979526181 -269.247756051643 2763.30279245167 16 19 12
-119.336659859111 -273.606025809902 2772.30169090776 18 21 14
-118.600595615192 -273.262430534847 2763.72129480583 20 23 16
-122.582466194922 -271.866470545418 2751.28340230476 25 28 21
-41.1396842813327 -289.547538255593 2809.17404401874 24 27 20
24.9743878479753 -303.772957375002 2853.86144179169 18 21 14
39.3770843610293 -306.448611162501 2855.95226145974 9 12 5
64.8881050353411 -311.592136885459 2866.95831893838 10 13 6
58.0143994834215 -309.52692666202 2851.72887248123 12 15 8
20.8882767414873 -300.749600475301 2812.38908944065 10 13 6
37.6975564132249 -303.957082203774 2816.36789688174 12 13 7
35.4000703030084 -302.9252791887 2805.1189693069 11 12 6
96.3000108639376 -315.886592816243 2843.7301018667 11 12 6
108.52617072776 -318.059079305718 2843.73436093043 11 12 6
99.060583783777 -315.437034608316 2826.77768480947 12 15 8
121.781347408568 -319.924398634184 2834.90454742217 12 15 8
147.012801179709 -324.957475581455 2844.82862348895 7 12 6
118.025157973959 -318.042292163227 2813.00412607609 4 8 7
-231.241308349467 -263.772246901106 2825.55898507993 18 20 15
-211.684030861794 -267.759223659125 2833.77767505885 22 24 19
-209.281631562096 -267.770954542518 2826.40214624776 19 22 13
-191.119919453441 -271.424278219228 2833.18142356638 18 21 12
-186.448791006446 -271.957977727253 2827.81298615363 16 19 10
-187.825441850566 -271.098243332163 2817.09031343567 16 19 10
-186.967423550263 -270.756369739021 2808.40422652603 15 18 9
-179.299709647562 -271.982251851005 2805.73638514956 15 18 9
-171.620408065595 -273.209395062408 2803.05850848692 15 18 9
-173.092137443087 -272.336197549659 2792.41815651006 16 19 10
-168.476634959812 -272.861088329313 2787.09787503874 16 19 10
-167.70419860877 -272.506820936246 2778.48588476859 15 18 9
-170.035668869699 -271.445318975208 2767.26622002881 14 17 8
-170.093639537829 -270.906787398939 2758.04951846222 14 17 10
-161.669805382281 -272.305162740979 2756.05069911672 15 18 11
-142.369054249954 -276.179561334971 2763.16773932715 16 19 12
-122.995743762338 -280.063095055898 2770.22163341924 17 20 13
-105.109309545717 -283.601494929313 2775.91549840043 18 21 14
-74.6475149763297 -289.988346240502 2791.90205610187 20 23 16
-23.6728632911936 -301.014214495647 2824.54643542484 16 19 12
24.3939805863675 -311.358366558862 2854.41365526827 10 13 6
49.038919694556 -316.381505446125 2864.84602027657 7 10 3
46.9180340903423 -315.345578532053 2853.44399997238 9 12 5
44.7554960119607 -314.304132045598 2842.07804559777 8 11 4
36.1979181821059 -311.824252207126 2825.65854744351 11 14 7
25.1776123752703 -308.796584805609 2807.40025185529 12 13 7
42.0094956959485 -312.044771257356 2811.35941615614 11 12 6
94.9107811586702 -323.395655046388 2843.65959522573 10 11 5
102.31927842584 -324.508297259388 2839.89243155525 10 11 5
99.2781836179528 -323.276184278446 2827.96314196888 11 14 7
120.383706114027 -327.458849890666 2834.84118041666 12 15 8
122.971826422371 -327.489513656521 2827.30480321726 12 17 11
110.143603974116 -324.074727278977 2807.96414816931 9 13 12
-210.732573266991 -275.240428724842 2835.64832821391 10 12 9
-195.592313616143 -278.233044729688 2839.74876657914 19 22 15
-193.9186908919 -278.060057272503 2831.68012125717 17 20 11
-194.525382709324 -277.354565788652 2821.61467325777 16 19 10
-191.389898777547 -277.528231831864 2814.9280638616 15 18 9
-189.024803143048 -277.522774335146 2807.58444058403 15 18 9
-179.843386084903 -279.11061575886 2806.25380103571 15 18 9
-175.209970206507 -279.635403743294 2800.91799271484 15 18 9
-177.451432156182 -278.558805072511 2789.62021670933 16 19 10
-170.550174538842 -279.613638832187 2786.29200576281 17 20 11
-175.152650790825 -277.993810145161 2773.06698744561 16 19 10
-157.49462443965 -281.546963476669 2778.95891733658 16 19 10
-156.745135945811 -281.172657874402 2770.36668695103 15 18 11
-152.153072443619 -281.690619262235 2765.06667598449 16 19 12
-135.156403963371 -285.078591515238 2770.20749726482 17 20 13
-140.650770303529 -283.263186629235 2756.43066842207 17 20 13
-99.422466227411 -292.237334925947 2781.62918534601 17 20 13
-72.8597220123359 -297.811388120509 2794.37298780104 17 20 13
-14.8370385205445 -310.618781625729 2832.83073884689 18 21 14
12.0263890752348 -316.23156166349 2845.31417915884 12 15 8
42.1504536278183 -322.582384941421 2860.26964975791 9 12 5
41.5951234294156 -321.879678258572 2850.15970284271 9 12 5
40.2141453002201 -320.990825340643 2839.44059204951 7 10 3
38.7959252098034 -320.097084510151 2828.7540440418 10 13 6
37.3400229240675 -319.198351044439 2818.099808682 12 13 7
45.4231830360876 -320.482697144454 2815.07226399098 11 12 6
89.5213835224808 -329.985358164572 2840.43328505872 10 11 5
96.1151557123099 -330.918722641417 2836.04785030144 10 11 5
90.6494966775346 -329.105417169547 2822.24615340949 12 15 8
87.5447943292791 -327.83486261163 2810.37206117517 12 15 8
93.2850668137348 -328.578509671339 2805.40157953269 8 13 7
108.747949195869 -331.529086566472 2807.8988558936 3 7 6
-207.541867075764 -283.266453483489 2839.55145718306 11 13 10
-239.568842757272 -275.039460635068 2801.08930078632 20 23 16
-211.733304317418 -281.099871145674 2816.70317647334 19 22 13
-202.597948968881 -282.695941936729 2815.41251359092 17 20 11
-198.727640663152 -283.038035538369 2809.41335778376 16 19 10
-192.595247259897 -283.917911242325 2805.42715448344 15 18 9
-200.121961267242 -281.558002685211 2789.43852340208 17 20 11
-197.06392198558 -281.712375986947 2782.81891305044 16 19 10
-181.808963253367 -284.753226369419 2786.82025015901 16 19 10
-171.857734603345 -286.535107406997 2786.14690548709 16 19 10
-161.882637380309 -288.319933373599 2785.4528921482 16 19 10
-153.422391307013 -289.744861214698 2783.42268534562 16 19 10
-151.148452678355 -289.144968412257 2766.8910775485 17 20 13
-155.861740569363 -287.474224965153 2753.76177373301 15 18 11
-113.983410325305 -296.739615771622 2779.72203774309 13 16 9
-114.784457325432 -295.983696282071 2769.82471759182 13 16 9
-72.6360212856232 -305.283755888337 2795.55109585458 19 22 15
-36.5647500536248 -313.143104300606 2815.94871745051 25 28 21
24.018291175691 -326.709566715343 2856.16201581599 16 19 12
46.2922383085544 -331.310988359312 2864.67657392624 10 13 6
55.2268406705316 -332.79576390834 2862.23592880521 11 14 7
74.4691062875664 -336.677489820564 2868.08013161025 10 13 6
85.0487027709037 -338.538424689857 2866.86267022157 10 13 6
39.1503802324755 -327.283626796235 2820.55319784767 14 15 9
56.0150660146737 -330.611926926079 2824.48445021468 13 14 8
72.1363293700894 -333.762227577603 2827.73563920784 13 14 8
90.7156587454194 -337.475924858188 2832.83008298071 12 13 7
89.2605102245536 -336.552230540272 2822.17503255886 11 14 7
76.4840353782095 -333.018322755953 2802.78875409461 11 16 10
91.0860702220684 -335.808225605299 2804.70754040299 8 13 7
130.844506309756 -344.389039415846 2825.88413692779 7 11 10
-209.579124165343 -290.050689265885 2838.71434589077 44 46 43
-206.415932863784 -290.212044954728 2832.00395726272 21 24 17
-215.276247432442 -287.465265227431 2814.52186153171 20 23 16
-212.924555826041 -287.436481257555 2807.1900203638 17 20 13
-203.797491057503 -289.044632698245 2805.90630599513 17 20 13
-206.002260482183 -287.91862876443 2794.57640711198 16 19 12
-198.383961439391 -289.161990229752 2791.95150863744 15 18 11
-198.362785183021 -288.576986081604 2782.66590644305 17 20 13
-192.26773955092 -289.453748462275 2778.71205362403 17 20 13
-163.220425552262 -295.835577320884 2794.60129906131 16 19 12
-153.989346091389 -297.455730390622 2793.22750919088 16 19 12
-158.581370958033 -295.765685346095 2779.99297727859 15 18 11
-157.058459682391 -295.542855270929 2772.05495151782 16 19 12
-164.834546195807 -293.102285064328 2756.28162234872 16 19 12
-153.301175164115 -295.273038591394 2756.88633516562 15 18 11
-158.057566858258 -293.560887960907 2743.79412264607 13 16 9
-82.6040309324902 -310.932955738678 2797.610399681 13 16 9
-113.04078672292 -303.108319008419 2763.06590882378 18 21 14
-52.0146936873203 -317.007506315978 2804.22093071398 27 30 23
52.0063876800578 -340.443795846015 2870.37012960857 12 15 8
69.6403194466733 -343.994685008587 2874.95935208524 10 13 6
81.0026296245239 -346.057655142346 2874.38805466885 9 12 5
90.8057608756248 -347.749704826665 2872.51922835437 10 13 6
74.3739287866441 -343.257686027595 2849.67803543317 14 15 9
66.6010839102595 -340.815793481376 2833.90220356479 13 14 8
75.5511220460017 -342.312611090682 2831.44794222381 13 14 8
90.1288318803606 -345.129368544897 2833.38830142363 13 14 8
86.264264399416 -343.615562202598 2820.84765895028 12 15 8
102.494727156996 -346.81500345136 2824.00451932875 11 14 7
107.467946912149 -347.374474395613 2818.37441552023 8 13 7
108.387092151275 -346.986755646646 2809.63505061778 8 12 11
-175.790977493139 -305.645411800918 2870.40441615598 130 132 131
-200.972182751948 -298.816195229896 2837.92813647805 16 18 13
-203.058437147166 -297.678993515327 2826.49544379699 18 21 14
-217.226044818748 -293.582486201904 2804.34116636795 16 19 12
-215.655536660212 -293.353939121115 2796.36184963159 16 19 12
-205.784122870212 -295.158839425432 2795.75751702034 18 21 14
-195.130113493213 -297.151993015295 2795.79967695468 15 18 11
-192.054665449724 -297.291890513334 2789.16519951269 17 20 13
-182.128143478363 -299.103104425536 2788.51314357215 16 19 12
-167.589105730226 -302.03445582832 2791.81102470289 16 19 12
-159.136180378666 -303.480076570917 2789.7872971235 15 18 11
-153.743037097993 -304.180628272655 2785.11740558035 14 17 10
-152.975904352769 -303.758903496612 2776.50957501048 15 18 11
-141.412917332116 -305.95535419091 2777.0887851035 15 18 11
-148.417385439411 -303.65511723016 2761.97115227418 15 18 11
-143.927244607347 -303.541703180967 2747.49193289049 15 18 11
-121.399444999956 -308.377630456013 2757.11124841087 16 19 12
-83.1196873497078 -316.996667248406 2779.56971637376 23 26 19
-14.8323777039199 -332.813899285266 2826.35358867871 19 22 15
44.3342151868866 -346.403909746473 2865.14820458055 9 12 5
70.6286077522758 -352.07581923767 2876.80197029529 8 11 4
81.2022483458512 -353.968410323353 2875.58987622343 9 12 5
82.2794418385544 -353.585028384941 2866.71355332126 10 13 6
76.1729155043405 -351.486744280398 2852.14221161271 13 14 8
73.194235295075 -350.142164276476 2840.15841177398 13 14 8
87.75795627552 -352.986883340899 2842.1107612954 13 14 8
93.5493007218433 -353.736629818659 2837.09605327218 13 14 8
100.947124930857 -354.8687648918 2833.33826663907 12 15 8
118.019120567138 -358.299601922918 2837.09050054555 12 15 8
119.802927642551 -358.094510146486 2828.92646196195 9 14 8
117.517294506559 -356.92650530827 2817.6663783971 11 15 14
-208.250931239663 -304.287292338687 2832.36204788204 12 14 9
-214.104853104977 -302.185306317815 2817.57205632487 17 20 13
-212.498159008194 -301.948030544746 2809.56100386016 15 18 11
-214.684183822291 -300.769815015027 2798.2145200168 14 17 10
-199.51537817979 -303.906109562638 2802.29114758553 18 21 14
-191.878226031391 -305.167939725856 2799.65002812432 15 18 11
-191.073690117608 -304.735681686403 2791.00971062801 15 18 11
-175.044372430554 -308.072541428592 2795.66506201654 15 18 11
-162.781163414518 -310.471985169173 2796.96194080906 15 18 11
-169.646687044767 -308.1468928812 2781.72371874405 14 17 10
-164.280232731631 -308.843760510091 2777.07693561551 14 17 10
-135.023438224655 -315.420882844373 2792.78588227313 15 18 11
-141.185927201477 -313.275986439144 2778.26274334962 15 18 11
-137.338401367187 -313.595766233014 2772.28350484818 14 17 10
-126.508662831618 -315.628545198977 2772.17361077771 14 17 10
-130.449183420756 -314.040521762354 2759.69831866471 15 18 11
-116.479004131275 -316.839203243497 2762.16481377961 15 18 11
-73.4960821723334 -326.72103958002 2788.49525941365 20 23 16
-42.8774567941761 -333.563186278083 2804.34883654136 17 20 13
45.3229938904824 -354.424355497001 2866.99000448219 6 9 2
45.5770021257358 -353.828180255098 2857.50221054085 6 9 2
73.4902175139047 -359.960076265951 2870.40270230833 9 12 5
79.3090868176942 -360.713529557861 2865.36416152203 10 13 6
69.2236792506264 -357.609470517433 2847.61832187724 12 13 7
43.9087955705393 -350.825101189342 2817.90471844749 13 14 8
88.7685323640382 -361.038979997526 2843.93387371869 13 14 8
128.475392415909 -369.326429044071 2855.88981490627 12 15 8
117.427776218986 -366.007562454407 2837.65298772396 13 16 9
132.938563240979 -369.094394016951 2840.10962634523 8 13 7
125.832893552082 -366.735403855895 2825.07932784214 9 13 12
-221.509790134281 -308.192890749054 2821.38227345523 9 11 6
-215.395312082266 -309.081492593523 2817.4116545794 18 21 14
-206.269019996669 -310.730180489624 2816.12918811289 15 18 11
-206.926643307931 -309.907721511563 2806.10681080478 11 14 7
-194.006549173388 -312.510258533017 2808.1592360881 15 18 11
-193.177732910761 -312.06492143996 2799.4977891881 13 16 9
-180.970487899327 -314.481972869296 2800.84297258044 13 16 9
-161.104037410063 -318.816844304751 2808.79594557196 13 16 9
-143.453676967819 -322.586651490865 2814.69592370413 13 16 9
-177.086269415711 -313.509862362237 2776.29664549887 13 16 9
-178.654216765709 -312.475009665387 2765.73864156767 13 16 9
-142.50662996057 -320.862321312884 2787.39679980024 15 18 11
-132.461715165996 -322.720148831702 2786.64274611442 15 18 11
-158.79725902843 -315.513499894814 2755.16421191248 14 17 10
-146.470960578814 -317.944256616173 2756.4066117341 15 18 11
-102.184464926696 -328.31107842181 2784.25686765397 15 18 11
-101.412625526569 -327.855912266395 2775.64474095614 14 17 10
-86.576962433552 -330.889013181825 2778.68618557778 18 21 14
20.1244288592477 -356.655041827613 2857.08417641649 17 20 13
36.8691064860687 -360.12037685133 2861.12064766778 7 10 3
47.3590998826685 -362.034542861481 2859.98087792139 6 9 2
80.3046189491412 -368.801418339487 2867.20054501752 8 11 4
64.6624973241003 -364.274688854899 2844.99791759741 12 13 7
48.1125602792569 -359.537737765551 2822.2578188322 13 14 8
45.8306049191957 -358.315552144211 2810.99419651392 13 14 8
134.029747710214 -379.276548006841 2870.99030767528 13 14 8
125.470222098049 -376.500366314049 2854.57089320341 13 16 9
120.862212856778 -374.69890630936 2841.34949355145 13 16 9
126.694265077979 -375.45347621679 2836.29953389247 8 13 7
153.565737551891 -381.34066046774 2847.45451869341 7 11 10
-210.832885196784 -318.155057325173 2832.04326190228 9 11 8
-203.938361381733 -319.242580375845 2828.72109921167 14 16 11
-195.532545763591 -320.716171555838 2826.7383845807 15 17 12
-196.911712395775 -319.682975179659 2816.01708386157 14 17 10
-200.596499221412 -318.06480455924 2803.319942749 15 18 11
-192.960944624966 -319.342469071739 2800.68031055047 13 16 9
-186.073825448229 -320.427535463663 2797.36486531968 11 14 7
-160.889148686532 -326.170169360878 2809.98091990566 12 15 6
-157.758756383862 -326.291617655952 2803.29838523515 12 15 6
-166.900249617907 -323.298058262886 2786.0583980219 14 17 8
-179.192952397419 -319.514868449334 2766.25120156457 14 17 8
-143.053766430785 -328.009981689546 2787.91733966285 13 16 9
-139.960980007649 -328.125676853019 2781.26736207942 14 17 10
-163.209017539722 -321.588309535175 2752.41078663748 15 18 11
-136.919969489538 -327.567852860906 2765.39443898267 16 19 12
-87.1683524217506 -339.445850758011 2797.78112731917 16 19 12
-47.2225578489986 -348.14734877845 2812.17949567381 16 19 12
-3.9931492940104 -358.322218190083 2838.29788586398 16 19 12
28.4193166947486 -365.761435556236 2855.24738314548 8 11 4
63.3355151828026 -373.810644887938 2874.00054085364 6 9 2
87.3324600653529 -379.110925078061 2883.67308075963 7 10 3
81.2990537864895 -376.899002875814 2869.03762689314 7 10 3
49.7714892132333 -368.334502658873 2834.11052401074 10 11 5
49.9234178599579 -367.686230857835 2824.71118404383 13 16 9
58.0345228706305 -369.022009732258 2821.65975179034 12 15 8
77.3693911684243 -373.146049714441 2827.4252627246 10 13 6
109.619554026825 -380.46800336458 2843.19109770636 10 13 6
103.365488594247 -378.227143180881 2828.74670954105 11 14 7
109.961796743603 -379.17585066524 2824.35917619955 7 9 4
123.842672991656 -381.926065144993 2825.57949853094 12 16 15
-170.259693536591 -335.991790173301 2869.77699694804 12 14 11
-187.24079521476 -330.854876209936 2844.76117504214 15 17 12
-195.325345763115 -328.046363162655 2827.92987310171 16 18 13
-216.297329472409 -321.901601205188 2799.74962583648 15 18 11
-198.869874370227 -325.730350300375 2805.84318598415 16 19 12
-197.291435546691 -325.447079538994 2797.85632533172 14 17 10
-180.537210239694 -329.090214544694 2803.20893428582 13 16 9
-166.008030783061 -332.150670398436 2806.51619655221 13 16 7
-157.542027400701 -333.641200365917 2804.48142478634 13 16 7
-165.911758641214 -330.793734882031 2787.8967312769 13 16 7
-162.067355945077 -331.096924811806 2781.92009220882 13 16 7
-150.531485612683 -333.376580806486 2782.52302896982 13 16 9
-152.861321684282 -332.095187300094 2771.30052291672 13 16 9
-150.587851246115 -331.998079011592 2764.03603610367 14 17 10
-138.2410117227 -334.480289487997 2765.26096565989 15 18 11
-96.2855713489494 -344.523266577867 2791.15943432736 15 18 11
-104.076032465888 -341.847481686101 2775.39735545965 16 19 12
-21.9709535091632 -362.091138097235 2834.05414254391 17 20 13
-42.2165989912826 -356.232901660507 2807.89304577882 17 20 13
47.4972196301242 -378.344238942267 2871.87714619588 9 12 5
61.9573937692106 -381.295264629871 2873.91993235621 7 10 3
89.1095451822461 -387.458962054777 2886.15701082893 8 11 4
65.6499440161138 -380.791738050725 2857.48264820579 8 11 4
57.1353877653347 -377.923279355848 2841.02365921473 10 11 5
29.4282761789448 -370.215540985419 2809.40740411547 13 16 9
84.6070406530814 -383.440693619422 2843.71585370078 14 17 10
83.1901631746428 -382.373725444053 2833.02670397265 12 15 8
79.3279353118659 -380.695824443543 2820.48328584351 12 15 8
97.9490006642219 -384.675497502711 2825.54327907458 13 16 9
100.498604340389 -384.612394781265 2818.03936250274 10 12 7
127.296201720501 -390.631440616292 2829.25923196924 13 17 16
-137.182553177614 -352.148760034919 2900.76370444634 12 14 11
-164.557322360482 -344.172933976481 2866.21113728095 14 16 11
-200.378865906093 -333.994195419365 2824.40828649919 14 16 11
-204.779068194235 -332.117207843294 2811.00628367087 14 17 10
-209.233199478357 -330.232957567839 2797.65097597935 15 18 11
-200.104485034383 -331.9215564461 2796.36666859192 15 18 11
-195.513965226928 -332.417503629441 2791.06753743566 15 18 11
-159.69948063866 -341.089120240793 2813.01624963606 15 18 9
-168.017748340134 -338.199426628799 2796.38699270102 14 17 8
-180.239224867645 -334.300038058574 2776.51730892005 13 16 7
-152.629418269391 -340.799796361437 2791.00642062057 13 16 7
-143.378346865331 -342.502799417202 2789.61583988435 14 17 10
-145.685803733889 -341.196961942177 2778.37377857403 13 16 9
-151.904431652769 -338.880394913518 2763.89850037242 12 15 8
-135.681833509941 -342.392789854426 2768.387466115 13 16 9
-124.07089086072 -344.703037022183 2768.92553323213 16 19 12
-71.864539522005 -357.51166175415 2803.16105926867 17 20 13
-68.6866073686163 -357.620797884103 2796.4372403176 17 20 13
-8.27906234308795 -372.499087588885 2836.81114822456 17 20 13
9.95951543973916 -376.473422707445 2842.20262259051 10 13 6
62.9445746358464 -389.38220839256 2875.76354806935 8 11 4
70.3383737228873 -390.540690287537 2872.00942088219 9 12 5
77.998961730497 -391.027285314802 2858.75593166112 8 9 3
71.8581193085335 -388.71924747598 2844.21328924272 13 16 9
73.6395313263198 -388.445046139025 2836.05056319714 15 18 11
68.9961209206365 -386.532400878909 2822.85912652362 17 20 13
71.5216980798274 -386.45526076241 2815.37625914784 16 19 12
82.0755658768979 -388.425676030479 2814.18180717207 13 15 10
115.237490621204 -396.145924054914 2830.48322718397 12 14 9
128.321968732486 -398.746457351076 2831.0695855968 7 11 10
-136.998980076984 -359.73557818108 2901.97701868423 12 14 11
-164.362894619712 -351.641082272993 2867.41427442848 11 13 8
-178.385043843388 -347.137235550479 2845.13128336469 12 14 9
-205.320209726292 -339.201058388068 2811.52121401579 13 16 9
-198.441714177287 -340.301462063318 2808.2133425791 13 16 9
-206.703457197681 -337.370655568573 2791.53451174587 14 17 10
-182.384018259249 -343.110071527105 2803.57721732947 14 17 10
-173.192682967283 -344.819791771708 2802.23845555634 14 17 8
-168.56243205595 -345.317504178836 2796.90521497577 14 17 8
-176.185976309518 -342.571823813445 2780.99801033841 14 17 8
-157.781286087544 -346.716178591913 2787.56987168624 14 17 8
-139.307901275138 -350.869245599138 2794.0822494188 15 18 11
-153.176372955811 -346.486052320805 2772.99041872687 14 17 10
-147.804566565556 -347.182173510802 2768.33899192377 13 16 9
-136.227359151724 -349.510005443874 2768.90641253173 14 17 10
-116.062172035153 -354.088391802222 2776.60203773317 15 18 11
-94.2603911900459 -359.085642864927 2785.52840432133 18 21 14
-71.5916285659106 -364.298531180111 2795.02830035802 16 19 12
-39.4265976357859 -371.983278305255 2812.19353402489 17 20 13
13.311979960581 -385.023616799217 2845.96894643139 10 13 6
52.898458233833 -394.600804611589 2868.62430237536 8 11 4
46.8362410746121 -392.262273441927 2854.01331501805 9 12 5
51.801619643665 -392.800985851307 2848.38987293155 7 10 3
72.6446859968162 -397.466074192412 2855.49820215073 8 9 3
86.3990642474333 -400.28141682327 2856.82858687545 11 14 7
60.2826835320762 -392.757639250334 2826.4816174797 14 17 10
78.0166422078272 -396.605777558829 2830.98638473351 16 19 12
78.1605515214841 -395.898635626394 2821.5936139309 16 19 12
93.5574048118175 -399.133515234329 2824.14964685488 15 18 11
154.407527703137 -413.325662310082 2852.2255315214 13 17 16
-191.343182348091 -352.510176754796 2853.75054731734 13 15 10
-199.371620530165 -349.561720803768 2836.86970393862 8 10 5
-188.698379332233 -351.690711104062 2836.89607518775 9 11 6
-177.243957423181 -354.026837892116 2837.57028766988 10 13 6
-198.228372385201 -347.593517093508 2809.39894514975 10 13 6
-196.641268502556 -347.270091810255 2801.40431397682 13 16 9
-197.352788427907 -346.329982082479 2791.42820393449 12 15 8
-187.440115160306 -348.252852953574 2790.789190216 13 16 7
-178.266924224334 -349.973484286626 2789.46622551253 13 16 7
-174.431273416161 -350.259056832291 2783.49705785925 13 16 7
-164.465426161699 -352.188070659632 2782.81199614155 13 16 7
-154.475904757942 -354.1199356002 2782.10611815013 13 16 9
-155.263070504733 -353.16868035659 2772.19550083708 13 16 9
-130.557361755379 -359.024553375034 2783.9041671359 14 17 10
-112.730543900644 -363.033227730019 2789.65243563833 15 18 11
-105.725326685424 -364.152972878081 2786.2348553118 15 18 11
-100.272014533195 -364.859052507294 2781.51284906604 16 19 12
-73.7138456301296 -371.166634116601 2794.26537039085 16 19 12
-12.5618091327047 -386.628713999957 2835.32136013852 17 20 13
14.3052353292554 -392.97597599005 2847.80642504389 11 14 7
25.5255364450342 -395.171992311122 2847.35907412867 9 12 5
41.5127801714621 -398.622689054722 2850.72836932571 10 13 6
33.7956966928856 -395.816263138495 2834.90184486421 6 9 2
31.566062669198 -394.46410414973 2823.59203153237 8 9 3
58.7458106222325 -400.851322489333 2835.80632400017 9 12 5
74.0649107564022 -404.108825818386 2838.43021049453 11 14 7
69.4309485703388 -402.12636807847 2825.23013232284 15 18 11
155.379401510201 -423.879511514586 2883.21203228517 15 18 11
173.205585206376 -426.184013419608 2867.77637135078 14 18 17
-194.367057118582 -359.81462332666 2861.71245578264 17 19 16
-201.599618891315 -357.029372458379 2845.46611615759 13 15 10
-225.375859101222 -349.704176400808 2814.41541055566 6 8 3
-199.75713204661 -355.966747036417 2827.98188822614 8 10 5
-174.781480630285 -362.036925091338 2840.78123508659 10 13 6
-169.328240027458 -362.745510304096 2836.05930709151 10 13 6
-185.82778466067 -357.451030804346 2811.94834222887 13 16 9
-178.917025258963 -358.56578049207 2808.61259951386 13 16 9
-202.441293958589 -351.380246545071 2778.66766703301 13 16 7
-184.91390984824 -355.394925405308 2784.67581994691 13 16 7
-178.034033450533 -356.504879481122 2781.366498053 13 16 7
-160.405844797855 -360.532115776487 2787.28736141918 12 15 6
-154.251367873817 -361.438807944188 2783.2825068218 12 15 8
-143.465935724003 -363.598777005012 2783.21183888342 12 15 8
-118.733037410388 -369.526184912501 2794.8970870446 14 17 10
-99.3260368339444 -374.000938355996 2801.9259273571 15 18 11
-100.058768305263 -373.034159537728 2791.96771379489 15 18 11
-111.736811840447 -369.124422136927 2772.95052643027 15 18 11
-31.2905583667686 -390.002694011568 2830.40235225344 17 20 13
-35.0737258129725 -388.204611108453 2817.7893153249 18 21 14
17.6542938534761 -401.57018461989 2851.57630171261 12 15 8
25.7327188995999 -402.942427000001 2848.55311513064 10 13 6
24.3472001347418 -401.781386545415 2837.83649160041 10 13 6
37.9661991995031 -404.633712507044 2839.28445398457 8 11 4
33.3695762307267 -402.620710909953 2826.05181464617 12 13 7
69.3031795120982 -411.413672121635 2845.25123145258 8 11 4
79.0637485534189 -413.22122944346 2843.42004382756 8 11 4
88.0440858563363 -414.818604110014 2840.94017272154 13 16 9
136.332293827523 -426.845688000404 2869.30285740341 13 16 9
207.345634651938 -443.229133646224 2895.20073531736 17 21 20
-169.770657685152 -372.402380502097 2865.61897540055 9 11 6
-189.042041997971 -366.224047099348 2838.61137722431 7 9 4
-151.998439654765 -375.714705831914 2862.14691355677 7 10 3
-153.274548752124 -374.54656348671 2851.33509920176 9 12 5
-140.209571565538 -377.35751531008 2853.26298415637 10 13 6
-187.80886276406 -363.376924813888 2801.79351938349 11 14 7
-193.087353946177 -361.131213084786 2787.82711089551 12 15 6
-196.135036067673 -359.50914026909 2775.90131933402 14 17 8
-183.164693498814 -362.306748643763 2777.91114104753 14 17 8
-164.018397919485 -366.797437766415 2785.16573150272 14 17 8
-147.106149672422 -370.663550586556 2790.38282119639 12 15 8
-133.988708679336 -373.47953166019 2792.26526647378 13 16 9
-120.83105247301 -376.300569260333 2794.11288854676 14 17 10
-127.012128474633 -373.824724003671 2779.60371510895 15 18 11
-94.3641676489082 -381.17946300751 2788.40835687032 17 20 13
-85.7683502885678 -382.738887497985 2786.26151710185 18 21 14
-22.3247397424675 -399.219377042664 2829.30769918813 20 23 16
29.6400086874402 -412.537726593929 2862.43235779464 13 16 9
54.2860407008035 -418.409068488184 2872.8695874322 9 12 5
49.0303406976564 -416.163753400664 2858.88311206758 9 12 5
35.802276820089 -411.769040323999 2838.55940313704 10 13 6
53.4228406185822 -415.725033542039 2843.16315270939 13 14 8
63.1481420208084 -417.541517561558 2841.36227514724 11 14 7
76.0837245936505 -420.220511623005 2842.07819510293 11 14 7
77.0606890494006 -419.675533186098 2833.28769716045 11 14 7
84.4260924170666 -420.851330805248 2829.55829377027 12 15 8
183.783106591218 -445.888895363141 2887.85008926383 11 13 8
-157.165981687966 -384.21592756337 2887.8546476284 9 11 6
-174.814683225544 -378.386891885053 2862.08971267919 9 11 6
-143.813492924608 -386.294341617822 2880.26513197159 7 9 4
-145.029980430421 -385.109675272052 2869.40153436418 7 10 3
-128.175567244649 -389.010758083687 2874.66897839074 8 11 4
-124.878562216647 -389.096524836621 2867.84180326508 9 12 5
-126.90469659604 -387.691643754735 2856.35526783635 7 10 3
-162.440851202852 -376.912862228015 2815.62443278186 11 14 5
-187.520631660495 -369.089599767328 2784.37706401305 14 17 8
-202.058325190415 -364.233122208025 2762.5386286739 14 17 8
-189.099050230485 -367.056188868347 2764.55820805222 12 15 6
-136.889816505851 -380.79712012693 2800.12053806289 13 16 9
-129.912783558664 -381.92977789893 2796.72746972866 13 16 9
-135.294883047544 -379.630969723088 2782.85020270517 14 17 10
-178.706938797839 -366.800908872413 2737.02242305202 15 18 11
-124.476776943167 -381.031567418772 2773.48283720019 16 19 12
-115.173445111682 -382.808029975983 2772.04775200529 16 19 12
-83.9806204111868 -390.622623263335 2788.73321229119 17 20 13
-73.7975683868628 -392.627120509823 2787.86038052655 18 21 14
65.5055785857055 -429.314420648834 2883.06605275225 9 12 5
74.4895968097627 -430.934329141787 2880.58313727932 9 12 5
77.1591690202342 -430.821246233791 2872.97523130656 11 14 7
-183.839282895106 -384.053340577237 2864.65470181283 8 10 5
-176.115689435391 -385.40801757131 2861.93926220978 8 10 5
-166.879882924396 -387.192453950504 2860.56275530788 9 11 6
-148.597227830916 -391.553870257278 2867.24179545219 9 12 5
-136.280178945332 -394.205259592038 2868.49364190825 9 12 5
-125.439696613878 -396.430971475254 2868.37568601381 8 11 4
-122.155223639578 -396.506486795025 2861.55930644 8 11 4
-151.582523722251 -387.308723349604 2826.13098614109 8 11 2
-193.398180485098 -374.632178498112 2780.24380576322 12 15 6
-175.834894357518 -378.781645329862 2786.22171453772 12 15 6
-170.471999591551 -379.476746036465 2781.57800514695 12 15 6
-154.349296750565 -383.204962134486 2786.15495226481 13 16 9
-146.647176886346 -384.553992483105 2783.45808800843 13 16 9
-140.478869345634 -385.469935436769 2779.44099035093 14 17 10
-141.279659917711 -384.428992303457 2769.54160098394 15 18 11
-113.372983597956 -391.439525639192 2783.7767148609 15 18 11
-81.4545656685932 -399.555118963389 2801.15848877404 16 19 12
-97.8112692518964 -394.156458120459 2778.24661972632 18 21 14
-73.572143026964 -400.10591100909 2789.03671988512 18 21 14
-74.3537485546817 -399.066653262118 2779.12071307193 12 15 8
72.78410640044 -439.204485814412 2890.05513419972 8 11 4
90.4670029369701 -443.250258783825 2894.60543952252 8 11 4
85.2695179270735 -440.935927442327 2880.56837541654 9 12 5
-143.422380396637 -404.964853264193 2922.39462910127 21 24 17
-166.810207222843 -397.265575881427 2891.00484760203 20 23 14
-197.071527109667 -387.597037920874 2853.64951435824 8 10 5
-185.643589516371 -390.038770517121 2854.34736607707 9 11 6
-174.183698124043 -392.484349487194 2855.01723170147 10 12 7
-167.956113717989 -393.413006353456 2850.94883904057 10 13 6
-169.265923088849 -392.166763125844 2840.16604334113 9 12 5
-137.121535802348 -399.688760540906 2849.40791871551 10 13 6
-146.812293043022 -396.03790998818 2831.31647822468 8 11 2
-153.536354910941 -393.250383749008 2815.95264958196 7 10 1
-152.683347036293 -392.642419881277 2807.26918111672 9 12 3
-157.219975382264 -390.497304322741 2793.98368618049 11 14 5
-164.8839424009 -387.467529805551 2778.10967646941 12 15 8
-141.800252894246 -393.213799031483 2788.57665765633 12 15 8
-126.348037754735 -396.772939588281 2792.41038407964 14 17 10
-116.265147036493 -398.797603988816 2791.6244964029 15 18 11
-104.60517973991 -401.266033026792 2792.12141263129 16 19 12
-92.1348217535733 -403.959051086719 2793.24033482142 17 20 13
-94.4606580868004 -402.458533753326 2782.01294212345 18 21 14
-100.741347620247 -399.84648454301 2767.58954022206 17 20 13
69.0436748118799 -446.04306387096 2888.04805586068 7 10 3
83.5598289521844 -449.240035319479 2890.04391587644 6 9 2
98.1203622605058 -452.442661749965 2892.00166302936 6 9 2
-80.745369255673 -432.937347827266 3001.9102865752 31 33 30
-160.303699952338 -407.566556560031 2907.92918687825 17 20 13
-173.317400938288 -402.82048731711 2886.09382874271 15 18 9
-179.72233970425 -400.033097058763 2870.45372103077 8 10 5
-193.671118625925 -395.04255508992 2848.10398349165 9 11 6
-180.73388788358 -397.946314004018 2850.14319227354 11 13 8
-176.778621493658 -398.21561913874 2844.06992856995 11 14 7
-180.371136011312 -396.281459203848 2831.29076411274 9 12 5
-171.162263227075 -398.088558406736 2829.9377484956 8 11 4
-127.066586546199 -410.052058301173 2859.28700146264 10 13 6
-151.165135892024 -402.151824642185 2828.51224202894 9 12 3
-130.4618361516 -407.285451504331 2837.06832452145 8 11 2
-136.421407251508 -404.675707854075 2822.36629715849 9 12 3
-167.725888867269 -394.738267578158 2785.91368270033 10 13 4
-133.930516695482 -403.650586081562 2805.64389383336 11 14 7
-121.55122183154 -406.35700950405 2806.84214608483 11 14 7
-111.452888062751 -408.400064879039 2806.04267702221 14 17 10
-106.711535663294 -408.032609043866 2791.34407734626 17 20 13
-86.4629661468808 -412.983278365214 2798.96984442749 18 21 14
-97.3555560999619 -408.997736256737 2780.59433035332 17 20 13
-77.8172362910547 -413.733432289178 2787.51104248131 17 20 13
62.158677936448 -451.961366323219 2883.46716287578 8 11 4
61.6725180577511 -450.916465280742 2873.29473061737 8 11 4
57.1999610284251 -448.742369787411 2859.95351497729 9 12 5
-147.958754016293 -419.717138280103 2930.39216047896 33 38 32
-171.985990254192 -411.597698163183 2898.23027905021 15 20 13
-173.129852510503 -410.325415257524 2887.30348228393 16 21 14
-152.691513232754 -415.481389194143 2896.08936034293 10 12 7
-150.860951852746 -415.094753166723 2887.88330619886 11 12 7
-191.778533832669 -402.029821513044 2841.21521536957 14 15 10
-176.577002400785 -405.629520855196 2845.26648119494 17 18 13
-166.598703335535 -407.675492467244 2844.5713849346 13 14 9
-158.863747902436 -409.054755771548 2841.84625682072 9 10 5
-125.123320401156 -417.185782414149 2852.35557055356 10 11 6
-160.730525391874 -405.809088477236 2811.68275844621 12 13 8
-146.905339205343 -408.978401926751 2814.27732599954 12 13 7
-160.60974894789 -404.071560434806 2793.03990367524 10 11 6
-121.425869048553 -414.659455254473 2817.37401637979 9 11 6
-92.8432278776161 -422.120009144865 2832.34942423946 10 12 7
-116.639696116519 -414.276656104855 2802.63646971214 15 18 11
-112.72399678396 -414.532727709505 2796.59741444579 17 20 13
-109.593150467209 -414.561742955142 2789.91388729649 19 22 15
-101.027800992394 -416.171500819511 2787.79378130108 21 24 15
-84.6443957066723 -420.046573706132 2792.14571987489 19 22 15
-68.9866924451614 -423.702256756308 2795.80196795444 19 21 16
-150.229075202136 -428.569001430557 2949.6209431388 222 227 223
-164.474287276551 -423.272456663533 2926.20257557763 30 35 29
-178.091362874215 -418.18483511417 2903.56470976655 22 27 21
-202.933461604688 -409.722766968143 2870.78393335259 16 21 14
-195.983784863584 -410.8822825861 2867.414749665 15 20 13
-165.176973316365 -419.227493210562 2885.76148071158 16 17 12
-179.819870795442 -413.87748912467 2862.68777048039 12 13 8
-160.851224747601 -418.640750352567 2870.09810244409 9 10 5
-179.381436899521 -412.146531554242 2843.76931764174 11 12 7
-179.206025134713 -411.274932758817 2834.34817684781 11 12 7
-171.50455492279 -412.657950849479 2831.65209590984 10 11 6
-156.97329882865 -416.077404535643 2834.95988459476 9 10 5
-155.307205257523 -415.654067040138 2826.89614278595 10 11 6
-154.423567731807 -415.001219028552 2818.18615116363 12 13 8
-136.764026142333 -419.337041392695 2824.08152394508 13 14 9
-136.651564916555 -418.455887001959 2814.71488272557 11 12 7
-121.980486882208 -421.892314248784 2817.90159269817 10 12 7
-137.284231315877 -416.453672221893 2795.40008790032 11 13 8
-127.227250306386 -418.523953983595 2794.6369527011 14 17 10
-150.424699609529 -410.782523263915 2765.7284127491 16 19 12
-112.473479367345 -421.073742937401 2788.48247167941 19 22 13
-100.803103500696 -423.608550209536 2788.9707965586 20 23 14
-82.8606662817415 -427.979655905535 2794.62120216629 16 19 12
-40.6089508051224 -439.467440202626 2820.27255645216 18 20 15
-164.759552339517 -431.728165227379 2937.09165177885 219 224 220
-171.66902568132 -428.615430332623 2920.5631576928 16 21 15
-200.078639555004 -418.926454399511 2884.24958910709 26 31 24
-206.446785941934 -416.013728913615 2868.57646442952 4 9 2
-195.047788236069 -418.539139911317 2869.29962611431 23 26 19
-195.538064896807 -417.432758022162 2859.1306791343 22 25 18
-172.153275102834 -423.601680287729 2870.6626855536 21 22 16
-171.146503032861 -422.94992666962 2861.84566037461 16 17 11
-188.194369515772 -416.82203788858 2836.88128438331 15 16 10
-195.572940835483 -413.645649770879 2820.75896190176 12 13 7
