ply
format ascii 1.0
comment KinectMotionCapture
element vertex 753
property float x
property float y
property float z
property uchar red
property uchar green
property uchar blue
end_header
-57.1229316738799 867.505455543866 2622.31959693316 251 255 255
-50.2049280169166 867.295186980717 2618.97139878866 251 255 255
-36.6681368253143 869.180448179389 2620.45991400861 251 255 255
-26.4044375020962 870.013096707046 2619.49879755589 251 255 254
-17.7773383369448 870.319487243091 2617.31306970777 254 255 255
-8.30200366440703 870.884803413343 2615.71341317063 249 251 248
3.696950797623 872.230244258756 2615.89148755329 251 253 250
19.0745369472953 874.613986992687 2618.42812670075 255 255 253
29.469217157776 875.428876353979 2617.35359948483 255 255 253
41.569215640537 876.760709448425 2617.4441835613 249 250 245
43.5898223571711 874.970692945054 2610.41109144044 250 251 246
-140.580363399122 880.352540575532 2723.68585119668 172 165 159
-139.184906744064 878.286625861858 2715.87281054727 219 214 211
-139.385045735271 875.693961455426 2706.79962160444 255 252 251
-147.508720559679 870.460090268617 2691.37760580263 249 245 242
-150.161843085153 867.085274267253 2680.46547609308 255 254 251
-144.127432005842 866.619142650377 2676.56151652286 255 254 251
-141.271618962186 865.097733612084 2670.12604134626 252 248 245
-140.821320724618 862.788019838187 2661.8105224225 255 255 251
-140.395987178668 860.481428552351 2653.51662106051 246 246 246
-135.185324569436 859.75502764182 2649.00505957801 254 255 255
-129.171261012749 859.291119477815 2645.11903704185 241 245 246
-124.76534803095 858.302048132499 2639.98310671385 252 255 255
-117.940256963507 858.099343892732 2636.71570574623 253 255 254
-108.677903030678 858.680489170931 2635.30086021153 254 254 254
-101.831355728064 858.474633646067 2632.01456726121 253 255 254
-94.9769193118155 858.267737879144 2628.72175878618 253 255 254
-88.114927947339 858.059503048272 2625.42209533028 253 255 254
-77.9729535772429 858.892375192953 2624.56648082074 253 254 255
-70.2670584823784 858.941178537623 2621.85728643912 251 255 254
-60.9050086540952 859.508238871034 2620.35612215909 253 254 255
-52.3472426779206 859.81280558768 2618.23018418356 253 254 255
-42.9474189465218 860.374517110993 2616.69599905152 253 255 254
-32.6991818226121 861.192719373007 2615.74837785488 253 255 254
-23.2570629057465 861.748757136574 2614.17788624426 248 250 249
-11.2981803904706 863.077556420424 2614.39080026127 254 255 255
0.693237756815623 864.402175936857 2614.57585707439 254 255 255
14.3895140137387 866.238111970929 2615.92646048389 247 249 248
28.1262258104569 868.068602489753 2617.24205224469 255 255 253
41.0628583597545 869.636212809859 2617.92922853304 247 247 245
48.9813226816018 869.656269363158 2615.03597904159 249 249 247
52.6892699046906 868.390849979568 2609.18384610768 255 255 253
60.6215720875785 868.409462170412 2606.27861220418 254 253 251
-171.397423517965 865.666431282898 2708.14376822644 248 240 237
-171.621702766072 863.096361114803 2699.09135610074 255 250 247
-171.089910123233 860.792500380446 2690.70516511881 252 255 255
-171.370202349871 858.229674133957 2681.70125451417 251 252 255
-171.679561654193 855.670822280917 2672.7225116364 253 253 253
-170.4354494336 853.638763739574 2665.04042725952 252 252 252
-161.278599654576 854.221840756401 2663.71701344951 250 249 247
-154.48816526464 854.019110465577 2660.47933532597 255 255 251
-150.08207489067 853.033091622142 2655.34354697836 248 247 242
-147.279519718039 851.526819762658 2648.95413422361 255 255 251
-142.085093863106 850.802485708021 2644.45663232641 249 250 245
-136.08770030963 850.337806013159 2640.58474776792 255 255 251
-130.086434188304 849.872567104357 2636.70982585224 248 249 244
-122.466336212771 849.925319332934 2634.07496932901 255 254 250
-115.644295329579 849.717134824467 2630.80993206515 255 254 252
-109.62607826327 849.249351364805 2626.92001913207 255 254 252
-103.604019787362 848.780893114988 2623.02709659671 254 254 252
-94.3154497425076 849.344232724101 2621.58932848373 254 254 252
-86.6423630655122 849.389250022461 2618.90859487082 254 254 254
-78.1376406991754 849.690060918952 2616.82865603638 253 255 252
-68.7949313781466 850.24595204821 2615.3443272459 254 254 254
-57.7845263018935 851.312954308598 2615.05775633107 254 254 254
-48.3976918123981 851.862783262395 2613.53522195407 254 254 252
-38.9910329654666 852.409740584706 2611.99520818929 254 254 254
-27.0742757759459 853.72229461099 2612.24473900999 254 255 255
-13.4606993045296 855.542201824993 2613.6674406762 240 244 245
-2.30928918694406 856.589855406352 2613.25878100361 254 255 255
9.7064859853222 857.888954758924 2613.42257656612 254 255 255
20.9162992308252 858.928623330445 2612.96334854635 251 253 252
36.355723498767 861.237983784151 2615.44687237299 254 255 255
47.6322955089348 862.268781624295 2614.92983961482 255 255 255
58.092823493705 863.04156634102 2613.7985126052 251 250 248
63.4995277433941 862.288225230971 2609.11720935945 252 251 249
60.4221188317045 858.999653197857 2598.57226504857 206 205 203
-193.282933550013 856.550881189304 2708.6448811676 240 240 240
-188.052782503089 855.823532554227 2704.11643449692 244 244 244
-182.823043658859 855.096119658766 2699.58834551355 251 249 252
-183.85749747084 852.288662970673 2689.91610268937 249 249 251
-184.924856339047 849.485659853024 2680.27266651377 250 251 255
-185.238366091396 846.946350863522 2671.29739434025 252 253 255
-186.370156252993 844.151822950209 2661.70943265021 255 255 255
-181.997088361065 843.173545033777 2656.60221591336 255 255 255
-174.456005801285 843.229811933367 2654.03582211599 255 255 255
-164.517577217665 844.059074859763 2653.35665144378 253 253 253
-159.338541297264 843.33693316321 2648.87247434948 255 255 255
-152.561495240044 843.130077168386 2645.64642710982 253 253 253
-145.77656881306 842.922062336711 2642.41387269255 253 253 253
-137.377300910805 843.227014068393 2640.42530819993 255 255 255
-132.183712577068 842.5023736008 2635.92853419802 252 252 252
-125.37559982888 842.290757142836 2632.67590670137 254 254 255
-120.178805684238 841.565385512985 2628.17635884586 254 254 255
-114.171005757176 841.096010636622 2624.29548513423 254 254 255
-108.159516201443 840.626019100047 2620.41141748477 253 254 255
-99.6975897017855 840.921753983497 2618.36860425895 253 254 255
-91.2195523833206 841.215281509256 2616.31215702395 253 254 255
-81.9061528484961 841.761383701598 2614.85297999841 252 253 255
-71.7509864524204 842.559182544737 2613.98615876164 250 251 253
-60.748041021784 843.607906059584 2613.70617183653 249 250 252
-52.1942729579097 843.890793411419 2611.58383947813 250 251 253
-41.9688505993374 844.678951119405 2610.65618734814 252 253 255
-31.719363941543 845.463748279506 2609.70769960146 252 253 255
-16.4542723787431 847.764128076996 2612.34238204484 252 255 255
-2.80862709521168 849.551967041314 2613.73718080911 251 253 252
9.2055392047401 850.829244951964 2613.90251224257 247 249 248
20.4138550294517 851.849831836118 2613.44470574103 254 255 255
32.4907584285587 853.118683043614 2613.55603079369 246 248 247
42.9154820042106 853.87955915552 2612.45549840764 251 251 251
55.0528637699141 855.140325536165 2612.51445707598 253 253 253
62.1456134550495 854.889717843879 2609.0153771791 254 254 252
70.094225214798 854.8891037298 2606.09581625318 253 253 251
61.0503916312912 849.87550856387 2591.4699077285 204 202 203
-208.29949665799 847.287662647458 2705.83990954767 231 232 234
-205.423101346016 845.789352590163 2699.38644529733 244 245 247
-201.001952523578 844.808312484806 2694.23757298881 238 239 241
-194.243436501416 844.600358787504 2691.02759350972 247 246 251
-192.956318038948 842.590078366358 2683.30840846725 241 240 245
-192.474932925771 840.325584167602 2674.96565240702 250 250 252
-190.444795244087 838.577641703079 2667.92402681534 252 252 254
-185.276021846754 837.857540823906 2663.44873139412 255 255 255
-181.68962640373 836.625057274988 2657.70142281924 253 253 255
-178.904737484018 835.137693139871 2651.32719951838 253 253 255
-174.542522034453 834.162972754262 2646.22936593052 252 252 254
-166.996716368749 834.209920091143 2643.65893883847 254 254 255
-158.640083615285 834.510133482693 2641.70735846637 253 253 255
-150.267558512378 834.807907196669 2639.74201943294 252 252 254
-141.879221973672 835.103371902177 2637.76299102219 253 253 255
-135.890461280408 834.634008159614 2633.89893473955 253 253 255
-130.705340655313 833.910268506453 2629.40949416778 251 252 255
-124.711553466716 833.439966096685 2625.54077181069 251 252 255
-117.091352258162 833.475696749951 2622.90593611192 251 252 255
-110.272671243427 833.256668430391 2619.64419674784 251 252 255
-101.815543311332 833.54197060242 2617.60561021724 251 252 255
-94.9774818548059 833.320190320336 2614.32677544757 251 252 255
-84.0340391884817 834.35802532891 2614.09874777773 250 251 255
-74.7056992767816 834.888162000113 2612.6267248475 248 249 253
-64.5337943611981 835.667058285802 2611.74551822326 246 247 251
-55.9889534825668 835.940009047227 2609.63098776654 247 248 252
-44.9452319538448 836.963957836036 2609.31581927238 248 249 253
-31.3845047315557 838.736044522034 2610.78432164782 250 251 253
-16.9513969125052 840.753189841593 2612.81868880159 250 251 253
-4.14162666905904 842.263626047225 2613.61619170011 251 252 254
6.19737362506312 843.019660028746 2612.59030565342 252 253 255
17.398229804158 844.021968167359 2612.1390831416 253 254 255
29.4673292184626 845.269712465751 2612.25730896169 253 254 255
39.0427931404616 845.766029597496 2610.57131392042 253 254 255
49.48239353967 846.508575497012 2609.45832154973 252 253 255
56.5623551536873 846.254000807276 2605.97035123999 249 250 252
67.0422653502882 846.991237897806 2604.82245532019 254 255 255
74.1459863991811 846.733740723133 2601.31359527915 254 255 255
73.5891319520512 844.246965768075 2592.54889827767 194 193 189
-210.905647626094 842.177580488084 2713.42522672964 217 219 218
-212.660115453573 839.15115936706 2703.05520395617 236 237 239
-212.12223801412 836.896087130916 2694.66373842446 236 237 239
-206.938623590027 836.174945766988 2690.17558649426 242 243 245
-202.536172049529 835.198796902917 2685.04257258386 251 250 255
-198.920618597303 833.968517187148 2679.27029294628 254 253 255
-196.883143848799 832.230403829031 2672.22192884936 246 246 248
-193.288955117037 831.002642015422 2666.46815046688 245 245 247
-189.703618762507 829.775750737177 2660.72172360401 252 252 254
-184.545312325488 829.056760028508 2656.25549307959 249 249 251
-181.765844619984 827.57815072351 2649.88591180843 255 255 255
-176.614741387808 826.85971087812 2645.42592099096 255 255 255
-170.667013167732 826.39383691089 2641.59740641389 252 252 254
-161.520386853287 826.936467992495 2640.28280022593 254 254 255
-153.1546956545 827.224142983073 2638.32344982282 252 252 254
-146.378960458671 827.005987575763 2635.09892748715 251 251 253
-139.595541502766 826.7867374987 2631.86775245393 254 254 255
-133.611571191819 826.315002378782 2628.00754802156 249 250 254
-125.196710479879 826.595337002658 2626.00562819978 248 249 253
-116.765989131447 826.873415878308 2623.98997601156 248 249 253
-109.945589712652 826.648526838535 2620.72678522252 248 249 253
-103.932851900119 826.172438466332 2616.84167517168 249 250 254
-95.4646618990953 826.445052178713 2614.79358296985 247 248 252
-84.5225061802801 827.463896927507 2614.56679380103 246 247 251
-73.5524656714439 828.478664761835 2614.31554678805 245 246 250
-65.0243390661549 828.742907290287 2612.21555962239 242 243 247
-55.6550444273798 829.253455276155 2610.70816669327 242 243 247
-44.6105167581328 830.257974464137 2610.39274090529 242 243 247
-31.0496357300418 832.002672456406 2611.86128745113 245 246 248
-18.2799821964368 833.494017795748 2612.69368465334 247 248 250
-7.14100340334323 834.485435594324 2612.2961640658 248 249 251
2.35506677021746 834.978633293281 2610.67931816692 249 250 252
15.2216486295917 836.456767686797 2611.42810522525 251 252 254
24.7657983939913 836.943468237803 2609.76931360563 251 252 254
34.3301919668138 837.427524607504 2608.0933085968 254 255 255
41.3832588692129 837.170740713772 2604.62834770319 253 254 255
48.4443400729484 836.91307937728 2601.15676172524 250 251 253
57.2088443477008 837.145428681607 2598.85210420585 254 255 255
66.8393461134946 837.621001364262 2597.11885582444 254 255 255
80.7493360218343 839.318444791377 2598.28512336596 255 255 253
-211.220265788838 837.808452370821 2722.98968678949 202 204 201
-216.028118288239 833.788581585088 2709.97922084115 225 227 226
-215.470245270486 831.547083356104 2701.57002095025 223 224 226
-214.937127218858 829.30882134027 2693.18257162039 223 224 226
-211.316110077737 828.083532696948 2687.40520855214 233 234 238
-208.484043721771 826.606942550306 2680.99002505579 249 248 253
-203.317588858753 825.887633001026 2676.51673406376 253 252 255
-198.935956163211 824.916525827415 2671.40204743717 248 248 250
-193.772521760027 824.197084072479 2666.93137524295 246 246 248
-189.397980197433 823.226512669257 2661.82283128437 248 248 250
-184.237539467767 822.506994987485 2657.3547543066 246 246 248
-181.455356556879 821.036044768682 2650.98277003826 253 253 255
-177.891322737655 819.816813228796 2645.25475721316 255 255 255
-171.149119321534 819.598262930851 2642.05930063515 252 252 254
-163.600615281475 819.628078745503 2639.48664577775 250 250 252
-155.239628620799 819.905368247743 2637.53144026514 252 252 254
-151.679587823579 818.686015706275 2631.80688911983 248 248 250
-144.908701636751 818.462884022195 2628.58660184096 246 246 248
-138.130305330453 818.238419311321 2625.3594983968 245 246 250
-128.917324063928 818.757524242157 2623.98784794966 244 245 249
-119.684553970153 819.273582667895 2622.59875004322 242 243 247
-112.870657852473 819.044000023543 2619.34122631369 242 243 247
-106.864204189572 818.565883411025 2615.46157610426 242 243 247
-97.5856865412559 819.075503710399 2614.03318437999 240 241 245
-85.8300929636378 820.32250773167 2614.42282626175 240 241 245
-74.8633791108029 821.318559996844 2614.17458385846 239 240 244
-66.3379716555514 821.5720520862 2612.07733865383 238 239 243
-57.7968105159772 821.823340520113 2609.96613793164 237 238 242
-45.9307085683345 823.054923236651 2610.26009816736 236 237 241
-30.7152168448099 825.263469966995 2612.93836565484 238 239 241
-18.776554625564 826.485041337418 2613.16950016879 239 240 242
-10.1389309355446 826.722942007486 2610.97509415271 241 242 244
-1.48549124470199 826.958870174542 2608.76667710924 242 243 245
10.5334822493592 828.169326473363 2608.92827498048 244 245 247
20.9060175270608 828.887727195015 2607.87356682258 244 245 247
32.1440858886422 829.846397332029 2607.39037394996 241 242 244
40.0362106142889 829.827901099845 2604.52020375632 242 243 245
47.9402729053939 829.807976876195 2601.63969609903 247 248 250
55.0087433510868 829.543691119182 2598.16174852588 248 249 251
66.3332229611178 830.491083439815 2597.60373299874 249 250 252
81.0927034616626 832.403409109905 2599.35558493922 245 244 242
88.2134387579487 832.132623742027 2595.83237965906 255 255 251
-213.251002896392 830.418181021228 2722.15116703284 214 216 213
-217.288308224259 826.684308941649 2709.79424774729 220 222 221
-215.183010012999 824.959780751183 2702.68732609794 231 232 234
-216.198904864492 822.237018965837 2692.99844873052 225 226 228
-212.579149289066 821.017372057895 2687.22245806086 236 237 241
-210.528415310869 819.299473481091 2680.16278623353 246 245 250
-206.148185849918 818.331407622649 2675.04898062016 245 244 249
-200.988149688477 817.612543286408 2670.58125006251 251 251 253
-197.400978584144 816.396446172024 2664.83347852243 249 249 251
-193.034505515888 815.429394501371 2659.73158949711 246 246 248
-188.672363542512 814.462888416434 2654.63376636484 244 244 246
-182.730138527276 813.992343621867 2650.80973636745 243 243 245
-177.578707823286 813.27373990301 2646.34946278029 252 252 254
-172.427774052869 812.554843789917 2641.88962179804 250 250 252
-164.083099509203 812.823692527839 2639.94892479279 246 246 248
-156.523523974226 812.843371522017 2637.36642404678 249 249 251
-150.557027642108 812.368622090576 2633.52169998562 248 248 250
-145.391707102879 811.647129741698 2629.04940629739 243 243 245
-138.613623357143 811.417197596031 2625.82260918982 243 244 248
-130.210189763328 811.677055212783 2623.83104186642 241 242 246
-122.601964617851 811.689403970166 2621.20642225442 239 240 244
-115.794432943076 811.45516890716 2617.95444496411 237 238 242
-107.349746290757 811.708969626013 2615.92684586809 238 239 243
-98.0722205171305 812.204829910815 2614.4994030025 236 237 241
-86.3181374104394 813.430119010645 2614.89049477694 237 238 242
-76.1736882410604 814.163306711509 2614.03338122759 238 239 243
-66.8281074860189 814.649762384434 2612.54701360552 238 239 243
-57.4627559461702 815.133233868237 2611.04321375838 238 239 243
-48.0772589992862 815.613954650256 2609.52228650031 236 237 241
-36.1846626645717 816.819871330291 2609.79344941498 238 239 241
-25.9219410061471 817.536711893123 2608.83393077798 238 239 241
-13.9689778220307 818.734259333636 2609.05282580729 239 240 242
-2.81891764048003 819.685618090305 2608.64596016564 240 241 243
10.0338320432143 821.116149305995 2609.4070445376 241 242 244
21.2442678180387 822.059257417936 2608.94790266347 241 242 244
33.3243334540536 823.239590203632 2609.05706049331 239 240 242
41.2198314962455 823.212195731601 2606.18402418579 238 239 241
48.2817059138623 822.942847343861 2602.71151092039 240 241 243
54.5042794467916 822.432593543892 2598.64506561389 245 246 248
66.6766794017502 823.600589102869 2598.67395840328 249 250 252
83.9905148774531 826.201466483531 2602.17749536847 252 252 252
100.507633719206 828.555322052738 2605.04991511335 255 254 252
-212.827240463632 826.248476322875 2732.39761469317 184 189 183
-217.590381443839 822.293130079554 2719.34797754336 219 221 218
-218.548134734921 819.584658476561 2709.60892970778 235 237 236
-217.217852911429 817.623398716844 2701.85170026086 231 232 234
-217.46006015858 815.170005755086 2692.81407090515 248 249 251
-216.175485818984 813.214564371062 2685.09673558709 213 214 218
-212.572195451837 812.002143099228 2679.33465357013 227 226 231
-207.413558280469 811.283646825609 2674.86813318241 241 240 245
-203.039367844813 810.318752009322 2669.75985677375 245 244 249
-200.241938134536 808.86239683674 2663.37456298008 251 250 255
-195.881208139623 807.898813472179 2658.27762920815 246 245 250
-189.944475329371 807.426575184913 2654.45868598894 247 246 251
-185.588823545228 806.463196621297 2649.36615235771 228 227 232
-179.649005739838 805.990123669872 2645.54454067098 233 232 237
-173.705810804594 805.516154515268 2641.71969219898 249 248 253
-165.364024486547 805.774350962508 2639.78125203696 240 239 244
-157.80672973297 805.786154904237 2637.20109466955 238 237 242
-151.040014511092 805.552505988544 2633.98449066785 249 248 253
-145.874590643839 804.830879951981 2629.51210828781 245 244 249
-139.903237212477 804.352280243749 2625.66288384119 239 240 244
-133.928328638718 803.873081986774 2621.81058190348 236 237 241
-127.139090228434 803.635741091373 2618.57448016892 231 232 236
-121.154821188107 803.155162473877 2614.71407412314 230 231 235
-111.093777682255 803.883592933643 2613.92928208739 229 230 234
-101.825291100095 804.367076379042 2612.50975401619 231 232 236
-88.4433905387558 806.054492633892 2614.13380055303 232 233 237
-76.6627682162357 807.254109660062 2614.50205619084 237 238 242
-65.672667480849 808.208445683843 2614.23381385809 238 239 243
-57.9537660980942 808.196629345282 2611.5137392763 238 239 243
-49.3962506146484 808.42349754529 2609.38852190015 237 238 242
-38.3361131339193 809.367982411536 2609.05964003852 234 235 239
-29.7404310826863 809.589672972808 2606.90169139026 234 235 239
-16.9643147564424 811.005948991357 2607.72897350886 233 234 238
-5.82159415253214 811.939154801888 2607.32890248736 233 234 238
7.86025347604324 813.584919122316 2608.69324402512 232 233 237
18.2259922733419 814.270976114163 2607.64432069641 232 233 237
30.2983074971848 815.430314548391 2607.76033213099 232 233 237
41.5596102126003 816.347348871457 2607.25727100986 234 235 239
49.4683526419877 816.30984657992 2604.37282081481 231 232 236
57.388970320333 816.270685144489 2601.47808866594 235 236 240
68.7186008069465 817.178637435696 2600.91586426129 239 240 244
84.333200364918 819.267081832607 2603.24898890901 242 242 244
102.556205975945 822.058395510938 2607.28654227832 255 255 255
115.707955388929 823.423986878502 2607.78889364932 244 244 244
-217.157023434118 818.113292173736 2729.58648954851 197 202 198
-219.618956596384 814.9309536216 2718.50740188699 225 227 226
-221.35076063216 811.99915467955 2708.11712243654 227 228 230
-220.798971413722 809.80716322261 2699.71287478806 223 224 228
-221.047817104974 807.373648186581 2690.68087040101 235 236 240
-218.992636372195 805.677069097461 2683.61720626083 217 218 222
-213.835308533384 804.958928812152 2679.1518184119 207 206 212
-209.460414380688 803.996791564673 2674.04259868441 237 236 242
-205.873707161231 802.791596319446 2668.29515856565 235 234 239
-203.081698665162 801.343995976981 2661.91450680168 239 238 243
-197.150837054058 800.869771412283 2658.1003497201 253 252 255
-192.796151011076 799.909599298041 2653.00894786641 246 245 250
-188.446264714655 798.949692059096 2647.92138889635 237 236 241
-182.51266381576 798.474581811621 2644.10517882767 219 218 223
-175.779591697695 798.240530800683 2640.91742160608 248 247 252
-166.644277911652 798.729851821098 2639.61328135647 241 240 245
-159.089487335476 798.733788598659 2637.03534542905 230 229 234
-151.522995898738 798.735850172786 2634.44728009657 248 247 252
-147.161824206983 797.773345161506 2629.34995650235 246 245 250
-141.192443368395 797.292278538221 2625.50277327131 236 237 241
-135.219672284144 796.810493603947 2621.65234073432 230 231 235
-126.812166678384 797.047562870198 2619.65707620803 231 232 236
-121.638403552725 796.324214911387 2615.17747705108 229 230 234
-112.392808248281 796.797186998772 2613.77785778695 227 228 232
-102.310830362105 797.506209724342 2612.97504693389 229 230 234
-89.7495032937607 798.927876471356 2613.98845969077 230 231 235
-77.972221425167 800.1061669918 2614.3600643292 233 234 238
-68.6307978664811 800.565373140173 2612.8771609634 235 236 240
-58.4446636234222 801.259710223875 2611.9841692153 236 237 241
-50.7145351475855 801.238057737856 2609.25442744686 238 239 243
-40.4864094740041 801.926560113638 2608.32507802562 234 235 239
-30.2343583594107 802.611660755609 2607.37501360798 229 230 234
-16.6270241482662 804.240331474782 2608.80404936995 228 229 233
-7.15361487249533 804.681283817809 2607.20686752409 227 228 232
5.68737350226112 806.064052741262 2607.9784553461 227 228 232
16.8867988316763 806.970196724291 2607.52909614925 227 228 232
28.955537089784 808.108038648884 2607.64834716653 229 230 234
39.3701790405183 808.770861423423 2606.55718827524 231 232 236
47.2741359524784 808.72555965454 2603.67693640096 230 231 235
57.7311802339384 809.382933784605 2602.5493767057 229 230 234
69.0613754226326 810.271526679241 2601.98678830283 233 234 238
82.9731515832277 811.858718651644 2603.15222206749 248 248 250
100.338242397354 814.375881636924 2606.61219217273 246 246 246
109.207907376792 814.549753023173 2604.21676702899 237 237 237
-224.554233874777 809.031801273759 2724.14647162689 208 213 209
-226.263126699947 806.121530060924 2713.73619470645 224 226 225
-227.237816035695 803.458756735146 2704.01152982356 223 224 226
-225.152185194066 801.769253401165 2696.92111211561 223 224 228
-223.083222099663 800.081837276172 2689.84544293098 221 222 226
-219.476030487905 798.879991756391 2684.0802265468 239 240 245
-215.098169513677 797.920329498815 2678.96841933045 218 217 223
-209.943266245037 797.202156417004 2674.50513315616 202 201 207
-209.490688943613 795.038796952639 2666.18669050626 244 243 248
-205.9202820357 793.840947105767 2660.45333085505 237 236 241
-200.783223875313 793.124518503762 2656.00550037324 238 237 242
-194.067253797116 792.887859984298 2652.83258300104 254 253 255
-189.718870632253 791.930932135046 2647.74662305546 236 235 240
-183.787536589415 791.453290321636 2643.93207864417 227 226 231
-176.260735894314 791.453091564112 2641.37842935113 230 229 234
-168.72222559478 791.45113619795 2638.8146423059 244 243 248
-161.971879686688 791.208852365403 2635.61228213132 238 237 242
-155.213903591148 790.965361305467 2632.40331642189 228 227 232
-149.252478488958 790.48258913253 2628.5627242527 248 247 252
-143.287412958792 789.999147039142 2624.71898113484 232 233 237
-136.510580889138 789.752577641132 2621.49369222258 226 227 231
-128.91591597936 789.741922011486 2618.88129033612 225 226 230
-122.121868364111 789.49271254228 2615.64078168656 224 225 229
-112.877215733661 789.951977875333 2614.24206829198 223 224 228
-101.163890602924 791.117240441532 2614.66887544263 225 226 230
-89.4182129724421 792.277988585981 2615.06798628527 226 227 231
-78.4609635862257 793.19848148688 2614.82843670196 229 230 234
-69.9427940455339 793.408730125612 2612.73742956384 231 232 236
-59.7598389220662 794.086966762764 2611.84729760425 232 233 237
-51.2059091482264 794.292219858344 2609.72532815792 233 234 238
-39.3221117021834 795.433446709136 2610.00453657738 231 232 236
-28.2363827336738 796.336060405612 2609.65406049248 225 226 230
-13.7923906988577 798.170741723699 2611.67986076365 223 224 228
-4.31183250624745 798.596897605628 2610.07657857603 222 223 227
6.02551396947826 799.253743264342 2609.05276869599 221 222 226
16.3869378602328 799.90740626736 2608.00811067858 220 221 225
26.7723812214511 800.55771475965 2606.94265586006 225 226 230
36.3389570569614 800.972166743279 2605.26489493103 226 227 231
45.081126964861 801.151851907651 2602.98025218797 225 226 230
56.3795565771827 802.025319600828 2602.44529416363 226 227 231
65.1595446622548 802.199949423506 2600.12759029296 230 231 235
75.6573912077432 802.835359953797 2598.96480813351 239 239 241
90.4442434376911 804.623388681911 2600.69374145953 241 241 243
106.130691042793 806.636282404865 2602.9650823925 250 250 250
114.152378323779 806.567280620781 2599.98294295231 214 214 212
-227.345299302424 801.440368920304 2722.64468289831 214 219 215
-228.289280227433 798.79523641615 2712.89297210623 221 223 222
-229.266264610054 796.15445096196 2703.170153941 219 220 222
-227.18355961085 794.476263135646 2696.08251435392 226 227 231
-225.117705298051 792.800105072047 2689.00946670953 214 215 219
-219.959445353892 792.082018917217 2684.54327062062 242 243 248
-216.360542073997 790.886237955069 2678.78488322025 229 228 234
-212.7703262746 789.691447290533 2673.03401915435 199 198 203
-211.538979501503 787.783178106025 2665.36251240439 234 233 238
-207.186639465194 786.828951232188 2660.27310539371 248 247 252
-199.689030645378 786.825475251222 2657.74446347191 221 220 225
-196.127275819118 785.63370125934 2652.01856351917 244 243 248
-189.407915002305 785.390837031498 2648.84274748509 239 238 243
-185.061800127331 784.436610103141 2643.75873604585 232 231 236
-176.741860939089 784.664991000445 2641.83942478201 220 219 224
-170.79915308022 784.182605801567 2638.01536852564 237 236 241
-164.053314845717 783.935337413469 2634.81663210099 240 239 244
-160.507014978323 782.744566813162 2629.10412101462 222 221 226
-153.754079574834 782.49592343539 2625.89924212847 242 241 246
-146.187445002953 782.481197605214 2623.31116151841 230 231 235
-138.609154399268 782.464602608762 2620.71299031886 224 225 229
-128.589110405901 783.149687418721 2619.96401491517 222 223 227
-119.357239420429 783.597057717445 2618.576141399 221 222 226
-110.105290271058 784.04168637012 2617.17119869525 221 222 226
-100.017423629238 784.716978653631 2616.36350242011 223 224 228
-90.723791176226 785.155552352815 2614.92215502221 224 225 229
-81.4100668888082 785.591262792579 2613.46372737607 228 229 233
-75.3655395457544 785.093166969436 2609.5512068053 229 230 234
-64.3717142942046 785.989331023646 2609.28011325633 230 231 235
-52.5234088202096 787.11374092076 2609.59050833083 231 232 236
-38.1582063569139 788.929209635999 2611.68472285383 229 230 234
-25.4091517077009 790.275372524744 2612.5362301483 223 224 228
-13.4564157845478 791.385097556945 2612.75589124426 220 221 225
-4.80922985912358 791.566293560697 2610.55324922985 219 220 224
5.52686950554371 792.206838472523 2609.53062589503 218 219 223
16.7255458032156 793.074576520382 2609.08216478233 217 218 222
28.7930070690989 794.168693855589 2609.20280595109 217 218 222
37.5221355923734 794.338794639688 2606.92921323904 217 218 222
46.267223153527 794.506746196039 2604.64180218225 218 219 223
56.7217108963693 795.131287679899 2603.51667108727 220 221 225
66.3516496088721 795.523694411122 2601.78444964183 224 225 229
74.3000847430242 795.455933995624 2598.86579242622 234 233 238
88.229822302039 796.985851346078 2600.01602954222 246 245 250
107.328736495993 799.879376911804 2604.61699999507 237 237 239
125.635929233247 802.536249210396 2608.58277205235 235 235 235
119.096308063136 798.58422235575 2595.74959175615 241 241 239
-231.514800332882 795.777276167814 2728.9420735515 198 203 199
-233.202893927722 792.913310551997 2718.51346912909 218 223 219
-232.621375812225 790.766541892706 2710.08316133209 217 219 218
-231.293978699227 788.860107151389 2702.32807689996 217 218 220
-228.441186030496 787.430094163167 2695.89494285504 237 238 242
-227.926618555802 785.291742986129 2687.52260903944 226 227 231
-222.774302794025 784.574397457151 2683.06156018778 224 225 230
-219.180919064055 783.384809462758 2677.30791664915 242 241 247
-214.814903059667 782.431854906561 2672.2066479407 217 216 222
-212.803301105411 780.773004080747 2665.18051061421 197 196 202
-208.452807664637 779.82163868548 2660.09237005895 218 217 223
-203.319501449422 779.105595591258 2655.64778902478 237 236 242
-199.765377496653 777.920239016094 2649.92846143937 224 223 229
-190.680142714634 778.375978661306 2648.66762855792 247 246 252
-184.748861003682 777.89271459537 2644.8531659369 238 237 243
-176.427319916956 778.11000267613 2642.93285364464 211 210 216
-172.875502233336 776.924036200345 2637.21521342493 217 216 222
-168.532636954295 775.972402802165 2632.13400172115 234 233 239
-164.194611878637 775.021099613833 2627.056667543 218 217 223
-157.449938144189 774.768201288859 2623.85929242738 222 221 227
-149.086317929469 774.978662475804 2621.90223736797 227 228 232
-139.091330044342 775.650892477192 2621.17506229342 222 223 227
-129.072349475065 776.319711689033 2620.4271139991 220 221 225
-118.217630107997 777.216463832892 2620.27658470948 219 220 224
-109.776512976949 777.415709872772 2618.25243296152 220 221 225
-100.503553525917 777.843495672193 2616.82938901623 222 223 227
-92.8466166395197 777.807326336245 2614.16317909874 223 224 228
-82.7179963796634 778.46030225418 2613.32030480859 227 228 232
-76.6756426110047 777.959744385687 2609.40968410698 228 229 233
-64.8612312659305 779.066838206895 2609.74925313709 229 230 234
-54.6667389632982 779.710583720255 2608.84934499297 229 230 234
-37.8232526577764 782.184365708423 2612.76137407177 227 228 233
-28.3945564370436 782.590279909147 2611.20348919878 221 222 227
-16.4495621821921 783.679129184673 2611.42999555235 218 219 224
-7.80902284977358 783.850343208696 2609.23349457533 216 217 222
5.86486896534355 785.387587256325 2610.60543491666 215 216 221
17.0641099650961 786.235965907613 2610.15660980574 214 215 220
29.1317742992216 787.307935701157 2610.27690297173 216 217 222
37.0197783113517 787.239690027457 2607.41062672623 216 217 222
47.452926915641 787.850516815791 2606.30407990123 216 217 222
53.677707498105 787.325031935575 2602.2355048505 218 219 224
59.9062176113616 786.799164566154 2598.16369975991 222 223 228
67.8396550151135 786.725099739806 2595.25808246907 235 236 241
83.4583714024006 788.681479684028 2597.58849469378 225 226 230
108.526353437755 793.111472382057 2606.26967579078 238 239 241
128.547763071799 796.177552523131 2611.39354451398 244 246 245
136.616502411333 796.085386152969 2608.37077347048 245 247 244
-235.82814323917 787.731481656296 2726.11580445235 202 207 203
-233.690770715219 786.06832910003 2718.98068512765 217 222 218
-233.876572275364 783.702978115376 2709.89359642133 217 219 218
-231.779225603259 782.044654728723 2702.79282213515 214 215 217
-231.244251843149 779.919986414234 2694.40302830603 236 237 241
-229.959623357826 778.032486346412 2686.68489028366 240 241 245
-226.365111405777 776.848375712787 2680.93023338096 213 214 219
-222.000172466655 775.898620401354 2675.82987747251 233 232 238
-217.639899535609 774.94913415125 2670.73356401746 235 234 240
-213.284234668074 774.000088817507 2665.64124167953 206 205 211
-209.71838904272 772.818940428842 2659.91141171716 201 200 206
-203.799884016852 772.335241116213 2656.10802592876 241 240 246
-202.612796511478 770.459461968237 2648.47466974077 225 224 230
-192.743123208324 771.134195592542 2647.85609309525 243 242 248
-186.815987537123 770.648735116146 2644.0452382287 239 238 244
-177.704035530658 771.086743575845 2642.76136346701 210 209 215
-173.356244080535 770.137141640487 2637.67586890976 211 210 216
-167.41441221115 769.648983370813 2633.85229380176 229 228 234
-163.873206706522 768.469558574601 2628.14412466162 213 212 218
-158.73381412251 767.751019007089 2623.69428453005 219 218 224
-150.372872407916 767.950941628444 2621.73961931315 219 220 224
-137.95827894841 769.29525603859 2622.881028121 217 218 222
-127.126723517499 770.176263560649 2622.750677873 218 219 223
-117.078748135313 770.824469755314 2621.977732305 217 218 222
-108.634275109791 771.012125023877 2619.95074699116 217 218 222
-101.80526627796 770.741281685005 2616.68039189939 219 220 224
-94.9688818129335 770.469123430811 2613.40333708905 221 222 226
-86.4850753694233 770.651122291504 2611.34229674168 225 226 230
-79.6291102287729 770.376229502586 2608.04860388866 226 227 231
-67.8223421506128 771.462554087598 2608.3949321981 226 227 231
-56.8092274759402 772.31761359764 2608.10738617123 225 226 230
-39.1443762117136 774.980683636837 2612.62985851036 221 222 227
-28.0589385250365 775.825584094358 2612.27969336028 215 216 221
-17.7772767973035 776.440702469091 2611.30441784673 212 213 218
-9.13985857816568 776.601175793423 2609.11037613793 211 212 217
4.53001796825125 778.111592602887 2610.48597049814 210 211 216
15.725842654486 778.941267759333 2610.04022762806 209 210 215
27.790099291547 779.991920102886 2610.16392801804 212 213 218
36.5175205411195 780.140092924584 2607.89195715521 215 216 221
47.7936247892195 780.958836938775 2607.37670393732 210 211 216
54.020118783435 780.430186888395 2603.30666432142 212 213 218
61.0987314324682 780.12477084752 2599.82019266134 219 220 225
69.8858908194278 780.265257961011 2597.49649441115 232 232 240
83.8033795658459 781.742029030458 2598.65769240254 239 240 245
105.451187738583 785.218446217068 2605.01608131481 234 235 239
128.888822668999 789.129281479411 2612.46686974587 228 229 231
139.534346310327 789.695218361869 2611.17654073024 245 247 246
142.459170111181 788.26057296003 2604.68068921928 117 119 114
-240.904072898244 779.479103411772 2722.62857449834 212 214 213
-238.011435919352 778.060769892229 2716.16051476152 222 224 223
-236.668633408953 776.179710546201 2708.39222899738 219 220 224
-233.805671958514 774.764774613202 2701.9498680913 218 217 222
-234.818975185589 772.193834572181 2692.25776066116 232 233 237
-232.766504220206 770.55199705544 2685.19609044704 248 249 253
-229.954180114562 769.143221782297 2678.7975788266 206 207 212
-224.818293537924 768.42778936565 2674.35075734323 223 222 228
-219.683007222884 767.712198242454 2669.90445715658 242 241 247
-214.548191055103 766.99637100384 2665.45856599349 229 228 234
-211.768711094527 765.591000836428 2659.08849950899 202 201 207
-206.641192161041 764.87567723801 2654.64892985756 237 236 242
-203.09206416965 763.701772987422 2648.9338582401 232 231 237
-194.805543412135 763.902435634915 2647.04369154634 241 240 246
-188.882513323863 763.414713413507 2643.23640979225 239 238 244
-181.365617266471 763.383030906417 2640.69154922022 210 209 215
-174.634148601129 763.121430848006 2637.50567580009 210 209 215
-167.09590857355 763.086334940652 2634.94233776081 226 225 231
-161.94976488951 762.366946078468 2630.48665171163 209 208 214
-156.80412306568 761.647505030213 2626.0314009809 220 219 225
-149.243041676453 761.608734180452 2623.44828932618 216 217 221
-137.63346492648 762.701493065928 2623.96548875329 215 216 220
-127.610500823776 763.336838414865 2623.21430469883 217 218 222
-118.375128816229 763.742655311866 2621.82366598805 215 216 220
-109.119795088614 764.145686358312 2620.41605930221 215 216 220
-100.660216662063 764.320228417927 2618.37606656827 218 219 223
-94.6375414774607 763.81681116629 2614.48252053167 220 221 225
-86.1522676217428 763.987735321909 2612.42059560262 224 225 229
-78.4729836944407 763.931668575771 2609.73514563724 225 226 230
-65.8399841647568 765.22013791188 2610.68730041818 224 225 229
-55.6478515979668 765.831263819995 2609.78964891779 224 225 229
-38.8096705378347 768.229405404653 2613.70676639516 218 219 224
-26.0638186199871 769.502040188016 2614.56152607599 212 213 218
-14.1135215762827 770.546480620405 2614.7840395951 210 211 216
-3.7990762577933 771.140453540728 2613.78017087527 209 210 215
8.21135911958715 772.176495621984 2613.95061476046 208 209 214
17.7399774044389 772.540964128352 2612.30607689914 207 208 213
28.1286720690406 773.124840201483 2611.23823454284 211 212 217
36.0153174529181 773.040009368226 2608.37324334153 214 215 220
47.2900226816142 773.839778215528 2607.8593256636 208 209 214
54.3624327150329 773.529448417787 2604.37826187469 209 210 215
63.138773365039 773.660133906652 2602.06400412747 217 218 223
71.9310774248601 773.788729465167 2599.73592386196 234 234 242
85.0004595992324 775.017195078257 2600.31055445762 220 221 226
103.231653387345 777.561296073496 2604.34292829672 232 233 237
126.661024958369 781.415933108615 2611.8012430443 234 235 237
145.884223091841 784.161293218297 2616.29576776813 235 236 238
147.965451771208 782.513127523715 2609.20921321636 177 179 176
-243.684829908012 771.94796556496 2721.11746038355 214 216 215
-239.264733196311 770.99778875503 2715.96929998231 221 222 224
-240.227932881181 768.442341160765 2706.2339811326 218 219 223
-236.601950359909 767.265670141507 2700.45199934747 209 208 214
-237.619606384794 764.717054978674 2690.76351997789 216 215 221
-234.023161281554 763.54384502939 2685.00743241971 237 236 242
-231.988601331815 761.915139240927 2677.96120123272 225 224 230
-226.856592442751 761.200229038326 2673.51773729659 214 213 218
-222.505917730826 760.257462839724 2668.42938390411 209 208 213
-216.594249707014 759.76979580721 2664.63226521491 220 219 224
-212.248751607247 758.827127889073 2659.54839794139 222 221 226
-207.121035316285 758.111717826055 2655.10865779344 216 215 220
-201.993847671849 757.396199298148 2650.66937654529 232 231 236
-195.285448197837 757.133034881201 2647.50350815959 214 213 218
-190.155296374029 756.416578187233 2643.06166382997 230 229 234
-182.640832878966 756.377078757637 2640.51896230099 207 206 211
-173.520877107397 756.786401813038 2639.22833627053 195 194 199
-165.978977302982 756.742608632483 2636.66188252967 214 213 218
-159.226423655386 756.47224029665 2633.45779081619 205 204 209
-156.481845787829 755.07797826722 2627.11790324923 209 208 213
-148.114129967787 755.25495049837 2625.15751539074 210 211 215
-138.116164028757 755.877612893769 2624.42808032914 211 212 216
-128.094236563829 756.496748923406 2623.67789980269 213 214 218
-119.671003589429 756.665585827594 2621.6694459481 214 215 219
-110.418576257294 757.055294349391 2620.26444466998 215 216 220
-101.961698745248 757.219300861993 2618.22686118633 215 216 220
-95.1238996928527 756.935933047586 2614.9486529405 218 219 223
-86.639385444534 757.095940445089 2612.88745713134 222 223 227
-77.3178614684857 757.475602786577 2611.42231689494 221 222 226
-67.1528247184283 758.074148576746 2610.54823183234 220 221 225
-55.3128198607 759.112040664396 2610.86606647403 220 221 225
-40.1303983987611 761.029862076511 2613.57488105324 215 216 220
-24.0698463152071 763.161703044144 2616.84446227869 207 208 212
-12.9468334440426 763.96297650021 2616.46201206965 199 200 204
-3.46293441794998 764.319955338724 2614.85659804338 208 209 213
6.87635412668852 764.894113887021 2613.8313252041 207 208 212
18.0776870170805 765.684622519851 2613.38137748838 200 201 205
27.6273150488922 766.032547678527 2611.71873692548 206 207 211
36.3550463188762 766.158520865776 2609.44664121099 211 212 216
45.9426616034428 766.501292534343 2607.75142463829 207 208 212
53.8583846699927 766.404341360095 2604.86130930433 205 206 210
65.1777660987278 767.178810248736 2604.30883310232 212 213 217
74.8251656519301 767.513568368876 2602.56153577021 225 226 231
87.9007665645819 768.71646350617 2603.1309420592 227 228 233
103.574944233811 770.566622098601 2605.41397231433 230 231 235
127.85823277305 774.581348284554 2613.45439002228 229 230 232
147.082265237863 777.282759355886 2617.94847639201 236 237 239
156.049438718113 777.376987785011 2615.46936872691 230 232 231
-245.548898729604 766.971794145352 2729.38229693531 204 206 203
-244.172135147013 765.113806424943 2721.58411087163 217 219 218
-242.050060491269 763.485411905457 2714.46202552624 220 221 223
-241.481327424719 761.405640955186 2706.04236484389 216 217 221
-239.397127588223 759.781808119297 2698.95307740591 211 210 216
-238.874517832408 757.707709689438 2690.57335669678 207 206 212
-236.053926543129 756.314349645572 2684.16757972005 221 220 226
-234.798795026025 754.471387114076 2676.47503468879 240 239 245
-229.672703533029 753.757273816146 2672.03669440857 221 220 225
-224.547171844808 753.042936477112 2667.59884078306 205 205 207
-217.857295622029 752.777812840898 2664.44872434795 204 204 206
-212.728799754437 752.062537335804 2660.00830764097 230 230 232
-207.600904148443 751.347103124159 2655.56841223072 213 213 215
-201.684782677298 750.855362941204 2651.76745997276 214 214 216
-194.974731294575 750.586324562279 2648.59988236897 209 209 211
-189.049566975403 750.092887475941 2644.79110334556 219 219 221
-183.121065983199 749.598619520977 2640.9791221789 199 199 201
-174.00185608285 749.994448863005 2639.68923006144 191 191 193
-166.460420747343 749.942513827656 2637.12323165189 206 206 208
-158.907347422475 749.888771942007 2634.54715788708 202 202 204
-153.751251199439 749.167743325498 2630.08285624026 208 208 210
-146.18088216312 749.111252997048 2627.49180947063 204 205 209
-138.59887513744 749.052955818298 2624.89068734572 205 206 210
-130.196145021142 749.213894134806 2622.90005523826 211 212 216
-122.588652291789 749.15186532697 2620.27686791896 213 214 218
-114.156455456218 749.308416112663 2618.26072437805 214 215 219
-104.893180834701 749.682830107943 2616.84642047323 214 215 219
-96.4273618758633 749.834553520628 2614.80116671104 216 217 221
-88.7650151249502 749.764299032411 2612.13048874216 219 220 224
-77.8058940695554 750.56955842312 2611.89006363191 218 219 223
-68.4651362022164 750.932878884707 2610.40867409921 217 218 222
-55.8034624416743 752.16814041333 2611.3363206815 217 218 222
-41.4506376466264 753.835103726017 2613.44254120603 214 215 219
-25.394646214326 755.932106269798 2616.71630106572 203 204 208
-13.4435365058696 756.932578384913 2616.93807962202 195 196 200
-4.79428042206731 757.058340433168 2614.73400254035 206 207 211
6.37739403667092 757.833717326239 2614.30954339461 205 206 210
17.577381480288 758.605363349817 2613.86088405614 198 199 203
28.8052132571037 759.372997793484 2613.38780151554 203 204 208
37.5362238798527 759.487570175919 2611.11293734564 208 209 213
47.1266628538927 759.816105671497 2609.41505011768 205 206 210
54.2001917158164 759.494546257665 2605.93308936808 202 203 207
63.8246412989485 759.81864346226 2604.2060681958 207 208 212
73.4689731840823 760.140040890402 2602.4615162995 221 222 227
87.3924733700377 761.533778676452 2603.6180420179 223 224 229
102.210385633248 763.136730575026 2605.32156931197 230 231 235
126.48727182693 767.092253144311 2613.36791980386 227 228 230
151.711544574119 771.249676014836 2621.91540438237 232 233 235
164.989607040218 772.400332815173 2622.30966847131 229 231 230
-244.513885869383 760.572865807393 2731.17320104547 215 217 214
-246.18721679172 757.829641042781 2720.73133439329 219 220 222
-243.302326546118 756.436724459399 2714.26982432628 214 215 219
-244.270308562487 753.925376072805 2704.53804921837 216 217 221
-241.421226641324 752.536802761215 2698.10754736877 220 219 225
-241.673317745282 750.256075210636 2689.07736583085 207 206 212
-238.858067311267 748.871638833343 2682.67616013978 200 199 205
-236.055641719301 747.488570279879 2676.28606133675 235 234 239
-230.153020229409 746.997330664023 2672.49680675411 241 240 245
-224.247084480863 746.505263198118 2668.704369436 228 228 230
-217.555194842951 746.234321195074 2665.55286111763 213 213 215
-212.42443075114 745.518800110968 2661.11048005056 193 193 195
-204.935123429806 745.467237869003 2658.5896604489 199 199 201
-198.222646236167 745.192722591689 2655.42001579804 189 189 191
-192.293033757912 744.696029276694 2651.60708698286 203 203 205
-185.567260103952 744.419206566227 2648.42624827697 197 197 199
-180.423058281718 743.700498420709 2643.97224089815 179 179 181
-172.889619201179 743.641735278435 2641.41321737651 180 180 182
-166.143097466694 743.361399758549 2638.21441832654 187 187 189
-158.588408445419 743.299175992928 2635.63699914237 191 191 193
-153.430209642687 742.577804332662 2631.17087733709 200 200 202
-145.858425891583 742.512836993943 2628.57834380169 193 194 198
-139.081540307962 742.227693694548 2625.35325846678 197 198 202
-129.870552068361 742.596034104291 2623.98431240557 205 206 210
-123.072523496175 742.307482274334 2620.74060825702 207 208 212
-114.641032695374 742.453228859546 2618.7251466733 211 212 216
-107.823521848952 742.161835974386 2615.46489046034 212 213 217
-98.5474542590117 742.520633529441 2614.03959962487 213 214 218
-90.8897988029853 742.44290399502 2611.37272069554 213 214 218
-79.1148821598755 743.446345991717 2611.74750838271 211 212 216
-69.7772989127752 743.796357854092 2610.26864113469 208 209 213
-57.1191935015145 745.007508917931 2611.19985228282 208 209 213
-44.4249243982826 746.213610104207 2612.09975178256 211 212 216
-28.3775238335275 748.276376865625 2615.38117950466 199 200 204
-18.0965382453806 748.825831280566 2614.40691552969 190 191 195
-8.62497821869557 749.156961881169 2612.81204814211 203 204 208
2.53714275860251 749.914521667248 2612.39598479742 204 205 209
15.4022870812609 751.09683230927 2613.14793476577 198 199 203
26.6246447936225 751.846100264695 2612.67971580889 200 201 205
36.1922770277379 752.164075328051 2611.00197994691 205 206 210
44.9362904718207 752.265877545294 2608.71592851537 200 201 205
52.00503831567 751.939310501454 2605.23782858271 197 198 202
59.9291437102791 751.824641996858 2602.34056279247 201 202 206
71.2636802700315 752.558764968007 2601.77552804905 216 217 222
83.4778238623128 753.501416484281 2601.76970036253 217 218 223
101.699903208352 755.923738738526 2605.81076314547 227 228 232
125.972453551282 759.819839279336 2613.86125673128 225 226 228
151.192144509924 763.915118478302 2622.41311520316 227 228 230
170.486706981779 766.519417697799 2626.84669996782 224 226 225
176.057270261225 765.74107502218 2622.0235362219 215 217 216
-247.288014521677 753.051495048225 2729.65627860404 218 220 219
-247.438139323498 750.777037522999 2720.537678577 216 217 219
-244.554420858658 749.392483150627 2714.07712994717 216 217 221
-244.7547483882 747.124247527062 2705.00200211069 215 216 220
-242.67462800503 745.522762643818 2697.91610566625 215 214 220
-242.927211641295 743.261145225912 2688.88622718965 218 217 223
-239.339273306026 742.105467510176 2683.13708363089 208 207 213
