ply
format ascii 1.0
comment KinectMotionCapture
element vertex 784
property float x
property float y
property float z
property uchar red
property uchar green
property uchar blue
end_header
-126.027029196836 382.068144221456 2726.21082750468 74 65 48
-119.102556494029 381.480192923472 2722.85978531199 75 66 49
-113.751567002442 380.744281137051 2718.22665910728 58 51 35
-106.816964976768 380.154599165566 2714.86653316833 77 72 53
-101.463731306607 379.418115664453 2710.2314655581 59 56 37
-92.1292991603031 379.044430498877 2708.76033457002 38 35 20
-86.7677010931063 378.306566035545 2704.1180261849 33 31 19
-103.020494101659 375.62497029702 2682.49171524304 35 34 29
-121.792112638024 372.743470155317 2659.07975818064 32 31 27
-82.2698875363073 373.861171962664 2672.45804437644 30 31 26
-59.9740225662369 374.617479327496 2680.91888729193 27 28 23
1.12683235967381 377.500865696891 2709.99006448165 21 24 15
-3.98474656080516 375.835510621819 2697.22759181932 23 26 19
5.55223582739073 375.432863671019 2695.58077541625 10 13 6
-3.72483280323754 373.429865638586 2679.81425047393 27 30 23
3.34179358840503 372.820644329413 2676.34013639968 36 39 32
21.1136018896485 373.106015083569 2680.78499726805 45 48 41
43.0705379829472 373.726151785486 2688.21722354088 30 35 28
133.653078951358 378.744089038867 2736.7157565676 33 38 32
151.810514999263 378.976171536478 2740.82704082878 38 43 37
-291.64649974076 399.172446829242 2881.55863382767 186 188 185
-293.478804139243 397.638615659202 2869.92314191594 182 186 185
-296.077245757148 396.030578196044 2857.62890865729 194 200 200
-295.088763291637 394.825434072195 2848.83976847953 175 179 182
-292.668226456646 393.781697515568 2841.45520663712 159 163 166
-287.342127204181 393.055291039406 2836.84359210267 169 173 176
-280.551339684525 392.485845134265 2833.60798423523 159 162 167
-273.018106859835 391.993369198664 2831.05194995265 137 141 144
-265.473290988748 391.499108783557 2828.48588779089 137 141 144
-260.133510465709 390.769901651265 2823.86243335579 123 125 124
-251.830769765384 390.35021989867 2821.96222810174 116 118 117
-242.769274020317 390.005356572952 2820.72747413695 138 140 137
-150.625158445135 396.888053046968 2885.06410402426 167 169 164
-150.2911567198 395.591045663195 2875.51956023315 182 184 179
-155.245153078461 393.765749826291 2861.29796513544 157 159 154
-157.997511969206 392.175401411648 2849.13702288418 142 145 138
-159.285349607619 390.742051031711 2838.35223181494 79 82 75
-156.824114458748 389.689524860666 2830.93245223793 47 50 43
-159.695831549169 388.114921221199 2818.87486000207 9 12 5
-162.613530367865 386.546375266679 2806.85708252896 5 8 1
-166.340724365838 384.909619562733 2794.21778924062 21 24 15
-168.586860419469 383.427597182816 2782.94064437716 13 16 7
-170.874827169317 381.951133348258 2771.69971966218 23 26 17
-159.351368501495 381.803090377137 2772.29960115351 31 31 21
-157.056068615537 380.7719677515 2765.02350493783 37 34 25
-158.646733780573 379.378351604193 2754.50092789211 46 44 32
-154.068922951632 378.570978391604 2749.21514562561 35 31 19
-149.496076630299 377.764124041328 2743.93366291407 80 74 60
-144.928420398543 376.957766792947 2738.65635990564 87 80 64
-141.147466511137 376.080159671666 2732.73843643845 78 69 54
-136.591912396381 375.275147774354 2727.47161405192 84 75 60
-128.897196677791 374.755684653379 2724.7757916184 79 72 56
-125.131314535258 373.879673092012 2718.87092103496 72 65 49
-116.634172701156 373.428915350421 2716.80242270378 70 64 48
-109.705742897054 372.835071331259 2713.44798893415 68 65 48
-101.181865618972 372.380338798452 2711.35634378942 72 69 52
-94.2351006433055 371.78368895483 2707.98572093651 39 37 24
-91.2722698070065 370.838135720086 2701.45375803237 42 40 28
-104.328694397268 368.508726086663 2682.34811651675 28 27 22
-119.084540207993 366.054297097703 2662.06971284224 22 21 17
-129.921592436788 363.957484191002 2645.0090524231 33 33 31
-106.971467091837 364.746172609553 2654.22587539662 36 37 32
-57.2528503076932 367.771654035025 2683.8980696037 37 38 33
-41.3520852428615 367.915578185014 2687.31902573226 44 47 40
-34.3371648750965 367.308768855163 2683.88971149777 47 50 41
-12.6525412921406 367.912459260056 2691.55806738389 44 47 40
-6.40323749335447 367.23141120968 2687.46924523331 28 31 24
-9.97464451501529 365.748850025337 2676.01750297352 27 30 23
13.4914192348741 366.465997391553 2684.78792268694 40 43 36
18.9458593241749 365.714731460229 2680.06523162594 36 39 32
30.997479066595 365.490799288399 2680.20782869329 27 32 25
39.7735848630316 364.999942857684 2677.89780210922 37 42 36
72.6019891587999 366.401961503363 2693.10592289478 47 52 46
127.167007191649 369.477258978357 2723.87060312975 47 52 46
-288.565345051362 392.425843964666 2885.54873984835 184 190 188
-291.107579130613 390.84080161274 2873.20532497385 190 196 194
-295.144109094496 389.107876316971 2859.51150659537 146 151 154
-292.697322592914 388.071998022244 2852.10414230167 195 200 204
-290.996131497926 386.961864632981 2844.01991713689 188 193 197
-284.202650219946 386.387077656795 2840.7823246154 141 146 150
-276.669138649771 385.886868809054 2838.22609884355 124 127 132
-267.654745023576 385.535937387778 2837.03220929967 136 140 143
-260.830667076643 384.956244166461 2833.76781382516 127 131 134
-254.737717895405 384.30035483147 2829.81434681261 112 114 113
-244.93762357031 384.017252174236 2829.26228357132 100 102 101
-187.574909143033 388.493742563636 2872.15015165867 121 123 120
-177.59591341004 388.185761237965 2871.44287383817 159 160 155
-151.161279218643 389.499259682165 2885.57665873434 154 156 151
-152.323691591691 388.074424800548 2874.68310189861 163 165 160
-153.523792372768 386.654530729908 2863.82217894424 167 170 163
-156.267645550205 385.093578785569 2851.65367399566 96 99 92
-156.792127784012 383.756914552569 2841.53020521506 28 31 24
-155.078973886429 382.642011119046 2833.43564236928 9 12 5
-154.905494061205 381.385485606224 2824.02996635536 10 13 6
-163.896523416317 379.270029218447 2806.69267323939 12 15 6
-165.333416239101 377.88132062738 2796.03678437627 30 33 24
-178.287995032664 375.427555254751 2775.52041440404 26 29 20
-172.157225061003 374.763608171261 2771.5342189674 13 16 7
-164.484299771901 374.240581950725 2768.85730617133 18 18 10
-156.799956265294 373.715838363067 2766.17050792432 30 30 20
-159.160153813062 372.276574740487 2754.99194717991 44 42 30
-153.80644567296 371.5422281586 2750.35645448224 44 40 28
-150.786520211 370.598882094213 2743.77499131127 83 77 63
-145.440792128121 369.865295796289 2739.14641028938 80 74 60
-140.877644202399 369.062607108305 2733.87330653232 68 61 45
-136.319505613042 368.260443319789 2728.60454114578 65 58 42
-130.980666933699 367.527365625049 2723.98192812181 58 50 37
-128.794102758539 366.521276852695 2716.79991483515 57 51 37
-120.305752546839 366.061193069044 2714.7390969521 38 32 16
-111.802040279906 365.598845824143 2712.66497889089 37 34 17
-102.488966490093 365.20163496528 2711.21219689232 49 48 30
-96.3402864804261 364.533172147607 2707.21082295688 35 33 20
-92.5828468461591 363.663590252529 2701.31291262158 39 37 25
-96.8353928476513 362.129496080023 2689.12861106181 31 30 25
-114.774573486731 359.475370314222 2666.31693763268 28 27 22
-79.7566172928317 361.193740400741 2684.91860412162 29 30 25
-101.024645818017 358.290787193161 2659.70041621621 28 29 24
-68.2741410420644 359.79101526453 2676.29867978823 28 31 24
-48.3507485890815 360.229622321068 2682.84810600142 30 33 26
-42.977191635031 359.490312023343 2678.19544178825 28 31 22
-24.0686295647685 358.655034723027 2675.04567925886 27 30 23
-22.7699836037765 357.59289950496 2667.31004340169 28 31 24
-3.44135007017643 357.936309284486 2673.05200904445 34 37 30
11.8430176436481 357.952864166384 2675.6847833972 42 45 38
12.3327028163316 356.825194249262 2667.3274667274 55 60 53
44.2088191419416 358.091809774387 2682.03858626978 52 57 51
40.5820335743607 356.647203535451 2670.6345966373 40 45 39
45.2162774449203 355.832417804672 2665.29963434564 46 51 45
37.3547247954718 354.087173454331 2650.95108231622 37 44 37
-290.526629349361 385.127838908385 2884.64910944447 183 189 187
-292.348389537457 383.647982442425 2873.00412872916 183 189 187
-294.93591151321 382.099318765009 2860.70004628055 164 169 172
-290.307704779671 381.296140547045 2855.37024137557 143 148 152
-284.955922221541 380.566993895358 2850.73638395333 133 138 142
-278.144137824045 379.984546885011 2847.48297709747 132 137 141
-272.789586258051 379.254578180563 2842.84672500351 144 148 151
-265.96701212914 378.670146871526 2839.58366364506 163 164 168
-258.400430376154 378.157010518995 2836.99885852763 156 157 159
-250.083606522769 377.714374431252 2835.08691115612 116 118 115
-235.827039473357 377.845203429359 2838.60946127662 130 130 128
-160.345623043707 380.001049456829 2868.45475864685 0 2 0
-151.803885956046 379.526350096625 2866.34776314874 9 12 5
-151.527906255524 378.27596286588 2856.85320703236 21 24 17
-149.771575738414 377.169489934333 2848.72148234146 23 26 19
-160.904877663526 374.880057515754 2829.27200310488 8 11 4
-165.29817325858 373.228085838021 2815.88688174126 16 19 10
-166.701511336082 371.860040513901 2805.20177587581 17 20 11
-169.668659547997 370.359207935945 2793.22641918486 19 22 13
-171.916651469489 368.933069742071 2781.95052073787 26 29 20
-164.23301135549 368.400935109896 2779.26438004066 33 36 27
-138.845514398708 369.4324991757 2791.66074610175 39 40 32
-155.773217143067 366.72146041618 2767.97275722173 39 39 29
-158.127194623818 365.309146311447 2756.78863068811 39 39 29
-153.544597673496 364.507431564231 2751.49866345119 40 38 25
-148.967123569614 363.706204863174 2746.21281769401 41 37 25
-142.835521097975 363.038844179921 2742.22623833276 24 21 6
-136.700948788957 362.370896660411 2738.23677319658 46 40 26
-133.697367456405 361.43798603324 2731.66940844816 43 37 23
-129.921489712652 360.57255344361 2725.75549025302 39 33 21
-130.880492730177 359.315037567341 2716.00812337101 34 30 18
-123.976184907177 358.714560873494 2712.67463996935 40 38 25
-117.064825643845 358.11297761084 2709.33473648864 48 46 33
-106.970977190947 357.769010135718 2708.52846039145 38 39 25
-100.832773181405 357.099660265492 2704.53585661715 37 37 25
-95.4892291137299 356.365619515051 2699.9091715046 31 31 21
-90.9465302635542 355.567735836353 2694.65376055977 34 35 29
-92.0224603362634 354.325472642385 2685.00763972163 35 36 30
-95.544201821606 352.897838570644 2673.5121791144 35 36 31
-70.9005152374433 353.681745973571 2683.90799992569 39 40 35
-55.8565545720668 353.699491112065 2686.74913599577 46 49 42
-56.9669563120612 352.461585810308 2677.13286475148 50 53 46
-53.2381295960378 351.601217072536 2671.25969455941 36 39 30
-56.0318536534363 350.246911608835 2660.45633629283 40 43 36
-17.2392449584495 352.040265511876 2681.07956439786 37 40 33
-16.739348032492 350.928287921443 2672.71329514777 17 20 13
-4.78057407314747 350.674415107331 2672.93655900873 42 45 38
-1.01338397014406 349.808467936312 2667.03048955144 79 82 75
24.178644214973 350.51632853039 2676.95153577249 52 57 50
-9.2085700915141 346.936255340864 2643.71495529638 54 59 53
29.2880687724133 348.596089946342 2663.27199991594 50 55 49
33.5041386982082 346.624669192987 2649.04352190667 39 46 39
-284.963215621078 379.876000034319 2901.03488235609 150 154 153
-291.76741727265 377.911990477155 2884.44804294266 193 197 196
-292.145427537122 376.603382582468 2874.19712432275 177 183 181
-292.556747132277 375.299118015504 2863.975363465 177 182 185
-285.742020107073 374.711416711875 2860.71912466305 172 176 179
-279.647497919299 374.051564905696 2856.76463545895 150 155 158
-272.819680064683 373.461651494001 2853.49706469911 132 136 139
-268.91266118797 372.588955405863 2847.46984435071 123 127 130
-263.546304079475 371.857456717337 2842.82336988306 104 105 107
-255.235667753781 371.405166607997 2840.91653250966 115 117 116
-241.002957686906 371.50689212607 2844.46026443857 98 100 95
-206.728889890961 369.724243108426 2837.26226191278 55 58 51
-195.311737669378 369.527950509178 2837.954595681 9 12 5
-166.598599409401 370.888040735266 2854.08331541429 17 20 13
-158.833683828602 370.3381862505 2851.32652966084 25 28 21
-157.84932871378 369.180870349476 2842.54097239104 31 34 27
-165.971610954502 367.222472877876 2825.77294805069 8 11 4
-168.856810831554 365.74132579991 2813.72643622979 9 12 3
-180.157441000545 363.535152306905 2794.42144687681 19 22 13
-174.002426206721 362.863538502955 2790.41428726186 21 24 15
-176.258561306228 361.466344033013 2779.1452592439 20 23 14
-160.915642598109 361.584111706967 2783.04989035599 32 35 26
-115.527801810735 364.242977528448 2812.50800133651 36 37 29
-159.374149636003 359.325150203361 2765.84838412054 39 39 31
-156.322282512337 358.395019212346 2759.23915032924 35 35 25
-150.958050022058 357.660033820548 2754.59453993849 25 23 11
-145.594768772553 356.925041789897 2749.95075406532 27 23 12
-140.232349106308 356.190031046079 2745.3077150786 25 21 9
-134.870927695563 355.454990051866 2740.66554151182 30 24 12
-129.510389189473 354.719948187413 2736.02413319588 24 18 6
-124.150824338536 353.984902702685 2731.38356880533 27 23 11
-123.516941843373 352.872891839313 2722.90116966196 21 19 7
-120.540074846839 351.951918021552 2716.35688183798 43 43 31
-115.993208113651 351.157141075768 2711.09783830742 44 44 32
-105.896289556945 350.796785508824 2710.28900743616 35 35 23
-98.9585363988938 350.186287928115 2706.92628518318 34 34 24
-91.2157182278808 349.636107849184 2704.18896967177 27 27 19
-93.0582388073304 348.350608417875 2693.88398416754 33 34 28
-82.91209388589 347.983069514915 2693.03253358474 32 33 27
-75.1537698747971 347.430426952495 2690.28179456134 43 44 39
-69.8016804637867 346.695310245468 2685.64770986479 47 48 43
-65.2583726738127 345.900159209997 2680.39175342235 44 47 40
-66.3897524845769 344.68748423124 2670.79318562008 44 47 40
-55.3751697785061 344.371182122332 2670.51195765009 42 45 38
-38.6347673464602 344.46527837145 2674.52906916305 46 49 42
-14.4940196871057 345.081624241146 2684.03863014922 38 41 34
-2.5316949373777 344.805908844971 2684.25895795299 43 46 39
-20.0617369750589 342.425705927674 2662.41447074978 30 33 26
5.8672118861991 343.138182203596 2673.02003229488 37 40 33
-6.01565080394462 341.17909578156 2655.54166005065 45 50 43
2.67072286489789 340.669212845868 2653.30953081917 40 45 39
-14.3037467886056 338.383533587701 2632.3061574172 53 58 52
-0.667899567574626 338.219639325641 2633.72209579434 58 63 57
35.4809900125175 339.579906074945 2651.34586218509 37 44 37
-287.640539970518 372.478941428203 2899.43325059993 152 154 149
-292.288504386098 370.770239094753 2884.94596660099 204 205 200
-289.056330061622 369.828955903676 2878.18052634422 188 189 184
-287.284596306341 368.751602064974 2870.03494690783 164 164 162
-281.179334908927 368.088006121882 2866.07085839398 156 156 156
-276.526187886682 367.28724042683 2860.71973672394 152 152 152
-271.147988351581 366.554865534877 2856.0630036773 148 148 148
-266.502334828124 365.754704768971 2850.71837297206 141 141 141
-260.393643459597 365.089733642368 2846.75132049017 123 123 123
-249.129078699693 364.893890670275 2847.57621989537 103 103 101
-218.64210250706 366.431050767419 2866.13612573169 120 121 116
-215.460969281467 361.808853402138 2830.32482926947 5 8 1
-191.345665401738 362.706550419946 2842.50145738859 24 27 20
-176.883868531796 362.743199524932 2845.84705324763 22 25 18
-167.641038789572 362.318947916454 2844.45532951474 16 19 12
-164.414520180063 361.375102706529 2837.69480787136 16 19 10
-168.766659985856 359.789781296452 2824.27358341048 16 19 10
-182.27603534074 357.44329401136 2802.9141195231 12 15 6
-184.479152983438 356.067001300292 2791.59900392572 13 16 7
-180.622552123367 355.204022279805 2785.61510420492 16 19 8
-182.892948433383 353.836610430019 2774.3582438986 18 21 10
-166.035122355743 354.047496324669 2779.59608418946 22 25 14
-182.946166202948 351.494244908633 2755.89263397857 27 28 22
-163.744920029225 351.887613096603 2763.06794796539 21 22 14
-155.291984270225 351.401906398675 2761.03799109858 18 19 11
-149.923553194879 350.666759808741 2756.3897426878 19 19 9
-143.778807576608 349.993137655191 2752.39181226343 21 19 7
-139.968374839611 349.135223356801 2746.44789529486 21 19 7
-131.480296596805 348.644125219584 2744.38751411081 23 21 9
-124.5429923592 348.029413459646 2741.02552377415 24 22 10
-118.383833530996 347.353214227277 2737.01480208934 26 26 16
-116.944895699052 346.315819992284 2729.15772541554 28 28 18
-114.738363208021 345.341050176931 2721.95788641129 24 24 12
-112.548894272152 344.368525675419 2714.7731379668 30 30 18
-107.203227429207 343.635336884886 2710.1446074479 33 35 24
-105.040240804828 342.666229080853 2702.98279003439 36 38 27
-98.1095608154461 342.051630898201 2699.62654043579 40 41 33
-97.5679899203392 340.968505503183 2691.22396389573 44 45 39
-85.8301402630151 340.702823895515 2691.63878731156 45 46 40
-82.09627357382 339.854045335849 2685.76148920179 44 45 39
-82.3999328864149 338.718519019447 2676.76858275137 39 41 36
-82.7332489536472 337.586919511583 2667.80103991754 34 37 30
-81.4764536283503 336.573395935319 2660.10167801882 38 41 34
-55.0762798463698 337.321755361269 2671.62215584838 40 43 36
-57.8679509258033 336.02292744578 2660.81665869612 42 45 38
4.56601694000502 339.224482438526 2699.3170352445 42 45 38
-16.1394689786327 336.684676830081 2674.93217910824 37 40 33
-16.4783068270857 335.553438913976 2665.96973537039 31 34 27
-28.3539273988378 333.65143682838 2648.48471621392 35 40 33
-3.23636176524955 334.23911789797 2658.47108057122 44 49 42
6.28356758477899 333.772540624937 2656.83977443222 35 40 34
0.917601402008916 332.322195704649 2644.2963950828 43 48 42
49.4547350787449 334.403775384211 2671.02832603183 51 56 50
50.7706934512973 333.381520682279 2663.27774197138 44 51 44
22.0346492908305 330.430260679375 2633.94563116568 68 75 68
-284.176962789789 364.427320874124 2893.83658120528 182 182 174
-283.083750017099 363.292032974271 2884.95621483572 184 184 176
-282.739301772647 362.093883164959 2875.40197607145 163 159 156
-278.070757524422 361.294247812402 2870.03750174756 153 152 148
-274.86230438431 360.364049192192 2863.29254966563 151 150 146
-270.937169881543 359.500613966632 2857.24925232951 138 137 135
-267.020789757215 358.638215216271 2851.21385152431 126 125 123
-260.178366730514 358.035465563815 2847.93370511601 115 114 112
-247.441420911187 357.946672300387 2850.12858250514 117 118 113
-178.978037083215 358.989784346106 2874.153577148 101 104 95
-192.852438716954 356.59832207634 2851.7872097113 11 14 7
-186.634186303436 355.914598796281 2847.72531824802 21 24 15
-178.912131724649 355.355132946552 2845.00605946037 17 20 11
-170.426408409478 354.856042744674 2842.94777116552 15 18 9
-160.416466708682 354.478415575247 2842.21443818203 15 18 9
-160.971738843021 353.235038431263 2832.1170516123 13 16 7
-169.903231385426 351.321629849746 2814.72684652591 11 14 5
-170.548554448404 350.090178145092 2804.70711754288 10 13 2
-170.464873637328 348.923942369911 2795.37868848256 16 19 8
-169.64629868764 347.822032218862 2786.73614429729 18 21 10
-180.352088128737 345.820546850553 2768.23783510494 14 17 6
-180.383793800312 344.669580859587 2759.00931670807 18 21 14
-165.801797533014 344.655533123644 2762.2510599457 17 18 10
-159.671811801934 343.981870322858 2758.26560719664 19 20 12
-148.889946820809 343.662054909713 2758.18610681011 27 27 17
-143.518154143306 342.926755038595 2753.53494577117 28 25 16
-139.705160311657 342.074409593174 2747.5887729235 26 23 14
-134.33934953269 341.339645825599 2742.94279313708 27 24 15
-126.625572352003 340.778749543282 2740.23071793712 29 26 17
-120.470323606444 340.100823409924 2736.22371196469 31 31 23
-116.673389938312 339.250176693163 2730.29144803022 32 33 25
-112.09635416981 338.45777460126 2725.00624052323 33 34 26
-110.689099508098 337.438578467892 2717.17619135491 33 34 26
-106.923455413217 336.591883302725 2711.27133712495 31 32 24
-105.552854819147 335.577533598779 2703.47302594959 29 30 22
-98.6225431653423 334.95793961047 2700.11712797362 28 29 21
-99.6783691365013 333.780154026165 2690.45284885866 26 27 21
-99.1651075071243 332.717728983164 2682.07467483798 26 27 21
-95.4634794170763 331.879340547706 2676.22525175263 26 29 22
-92.5765273297245 330.987213891633 2669.75870948207 28 31 24
-89.7027570832183 330.096832510902 2663.30358107735 32 35 28
-77.1278727664111 329.859929767821 2664.31630636413 35 38 31
-66.1403109631262 329.509957519753 2664.05871656518 34 36 31
-19.3264794975061 331.521221378633 2690.96149026014 30 33 26
-27.769517166861 329.867910289076 2675.79307559679 31 34 27
-16.6583548102213 329.500783535246 2675.42846791711 33 36 29
-13.7168450148741 328.600710648475 2668.91469001174 32 35 28
-0.927254976052616 328.333949954149 2669.74151561201 38 43 36
-6.22568158379266 326.910500966421 2657.13942299892 46 51 44
6.59061655799409 326.640008707622 2657.94312390697 46 51 45
31.8606443685776 327.141447363537 2667.79790266826 35 40 34
53.0780820509715 327.371992930755 2674.55034248294 47 52 46
47.7495720676022 325.952550402056 2661.97429825089 55 62 55
30.6913889244305 323.827111818163 2641.04244397591 38 45 38
-277.508746284127 357.89066949802 2901.33291119682 135 127 116
-277.836067320036 356.64188077114 2891.03798628365 121 113 102
-278.197058100065 355.397394601183 2880.77190075445 144 134 125
-274.964390757336 354.472655680952 2874.00624148659 173 164 157
-272.472454791703 353.486638470334 2866.55910591559 179 170 163
-268.538368287742 352.627828820697 2860.50833509726 168 161 155
-264.613376347247 351.769982208183 2854.46512511063 165 160 156
-255.561997744371 351.346847736467 2853.23964723561 140 137 132
-177.278991567124 351.852226245893 2876.69730301113 0 2 0
-181.44514481253 350.314514642492 2863.11456880042 13 16 7
-187.161431430732 348.663995199433 2848.22928464337 18 21 12
-162.939587253252 349.410474428911 2860.31455035191 16 19 10
-165.690378557929 348.003159365246 2848.15074784394 20 23 14
-166.978646839696 346.72027832619 2837.36567049655 19 22 13
-168.304825832508 345.442360810741 2826.6131040485 14 17 8
-168.910631305005 344.228014583763 2816.55901290543 18 21 10
-171.830743208037 342.843195003802 2804.54213638776 19 22 11
-164.124557225064 342.276973105353 2801.83667526185 21 24 13
-180.102042658292 339.918568953709 2778.64607467417 22 25 14
-180.100572295299 338.78282267498 2769.38870279152 16 19 8
-184.7394250882 337.307812055223 2756.21526796567 20 23 16
-169.399455679932 337.319873591126 2760.12314032036 22 23 15
-161.732587780336 336.758287970493 2757.45172754738 24 25 17
-150.956058560156 336.420446760594 2757.37696866427 29 29 19
-148.694780597326 335.461801865928 2750.12989081476 32 29 20
-144.893297183933 334.617017359895 2744.19396097811 36 33 24
-137.197604721663 334.050898890248 2741.49727878071 35 35 25
-133.404187744058 333.206931215539 2735.5683351208 36 36 26
-129.620079636853 332.364090182878 2729.64713697996 37 38 30
-121.910698739979 331.795761207737 2726.93892036124 36 39 30
-115.767938362022 331.116979485708 2722.94242853729 35 38 31
-117.531328020787 329.896496776932 2712.56875162264 35 36 30
-118.539714288807 328.734884531306 2702.86325000814 36 37 29
-115.606485498867 327.84561344832 2696.35657955186 36 37 29
-104.715422240976 327.490797951271 2696.18297540803 38 39 31
-102.587469150712 326.549097800041 2689.05102970268 39 40 34
-94.0671892528551 326.031482415913 2686.96322553199 40 41 35
-92.7605962973557 325.039676252301 2679.220245995 38 41 34
-85.0332620047332 324.468001230563 2676.49649020532 39 42 35
-78.9092990687878 323.790942525138 2672.51627963484 40 43 36
-67.1167393279948 323.47458757942 2672.88432773213 40 43 36
-50.4244032100445 323.461695414146 2676.94347782199 37 39 34
-35.3026043172289 323.338989996782 2679.71805882559 35 38 31
-22.5793731228023 323.057324026718 2680.60218109524 35 38 31
-21.264993272291 322.06401229761 2672.8527776454 35 38 31
-15.0550039331563 321.374754453207 2668.79808394982 33 36 29
-3.09058383324246 321.034461321441 2669.01732961645 35 40 33
8.08159534404318 320.640148395281 2668.60001263217 40 45 38
15.1532174538818 319.995183726402 2665.1214846944 48 53 47
31.3365744650533 319.889083687184 2668.29912838839 44 49 43
33.4668606600346 318.946208208979 2661.16548362632 50 55 49
30.5893628909373 317.714483127742 2650.43394072295 31 38 31
46.0137121979098 317.549820093921 2652.94656229395 40 47 40
-281.327557857086 351.610921512317 2908.65360350518 166 160 148
-276.596815796227 350.809482393685 2903.23523178985 142 132 120
-275.476216279575 349.703922763449 2894.33093570497 123 111 99
-276.550288096922 348.419706033487 2883.35989972512 107 94 85
-275.486252551861 347.321471753177 2874.50489771198 96 83 74
-273.72054801062 346.286535795632 2866.3642691432 104 94 85
-267.600261114927 345.613041314402 2862.38722163267 174 165 158
-262.93912605972 344.819913296862 2857.029126955 166 159 151
-176.010259122615 343.4826617375 2869.03494659775 14 17 8
-175.724843409395 342.329247009346 2859.53158356576 19 22 13
-168.720606212239 341.692675702768 2856.11172167759 17 20 11
-176.746417374705 339.920542590079 2839.25887538841 22 25 16
-173.538115787003 339.005021520186 2832.51395955151 20 23 14
-169.586914355464 338.147305517633 2826.44834752339 17 20 9
-162.612937991778 337.514143510085 2823.05437618211 18 21 10
-168.552486788848 335.93466048874 2808.36245657561 20 23 12
-176.07883500385 334.252854716617 2792.39938334557 17 20 9
-181.383023028011 332.74569690118 2778.47956592237 17 20 9
-180.61596378225 331.684395447868 2769.88140910404 20 23 14
-176.80120303147 330.844380398546 2763.93394041562 18 21 14
-176.076902215336 329.78864265751 2755.37280781218 23 26 19
-163.020443689576 329.599007782576 2757.29108999721 21 24 17
-147.600818090871 329.564664712146 2761.13022217144 18 19 11
-149.987030620829 328.295732469357 2749.97310579561 24 24 14
-149.301224575668 327.244744702555 2741.4453072139 22 22 14
-147.860235606954 326.249907822185 2733.58617697341 21 22 14
-144.875588477753 325.362919652649 2727.03492560095 22 23 15
-133.273343029629 325.052290214521 2727.56757332219 23 26 19
-119.279331946867 324.893071226289 2729.99630878253 23 26 19
-118.649215435164 323.84914133208 2721.51704809886 21 26 20
-127.533925896055 322.191719307107 2705.4078973737 24 27 20
-130.150678503652 320.953415041757 2694.45039989976 27 30 23
-120.091736941466 320.534215462675 2693.67486636538 29 32 25
-106.024836467603 320.36453657365 2696.04049375088 30 33 26
-98.3053781688823 319.78643645245 2693.32360600302 29 32 23
-91.3754724354665 319.156731452406 2689.96812537245 28 31 22
-90.8626364892871 318.128139537645 2681.59010106719 30 33 26
-87.154991072949 317.300716118792 2675.73507598242 31 34 27
-76.192646092287 316.916980488791 2675.49956129761 39 40 35
-60.3478349592188 316.822712105279 2678.97055820361 39 40 35
-37.1502799342345 317.158673216631 2687.97617417677 38 39 34
-26.0622274485884 316.757499334508 2687.63181727919 43 46 39
-24.7295512844832 315.775931607436 2679.86647965528 41 44 37
-28.3221765893162 314.510613190802 2668.4314047928 41 44 37
-30.3217226164341 313.34651729051 2658.26204770322 39 42 35
-13.4675427176241 313.273307598744 2662.18131282987 34 39 32
8.38330952145894 313.473945288876 2669.70820415634 36 41 34
15.4567881293595 312.823797218686 2666.22841622639 57 62 56
13.4350203635432 311.662537012843 2656.07798562827 25 30 24
3.90981190886119 310.091581422196 2640.52341723211 22 27 21
-5.6893292142699 308.530784311046 2625.03317862282 26 33 26
45.4898094059995 310.304021391282 2653.44760063124 36 43 36
-286.872054632827 343.987075861539 2904.24516373467 161 151 139
-281.436550878336 343.24900488206 2899.53879997209 151 138 122
-278.164298638491 342.336264825369 2892.73843778526 142 126 111
-277.073778568814 341.251344509274 2883.86007889499 145 126 112
-274.558543118428 340.284938520793 2876.39293725471 137 119 105
-272.787389452176 339.263304282324 2868.24781505078 124 108 95
-265.933970946475 338.643892707568 2864.95824643528 95 82 73
-255.417271584147 338.307237433346 2865.10868374454 82 72 63
-168.342335736368 336.771239928108 2876.9891880907 17 20 11
-176.255901599864 335.033987778469 2860.03914424963 21 24 15
-181.245770558478 333.523830382752 2845.84691463162 17 20 11
-188.548857175402 331.859469564787 2829.69053501858 19 22 13
-180.094603887667 331.332683177999 2827.65970239966 19 22 13
-176.159446734259 330.482989502201 2821.60762902639 15 18 7
-168.444184703296 329.900169544068 2818.89440891928 16 19 8
-179.714145365077 327.993608405065 2799.56089570648 17 20 9
-190.313101053767 326.151914504279 2780.96895440814 16 19 8
-184.95590183396 325.420705915258 2776.33041553193 17 20 9
-168.875521710072 325.418093894656 2780.91990326275 21 24 15
-184.996972472372 323.233576348143 2757.85327132386 23 26 19
-174.280448284076 322.86664176548 2757.83070948451 26 29 22
-171.257695863784 321.983744369251 2751.24640437827 25 28 21
-157.40943378647 321.815453172046 2753.80152452865 24 25 17
-145.845611145547 321.489090171212 2754.36789214471 28 28 20
-156.820615940906 319.697657858069 2736.10124491485 31 32 24
-154.616698074493 318.769434593345 2728.90368598978 31 32 24
-146.953368479255 318.192096328974 2726.2354420699 32 33 27
-133.003425463607 318.009318114371 2728.70252557238 33 35 30
-119.795775731056 317.771160618899 2730.49007933177 32 37 31
-112.067881777913 317.184663257051 2727.76593451333 34 39 33
-119.349346565868 315.671448081049 2712.91309592851 35 38 31
-121.941518451059 314.457665590967 2701.93413455721 39 42 35
-118.218278465509 313.634542101994 2696.06588074796 40 43 36
-105.740580975355 313.338909164308 2697.16322192386 38 41 34
-93.2273242336748 313.038285553171 2698.22945944514 35 38 29
-88.6857996457491 312.259783475262 2692.97494068236 33 36 27
-92.9804322262555 310.964771266461 2680.82525230348 31 34 27
-101.349174931811 309.442875956336 2665.59159194698 30 33 26
-84.7744969826771 309.370537105082 2669.75310581693 34 35 30
-64.907785183232 309.47512682131 2676.35382363059 32 33 28
-36.0477830031605 310.074534072034 2689.71334311297 31 32 27
-30.6481172132651 309.335031340461 2685.03805068028 35 38 31
-24.4343665154618 308.64091022921 2680.98012839403 33 36 29
-37.8278371398291 306.865010289906 2662.16303003455 35 38 31
-26.7419206238442 306.445304832587 2661.82064454372 36 39 32
-13.9859425654003 306.110743190576 2662.67704220738 32 37 30
2.92172561761639 305.992362317886 2666.55023982587 33 38 31
6.68162298259345 305.163209201596 2660.65025282038 62 67 61
-12.7318876425804 303.112815985854 2637.78894559746 24 29 23
-11.5351228137532 302.163804552556 2630.14119624751 22 27 21
3.77353065738273 301.9503448172 2632.75441176191 18 25 18
12.4628534899336 301.387739170648 2630.52006802872 23 30 23
77.977255546589 303.715906863629 2669.00301836748 44 51 44
-9.47338170682777 298.269742812958 2597.94223609067 36 41 37
-280.948932766761 337.297179202798 2911.06502619361 165 153 141
-281.243826702864 336.11083424021 2900.74127539748 152 136 121
-279.410020314574 335.095254918537 2892.54181059132 151 132 117
-279.765701491944 333.916796834731 2882.270695175 164 137 118
-277.9804205866 332.907468053861 2874.11324864548 155 129 112
-274.762745387191 332.010087745147 2867.36009080979 147 124 108
-264.269142995233 331.657828546171 2867.53064820731 107 91 78
-190.49134578393 327.914637427077 2857.86683284703 17 18 10
-169.31367041758 328.256551960213 2867.29953616078 25 26 18
-181.024851758652 326.317964183024 2847.02539143154 16 17 9
-185.316588546773 324.904990157253 2833.55069668873 21 22 14
-184.387901226105 323.856281697861 2824.8123694053 20 21 13
-185.751345866117 322.658734578983 2814.091581631 21 24 15
-159.878229787333 323.282178557994 2827.39326515694 20 23 14
-173.398159309224 321.281914998401 2806.04038989427 19 22 13
-200.732151341873 318.397656651415 2772.84611419662 20 23 14
-190.05513556041 318.017732528606 2772.85787988613 26 29 20
-178.584386161644 317.683213169619 2773.50497028005 28 31 22
-167.08200112067 317.344216564035 2774.12435442555 26 29 22
-176.335149989183 315.683997014772 2757.01129976757 28 30 25
-170.99989991138 314.955669492158 2752.39176633231 26 29 22
-168.761573006121 314.034520056743 2745.16433801787 26 29 22
-147.915388389334 314.265926541084 2753.56181150237 25 28 21
-151.109145667161 313.009001149806 2741.78128450958 23 26 19
-154.349055589619 311.758239065042 2730.0404042216 25 28 21
-149.030745301035 311.031653873897 2725.4355418202 24 27 18
-135.086734942965 310.820023217971 2727.90826984764 25 28 19
-130.534238144565 310.04385401409 2722.64391044572 27 30 23
-120.46839593356 309.592060300914 2721.86260708176 27 30 23
-119.072934048155 308.631246606124 2714.04271632974 31 32 24
-116.114174338765 307.764647606498 2707.51377039221 35 36 28
-117.935360468144 306.627278014511 2697.1893336682 37 38 30
-109.439887330856 306.081735587433 2695.12289586365 40 41 33
-94.5405994208368 305.892848811702 2698.09076399095 39 42 35
-90.00087845688 305.11782348383 2692.83778596447 39 42 35
-100.715921197565 303.501769344023 2675.66826020761 38 43 36
-107.490426201654 302.117007511509 2661.69844984689 35 40 33
-107.066765949847 301.13435053854 2653.39741966175 32 37 31
-89.6848435145645 301.067763833009 2658.18280483038 28 33 27
-66.5673481639821 301.295101421607 2667.25819977134 34 39 33
-39.2966549472131 301.724747189956 2679.3498087737 37 42 35
-55.1047237559224 299.880444762411 2658.655874573 31 36 29
-28.5407832335398 300.25253773986 2670.03684809809 33 38 31
-31.353615027665 299.095929662896 2659.24877010977 31 34 27
-2.19019416725619 299.574549740028 2672.34577290669 28 31 24
7.33833203820744 299.040969869693 2670.70744974257 21 24 17
-2.09013533725244 297.55647191446 2655.0684721281 26 29 22
-24.8262318782095 295.426956018658 2629.7944387759 24 29 23
3.70430165572522 295.837970422333 2642.11748049474 14 19 13
18.2180174681541 295.546809768166 2644.09662417059 34 41 34
8.61296940507783 294.086428800176 2628.61085461936 28 35 28
74.9403136454592 296.260875741066 2667.71345573302 37 44 37
-10.8199615405713 291.196073372484 2597.83194191689 32 37 33
-282.909767761028 329.971341425976 2910.16518671877 161 148 132
-282.488485912993 328.860593522925 2900.54378714199 154 135 120
-282.09659013152 327.753638398894 2890.94783294808 157 134 118
-281.734067023449 326.650504193291 2881.37731234634 165 134 114
-281.400951303334 325.551180609634 2871.83225549185 158 129 111
-277.464168114721 324.71525137431 2865.7786835815 151 129 115
-264.063253461019 324.551615791777 2868.72150565514 129 111 97
-192.511346900381 320.54897847632 2857.01853281918 16 17 9
-169.847358524349 320.932991370978 2867.80955968115 22 23 15
-159.077355937954 320.522593694661 2867.74092783385 14 15 7
-179.081420945505 318.117091228797 2840.10073294977 22 23 15
-184.912842638841 316.64797686746 2825.31406499137 21 22 14
-189.295850099395 315.283226104093 2811.9181653331 21 24 15
-180.856900885988 314.737076462195 2809.90072277988 20 23 14
-198.224290540895 312.575448952216 2785.26700527892 21 24 15
-179.924097226213 312.647491624737 2791.90243100473 23 26 17
-191.334400844867 310.881324754665 2772.68964831886 28 31 22
-177.570497263279 310.665571051402 2775.31819256794 29 32 23
-167.600675672104 310.212006525049 2774.62012520153 25 27 22
-173.001320798894 308.834092764208 2760.7830731116 28 30 25
-170.742721215362 307.921711321541 2753.53801692139 27 29 24
-156.894453173586 307.693937381047 2756.09351735182 28 31 24
-160.846631378442 306.420148324051 2743.64687392963 27 30 23
-152.402508782576 305.872014422227 2741.62496027793 25 28 21
-135.363462441146 305.81287197685 2746.70748024265 26 29 22
-153.453473633993 303.748501115219 2722.69945457745 24 27 18
-142.658060188695 303.332435588694 2722.60883495315 24 27 18
-139.695709498288 302.474320940441 2716.07672160449 26 29 20
-128.865369523803 302.053312260764 2715.95586193369 26 29 20
-118.797451092556 301.585159502768 2715.17286504204 30 31 23
-112.667132634669 300.898815910931 2711.18720607854 33 34 26
-108.12218319928 300.126544883327 2705.9296785 36 37 29
-108.360011908591 299.100353391501 2696.87900580707 39 40 32
-98.2489539868534 298.625971769927 2696.05865873157 38 41 34
-86.5138157623235 298.232019818189 2696.47666343869 39 42 35
-91.5976781799617 296.9603966414 2683.68761649458 37 42 35
-106.389155058948 295.200460210227 2663.43559521861 37 42 35
-108.379668824628 294.11094161822 2653.25761076772 34 39 33
-99.8967578356402 293.556206642929 2651.20212059658 29 34 28
-76.8078071676661 293.727704070676 2660.30293359847 31 38 31
-55.2553647070373 293.806626791417 2668.08925612216 36 41 34
-51.5450644785322 292.996482322565 2662.23181804824 34 39 32
-45.3934727656353 292.306412705092 2658.22806044755 41 46 39
-26.9578870591389 292.206119999669 2663.42336156051 39 42 35
-2.71242192378596 292.370505664208 2672.84508885958 38 41 34
7.63797786320408 291.862678816978 2671.81751231232 33 36 29
-7.55868102151247 290.157653204303 2651.91632102134 38 41 34
-8.80109164381082 289.116653024073 2642.41287515741 32 37 30
9.81746627938662 288.991187423433 2647.45006630712 26 31 24
2.74033741470348 287.688868404301 2633.74233220543 22 27 20
26.422227378414 287.778799819912 2642.32943644368 22 29 21
27.6468793114888 286.854329004272 2634.65735731428 27 32 26
62.3332218605097 287.406421821997 2650.90716551766 34 39 35
-42.970718753153 281.832986095487 2567.53093632519 189 194 190
-281.747471872132 324.004906248645 2922.43000100168 163 151 137
-285.586155638441 322.605252598415 2908.56254260371 160 144 128
-285.169481286304 321.514603171146 2898.94500627062 156 135 118
-285.502435952262 320.377766783051 2888.65423877317 160 134 117
-282.979588721569 319.44429116397 2881.18028633969 160 131 113
-284.095839963774 318.265600020669 2870.24512497506 160 133 116
-278.711732657782 317.534600394007 2865.58326253927 124 102 89
-263.129389968446 317.48836023894 2870.60469992776 98 82 69
-181.867115104141 313.987356838881 2867.68580463627 15 16 8
-186.067636050724 312.634411190221 2854.1316608595 16 17 9
-170.847830376073 312.487952423313 2858.14471065686 12 13 5
-166.841639252639 311.646538574595 2852.03101593499 24 25 17
-191.32863904138 308.019560957355 2811.08060356375 16 19 10
-189.70952489087 307.058398847673 2803.06655209937 17 20 11
-182.037471139207 306.457847576786 2800.39089706039 21 24 15
-163.695676389162 306.477898655901 2806.9902867208 21 24 15
-162.842479397708 305.472533532348 2798.31710875328 22 25 16
-169.668821805373 304.031594697322 2783.06964640263 21 24 15
-168.119723600676 303.079337736867 2775.11622256959 21 23 18
-171.208975755341 301.869871524154 2763.2448096935 25 27 22
-152.740596598859 301.872096769732 2769.73459961068 26 28 23
-159.732572314284 300.453247195708 2754.63023894968 31 34 27
-158.258856390562 299.51079773546 2746.7420880963 33 36 29
-144.363178601473 299.246628334337 2749.25704815095 30 33 26
-148.35773672576 298.011783470431 2736.84688456892 30 33 26
-144.584270981243 297.200251114226 2730.9350231782 27 30 21
-157.280582426865 295.520886749272 2711.51304634648 27 30 21
-150.425042512724 294.881891162404 2708.22176593491 30 33 24
-131.743298663317 294.854184538921 2714.52681896269 31 34 25
-135.112120979446 293.681814515242 2702.89747921034 37 38 30
-125.854740651061 293.159860340325 2701.49377707647 35 36 28
-119.753929496686 292.475237063914 2697.53399751871 34 35 27
-117.63059878382 291.59153759298 2690.40599786099 31 34 25
-113.928385400109 290.788994812909 2684.555519687 31 34 27
-97.4323570244478 290.613988096331 2688.78586725963 31 34 27
-84.8911467149032 290.236905348771 2689.82868738882 31 34 27
-97.2465247243321 288.65857296621 2671.43381747558 34 39 32
-93.56636181777 287.858797380871 2665.60274882408 33 38 32
-88.2787646933969 287.136273520248 2661.02448030854 30 35 29
-78.1299297010132 286.640313509468 2660.17121480369 34 39 33
-46.8341760195186 287.115450306495 2675.39048431249 35 38 31
-49.6166154096809 286.010608065218 2664.57572869131 35 38 31
-58.1563333097606 284.652994750421 2649.48919413011 44 47 40
-30.7502771558492 284.917038865194 2661.46423679928 40 43 36
-18.8260262314039 284.475273532041 2661.71895607655 41 44 37
-17.5644902517984 283.560096141273 2654.01453248376 38 41 34
-10.5514883921414 282.898404987211 2650.5872367248 41 44 37
-14.27851796922 281.773893762851 2639.26774244207 37 42 35
1.00983613343475 281.466256976763 2641.89916241841 28 33 26
45.4231449013704 282.375862821612 2665.59633519137 23 28 21
45.8882810498968 281.420939135219 2657.25949215617 24 29 22
49.6671691305171 280.607082336013 2651.34263058145 26 33 26
-276.566308457371 317.147807677245 2928.57076812022 161 148 132
-279.669891888719 315.829399668965 2915.38890623737 157 140 122
-280.669305851685 314.660335666424 2904.35241541905 157 135 114
-283.146397600869 313.401605825951 2891.95074034521 160 135 115
-282.05870599581 312.38409402114 2883.07439617807 153 124 106
-282.444613852967 311.276352172797 2872.82933658147 146 120 103
-274.149259941337 310.730691554642 2870.93635006889 128 108 97
-256.370287452158 310.783285970635 2878.02334713157 82 68 57
-180.165981768763 306.81606391674 2870.22762400102 15 16 8
-175.396366684161 306.022220321545 2864.77551041957 16 17 9
-169.134135167992 305.315716351937 2860.67564830665 12 13 5
-173.380631353702 304.004871243397 2847.16139562249 22 23 15
-173.916988097895 302.915466991277 2837.04630114319 19 20 12
-191.851160784755 300.851443261582 2811.57994152178 20 23 14
-200.072165749817 299.354469151322 2794.89449368028 21 24 15
-187.872847947113 299.001855590959 2796.23348577339 24 27 18
-180.204221196044 298.393815950127 2793.56084956383 24 27 18
-169.471550093959 297.949909009724 2793.5247913967 22 25 16
-170.18929620929 296.884490817291 2783.56707368791 20 23 14
-171.708172900438 295.782643852997 2772.98038431989 21 23 18
-159.417032114244 295.416930747084 2774.23987501805 23 25 20
-150.946832293473 294.84453442748 2772.19551651926 23 25 20
-167.210364385061 292.988036836691 2749.24959048519 26 29 22
-176.610296663786 291.505205235022 2732.26260880659 27 30 23
-170.538757007923 290.823011869714 2728.32818416286 29 32 25
-141.077806827514 291.316950805509 2743.81404559402 30 33 26
-147.444119466263 290.002266642079 2729.49030164576 28 31 22
-149.171060077789 288.927945899445 2719.08377038569 29 32 23
-151.721337011667 287.820313863989 2708.0678092966 34 37 28
-135.408137907149 287.632844529814 2712.45670232832 34 37 28
-134.834065418827 286.681059132748 2704.02510440271 35 36 28
-126.367297705883 286.108166841543 2701.98372384905 32 35 26
-124.236018944265 285.234940054469 2694.84876746854 30 33 24
-129.285185840444 284.03107670405 2682.02920958351 28 31 22
-120.823186025421 283.45863910806 2679.99227410476 28 31 24
-101.146281979359 283.394063408717 2686.7582858041 25 28 21
-94.2290949172873 282.741068774676 2683.41397982056 26 29 22
-91.3251155468444 281.90764309454 2676.93229900792 22 27 20
-97.3017831019241 280.684399365401 2663.59318848297 15 20 14
-83.9407450339698 280.316681827759 2665.24863461088 17 22 16
-75.4008049416726 279.733208921302 2663.14421700138 25 30 24
-66.0335713639824 279.182342478314 2661.64548845993 48 51 44
-57.4611192827263 278.594304249403 2659.51260561152 38 39 33
-42.3426554826452 278.277762261465 2662.29133332568 38 39 33
-33.7231463212033 277.683207125939 2660.11770664414 34 37 30
-30.0104783408517 276.884638418704 2654.25845685621 35 38 31
-23.0173987060809 276.220742272526 2650.84812718121 28 31 24
-21.7881520422383 275.324203409911 2643.17188463374 36 39 32
-4.87678417215021 275.053976967331 2647.04285956354 36 41 34
26.1758215706633 275.329103723481 2661.15059381575 27 32 25
45.7259323740926 275.135518061476 2666.70439240453 21 26 19
32.8723576184413 273.685482255072 2648.7404961537 22 27 20
39.1250614743379 272.976862849627 2644.64890571448 22 29 21
-275.470602570985 311.083997406777 2940.89392934489 161 154 138
-277.098362445279 309.883254442569 2929.07899292191 152 135 117
-280.915151747464 308.552590495529 2915.19211074989 150 129 108
-280.478956060202 307.498283026796 2905.55741907717 156 129 108
-280.792179133357 306.403217669431 2895.24896330883 155 128 107
-279.694937537489 305.401172909461 2886.36424159455 150 124 109
-278.622877873932 304.40240689128 2877.50164023266 140 117 103
-268.137726962435 303.975739460343 2877.68000499928 90 73 63
-169.531919813694 300.122954395253 2880.90456242977 10 11 3
-172.196891845631 298.91834689651 2868.66537923615 17 18 10
-181.645459222746 297.353657786424 2850.39782091209 16 17 9
-185.922245106292 296.082981002006 2836.90924559322 18 19 11
-167.671548135599 296.023419997793 2843.58810886175 15 16 8
-170.485710064947 294.838567528788 2831.47779038885 18 21 12
-192.266171767782 292.670512857441 2802.7292019606 19 22 13
-192.94695971069 291.622762171272 2792.73902127659 21 24 15
-179.203812742467 291.320753055174 2795.38611496579 22 25 16
-183.727723158178 290.082967644833 2782.1115182248 20 23 14
-166.885189187391 289.929244892817 2787.36497540746 19 22 13
-177.596559104924 288.392748658758 2768.86848987345 24 26 21
-167.628979647527 287.891240547387 2768.17236100775 24 26 21
-159.951056718926 287.273579883783 2765.49172981144 21 23 18
-163.859927209457 286.094125358883 2753.0072542593 22 25 18
-180.22311569892 284.32839163655 2730.14711585525 22 25 18
-169.496127486887 283.865742099106 2730.1161047057 20 23 16
-146.271893158613 283.983313851639 2740.4232728083 22 25 18
-140.926554457108 283.254885288432 2735.79499585499 24 27 18
-139.499318159961 282.346774177973 2727.94722356413 25 28 19
-142.020933861464 281.263129360884 2716.90626531695 28 31 22
-135.921712172303 280.574416082082 2712.9475743963 28 31 22
-135.346358690422 279.639390986727 2704.51475758036 28 29 21
-132.421608541267 278.812278258304 2698.01503307912 27 30 21
-131.097339521305 277.917786876206 2690.25641797234 27 30 21
-129.794589196911 277.026148795249 2682.51611989018 27 30 21
-115.749095360088 276.681295949844 2684.90175182191 27 30 23
-103.259549250637 276.262947818937 2685.98930305824 38 41 34
-89.9321528119774 275.873081560856 2687.67405111975 38 41 34
-88.6229003247814 274.980320532832 2679.92844016895 35 40 33
-86.5291604786638 274.12327302463 2672.82591527369 35 40 34
-79.6052219757151 273.464181784738 2669.47548156698 41 46 40
-71.0538524569713 272.868704551643 2667.36123545108 52 54 49
-64.9233353516112 272.174923293903 2663.37545250894 51 52 46
-71.815021167156 270.972373535286 2649.50602623074 36 37 31
-60.8142155725155 270.47105201199 2649.23793830886 35 36 30
-42.422335180579 270.246841629637 2654.4722388914 34 35 29
-28.8873957843436 269.828216784509 2655.9772883679 32 35 28
-31.7572538397819 268.790991202104 2645.2378634885 24 27 20
-16.5347973806314 268.42776148741 2647.9267595647 32 35 28
5.34598621762905 268.298722245983 2655.42984462102 33 38 31
23.1657325476338 268.009579085369 2659.83719425408 27 32 25
31.0808113498213 267.357652467478 2656.95091806906 21 26 19
14.0349576775955 265.826211261962 2636.00452828062 22 27 20
14.4016087066472 264.918648664969 2627.75242342459 18 25 17
53.2216675608228 265.33513055831 2647.03752078279 24 31 23
60.339519985904 264.649101202627 2643.51918946927 13 20 12
-274.582204910588 303.877486497238 2942.81714327394 158 151 135
-276.917184303158 302.660941610769 2930.29202095291 148 131 113
-277.151256993044 301.577733891722 2919.91520137742 147 126 105
-277.418948586881 300.498904226364 2909.56717663166 154 128 105
-277.00036893274 299.466334826207 2899.94761254482 152 125 104
-278.054707928937 298.354425583808 2888.95835686278 142 119 105
-273.356293694926 297.577978374395 2883.5678428888 133 111 98
-257.775057732783 297.417557076396 2888.59097941418 125 105 94
-157.415602017349 293.424865402759 2892.9433304531 7 8 0
-174.224508551415 291.519091855659 2867.82389761682 17 18 10
-197.144587561917 289.326282077779 2837.41637962885 17 18 10
-200.709281053689 288.13458215165 2824.63335733825 18 19 11
-180.995664831613 288.109310812319 2832.69087096674 15 16 8
-167.241689837272 287.776394444644 2835.32877989625 19 22 13
