ply
format ascii 1.0
comment KinectMotionCapture
element vertex 756
property float x
property float y
property float z
property uchar red
property uchar green
property uchar blue
end_header
61.6175848140113 635.066204839793 2815.81046556032 176 174 175
66.8296248468221 634.987672950967 2821.15806061592 171 169 170
72.5946932859889 634.761371706295 2825.6516276436 180 178 179
75.6997165893334 635.265158531918 2834.4571825098 176 174 175
77.7776501508258 636.058113517985 2845.00255770087 159 157 158
82.5480037762307 636.118176324474 2851.24907468722 122 120 121
87.3394408530699 636.176443762446 2857.5043990489 119 117 118
93.7248105563193 635.796499860603 2861.17147809755 113 111 112
102.724347524184 634.689559307315 2860.50822747652 104 102 103
121.048819033124 630.972525792748 2844.22027075567 142 140 141
139.780039015353 627.118709232258 2827.01923224983 138 136 137
153.769679300555 624.575728872854 2817.59847084742 166 164 165
163.597492273128 623.193787732152 2815.11479423907 160 160 160
172.887136428291 621.958145183373 2813.49091612257 166 166 166
180.632961217519 621.1565044903 2814.47560573059 186 186 186
187.86591362212 620.499223390268 2816.33009364772 176 176 176
193.088903058657 620.416894971672 2821.68215081612 171 171 171
199.824957744005 619.902487777585 2824.41343078559 184 184 184
205.569070925498 619.674493902975 2828.89878323386 195 197 196
211.818284090826 619.302109518882 2832.51067616415 197 199 198
214.633916996028 619.929849126068 2842.27718474644 202 204 203
213.091619849676 621.838961035572 2859.97927356211 204 206 205
-313.471331177909 672.468065751271 2835.19896195571 201 205 206
-309.476403823948 672.677737188487 2842.20944570606 206 210 211
-302.269041479332 672.129157305381 2845.13181383324 169 173 172
-293.791426267734 671.278480170082 2846.4129146642 158 160 157
-285.323438847191 670.428745154931 2847.69011012965 141 143 140
-276.865056416157 669.579974927485 2848.96366651649 123 123 121
-269.670803369449 669.033240646868 2851.88071279249 123 123 121
-263.100760774178 668.636961838997 2855.62268840321 119 119 117
-258.39216278042 668.690918625525 2861.84424725302 110 110 108
-250.563684231879 667.993563047569 2863.9404204743 103 103 101
-232.862269822664 664.900075433434 2852.79002120234 110 110 108
-207.867490764178 660.01793011434 2831.6594846073 129 128 126
-189.140629850002 656.641023483998 2818.76855609854 147 146 144
-178.435701698896 655.211199212837 2816.6403801639 139 138 136
-165.331045251503 653.187641130664 2811.17284778526 137 137 135
-151.670820087843 651.019036043714 2804.85255252408 132 132 130
-135.053564201028 648.111398644101 2794.34058458326 127 127 125
-124.513527007288 646.694459046126 2792.14554780382 148 148 146
-114.002888200331 645.279813325212 2789.93884766506 148 148 146
-107.089876603342 644.755899262445 2792.74184829605 150 150 148
-94.2533919186128 642.753055355436 2787.16532083293 129 129 127
-80.8766385816015 640.606281560918 2780.73008435868 152 152 150
-66.9668745196035 638.316163738808 2773.4326812961 148 148 146
-56.6248873613928 636.914491427249 2771.1575969626 136 136 134
-45.7297865646205 635.367822595833 2768.02849809375 169 169 169
-35.4485417785599 633.970758986181 2765.72852744411 163 163 163
-25.1963960575492 632.575821512604 2763.41675867328 185 185 185
-16.697485318802 631.622785492522 2763.62844962162 163 163 163
-12.217746400933 631.69532267545 2769.75720421581 167 167 167
-7.14728842763601 631.620087734215 2775.04744870686 165 165 165
-2.62782896870051 631.689507821174 2781.19230949395 166 164 165
6.42966771871589 630.59100641834 2780.55246238701 170 168 169
13.7817478992843 629.930647788873 2782.45546485151 169 167 168
22.2491188921696 628.979692171022 2782.65436981093 162 160 161
28.4741878947858 628.610565645999 2786.2564622468 163 161 162
36.9235304072004 627.660829174504 2786.44805836118 172 170 171
42.0465192089883 627.581103545622 2791.75960625136 167 165 166
47.7352553979853 627.355345146635 2796.22252000272 160 158 159
51.7941561119755 627.56204567201 2803.25867140626 166 164 165
56.4236217709078 627.622386103342 2809.44839897361 177 175 176
61.074542640424 627.680912540319 2815.64657012701 180 178 179
66.8255988218556 627.449953066647 2820.13449899874 174 172 173
71.5137735686735 627.505432870625 2826.3480343028 178 176 177
76.2233208940921 627.559105227026 2832.56997968619 185 183 184
79.3583680891015 628.040936642334 2841.38785742981 173 171 172
83.0592135569823 628.37667147986 2849.3571221215 126 124 125
85.7376321647185 628.995740947021 2859.0678820959 122 120 121
91.0792042601984 628.897830619984 2864.46807065088 115 113 114
99.5680014227485 627.943174947427 2864.67567896027 108 106 107
116.871008172416 624.569409630241 2850.12941001642 135 133 134
136.658181999819 620.49228281764 2831.19973887203 135 133 134
152.206218724449 617.560167873469 2819.17622904392 161 159 160
163.063890254224 615.910293411189 2814.95394945672 161 161 161
171.84540704015 614.829502939535 2814.20222579542 168 168 168
179.087748243569 614.174167907194 2816.06050042013 189 189 189
186.830197083166 613.377666436657 2817.04378417611 185 185 185
194.062059190611 612.722593770473 2818.89781390031 201 201 201
200.790655985842 612.208478570527 2821.62607200958 209 209 209
206.527056079661 611.975207843275 2826.10834148031 212 214 213
210.792264932484 612.16218019772 2833.22843235091 202 204 203
214.100711807775 612.627284676229 2842.11664518438 195 197 196
213.533324618571 614.209668700159 2858.05807114187 198 200 199
-320.469203298599 666.153842504571 2843.20228622909 200 204 205
-314.530081777458 665.901342405151 2847.76678192545 210 214 215
-304.755246214516 664.756737398174 2847.41772970876 195 199 198
-296.269938698005 663.910651336914 2848.7019103005 125 127 124
-287.161693787102 662.917259246072 2849.16062223381 119 121 118
-278.698012737381 662.073215377807 2850.43603094282 146 146 144
-270.871329895162 661.377885017534 2852.53146174472 150 150 148
-263.674226981181 660.830715730915 2855.44966520905 122 122 120
-258.966586389938 660.873480575281 2861.67092124523 119 119 117
-251.13810291114 660.178545538872 2863.76707811569 117 117 115
-237.756189929169 658.160428284242 2858.41176370709 107 107 105
-213.968190772299 653.649174860164 2838.94767271841 119 118 116
-193.377598402722 649.881806883337 2823.57763382901 135 134 132
-180.216560482851 647.88080060122 2818.13275897334 138 137 135
-168.319911887311 646.176286268966 2814.3315680075 130 130 128
-153.437719937968 643.744259013447 2806.35016161069 135 135 133
-138.619771089346 641.31717217813 2798.34270618971 134 134 132
-127.466096615728 639.769474160393 2795.31830977487 165 165 163
-117.541571651685 638.515541298118 2793.95162904345 147 147 145
-110.021256685554 637.844932211208 2795.9228262785 141 141 139
-97.7652806610334 636.013315161632 2791.18902248141 134 134 132
-85.5536037841371 634.185088298286 2786.43725657605 175 175 173
-71.6240679625277 631.9259466707 2779.14788139454 137 137 135
-60.6781867147181 630.394209037871 2776.03897277023 140 140 138
-49.1843473388076 628.720741771606 2772.07445187182 160 160 160
-38.3094685162815 627.19441489752 2768.93701108212 182 182 182
-26.8913617489563 625.526654317344 2764.94152610443 153 153 153
-18.9617994414524 624.724832597792 2766.0006111063 155 155 155
-13.3304782306016 624.498248644633 2770.44002696998 165 165 165
-9.39785062694098 624.701169746207 2777.42533715773 164 164 164
-3.73703664171532 624.472243721842 2781.87696941599 164 162 163
5.32393335422343 623.38399314334 2781.23819370209 169 167 168
12.6787156753356 622.725811472453 2783.14227374344 168 166 167
21.709005552607 621.639747103866 2782.49131652215 163 161 162
27.9338581354076 621.267559256088 2786.09334453517 162 160 161
35.2743516557961 620.610210779587 2787.99163282677 172 170 171
39.8496284170053 620.663641890423 2794.15921483688 178 176 177
45.5455591227809 620.431515201389 2798.6250898671 176 174 175
49.0638229633469 620.765366874928 2806.52044282301 157 155 156
54.2475985313948 620.672073439406 2811.85644845868 163 161 162
59.4474212022313 620.577443431934 2817.19921881018 181 179 180
65.2030992630259 620.340254303383 2821.68932349381 181 179 180
68.8214453722069 620.665997318057 2829.6252605139 174 172 173
73.0057644620594 620.848414915925 2836.71237698882 173 171 172
78.2805642156466 620.747485958101 2842.08555277519 171 169 170
82.5123497012277 620.925958140123 2849.19217518977 140 138 139
84.1351519372351 621.803280142118 2860.63143959036 123 121 122
87.3831220423542 622.256468661055 2869.49525612702 116 114 115
95.887815916877 621.308443967367 2869.70925064165 111 109 110
112.690578305487 618.127287843282 2856.03778451207 130 128 129
133.534487299545 613.83760293656 2835.37997280879 148 146 147
150.127676526149 610.672004819496 2821.62353406262 148 146 147
161.506584866285 608.903923062457 2816.53438740929 147 147 147
171.31295614721 607.555631033717 2814.04177416054 200 200 200
179.062593406417 606.763945301386 2815.02767472826 192 192 192
187.307529647782 605.834289002304 2815.13635598686 175 175 175
194.534597186851 605.182011718976 2816.98868046254 183 183 183
201.258403657094 604.667917390883 2819.7149988449 184 184 184
206.492749417396 604.567174833935 2825.07179368263 203 205 204
210.26049808426 604.878002494699 2833.06833579603 203 205 204
213.567767809067 605.323713227137 2841.95621900891 208 210 209
214.954480791524 606.315629730045 2854.37783208874 200 202 201
-315.104425790661 658.063873054218 2847.59363997744 199 203 204
-304.053427989907 656.638072563407 2845.60555469729 175 179 178
-294.93775708145 655.651773353902 2846.06721960239 145 147 144
-287.102170268752 654.957799824282 2848.16624527455 130 132 129
-279.271000689723 654.264331118034 2850.26322138707 130 130 128
-271.444370106398 653.571395942246 2852.35861287486 129 129 127
-266.123122169639 653.458687320005 2857.75068448875 133 133 131
-260.78621663709 653.344917504104 2863.14910379601 120 120 118
-254.193169272263 652.941017789493 2866.90045163962 123 123 121
-242.652462235478 651.382023364489 2864.03284759611 109 109 107
-221.917888300243 647.663322981349 2848.72073693728 109 108 106
-199.454792296127 643.521142004858 2830.87527807688 129 128 126
-181.387595414215 640.39499459161 2818.79416372365 140 139 137
-168.879428929188 638.568138857101 2814.16269119754 125 125 123
-153.994545659898 636.171046721767 2806.18210969846 140 140 138
-139.776852977219 633.92216645302 2799.00907218724 141 141 139
-129.819605124843 632.67897108855 2797.65555933457 165 165 163
-121.082205293791 631.723383374821 2797.96408939743 147 147 145
-113.548964622752 631.054116778568 2799.94025275673 138 138 136
-100.686184435051 629.103221711062 2794.3742356253 130 130 128
-87.8726613139629 627.156109636415 2788.78824598191 175 175 173
-75.1083443738261 625.212716746948 2783.18230491344 137 137 135
-64.7337656836839 623.840597338602 2780.91993543123 147 147 145
-52.057994051969 621.903950735498 2775.27809185858 158 158 158
-42.3319655078511 620.678560932599 2773.83108220848 193 193 193
-31.4748339024036 619.172320169369 2770.68630344886 146 146 146
-22.952176788398 618.233123883508 2770.90750423519 151 151 151
-14.4434611378783 617.294972377566 2771.1230523024 159 159 159
-8.79894922412627 617.061425515567 2775.56786176535 161 161 161
-2.00848437386569 616.545995191746 2778.32117978084 164 162 163
4.78307593268057 616.030388412823 2781.07494267631 169 167 168
12.1381344216676 615.374546017732 2782.97911680501 168 166 167
20.609250647561 614.43895501101 2783.17942172322 163 161 162
27.9514017378701 613.783896140512 2785.07836379857 162 160 161
34.1797203914498 613.408235660945 2788.68182152073 168 166 167
38.2043300629529 613.589552819079 2795.70453834924 181 179 180
43.3549789031456 613.490479995707 2801.02743223981 186 184 185
46.8798064948308 613.806990076594 2808.92531703013 156 154 155
52.6153659357897 613.565746066873 2813.40730656176 157 155 156
57.8197087557271 613.462180065715 2818.75197482206 178 176 177
63.040294127698 613.357207645397 2824.10323023708 181 179 180
66.1277364412924 613.803896463342 2832.9020994722 183 181 182
70.8561053871268 613.833482251193 2839.13184816621 176 174 175
76.6702417694483 613.585534528864 2843.645703758 177 175 176
79.8466640207571 614.02496441676 2852.48065536133 154 152 153
82.0049495363613 614.736414706948 2863.05918227372 128 126 127
84.2098124865913 615.444090504108 2873.65633944307 114 112 113
92.2054722461525 614.640050700505 2874.74220364829 107 105 106
108.507629102496 611.646003094935 2861.94543579094 126 124 125
129.89191955954 607.291468560836 2840.42810411941 151 149 150
148.048161447947 603.766553887124 2824.07057620653 136 134 135
161.48524988663 601.476725697801 2815.5029797882 144 144 144
171.290545972673 600.144568738326 2813.00980890122 203 203 203
179.545225880575 599.222270016781 2813.12237953307 160 160 160
186.776722198309 598.572301886193 2814.97647968716 164 164 164
193.502172903562 598.057957736237 2817.70346570222 153 153 153
200.228710660447 597.543318244858 2820.43089409542 194 194 194
205.962172514192 597.298653856875 2824.91206025436 200 202 201
210.223457493562 597.457847738137 2832.03051570306 199 201 200
214.018910552131 597.749563794794 2840.03841998948 207 209 208
215.88805027845 598.576972790896 2851.57780302473 199 201 200
216.347978161437 599.803335705032 2865.78026384569 203 205 202
-322.259267489376 650.633379319285 2843.67395092118 212 216 217
-315.678530083697 650.225876613832 2847.42059908562 217 221 222
-302.712636212912 648.386582187393 2842.9742941962 181 185 184
-294.875025124841 647.694600217929 2845.07412438767 154 156 153
-287.041884257264 647.003157157935 2847.17188330713 148 150 147
-279.843698036233 646.454855961131 2850.0905339744 150 152 149
-272.017064623814 645.764311605308 2852.18590848591 150 152 149
-266.696642174028 645.643060626056 2857.5777106147 123 123 121
-263.229308278846 645.946845117088 2865.45267029696 117 117 115
-257.870017279529 645.822962976279 2870.86022997006 119 119 117
-248.169413220181 644.706565566576 2870.48090813666 115 114 112
-230.487489860675 641.752979395571 2859.32129943518 93 92 90
-207.373953083311 637.534693928442 2840.66071092514 134 133 131
-185.000565440503 633.467436365849 2822.77836188464 142 141 139
-170.046321777875 631.100176613281 2814.82563779695 132 132 130
-153.945704177095 628.456504859144 2805.18129402367 135 135 133
-142.742616737632 626.942491113371 2802.17664925165 157 157 155
-133.374936709541 625.852082105991 2801.66233184751 151 151 149
-125.820131004252 625.183522470685 2803.64747860464 140 140 138
-114.697149905113 623.675735847905 2800.61035214205 135 135 133
-100.644172267057 621.472005410594 2793.37028045075 142 142 140
-87.240874577853 619.412344390163 2786.9451313059 164 164 162
-77.4187249637317 618.192853908242 2785.53673845546 137 137 135
-68.2061386356596 617.114433803507 2784.95953383642 140 140 138
-55.5158524029313 615.203656034214 2779.32337104436 177 177 175
-46.3565508681423 614.129248367418 2778.72456137618 162 162 160
-35.4828589584992 612.640500560613 2775.58609794821 142 142 140
-26.9446425040654 611.707956568966 2775.81380540542 153 153 151
-16.7019557150823 610.361798607406 2773.49783704451 161 161 159
-8.76939232041551 609.569816804628 2774.55780535491 163 163 161
-1.98138075794652 609.054162417481 2777.31013174986 161 161 159
4.24249650998854 608.676014455694 2780.91181004083 166 166 164
11.0351800456867 608.159840476608 2783.66603202306 166 166 164
18.3890189221989 607.50633631298 2785.56969461613 163 163 161
26.8543421295047 606.578915393519 2785.76759205505 163 163 161
33.6401249584637 606.063078928134 2788.51901743167 171 169 172
37.6638021712243 606.230422579079 2795.5414626296 174 172 175
42.263924282967 606.259170320315 2801.71929143965 182 180 183
45.789907517976 606.558816230953 2809.61802919413 179 177 180
50.9825788206417 606.44765684759 2814.9580292954 164 162 165
55.1063747907856 606.606924250756 2822.02081585934 157 155 158
59.7964980691985 606.628362039938 2828.2351409127 167 165 168
65.0454503859177 606.512474624858 2833.59796463572 185 183 186
68.7055009762858 606.801259525804 2841.55106763773 188 186 189
73.9944642110297 606.682052680425 2846.93011665886 182 180 183
77.1796484915015 607.101241583573 2855.76876936698 170 168 171
80.4013519062008 607.517477368062 2864.6222307981 136 134 135
83.1343401451969 608.06538828877 2874.3558822192 117 116 114
89.5659296914388 607.66925938187 2878.04179803333 117 116 114
104.322219853758 605.12561046384 2867.85238744178 128 127 125
126.247221198676 600.711669716051 2845.47562792422 148 147 145
146.482571958266 596.710000296855 2825.64804036019 172 171 169
160.952221091163 594.187626783864 2815.34240958125 207 207 207
170.758787424175 592.871478844794 2812.84963166427 181 181 181
179.014346263619 591.95691126856 2812.96249956931 165 165 165
185.741443305046 591.44234701832 2815.69015384255 182 182 182
192.469625296942 590.927457705078 2818.41824986845 208 208 208
198.699032251694 590.544950887866 2822.02245735599 214 214 214
203.940189347815 590.426542828109 2827.38214395511 177 177 177
207.218836205665 590.835666829857 2836.25871528902 190 190 190
211.518235604513 590.977644152697 2843.39273349344 205 205 205
214.374838690086 591.512981712026 2853.17653099433 202 202 202
216.785895422889 592.176495386433 2863.85750930485 206 206 204
-322.189473284347 642.656996510547 2842.68386076498 208 212 213
-313.048871380001 641.684054635322 2843.15551880904 198 202 203
-301.370294317807 640.150749889554 2840.34354264301 182 186 185
-292.90451601467 639.321483885519 2841.61968850292 147 149 146
-286.980955413512 639.053389675699 2846.17800189193 141 143 140
-281.677577432194 638.924552570375 2851.56296033675 148 150 147
-275.730299579579 638.654997719894 2856.13088774439 151 153 150
-270.398138353001 638.524268716665 2861.52751466173 120 120 118
-265.673322143716 638.531809606796 2867.75599197215 119 119 117
-260.307142211781 638.398803798023 2873.16641008027 111 111 109
-253.070854470734 637.847991986076 2876.10050681331 110 109 107
-237.215069992426 635.355084610183 2867.43469723077 98 97 95
-214.684613788287 631.34373677337 2849.61552035944 122 121 119
-191.668035247185 627.203609150716 2830.9150817301 137 136 134
-172.429666227251 623.902342824539 2817.15187775957 128 128 126
-155.713047080182 621.160572302707 2806.6788840744 137 137 135
-142.69441463449 619.251516390063 2801.17565329062 160 160 158
-136.331351758498 618.859680976854 2804.83379059709 146 146 144
-128.168308394348 618.055291322185 2805.98742989181 136 136 134
-117.036371234627 616.565570237747 2802.95353551641 132 132 130
-101.194470943049 613.982500522077 2793.20423681396 149 149 147
-87.7890867987303 611.952353030735 2786.77970875552 153 153 151
-77.9659470789704 610.746084287463 2785.37161657468 134 134 132
-68.7526211414318 609.67812617894 2784.7946321192 143 143 141
-56.6432259395628 607.93033198533 2780.00084342927 169 169 167
-46.3196203053757 606.594141627487 2777.71756298479 145 145 143
-36.0251137362388 605.260077405719 2775.42248441914 145 145 143
-27.4862937902058 604.335286381972 2775.65037746044 153 153 151
-17.8153449163665 603.140537449243 2774.18057696539 157 157 155
-10.4504179180374 602.488725166925 2776.08871623656 163 163 161
-3.65736557572394 601.972282863572 2778.84308957981 161 161 159
2.00598699285814 601.725497287613 2783.2956278365 163 163 161
9.36902839258935 601.073655069429 2785.20300386904 164 164 162
16.7281564439548 600.42209301045 2787.10879329098 164 164 162
25.7571167167987 599.367671292104 2786.45680065305 164 164 162
32.5455715420853 598.85123458479 2789.20931245176 170 168 171
36.5706829784569 599.004387332688 2796.23244591986 173 171 174
40.0719055993581 599.289168007448 2804.12127095125 180 178 181
44.1522983725815 599.437856668459 2811.1665640517 185 183 186
48.8040865079784 599.451148133984 2817.36568645023 177 175 178
52.9345500606668 599.595810004884 2824.43128337714 155 153 156
57.0911439192521 599.738366318602 2831.50773346621 153 151 154
62.8874835527946 599.480327113513 2836.01420254442 174 172 175
67.6244786387965 599.486574325504 2842.24762080162 181 179 182
73.4480949201839 599.226189300452 2846.76540900887 180 178 181
76.6320682026877 599.625897475047 2855.60371905108 163 161 164
78.7971081797401 600.286750135858 2866.18536431338 132 130 131
81.533820039152 600.812015192641 2875.92043782498 122 121 119
86.4023544252699 600.807387057688 2882.20745507324 127 126 124
98.5738276156578 598.960518456521 2876.36074413543 136 135 133
118.977321993671 595.017049440535 2856.60079559015 136 135 133
141.826186272548 590.427928114656 2832.44129872191 149 148 146
158.369217830946 587.421064225661 2818.66334832844 151 151 151
169.207263404648 585.858732614906 2814.43245877947 160 160 160
177.468586968457 584.951658532032 2814.547603982 172 172 172
185.715871728656 584.045427724792 2814.65705858043 209 209 209
191.93932081703 583.660439435052 2818.25861535234 185 185 185
198.168702058764 583.274826297691 2821.86283597391 199 199 199
202.912074245424 583.277639234915 2828.09886230494 213 213 213
207.676723231601 583.278557234833 2834.34351782472 215 215 215
211.970115233129 583.406957714385 2841.47546381176 187 187 187
215.310247756594 583.791334767925 2850.37711783196 205 205 205
217.224806410869 584.559493755831 2861.93533976883 205 205 203
-324.692489754657 635.237968131196 2844.96332296736 199 203 204
-314.903176060706 634.134388089527 2844.61982188548 164 168 169
-305.771865491107 633.170282011262 2845.08765096088 151 155 156
-298.562631340548 632.619969761756 2848.01079009992 138 140 139
-291.352880386458 632.069915447389 2850.93413653397 139 141 140
-284.142627336979 631.519911017099 2853.85768588479 132 132 132
-278.188489697845 631.24395462052 2858.42843929345 132 132 132
-271.597771547251 630.830615492643 2862.17891560287 124 124 124
-266.248129786068 630.690132885036 2867.5826941947 117 117 117
-260.882720253118 630.548580354734 2872.99286515554 120 120 120
-254.883162484866 630.269718245609 2877.58177365122 119 119 119
-241.483136194189 628.358151437105 2872.23298556989 114 112 113
-219.545920552874 624.549022312009 2855.2508851709 111 109 110
-195.895935076977 620.342293781865 2835.72860520318 138 136 137
-176.03029758374 616.958420096609 2821.14093857261 127 127 125
-158.692281471692 614.123562963522 2809.84144155163 139 139 137
-145.661778648448 612.240585381557 2804.34281933314 158 158 156
-138.087421554772 611.575109374358 2806.3358589361 140 140 138
-129.320683752595 610.640664802467 2806.65585025018 136 136 134
-116.993485290941 608.900481323561 2801.95019087264 128 128 126
-102.337656181761 606.62656333255 2793.87593333762 155 155 153
-90.6997511333303 605.028028593503 2789.96917564302 136 136 134
-78.5127810193804 603.298536711035 2785.20665775984 131 131 129
-68.1271643271175 601.973632657135 2782.94839960711 147 147 145
-56.0210801899872 600.250310114593 2778.15308480204 157 157 155
-45.70145291603 598.930419648289 2775.86832722545 136 136 134
-34.8325974137504 597.47952922343 2772.72787584826 147 147 145
-26.8762251493018 596.696002354301 2773.79742011557 151 151 149
-20.0752060602492 596.178629980022 2776.55502618791 156 156 154
-13.2731466028999 595.661085515158 2779.31305480242 163 163 161
-7.03813579811774 595.275868637479 2782.91929456417 163 163 161
-0.797108106829869 594.890050086983 2786.52823230778 162 162 160
7.13946445685498 594.107763142469 2787.58975041798 163 163 161
14.506356440241 593.457887341664 2789.49867061971 166 166 164
21.8694775376813 592.808255938953 2791.40580493737 164 164 162
29.7840696825975 592.027406167335 2792.45866966463 167 165 168
33.8184701234281 592.165721218542 2799.4854194241 172 170 173
38.9801899456115 592.039888209526 2804.81299871189 177 175 178
43.0620397439927 592.174408635046 2811.85924636944 185 183 186
48.2612109938865 592.045488867403 2817.20201287224 185 183 186
52.390737885506 592.176117787954 2824.26733691764 161 159 162
55.4656271533429 592.565130915333 2833.06156067933 152 150 153
60.1907298710593 592.561052542004 2839.29024206584 159 157 160
64.937000773357 592.555201974961 2845.52776495987 167 165 168
71.3034309654546 592.158497015697 2849.18730257864 172 170 173
75.5544567463409 592.279141150362 2856.301896347 172 170 173
76.6645135743302 593.173508646525 2868.61248992789 148 146 147
79.4073681832164 593.675960650402 2878.35022351203 125 124 122
83.2372856895161 593.917244823466 2886.37246446953 129 128 126
94.3827593938924 592.353809162106 2882.26605876488 141 140 138
111.702515844528 589.250668176982 2867.72452039783 132 131 129
136.651505141655 584.229752395825 2840.10313238102 136 135 133
154.246620030938 581.016228258443 2824.59511322918 139 139 139
167.145048408899 578.962132742998 2816.88643851579 162 162 162
175.414694086225 578.062289760232 2817.00489847346 176 176 176
183.165179611403 577.290830808263 2817.99098918459 184 184 184
190.906501079854 576.519913165052 2818.97362255753 213 213 213
197.638637257706 576.003754151423 2821.70332922935 217 217 217
202.879005648359 575.868312613934 2827.06282559632 218 218 218
206.650274959193 576.111792553386 2835.06130367094 200 200 200
210.453046735071 576.352572809191 2843.07230010718 192 192 192
215.266971949752 576.337924991875 2849.33728243459 201 201 201
217.177239485002 577.078687845421 2860.89397458294 191 191 189
-335.56295659704 629.562152970076 2857.86718538007 205 209 210
-321.886533252485 627.654839786003 2852.63027626979 173 177 178
-312.729823292851 626.696611807236 2853.1083448242 147 151 152
-304.223495674836 625.874384758608 2854.40085546156 140 142 141
-296.360410740528 625.187766892742 2856.51095917476 138 140 139
-289.13277089823 624.636086058932 2859.44156102171 134 134 134
-281.276108145813 623.950305779065 2861.54905809021 136 136 136
-275.30167524314 623.667097999057 2866.12782664451 123 123 123
-268.069596844292 623.115513827501 2869.06022489894 127 127 127
-262.078979347731 622.831347127048 2873.64581097576 129 129 129
-257.933066274748 622.946929297529 2880.71788372038 117 117 117
-245.13716054509 621.194651793367 2876.20234949681 113 111 112
-225.023266954875 617.848733405912 2861.71491231338 97 95 96
-200.126078033641 613.44768151421 2840.54147283147 130 128 129
-179.024359458499 609.853987019249 2824.29826078685 129 129 127
-161.06695345366 606.931647330796 2812.17114807696 139 139 137
-146.819977417389 604.810191027856 2805.00900134959 152 152 150
-137.439993256627 603.750428745464 2804.49943350792 142 142 140
-129.276351976435 602.956063992341 2805.6532389086 134 134 132
-119.33371465721 601.767137260324 2804.29339901295 126 126 124
-106.44814708641 599.922302768584 2798.73580442153 148 148 146
-94.2026116188319 598.212559512842 2793.99684954664 132 132 130
-79.6476755190618 595.981514441817 2785.8814161806 132 132 130
-68.6725898428435 594.541306064215 2782.78389568255 155 155 153
-57.1481658033879 592.972922953185 2778.83096178887 134 134 132
-46.8247378971838 591.668697003318 2776.54736710208 135 135 133
-35.9519758300695 590.236236876862 2773.40835776873 140 140 138
-27.4168766345484 589.327287841892 2773.63436699996 146 146 144
-20.6158318737926 588.809495000973 2776.39198665362 159 159 157
-14.9554857803753 588.551226092295 2780.84365187685 157 157 155
-8.71562960393191 588.162457191455 2784.45188041869 163 163 161
-2.46960987623601 587.773110299848 2788.06260891985 161 161 159
5.47224341658614 586.995480527825 2789.12648708638 163 163 161
12.8445670372455 586.347511070558 2791.03733484352 167 167 165
20.2127755568036 585.699802454964 2792.94677167476 166 166 164
28.1329884436856 584.923533969098 2794.00162024925 171 169 172
33.2779093633155 584.790454034899 2799.32245270992 174 172 175
37.3375627392893 584.912685657217 2806.35980633879 175 173 176
41.9718107603091 584.904627400002 2812.55173146758 176 174 177
46.6273185426671 584.894824995641 2818.75227774355 180 178 181
50.7608344057644 585.011055191289 2825.81958326026 175 173 176
53.8394176077976 585.380228869585 2834.61545304739 171 169 172
58.0307997408924 585.491730402835 2841.705966823 154 152 155
62.2483418250417 585.601153918223 2848.80734555513 157 155 158
68.0916615698595 585.327497122526 2853.33295492523 158 156 159
72.8848572665715 585.306421892193 2859.58959273545 157 155 158
76.1153500288352 585.663231292193 2868.44706334704 139 137 138
78.8566901567562 586.143476911181 2878.18435204689 120 119 117
82.6854818972937 586.368053191682 2886.20626383107 124 123 121
89.6687906155804 585.833936971791 2889.03780459888 137 136 134
103.904896287929 583.538270144408 2879.71496071952 135 134 132
126.834500300957 579.112127547876 2855.58691946429 135 134 132
148.06992884064 575.074006084106 2834.00691633039 143 143 143
163.040220916215 572.549199358101 2822.82520263797 136 136 136
173.359910956072 571.155626563256 2819.46196359686 145 145 145
181.623865386135 570.263826052392 2819.57805824902 150 150 150
189.370841444036 569.497576677415 2820.56268851449 130 130 130
197.108812405688 568.731766352901 2821.54392657885 134 134 134
202.846648887641 568.463477993274 2826.02678583053 187 187 187
207.10962755765 568.566402512144 2833.14661077556 209 209 209
209.920835565578 569.038602033637 2842.91224947313 221 221 221
214.73418479134 569.012672279372 2849.17708410071 209 209 209
216.642665609889 569.725810691404 2860.73326220584 199 199 197
213.751019257214 571.667637733013 2881.12544275575 195 197 192
-336.782766719062 621.808768044798 2858.51086957587 218 222 223
-325.667134362477 620.458006433067 2856.54838559602 195 199 200
-315.85869018039 619.374280675414 2856.21247982343 141 145 146
-305.433591943765 618.160155245625 2855.04843316697 143 143 143
-298.201695160446 617.60756926938 2857.98076547996 138 138 138
-290.969234890258 617.055117977435 2860.91332492393 130 130 130
-283.736105159553 616.502733197594 2863.84615492359 133 133 133
-278.381073615571 616.344458609748 2869.25225065872 125 125 125
-270.515379596141 615.660568473964 2871.36313287004 132 132 132
-264.517792137084 615.369991498376 2875.95158962351 126 126 126
-257.890574760849 614.947932435245 2879.71691030599 113 113 113
-247.560440269955 613.742227446579 2878.51434967584 115 115 115
-230.503549721127 611.104258084134 2868.17834269027 98 98 98
-205.580447671104 606.780122789516 2847.01455501755 148 148 148
-184.454224245362 603.247042512703 2830.78080537439 130 130 128
-165.867103094167 600.241926093931 2817.83047915542 138 138 136
-152.807579473549 598.410567293268 2812.34321599626 147 147 145
-141.600925841961 596.971290013732 2809.33944866817 146 146 144
-131.625875461952 595.793119912604 2807.99290828581 130 130 128
-119.886347433098 594.229727423502 2804.12677342207 124 124 122
-108.779748297258 592.798168057771 2801.08243623657 138 138 136
-97.1162335995033 591.240613220139 2797.18573709139 131 131 129
-82.5486882406452 589.043747377621 2789.07515005595 133 133 131
-70.3898308752835 587.364811794607 2784.30086631671 156 156 154
-59.44246334211 585.945479505637 2781.19196470351 131 131 129
-50.2724015754314 584.912307116147 2780.59694199841 136 136 134
-40.5429245869604 583.752935797418 2779.15082819693 136 136 134
-30.2614088846223 582.467841252085 2776.85011854439 151 151 149
-24.0238094847418 582.076142794079 2780.4574555386 163 163 161
-17.7802970708434 581.683940557033 2784.06744771542 157 157 155
-12.0991195421427 581.418168568684 2788.52734708423 159 159 157
-4.1427472361264 580.644529227296 2789.59707365014 160 160 158
3.80472889982486 579.871510462605 2790.66293628937 162 162 160
12.3041521728859 578.972740424742 2790.87442343788 166 166 164
19.1141788347182 578.453488763351 2793.63569085722 167 167 165
27.0371955924065 577.68210357487 2794.69189491165 171 169 172
32.1841513981527 577.540194885559 2800.01361820288 172 170 173
37.8982400266887 577.271367091685 2804.48686620543 174 172 175
42.5267825723432 577.252343632964 2810.67656434084 178 176 179
46.6305507562452 577.356823521228 2817.73191429675 179 177 180
50.2172912844276 577.584198413449 2825.65580004417 177 175 178
53.8354298650454 577.809055808774 2833.59241772291 173 171 174
57.4849987845414 578.03136867513 2841.54152338387 162 160 163
60.6301208101403 578.375574381292 2850.3645235205 163 161 164
65.4114241385668 578.34417356564 2856.61642446004 157 155 158
71.2757741188692 578.062783309373 2861.15060744127 144 142 145
75.566428533544 578.152068007188 2868.28174148572 128 126 127
80.4092213322471 578.115472141463 2874.55832122741 125 124 122
84.7500991833738 578.200538626132 2881.709822359 128 127 125
89.1174452520624 578.2833939453 2888.87179981816 134 133 131
98.6928492704111 577.133210846023 2887.36323331652 133 132 130
119.588853406928 573.280999911868 2866.72294140799 143 142 140
142.915343283678 568.825490818823 2841.6772681053 143 143 143
159.954110935704 565.852179146457 2827.02097529012 145 145 145
169.779865212911 564.598620852736 2824.53549202359 142 142 142
178.059716354946 563.713451320741 2824.65797288099 155 155 155
186.325452364877 562.829220775899 2824.77473150395 158 158 158
194.577228000853 561.945767516754 2824.88583177862 148 148 148
200.324815848615 561.670932766804 2829.37294613575 197 197 197
205.588092002496 561.516311332321 2834.74186307244 180 180 180
208.895801525563 561.844826058969 2843.63081267029 159 159 159
213.711200386646 561.807441646491 2849.89630677735 164 164 164
215.620481522804 562.492720763079 2861.45302009129 200 200 198
214.669020398605 563.89721783598 2878.3193509333 195 197 192
-346.565430288836 614.866337600616 2857.83924166859 191 195 196
-338.646749154437 614.17940961506 2859.97185824064 227 231 232
-326.883626556625 612.714425493925 2857.19359611235 190 194 195
-316.433112454711 611.511412681292 2856.03949870284 166 170 171
-307.280030647911 610.5692530454 2856.51597645016 139 139 139
-301.945090221085 610.403394607337 2861.91399491756 142 142 142
-295.963326162158 610.107615470986 2866.49608431919 133 133 133
-289.970666977185 609.811098100396 2871.08233344936 126 126 126
-283.341034715534 609.385285618334 2874.84891757831 116 116 116
-276.081793278152 608.830832056914 2877.79233570413 126 126 126
-268.200171798547 608.148130838527 2879.90965781976 110 110 110
-259.085149946241 607.209853374983 2880.37069593487 125 125 125
-249.367999731196 606.144927343108 2879.99768338388 115 115 115
-232.91715792792 603.677368966308 2870.49406524849 160 160 160
-207.980741400479 599.431083246234 2849.33507843497 212 212 212
-185.624634959421 595.705027398989 2831.44288891556 132 132 130
-168.244115209334 593.005154572148 2820.15957817278 136 136 134
-155.779144335863 591.326892824488 2815.50923252058 145 145 143
-145.162530374805 590.032160295305 2813.34453206294 143 143 141
-134.575080761352 588.739713928639 2811.16774861217 128 128 126
-122.227629377233 587.070523925441 2806.46975138851 131 131 129
-111.705912341362 585.783106099385 2804.26631516699 138 138 136
-101.213449128691 584.497976110859 2802.05101693815 124 124 122
-88.394785758271 582.712121253789 2796.46588625962 145 145 143
-75.0390188634928 580.804470743941 2790.02034003401 150 150 148
-63.4889342890512 579.277003726647 2786.07748577663 135 135 133
-53.7217950924773 578.128013874698 2784.64628522162 128 128 126
-42.8211636654543 576.730885103622 2781.51829219295 139 139 137
-32.5309725839851 575.46115310785 2779.22097869613 163 163 161
-25.1385579698622 574.816547881386 2781.14019288102 176 176 174
-19.4638031634258 574.545337031059 2785.59753296009 155 155 153
-13.7780630456774 574.273280309188 2790.05958455205 156 156 154
-5.81617807250967 573.504260704168 2791.13125091502 156 156 154
2.70038349343449 572.612053165097 2791.34962749516 162 162 160
10.6417287401948 571.844476141823 2792.41322376034 168 168 166
18.5741757157272 571.077489973665 2793.47295547336 169 169 167
26.497710732809 570.311084917095 2794.52933161932 173 171 174
33.3049939587635 569.791422963908 2797.28949135078 174 172 175
37.3578420765623 569.885865295342 2804.32404298744 176 174 177
41.4369327773987 569.978223062137 2811.36949308735 181 179 182
45.5424387089713 570.068403749529 2818.4253978025 183 181 184
49.1305261273969 570.278785181133 2826.34995770206 185 183 186
53.2910856601334 570.364598660921 2833.42844355976 184 182 185
55.8624736877908 570.813955398026 2843.09715398546 177 175 178
59.5472851086789 571.016524127949 2851.0609359677 164 162 165
63.7970538758599 571.095095812962 2858.1753396778 154 152 155
70.1969890502987 570.686196614385 2861.84879288253 175 173 176
75.5462864305612 570.518901821296 2867.25263526602 175 173 174
80.3859099025461 570.471169707812 2873.52801617946 133 132 130
84.7235124943655 570.542334162756 2880.67803932876 145 144 142
87.5246066181263 570.973037981666 2890.44015473882 145 144 142
95.5511767691584 570.196711663493 2891.53806705574 134 133 131
114.401785565812 566.897423680487 2874.38116506107 125 124 122
138.784142322921 562.287114639145 2847.60630461896 146 146 146
156.355606704562 559.246728235514 2832.08713998047 146 146 146
167.21435703346 557.768833813777 2827.86399362958 147 147 147
176.010816491754 556.771293207338 2827.11768913937 143 143 143
183.781681950257 556.013462497652 2828.11192824301 149 149 149
191.042828607061 555.375043170164 2829.97794607291 163 163 163
198.798233708933 554.617929258683 2830.96591995435 163 163 163
204.56173281155 554.335826391506 2835.4595317564 150 150 150
209.843369035564 554.170963235974 2840.83596018509 183 183 183
213.178695616968 554.477563800945 2849.73625783792 182 182 182
215.086162492431 555.135220658279 2861.29244593972 182 182 180
213.160744372968 556.731341313223 2879.92059231469 187 189 184
-346.49480449664 606.841380599401 2856.84985639529 193 197 198
-336.001787058351 605.647971741389 2855.71289549072 236 240 241
-327.458519574146 604.837846292271 2857.02052831838 195 199 200
-317.007072555745 603.648029861225 2855.86670861519 199 200 202
-310.40020374163 603.220230515891 2859.62383381855 148 148 148
-304.422063423356 602.918641319239 2864.20450003188 137 137 137
-299.696421097536 602.868911027371 2870.433745931 123 123 123
-292.433596381976 602.313426368253 2873.37862271625 121 121 121
-286.423467209277 602.009840739547 2877.97225612292 122 122 122
-277.905987353801 601.202750115586 2879.26916749239 112 112 112
-270.019443716044 600.52198477787 2881.38872510814 127 127 127
-260.898862554313 599.591037754019 2881.85195858559 120 120 120
-251.792655155324 598.661289312551 2882.30936314322 126 126 126
-236.559509032473 596.483390604301 2874.46812938413 202 202 202
-209.158668290293 591.815660809828 2849.99467513722 213 213 213
-189.231626098113 588.655171779759 2835.43043486675 132 132 130
-172.441861333084 586.124503656554 2824.98545722635 140 140 138
-161.168225869561 584.717458924548 2822.00856605438 140 140 138
-151.131941302742 583.561043133268 2820.68639684291 142 142 140
-138.723647358234 581.911386035949 2816.01314351411 126 126 124
-126.359395720626 580.265134077874 2811.32177473015 131 131 129
-115.227573549501 578.869085842811 2808.28738100857 135 135 133
-105.904345914521 577.845238029545 2807.75430340258 124 124 122
-92.4771771666129 575.961818536079 2801.33748361784 148 148 146
-77.3446417010315 573.713994036696 2792.37723519019 151 151 149
-66.3694090102762 572.329933659945 2789.27934863075 134 134 132
-55.4283922640364 570.948494484192 2786.16758840937 129 129 127
-45.100271980236 569.691837200452 2783.88553307556 140 140 138
-34.8013016471478 568.437369860465 2781.5916585337 172 172 170
-27.9751169375557 567.91630004231 2784.35948201344 169 169 167
-21.7193432440823 567.516825402195 2787.97423659193 150 150 148
-15.457548461776 567.116808532423 2791.59169040322 154 154 152
-8.05657690316353 566.473652820904 2793.51410102094 160 160 158
0.468135208840925 565.588600310755 2793.73572346637 163 163 161
8.97895464185949 564.704499051266 2793.95171365411 168 168 166
17.4756308586572 563.821423254163 2794.16222680745 171 171 169
24.289444341316 563.30088526436 2796.92503723378 176 174 177
31.1043532802604 562.780170819455 2799.6882925401 173 171 174
35.1638117914517 562.859982261561 2806.72563157645 171 169 172
39.798357494317 562.817738376848 2812.91793635226 179 177 180
44.4542180465097 562.77374598047 2819.11888461305 185 183 186
49.1312509856097 562.728040833539 2825.32867563231 188 186 189
53.2884780698875 562.79992692654 2832.40566054444 184 182 185
55.8556688031868 563.227224642957 2842.07309594325 169 167 170
59.5370158600745 563.413216400942 2850.03534365139 160 158 161
63.7832202407822 563.47789813529 2857.1486666752 174 172 175
69.1182569683013 563.303215092347 2862.54679102217 193 191 194
74.9981842649956 563.008749592182 2867.08763748198 160 158 159
79.8371428125877 562.949652923785 2873.36283531247 124 123 121
83.6501965347214 563.124785962852 2881.37874965059 132 131 129
86.4525056742462 563.533012781831 2891.14127015492 138 137 135
94.4821323344815 562.761525270897 2892.24038335395 130 129 127
113.339903771089 559.52437493714 2875.08591047511 131 130 128
136.704572605293 555.240626321306 2850.05439366469 142 142 142
154.287993384956 552.256528253057 2834.53964343697 165 165 165
165.156030261306 550.799507136716 2830.3200989295 144 144 144
173.96100093781 549.811872572598 2829.57716548624 141 141 141
181.236609230846 549.174972927321 2831.44876998506 152 152 152
188.508227535773 548.538144882941 2833.31901564974 197 197 197
195.775809709378 547.90142739732 2835.18762627538 153 153 153
202.04765667615 547.49658463885 2838.80892949744 151 151 151
208.325684232352 547.091013099452 2842.4327407204 184 184 184
213.137227061698 547.031303524277 2848.69709999268 172 172 172
216.01703166651 547.430850038424 2858.49106365718 190 190 188
215.537803452624 548.632822664107 2874.47132520154 185 187 182
-349.01092191398 599.32009707797 2859.12478918297 210 214 215
-339.154054789057 598.26388742721 2858.80828095289 172 176 177
-331.242325581111 597.582357508052 2860.93778459667 138 142 143
-319.498817368546 596.156496678477 2858.15128419862 133 134 136
-315.432405182556 596.220747978199 2865.1918138969 128 126 129
-307.533977851606 595.540690374542 2867.31592054501 125 123 126
-302.16756370817 595.355361919722 2872.7268300751 128 128 130
-293.63881744325 594.552185241557 2874.02853069397 126 126 128
-287.62659305494 594.242491304593 2878.62280151139 133 133 135
-280.355019854982 593.686164079197 2881.57122688253 142 142 144
-274.326392621991 593.375464042135 2886.17240394827 139 139 141
-267.667722915893 592.941468445624 2889.95054993234 116 116 118
-258.535844889252 592.017516837903 2890.41830440714 103 104 106
-236.517848460441 588.528275459301 2873.4664869158 198 199 201
-206.66581113417 583.46199775637 2845.67303591471 204 206 205
-189.793607384784 580.968285261705 2835.26115712246 130 130 128
-174.214437191135 578.723988972844 2826.48172119463 141 141 139
-162.934381815677 577.335180825433 2823.50703394471 137 137 135
-152.290507561867 576.070298617373 2821.35314472951 136 136 134
-140.477093647169 574.56549092679 2817.5164816816 124 124 122
-129.896377232362 573.305528345754 2815.33672578808 139 139 137
-119.344953230689 572.047791469582 2813.14534995996 130 130 128
-108.82253251498 570.792268219214 2810.94195690123 126 126 124
-94.2047073922316 568.696983402705 2802.85095783011 148 148 146
-81.4112445135302 566.966833961684 2797.25520141883 143 143 141
-70.4196002844892 565.600213137728 2794.16382758812 133 133 131
-57.1351706349474 563.757308635654 2787.6886494328 130 130 128
-45.6426802858563 562.277114726303 2783.72211736362 163 163 161
-36.4958931338477 561.277223156986 2783.11767589865 186 186 184
-30.8129296544135 560.993615944693 2787.57843357241 152 152 150
-23.4040548827659 560.352249594608 2789.50428780888 150 150 148
-16.5682083057626 559.829936075986 2792.27603273731 149 149 147
-7.46479851371151 558.83315244503 2791.65400452875 161 161 159
0.49150821726518 558.074557402843 2792.72333328556 161 161 159
8.43882720141909 557.316554890785 2793.78901847603 176 176 174
15.2591137516305 556.795115507305 2796.55445663396 180 180 178
22.0803918856396 556.273597562499 2799.32029687262 171 169 172
29.4569451737658 555.634224109996 2801.23304926338 168 166 169
33.5203884541087 555.699577384038 2808.27236852009 167 165 168
38.7082073379534 555.528398696891 2813.61085884125 176 174 177
43.3658013944285 555.472881610644 2819.81259633968 181 179 182
48.044763287056 555.415581926635 2826.02299903546 181 179 182
51.6620397074012 555.589847382219 2833.95965110471 182 180 183
54.2329795039473 555.994467330872 2843.62851913747 186 184 187
58.454453414764 556.04706102985 2850.73192059293 211 209 212
63.2363049622706 555.981400374973 2856.98404595619 188 186 189
68.0394417139467 555.91396366911 2863.24480301006 139 137 140
73.9216247477712 555.613401616948 2867.78660901208 132 130 131
78.2361493441028 555.658239953822 2874.92748758902 141 140 138
81.5293446222525 555.931505863944 2883.81097924272 129 128 126
83.2950353241528 556.547099572199 2895.31033922827 138 137 135
91.3377487098745 555.779715969371 2896.4147200434 120 119 117
111.761650697676 552.259697963391 2876.65982475178 141 140 138
136.165380268412 547.833390057288 2849.89222333231 148 148 148
153.241801774636 545.020493117505 2835.24996039646 123 123 123
165.131515554296 543.356416734184 2829.28778155073 135 135 135
172.922666352463 542.607350008886 2830.29016761633 140 140 140
180.200997486426 541.972620268164 2832.16311535344 202 202 202
186.974465508358 541.451453103018 2834.90959495704 154 154 154
194.247508964393 540.816669500257 2836.78014493246 173 173 173
200.028335903312 540.521477664949 2841.28087186369 182 182 182
206.807408420828 539.999268705095 2844.02962858443 161 161 161
212.605478129104 539.70232221282 2848.53735029085 171 171 171
217.437754055489 539.629408731315 2854.80994710295 183 183 181
216.945747115968 540.790795037933 2870.78508503835 182 184 179
-346.351150033609 590.806165884959 2854.87169011411 178 182 183
-339.084487153817 590.248553964149 2857.81813706898 133 137 138
-331.175329855355 589.569523778543 2859.94683764404 125 129 130
-321.351971040674 588.526728626894 2859.61666045788 122 123 125
-315.370284848986 588.212908690758 2864.1985978494 130 128 131
-306.840104840495 587.414340731895 2865.50084404808 130 128 131
-300.215258971945 586.979109599907 2869.26530436456 131 129 132
-291.696098351122 586.181689092909 2870.56282296718 130 128 131
-285.067519875309 585.746455699986 2874.32905183363 142 142 144
-280.93121815263 585.791904901872 2881.39776459927 147 147 149
-278.013283646229 586.075684002547 2890.1292361333 131 131 133
-276.298569260357 586.596563037954 2900.52960871046 97 98 100
-268.367833093929 585.917168161396 2902.66704918081 98 99 101
-238.318848019567 580.936487599488 2874.95269212706 204 205 207
-207.842448075004 575.850717223021 2846.33312351368 206 208 207
-192.183810444183 573.638172367462 2837.58562272194 129 129 127
-178.415253883904 571.787666202524 2831.30652174746 138 138 136
-166.51447094012 570.297569962749 2827.50537951929 140 140 138
-155.254898581958 568.929029376494 2824.52250244449 133 133 131
-142.830555418265 567.326465010719 2819.85513315442 126 126 124
-132.241116940992 566.081741728406 2817.67879325257 139 139 137
-120.492120316737 564.603402241769 2813.81610470412 128 128 126
-108.190256662549 563.010272705504 2809.09907281341 128 128 126
-93.574869706299 560.950239744622 2801.00681934646 146 146 144
-83.1321006690897 559.716778150524 2798.77100866509 139 139 137
-73.3029161312559 558.602767697096 2797.3649219222 132 132 130
-61.1700960452242 557.022552957074 2792.57934759563 129 129 127
-47.9227902928412 555.212143580631 2786.08914915925 133 133 131
-38.7675210276586 554.222046221338 2785.48781057793 179 179 177
-32.5033029142208 553.815560864794 2789.10629460821 149 149 147
-26.2327766859471 553.408491477952 2792.72707994982 155 155 153
-18.2481747422576 552.652855180035 2793.80784281168 153 153 151
-9.70587171284398 551.78203501137 2794.03673704444 162 162 160
-0.612934278082511 550.796487541504 2793.41012625888 161 161 159
6.77548046486676 550.158774588638 2795.32766868267 178 178 176
13.6008056937593 549.63651756737 2798.09515316343 179 179 177
