ply
format ascii 1.0
comment KinectMotionCapture
element vertex 802
property float x
property float y
property float z
property uchar red
property uchar green
property uchar blue
end_header
-57.2506876621477 205.460744971499 2768.77996145263 17 20 11
-49.2740302236998 204.937215645783 2769.85600555947 16 19 10
-34.9150906975915 204.546013367873 2761.64726906009 14 17 8
-18.884785707185 204.196484025026 2750.87825909068 13 16 7
-13.8773559182708 203.618362503674 2756.1467956588 14 17 8
-16.3084972461067 202.875546874998 2772.43003326933 17 20 9
-14.0906487589807 202.228363068222 2781.96416674032 20 23 12
6.35865820685066 201.993051123319 2764.35253408152 18 21 10
43.1000205200778 202.149465635697 2722.0467190344 12 18 8
50.8426225377632 201.644971177081 2723.02759425102 15 21 11
31.6537336559723 200.489382861262 2764.89568366355 17 23 13
28.3318825301935 199.701048396951 2782.97649770991 15 21 11
30.6604668046904 199.045218225514 2792.55553285514 14 20 10
37.4571613849766 198.499585608792 2795.3116021694 21 24 15
45.3568774983779 197.98268812693 2796.35618578376 30 33 22
59.8273585844868 197.641609022607 2787.11342360979 20 23 12
66.0418645849399 197.08427745949 2790.71266570367 17 20 9
57.0512270285899 196.106638703008 2818.36758157379 18 22 8
65.5117573533097 195.603522163364 2818.56032229692 20 22 9
67.4997647643905 194.916790825995 2829.08050264461 22 24 13
59.891818903741 193.9455650773 2855.1373384814 15 18 11
80.1466432285187 193.785165428744 2836.36732799193 14 17 10
106.113723104963 193.810876787876 2808.04135467573 17 20 13
97.043581923955 192.78142088969 2836.7432809937 21 24 17
101.266427957087 192.150050260423 2843.85216504839 18 21 14
106.038787809767 191.533251274053 2850.10462476984 17 20 13
117.079337425641 191.116571900515 2845.94704394376 18 21 14
107.358882550318 190.022438953789 2876.54402659382 19 20 14
140.589535438851 190.344526686427 2834.97311065814 19 20 14
-207.815409255202 205.40256842212 2790.89221194923 13 19 15
-187.780446601223 205.08147722164 2776.34988882247 12 17 11
-177.132339421817 204.593765357291 2774.19156552303 11 16 9
-172.060315277886 204.001567202861 2779.48636258572 13 18 11
-152.240713352633 203.6977125436 2764.85696800125 10 15 8
-160.6455781579 202.83781511195 2788.43241964171 8 13 6
-154.312869970127 202.267055894134 2792.0798799698 13 16 9
-138.273216112971 201.898570341814 2782.39360711673 10 13 6
-151.893513708304 200.90515924237 2813.56868109924 13 16 9
-129.265353325582 200.682567015614 2794.68128085424 13 16 9
-92.9948300246035 200.775801181858 2756.5007951109 10 13 6
-101.68861362769 199.877661545016 2781.03862080886 8 9 3
-98.9694993383272 199.228927120794 2789.69665964141 12 15 6
-59.5573001411374 199.438121375221 2746.31397399043 16 19 10
-55.7439058126987 198.824248869428 2753.25719854117 18 21 12
-54.2489008196705 198.15112545581 2763.57740532551 17 20 11
-51.5401939578581 197.503275368669 2772.23122356122 16 19 10
-51.1200361058013 196.793747048599 2784.27463901891 14 17 8
-27.4961279782509 196.675493954207 2762.55293747471 13 16 7
-18.9971472053216 196.176369693719 2762.761216252 15 18 9
-18.54307217553 195.46421189729 2774.81812723925 15 18 9
-20.31717444742 194.685525482541 2790.28911629073 15 18 9
-2.11268226702876 194.450328826227 2776.08406292745 15 18 9
33.5417795856248 194.716231383141 2735.49495596793 19 24 17
37.3797054036629 194.100661869831 2742.44812600816 20 25 18
24.9727335441157 193.010035746592 2774.114946637 17 22 15
31.1705129297604 192.450489725769 2777.70769025438 15 21 11
42.3791467003596 192.040927256782 2773.61785434308 14 20 10
43.5852109009003 191.330034117378 2784.90042269817 21 24 15
48.1489368187666 190.717787170028 2791.06837351171 28 31 20
51.6370792767151 190.06920653938 2798.95897710186 20 23 12
74.2656375683468 190.031486877765 2776.83365502697 17 20 9
69.5766495923571 189.11916362149 2797.59880371593 17 21 7
63.912974449166 188.162458495625 2820.12726115338 20 22 9
66.9810714438033 187.486470842449 2828.92680718725 20 22 11
76.5164453678049 187.027637049438 2827.3965353177 15 18 11
97.7619351013501 186.978565349595 2806.86917812372 14 17 10
100.292732884331 186.284567134823 2816.5303773918 17 20 13
92.2987097243573 185.208500585154 2843.51049606861 21 24 17
97.1460171569298 183.77675594738 2863.8250133714 16 19 12
103.541477231367 183.202295257384 2867.49790955075 18 21 14
112.534567317269 182.726157591885 2866.82701009234 14 17 10
-247.034543599519 196.938991661765 2841.9675483932 70 76 72
-201.35777638435 197.243763032132 2793.5687033494 15 20 14
-180.132598629731 197.012219694035 2777.34999486423 11 16 9
-174.434532970518 196.425060964605 2781.81916814153 13 18 11
-179.777580252342 195.570703758715 2801.2399881064 13 18 11
-182.573554161036 194.768162173293 2817.37621751814 8 13 6
-182.243165331463 194.035048997813 2829.38320767372 13 16 9
-174.578692863977 193.482202212331 2831.41188065542 11 14 7
-154.23462915255 193.257293270823 2815.91517318209 11 14 7
-124.376535731328 193.294038828582 2787.00668658247 12 15 8
-107.28602136784 193.009942618111 2775.58764378147 12 15 8
-106.980255293374 192.278802673406 2787.5846494011 10 11 5
-100.67881347162 191.707238359487 2791.21919907457 14 17 8
-68.9398712906659 191.849502322698 2758.75596523507 17 20 11
-48.0110077238047 191.706012700249 2741.33754843778 18 21 12
-45.9668177620425 191.02762095965 2750.80160534762 17 20 11
-59.0622270023988 189.898250359384 2782.18997622234 17 20 11
-55.7070778906035 189.24281169638 2790.02678372921 14 17 8
-39.0065979764553 188.990237361349 2778.44957981087 12 15 6
-22.9667290693081 188.726625636296 2767.68379097159 15 18 9
-38.5673798397745 187.477891571697 2803.45326718103 14 17 8
-22.5476657824455 187.215981285799 2792.67930488916 13 16 7
-8.88239973611582 186.886747456608 2785.26804334308 16 19 10
11.5193014760939 186.785930091045 2767.63611601908 22 27 20
16.5792674362504 186.186154245246 2772.92608824526 21 26 19
25.5844110310255 185.718403676928 2772.26026282199 17 22 15
32.8945972628061 185.194491021305 2774.14501127308 14 20 10
45.2070032112817 184.845922728594 2768.34400630443 17 20 11
53.0405057049126 184.344188646807 2769.36192278454 19 22 13
53.1485090034383 183.565325770232 2782.35802552502 22 25 14
65.9377527247977 183.242750893113 2775.67108363191 18 21 10
72.665089358513 182.701798927099 2778.39903492607 18 21 10
61.7728280498751 180.690075262384 2822.55405129646 19 21 8
69.6944970796181 180.181630317627 2823.60745942347 18 20 9
86.1845594449398 180.010993751763 2810.86562971837 15 18 11
102.58523398037 179.847631430412 2798.08729514979 14 17 10
113.054872614755 179.455361015104 2794.77717963507 17 20 13
95.478928932627 177.917261156428 2837.30123848504 21 24 17
94.9682019192177 177.060504072705 2852.20528562823 18 21 14
94.5293377124494 176.198060905519 2867.13847261257 15 18 11
109.790686540808 175.998336168946 2856.05723947985 17 20 13
73.5236557817014 172.691873914135 2946.04988677659 18 21 14
-227.99838951046 188.93665726501 2828.15810184165 9 16 9
-198.613775376408 188.981239366287 2801.21546371514 13 18 11
-176.192542248684 188.849765035613 2783.32265480917 14 19 12
-181.534526117617 187.939926074286 2802.74432587899 15 20 13
-188.610314823579 186.968718434006 2824.70113844676 11 16 9
-189.47780836897 186.167379337563 2838.38150514765 11 14 7
-173.898906155622 185.8500840887 2829.58735457395 12 15 8
-146.909864597815 185.886572466092 2804.91150905833 10 13 6
-133.321801687646 185.528659383892 2798.54801403275 11 14 7
-116.792129217843 185.268787081752 2787.98051484818 13 16 9
-87.2157174387309 185.431830278793 2758.95702004211 12 13 7
-88.7234685289129 184.615076580914 2773.45707597304 14 17 8
-80.6939109113036 184.101984216263 2774.55420265244 17 20 11
-48.5199546563118 184.390833863895 2741.18692648552 18 21 12
-47.0637876525724 183.670323594666 2751.49202444867 17 20 11
-40.3044764823777 183.125605463937 2754.23295055302 16 19 10
-48.0832664806137 182.077105501889 2778.06358223741 14 17 8
-42.4168543678123 181.486499429376 2782.51996534755 11 14 5
0.736203844501793 182.231008060933 2732.01688991823 14 17 8
9.13182881974572 181.755591857252 2732.18314096339 13 16 7
-1.91813233750304 180.568716361811 2761.1637107423 14 17 8
-6.55179228792968 179.602011022759 2780.87260818893 18 21 12
-3.15287748395732 178.926233080991 2788.72729028123 21 27 17
9.86504792278908 178.614604254484 2782.13259979061 20 26 16
16.0913704693069 178.046152135063 2785.73671061122 15 21 11
25.1186236108649 177.587110686775 2785.07977117431 13 19 9
38.5783741302432 177.307023438114 2777.5851825537 13 19 9
40.9008732671527 176.584223462736 2787.16200425606 17 20 11
55.3954032258586 176.354903270698 2777.92813219843 20 23 12
55.5501917075176 175.538859074211 2790.94345975296 18 21 10
66.1471740850084 175.154634027992 2787.68484383752 19 22 11
59.8512100222119 174.054367648297 2811.03744548822 20 23 12
48.8057830071336 172.733842186206 2842.17848042635 20 22 11
50.3201239558255 171.942559481651 2853.58647718755 19 21 10
90.4978256479587 172.860551945571 2802.95619412886 14 17 10
107.946562627532 172.795676179144 2788.44384984373 13 16 9
108.827602351452 171.988644425329 2800.67435493478 16 19 12
98.1336595211004 170.640204281959 2831.9579149192 20 23 16
110.23344110046 170.336516811679 2826.07047966283 18 21 14
89.8168132408372 168.498626588094 2873.92000122204 19 22 15
82.1712588923635 167.239937129165 2901.04259668805 12 15 8
80.3729051377615 166.247272862909 2918.66326189282 16 19 12
72.9847441639058 164.968115889217 2945.89022925404 16 19 12
-211.120971308512 181.775603310263 2804.83724211976 16 21 15
-202.240032625975 181.268625807026 2805.2002324788 17 22 15
-184.736588655588 181.043353587115 2793.9479360855 14 19 12
-166.703046845335 180.845105854504 2781.83100235038 13 18 11
-184.247713918584 179.468101163653 2817.89314050713 13 18 11
-194.278568463633 178.322615472269 2844.04934396578 13 16 9
-180.499967602343 177.978921189759 2837.763145861 11 14 7
-163.149291768799 177.765922301249 2826.44864447444 10 13 6
-150.697842669569 177.389633768668 2821.78321257601 10 13 6
-126.303481965218 177.446088637934 2800.3721375926 11 14 7
-106.231390977255 177.362571199551 2784.76423857794 11 12 6
-96.9664155442891 176.894349300277 2784.20362080092 9 12 3
-48.439047707693 177.09822367821 2740.19615299054 14 17 8
-37.0118589668824 176.734814843714 2736.19471583558 14 17 8
-37.8933516456075 175.898442746239 2749.86967992699 16 19 10
-41.0354342743033 174.965201221209 2766.94557117907 14 17 8
-18.6039736806405 175.04052937636 2746.89746228191 14 17 8
4.84639518092211 175.173284296586 2725.10359334389 14 17 8
24.7069358156617 175.17683798601 2708.33057096854 18 21 12
19.2978289734163 174.147393720338 2728.80477914017 19 22 13
-1.94186177291433 172.440431240428 2773.08337430409 20 23 14
-3.66697431514651 171.532722190106 2788.57517690704 18 24 14
0.890502676299088 170.88615075363 2794.74085774473 17 23 13
18.9488694021531 170.825847127929 2780.47531357685 15 21 11
31.8756870951593 170.551324646193 2773.8434529613 15 21 11
40.2954507401863 170.081976090666 2774.01943159202 14 20 10
43.1601682377187 169.362716313804 2782.73721592331 16 19 10
40.5458154091658 168.38747694552 2800.02709957145 18 21 12
44.6070724092158 167.711478821755 2807.07089563367 16 19 8
50.3342662758952 167.110552309382 2811.55222429876 17 20 9
47.3684961403353 166.094077567953 2829.77894226088 19 22 11
37.4549801542812 164.730682574996 2859.22098862208 20 22 11
47.1025874474684 164.302408970323 2857.73592761206 20 22 11
76.5752655664331 164.857655882693 2824.35171195669 14 17 10
95.6926415948975 164.922046778312 2807.27732635864 13 16 9
70.055692969653 162.733308583779 2862.72588126139 16 19 12
87.5686404825731 162.717883758895 2848.23916054245 20 23 16
91.2960805443257 161.999736084624 2856.22718133924 17 20 13
96.6266189016582 161.361785986164 2861.62699576592 22 25 18
77.4709695396545 159.418546614229 2907.83000360537 13 16 9
86.584450808562 158.964255092939 2907.20794132425 19 22 15
80.1904928423365 157.667021936673 2932.67997517777 15 18 11
-234.988232865035 172.468467782423 2848.10955968518 18 23 16
-179.709176585131 173.667254635744 2786.32936352675 14 19 12
-181.361208754448 172.784275427847 2800.77150304044 10 15 8
-172.536968594449 172.289441383432 2801.11144452458 12 17 10
-174.698861620889 171.374980041117 2816.42644897902 15 18 11
-178.605484297381 170.383612446074 2834.27203209592 10 13 6
-172.748226721265 169.765342593683 2838.8061540949 10 13 6
-154.838974702914 169.625848490433 2826.63870819211 9 12 5
-141.815129137002 169.300048200286 2821.1253302913 9 12 5
-129.437501626973 168.953847623519 2816.42978049498 10 11 5
-102.24108968251 169.225978950092 2790.75704630309 8 11 2
-59.8225042121319 170.156433295092 2743.19186029385 11 14 5
-60.1469836084561 169.31142088925 2756.01361247176 13 16 7
-33.4091266414187 169.620629868491 2730.15493157401 13 16 7
-44.8310959532969 168.292417668263 2758.98594917573 16 19 10
-26.9985488835875 168.23181968243 2745.7077826007 15 18 9
-10.4192847328601 168.127230723012 2734.08037758821 15 18 9
-0.847238990757004 167.717362203752 2732.56458273502 15 18 9
-5.08512936594485 166.680332985037 2751.35544937612 16 19 10
-3.50740745503386 165.899696285544 2761.71021980347 21 24 15
-0.175058655311755 165.195217001125 2769.53816733977 20 23 14
-3.04673783570264 164.193201772314 2786.72406432164 17 23 13
3.76225580403511 163.643665695129 2789.48514302526 16 22 12
15.0672405766803 163.311911983715 2785.4337291841 15 21 11
31.9262738428445 163.257672075277 2772.84041093238 16 22 12
38.116780776926 162.685668988719 2776.43004718017 16 22 12
26.5763486449468 161.22239592545 2807.37174003515 16 19 10
30.1010720555237 160.502779769364 2815.27769342423 17 20 11
35.3050714415097 159.865425436221 2820.62626860058 15 18 7
41.0720254598551 159.255281527125 2825.12376573524 15 18 7
38.6872871009585 158.214552393476 2842.50711505282 17 20 9
43.9730444163498 157.570825141007 2847.88884174157 20 22 11
60.0586990822904 157.50700272274 2836.06126874034 20 21 13
84.6463391413448 157.918203748964 2810.41027252142 14 17 10
77.5552228877545 156.604524059856 2835.59989934853 13 16 9
89.202578253172 156.31855767643 2830.60821096674 16 19 12
73.2932245870384 154.483063031138 2870.57263284234 20 23 16
93.9351910162796 154.705072346317 2850.87766675392 17 20 13
110.778891097874 154.725703050899 2837.19850733541 19 22 15
103.016327799692 153.32158549586 2864.27508623706 14 17 10
91.763475678144 151.691320661551 2897.49210024334 19 22 15
93.0837337106989 150.788094992877 2909.9014280715 17 20 13
-237.386460639406 164.62442303478 2850.43467159766 27 32 25
-199.986006363553 165.295281026537 2812.70730868379 19 24 17
-178.199402029446 165.343501601136 2795.63473194598 4 9 2
-165.716194490246 165.012891389727 2790.98181258607 7 12 5
-172.788981852375 163.850625694586 2812.9412885447 21 24 17
-179.138004120803 162.705211226106 2834.11461877349 13 16 9
-174.490665198602 162.027903222727 2840.31717427277 11 14 7
-165.00408762982 161.562558098671 2839.8460026016 10 13 6
-139.944024896296 161.798447247977 2817.62429745548 9 12 5
-125.783173384832 161.558357710035 2810.41327649647 10 11 5
-118.817646538389 160.995254166272 2813.23783722614 8 11 2
-77.5042341492731 162.028260662886 2767.38201342179 9 12 3
-83.6549950573684 160.866834023945 2788.63599686767 12 15 6
-63.2717006925365 160.953118408545 2772.07400670448 14 17 8
-38.3254929535306 161.273686368653 2748.72649526403 16 19 10
-29.2516694419604 160.841814650283 2748.08820590144 16 19 10
-20.1968481347705 160.411493273027 2747.44221092953 18 21 12
-31.359903664254 158.976874973421 2776.37861019332 19 22 13
-25.7026185866529 158.368919277771 2780.83168656341 20 23 14
-15.4572438734286 157.993267433649 2778.50945035222 18 21 12
-9.22787870807507 157.414569228042 2782.11487077022 17 20 11
-6.96179158960919 156.628521876787 2791.66958826969 15 21 9
2.12042525730527 156.196269106678 2791.03470019749 15 21 9
12.3077571914172 155.825499819643 2788.68892586708 15 21 9
34.2157792292197 156.09050640525 2768.42744268974 15 21 9
32.0386791638201 155.06079028893 2784.81571443827 15 21 9
28.2796331572157 153.932816669281 2803.80115111148 17 20 11
32.3449602484667 153.227895272693 2810.84707158193 21 24 15
48.5245643541434 153.202333660933 2799.05699081138 17 20 11
47.1181399269669 152.185980413224 2814.67865147168 17 20 11
51.2325333780332 151.477321021171 2821.74446689719 20 23 14
63.5016728304558 151.240390341856 2815.92509744761 19 20 12
75.7217451837302 151.007487067042 2810.08557332342 14 17 10
82.5241747192793 150.458740043991 2812.84398828687 14 17 10
86.6561368075647 149.749017490305 2819.91692518781 15 18 11
78.5830828093139 148.292104422434 2846.86818877646 18 21 14
115.112058676848 149.562261477264 2801.23125643793 19 22 15
87.0953864315167 146.853105643303 2861.11452064424 17 20 13
92.9639686976205 146.229595259447 2865.65301042536 19 22 15
94.1482824018742 145.306370456209 2878.00744694441 18 21 14
92.7936003760508 144.211630196316 2894.72920280612 20 23 16
96.6874588726567 143.446568835393 2902.78496084319 22 25 18
-221.806117262915 157.576776535679 2828.74539214137 4 9 2
-194.958518816479 157.906144904894 2805.08886550319 17 22 15
-171.960020498 158.077874625883 2786.3484236164 13 18 11
-180.325924236061 156.800262975209 2809.94307370389 9 14 7
-171.486947509841 156.319549118553 2810.2888748923 13 16 9
-172.380872147905 155.375496499122 2823.95962156029 14 17 10
-169.579046910602 154.601441397363 2832.65209936728 13 16 9
-161.921748068272 154.059960023316 2834.67778165217 12 15 8
-139.270709063176 154.259726391329 2815.79644343656 10 13 6
-125.11245148588 154.052201595516 2808.58386815354 10 11 5
-114.582747994049 153.66919110126 2806.37681043053 8 11 2
-96.9735533830536 153.651517736534 2794.08695003758 9 12 3
-92.4305958704157 152.971172463116 2800.24700803747 11 14 5
-53.7997932140795 154.067037329662 2757.6200278752 14 17 8
-32.9844607238303 154.259079052964 2740.15335713832 15 18 9
-21.6059101888511 153.963842818915 2736.13170998808 15 18 9
-30.5597789633907 152.577578499262 2761.64673703493 17 20 11
-31.2946740331108 151.620791768972 2775.38197017154 18 21 12
-37.1360671155045 150.373643767834 2796.76186420668 19 22 13
-20.5467524525862 150.360588129847 2785.13757755132 17 20 11
-6.89074275087487 150.193970879801 2777.72159281399 16 19 10
-1.23515827597909 149.580282331592 2782.17376684898 15 21 9
-3.47458901275877 148.51095100299 2798.53735884855 15 21 9
12.9207070858828 148.5137697751 2786.83465235151 15 21 9
28.6721146650188 148.490559954357 2775.95024537969 15 21 9
35.4292678133237 147.944309180729 2778.69030933325 16 22 10
35.5315818250073 146.998473721929 2791.68563135493 18 21 10
47.842883974188 146.784743160799 2785.88315743251 22 25 16
54.608784327437 146.238023522904 2788.62676662136 19 22 13
52.6220739414642 145.148729410688 2805.09283461613 19 22 13
52.351024990092 144.155267741963 2819.01615375166 18 21 12
75.4558330049817 144.632026093621 2796.00095407509 15 16 8
83.8428074366606 144.189006478803 2796.16345701902 14 17 10
84.6974635919711 143.261090658288 2808.384195858 14 17 10
77.591023882233 141.804798300694 2833.56895651779 15 18 11
93.4925780290239 141.848468829201 2821.66602775112 18 21 14
96.6023381334429 141.051092594937 2830.48336297585 19 22 15
121.880436621523 141.743385063092 2802.95192438191 17 20 13
79.8567943286288 137.875275778787 2886.3025277119 20 23 16
79.5337111631544 136.808828819839 2901.2843971407 18 21 14
86.553980897385 136.242748006019 2904.13114544538 20 23 16
93.0585974947311 135.640344254101 2907.84819290313 22 25 18
-189.309285171624 150.597334872998 2796.64274592719 9 14 7
-192.167177832796 149.533276904308 2812.75588709684 13 18 11
-182.691014058414 149.089583403502 2812.28059206711 18 23 16
-182.995800250545 148.142607247374 2825.110833515 12 15 8
-170.479573551124 147.857485808479 2820.47093858704 15 18 11
-154.981708089707 147.735725536628 2811.64223747722 14 17 10
-148.592134839912 147.13715579847 2815.31293286292 13 16 9
-143.996782834374 146.440988123521 2821.49432495193 11 14 7
-127.428485022066 146.39445257187 2810.94084786097 10 11 5
-118.675393997197 145.928329115739 2811.25176394504 8 11 2
-113.491531338824 145.26550654726 2816.59237894508 9 12 3
-107.111395683746 144.667734778091 2820.25898984049 11 14 5
-35.8295997890625 146.829207303358 2743.37318665478 14 17 8
-27.3521635255001 146.385485916306 2743.57257950047 14 17 8
-27.0085615727473 145.467066053105 2755.58632413036 14 17 8
-35.270929957572 144.031192307535 2780.30290267708 15 18 9
-29.0268311678876 143.44463186098 2783.91434822901 16 19 10
-19.914296311047 143.030629695271 2783.29159737001 17 20 11
-5.6910977056861 142.931435951557 2775.02568698672 18 21 12
-12.5271042222763 141.54218922293 2798.16156243291 16 22 10
-0.033982691281631 141.340325050126 2792.43261594833 17 23 9
11.8477231399472 141.107094879071 2787.53515746011 18 24 12
27.0445377776476 141.091199919706 2777.5052096538 18 24 12
36.0360831946818 140.687336449491 2776.83339417774 17 23 11
41.6797010214987 140.068932210644 2781.28075874521 18 21 10
48.4391966887796 139.522122242986 2784.02177540668 17 20 11
55.2000493658569 138.975309370165 2786.76334153383 15 18 9
52.1104727479169 137.768971043089 2804.94162746759 15 18 9
46.3890737092743 136.371088875036 2827.45005690971 15 18 11
67.8979556697621 136.816118169911 2807.02534298827 16 17 11
80.6359577482667 136.676124402986 2800.31626980131 14 17 10
88.484789122369 136.203549574942 2801.34017181752 14 17 10
91.5125369851468 135.392885126856 2810.12440158665 15 18 11
94.0445678110076 134.541493819983 2819.78703587525 18 21 14
109.330051631204 134.600403943079 2808.71335722177 19 22 15
93.9620032650799 132.446311640475 2847.82055652509 17 20 13
71.9870248092995 129.775004044056 2898.28211168217 21 24 17
74.3071508658031 128.860385020366 2908.93823462056 19 22 15
84.4672491103471 128.525272499133 2906.58142051983 19 22 15
81.0325365759716 126.05532240133 2941.89150039526 20 23 16
-239.001275305663 141.297339855628 2849.95765749075 17 22 15
-189.003058702868 142.101704718221 2807.61998253285 15 20 13
-155.641025984123 142.998443317209 2774.72914249123 14 17 10
-178.032610790281 140.793379508517 2817.46631122567 11 14 7
-174.654133762865 140.016867123499 2825.31322451985 15 18 11
-155.506917163463 140.139579834056 2811.48716075124 13 16 9
-147.309305373513 139.642375536553 2812.65246817583 12 15 8
-132.517373891712 139.531880707054 2804.61691937115 11 14 7
-133.929405863381 138.473691776839 2819.15756130946 11 12 6
-120.388717784542 138.297121501039 2812.77376724723 9 12 3
-121.720661275774 137.232452814399 2827.34688555966 9 12 3
-115.308148861629 136.628768433539 2831.02665039182 10 13 4
-47.7655815119147 139.779797842513 2747.22506149797 12 15 6
-45.1131509234215 138.978455539515 2755.85725729776 14 17 8
-55.826679466924 137.334354541462 2783.89844653736 14 17 8
-18.2322724430559 138.725630479158 2741.92866334769 13 16 7
-14.986176823973 137.960019443745 2749.72215094316 14 17 8
-15.7349707869809 136.932004812388 2763.45229640425 15 18 9
-7.82735912571542 136.458618960939 2764.49974706381 17 20 11
-15.3224292524865 134.972570091761 2788.44857141906 17 20 11
-2.2559801578983 134.834848537965 2781.87220965676 17 23 11
3.40979794750473 134.208331956892 2786.3288654802 18 24 10
9.08692838092118 133.580975728251 2790.79012414526 19 25 13
13.6552385923892 132.87607127326 2796.9606334255 18 24 12
26.6082940861312 132.747796946719 2790.33828778876 17 23 11
39.507175255705 132.623973720654 2783.69423083972 18 21 10
41.3014152411073 131.725415134726 2794.13756171991 11 14 5
54.6924314374728 131.645626670555 2786.61336762128 11 14 5
41.7446217816255 129.681038696341 2820.22570475725 12 15 6
43.6936304208944 128.770203136027 2830.73179342696 13 16 9
76.0664437743734 130.083140785771 2793.12178098483 15 16 10
81.7471581611819 129.45623827845 2797.58423010164 14 17 10
85.8267874438101 128.707966873476 2804.63627000947 14 17 10
91.0026423001307 128.038441231532 2809.97369351455 15 18 11
98.8568040392404 127.570650023571 2810.99946027277 18 21 14
95.0453915662677 126.206220266338 2831.04429455056 19 22 15
66.551554604289 122.906655655707 2891.81789864524 18 21 14
59.9141780521526 121.269160253669 2917.19369590335 20 23 16
84.2236533311018 122.064060119736 2891.4271643996 19 22 15
89.6565422106597 121.374469034408 2896.86881125349 20 23 16
77.0025670517369 119.220181521768 2932.75943128334 20 23 16
69.1740544491188 117.428613566542 2960.89105268984 20 23 16
-279.972538650991 130.13968604195 2916.52739794705 0 2 0
-212.919166795161 133.093025796804 2839.00259900461 19 24 17
-164.128365195616 135.018589381487 2785.3786987567 8 13 6
-162.076133429146 134.15961743242 2794.8471232586 10 13 6
-174.574570706853 132.404344573803 2824.32433174076 14 17 10
-165.113966711374 131.982685928874 2823.84256964839 11 14 7
-150.84842402535 131.863453589366 2816.6727641144 10 13 6
-131.838344016846 132.05156212472 2802.79067902746 10 13 6
-127.278542006936 131.335227097784 2808.95783003769 12 13 7
-124.483853925441 130.502529229726 2817.64786255695 11 14 7
-125.210583824899 129.436347913366 2831.38723089439 10 13 4
-117.014550270874 128.944245017092 2832.55186063519 9 12 5
-85.3105978706929 130.006266929284 2800.06723093985 10 13 6
-59.6704461520614 130.694971428852 2775.91909399102 14 17 10
-50.5110149524193 130.297861565226 2775.31520309051 15 18 9
-74.452260098526 127.653896604392 2822.82255000749 15 18 9
-19.5358407145649 130.380665563265 2755.48964510318 14 17 8
-16.2420797125005 129.594241899614 2763.30258982917 14 17 8
-14.0625936413903 128.725202774531 2772.8226150055 14 17 8
-10.7010214263139 127.933376667521 2780.66305696111 14 17 8
2.91256240178606 127.867471537227 2773.22887369063 12 18 6
4.59566779129283 126.952328037386 2783.62733266804 12 18 6
4.63693356427197 125.910875575438 2796.59866144044 12 18 6
-4.22437194400715 124.207227719754 2823.23238052325 11 17 5
11.0395767629066 124.267249577558 2813.22903939801 10 16 4
35.1131460766354 124.997185677347 2789.52509993177 9 12 3
56.2681828231078 125.531284175295 2770.03550683531 10 13 4
50.3339128532851 124.023168433653 2792.45858188331 15 18 9
51.6365070521621 123.052925178739 2803.78220035522 17 20 11
57.3519205384918 122.417006566066 2808.25902445819 14 17 10
53.8537512718791 121.057683297119 2827.35184184572 13 14 8
64.4957077596207 120.801073693933 2824.11046833918 12 13 7
90.1565756483287 121.748919271325 2796.73207334562 14 17 10
80.8618803378749 119.908376519113 2825.34922710192 15 18 11
87.6965204530362 119.355284229129 2828.12071683718 18 21 14
79.1612113300466 117.539928284302 2855.96634163769 19 22 15
79.7411537217556 116.456171084144 2869.15609742175 17 20 13
68.8330526959375 114.401027628262 2901.43711102925 18 21 14
77.4291536652048 113.965125590556 2901.68423387997 20 23 16
91.7306224350067 114.018233205849 2892.37005198654 20 23 16
89.4053036173994 112.651657984317 2910.85873782408 19 22 15
-176.91262298021 126.691603029901 2801.8432657067 13 15 10
-176.64369259097 125.687029112453 2813.82742937286 18 20 15
-171.453144520331 124.997315609977 2819.17095507499 13 16 9
-179.571493548596 123.423327307894 2842.86808476793 12 15 8
-171.277644021619 122.928187417484 2844.07208529743 11 14 7
-159.989584834367 122.636497968108 2841.09258010021 9 12 5
-158.904036362308 121.654862918176 2852.32840463903 9 12 3
-133.941676610691 122.307077497957 2830.06398461325 9 12 5
-125.736285786698 121.819125353093 2831.23211435836 9 12 5
-118.72110497151 121.249233509546 2834.07683108228 8 10 5
-99.942619594755 121.510475651665 2820.10042063404 11 13 8
-64.8668645085857 122.94923215546 2782.50504836764 13 16 9
-46.9403573999494 123.190426615422 2769.26263804339 13 16 9
-50.5892533821759 121.878877606171 2787.21499976393 16 19 12
-33.3365194115649 122.085541454945 2774.77911056374 12 15 8
-21.3529612311978 121.916256972963 2769.92240668047 13 16 9
-11.7056519566818 121.579459002992 2768.43678887098 17 20 13
-6.64633654001601 120.900740578746 2773.72709605993 16 19 12
5.24524886248345 120.73908664016 2768.83309521192 15 18 9
4.08670989456983 119.582925672496 2783.47711727602 14 17 8
-16.1414011650878 116.93850751331 2827.09359141603 12 15 6
-2.49925219955682 116.902887308666 2819.6707444162 10 13 4
-6.7704441002201 115.46379112675 2839.52998320653 11 14 5
30.7169452627087 117.332626807376 2795.35537603679 13 16 9
50.7885365006562 117.846907488721 2777.58512724331 12 15 8
58.632026377399 117.389281450471 2778.60675321726 17 20 13
59.3444785688757 116.349687684138 2790.77076116536 16 19 12
50.2972149394665 114.495047006037 2818.40939697445 12 15 8
42.4830260776146 112.719039596279 2844.38882650424 12 15 8
63.8360884559364 112.237761652651 2837.93383548928 15 18 9
89.9844272751984 113.331057607274 2809.67290341038 17 20 11
91.9788233548888 112.366703509272 2820.1975175631 17 20 11
96.6708196573105 111.629951785261 2826.418605087 16 19 10
114.576938704718 112.053138855067 2811.00868681323 15 18 9
81.6064290966072 106.785408089466 2893.71995849057 16 19 10
85.4850390140343 105.936687723007 2901.77017659823 22 25 16
96.6416864790172 105.747456253275 2897.65787897708 22 25 16
86.6405434765725 103.614783704347 2929.22789298002 19 22 13
-218.911488004392 117.314603240282 2845.32692626787 25 27 22
-218.532901600759 116.270437237221 2857.35578897596 9 11 6
-199.160861664628 116.537674567251 2843.61965912917 9 11 6
-195.09741604572 115.746585543815 2850.66547093189 14 17 10
-173.437650371536 116.196284172559 2833.53849502351 12 15 8
-142.847118824975 117.301613932053 2803.83965972053 11 14 7
-143.094165970192 116.216164749292 2816.69432888797 9 12 5
-133.27538099183 114.772788756351 2828.23299733846 9 12 5
-139.907688342289 113.193177150068 2850.37398390687 9 11 6
-122.200319060536 113.411537369293 2838.12208467358 7 9 4
-40.7764018251675 117.384970336555 2746.98799595456 13 15 10
-61.4478013551045 114.736038226808 2789.34595457256 14 16 11
-41.8096478552337 115.166030779919 2773.55872229869 14 17 10
-28.6414514919671 115.108791332934 2767.02294725347 10 13 6
9.80478748115377 117.049590066421 2723.23602604937 15 18 11
-3.61399461238343 114.916618063076 2755.58013793778 16 19 12
-20.2798389209693 112.494981188835 2793.08508861382 15 18 11
-4.35148058481682 112.674141383242 2782.27079384254 14 17 10
-0.381491656479271 111.891149597384 2789.27844709079 13 16 9
14.9258103400063 110.923875393793 2792.24691543044 10 13 6
14.4772103298001 109.763433891459 2806.09961105955 11 14 7
17.9844254538926 108.926235495591 2813.99936670858 13 16 9
30.9255935334676 108.888098461956 2807.37178195236 13 16 9
43.2621514859797 108.807117210497 2801.57852772251 16 19 12
58.8379045769627 109.015573563922 2790.62124352427 16 19 12
67.7877530846047 108.657394918537 2789.93219898597 12 15 8
35.9924336530317 104.703456357588 2853.68924872731 12 15 8
62.3893620167972 105.874686348357 2825.52837807816 13 16 9
75.6945479987756 105.899695557692 2817.96889482148 15 18 9
73.947846334206 104.569397916702 2834.53371016465 17 20 11
107.456709578 106.452280714264 2794.14267460311 17 20 11
109.420114911809 105.465345297973 2804.65516920878 16 19 10
75.005394317222 101.080513247473 2874.90733668286 16 19 10
66.2032982917402 99.0348548756999 2903.72549512634 15 18 9
97.9673389899167 99.5886456455659 2879.90028383826 20 23 14
93.5283323977127 97.9256410894352 2901.85088909805 22 25 16
98.4764895435433 97.1575560009145 2908.17567460763 21 24 15
-228.069935464671 108.945630347989 2856.78651310865 8 11 2
-223.976972304277 108.137961048585 2863.84440202913 11 14 5
-232.690255714941 106.379424831296 2888.38085396443 6 9 2
-191.978617206462 108.285936359259 2845.51143689845 14 17 10
-133.966394261932 111.536745737904 2778.34896350812 13 16 9
-140.953642079519 109.922445659594 2800.34650012077 12 15 8
-155.036935709492 107.746733943807 2832.42187994303 10 13 6
-141.411363124414 107.681675558924 2826.07160978732 8 11 4
-132.011925845563 107.296235962198 2825.56454996692 8 11 4
-141.030231291874 105.467572576067 2851.05709755195 8 10 5
-125.089936807429 105.593850381568 2841.32684462018 7 9 4
-92.157922300814 107.089578797564 2807.17854492274 8 10 5
-92.8460118158221 105.911752785317 2820.93440471493 10 12 7
-46.7908969572302 108.522444079113 2767.27645931515 12 14 9
-54.5184590213217 106.778694347723 2791.1331026315 9 12 5
-40.7170110650676 106.794488332696 2783.77436496088 9 12 5
-21.7916296031684 107.247456695867 2768.77717032274 11 14 7
-22.4663731167512 106.068782521301 2782.53844024536 14 17 10
-27.0707907544669 104.545620952073 2802.26339548413 13 16 9
-9.97505877778138 104.862956269375 2789.76284120084 11 14 7
7.03124781483155 105.187610282685 2777.22628096482 11 14 7
26.2016888583119 105.71586001624 2761.24867323593 10 13 6
21.1468069816187 104.134736984438 2781.87074339215 11 14 7
27.9234641595056 103.583847529786 2784.61873954929 13 16 9
32.4781458601482 102.834264229507 2790.78406939535 15 18 11
23.7755404100728 100.885977090752 2817.48389930844 16 19 12
39.4485169956589 101.129823765041 2806.56596919313 14 17 10
67.1036894934149 102.486530241514 2776.7552733207 13 16 9
75.468166042812 102.091604627349 2776.90830249179 12 15 8
85.4484172457288 101.850009576356 2774.47770353235 14 17 10
52.6853701307763 97.5897688077102 2840.00312237927 14 17 10
64.9592217021546 97.5413423367177 2834.18423202282 16 19 10
77.183924052862 97.4970489707687 2828.3454101667 18 21 12
96.2900650649801 98.126564101576 2811.26219210236 18 21 12
59.0372461193651 93.2833662527185 2885.76326308369 17 20 11
42.7996728247382 90.4312548281992 2926.68130497439 17 20 11
72.5089372607295 92.0962617709451 2892.30566162369 18 21 12
107.232870712473 94.3022153270608 2849.16746895107 15 18 9
98.4878765043387 92.1694073672952 2878.00940808667 16 19 10
98.7012760249701 90.9209650458167 2892.13080966623 20 23 14
63.4142773759871 86.0140409405409 2966.34924504063 22 25 16
-218.744972370973 101.925610008107 2843.35311813024 24 27 16
-199.962769096538 102.251716849236 2830.45678674569 8 11 0
-201.446145208861 101.004773551384 2844.96997265266 15 18 9
-194.335849634375 100.425462996497 2847.85327206121 14 17 8
-162.974936238496 101.778422387528 2817.38541658566 13 16 9
-134.228554630069 102.953612552122 2790.17579292236 13 16 9
-154.360633152404 100.197276218529 2830.59505938352 10 13 6
-153.909785292054 99.0857654438083 2842.65394792594 9 12 5
-136.112571420551 99.394418017992 2830.43748451366 8 11 4
-129.09111911439 98.8223406210674 2833.28475708581 8 10 5
-119.112773875622 98.4978858224157 2831.93307983922 8 10 5
-93.2641402673091 99.5184029873942 2807.86684068353 11 13 8
-93.9522381423756 98.3044130953331 2821.62297120315 11 13 8
-93.9903016937762 97.1352127806687 2834.56314838703 10 12 7
-74.7893382151508 97.6227365200758 2819.67701581161 8 11 4
-60.9004426762103 97.6637563262864 2812.35375107047 11 14 7
-36.7005641302527 98.6233960774349 2789.77802037142 13 16 9
-44.1982200872932 96.7920312608034 2813.72841514303 14 17 10
-37.7756382802792 94.99946252704 2830.36799504745 11 14 7
4.82693941552426 97.6840936381891 2779.62732835064 10 13 6
14.4288924439115 97.3908847852998 2778.12275849769 11 14 7
27.3728934620987 97.4116269248458 2771.49587449019 12 15 8
36.9117012288014 97.1236994752022 2769.96595476231 15 18 11
26.4112175604065 94.9513434949975 2799.1762165373 16 19 12
27.1372937285512 93.8184507440057 2811.34644791807 17 20 13
21.3085994734337 92.047294350589 2833.81426360272 13 16 9
74.8276126885141 95.9923864448925 2763.74845075283 12 15 8
92.4353208274991 96.5130129595789 2749.29603481819 13 16 9
73.5358432777013 93.4623034252006 2792.37473470441 14 17 10
62.4468031402179 91.143243898663 2823.5056796137 14 17 10
69.2910139510607 90.5872264566738 2826.28106662782 16 19 10
75.0648255226951 89.9231496466706 2830.78149190744 18 21 12
79.2498619226612 89.0955578553625 2837.87681163852 17 20 11
51.613738007537 84.9990267544079 2896.84586495531 17 20 11
63.3988124730747 84.9202775577271 2891.90811018684 17 20 11
69.8822379005208 84.2966883831787 2895.61673806949 19 22 13
89.9756807656216 85.1043586413355 2876.77430488889 18 21 12
123.482574089385 87.3592762821505 2835.30058642803 16 19 10
110.097022059087 84.6426473945711 2871.97806669426 19 22 13
49.4691877499314 76.7879190705588 2988.8239779033 21 24 15
-201.365738446613 93.3320942291324 2843.98187745619 32 35 24
-191.822122588539 92.9557946131587 2843.53312524429 12 15 6
-186.542606778605 92.2237794068534 2848.91299399025 13 16 9
-163.733328956059 92.9763562457646 2830.09153540006 13 16 9
-150.6760436606 92.9164004840933 2824.58993920675 12 15 8
-146.651459732931 92.0857252062742 2831.62031623854 11 13 8
-138.425842049029 91.6158966391195 2832.79649832441 10 12 7
-124.270413410408 91.6673911977148 2825.58107155457 8 10 5
-125.549646268923 90.3649114488295 2840.17733457242 8 10 5
-130.290589346264 88.7418313039408 2859.84776898178 10 12 7
-95.0582571292344 90.6921702818135 2822.31165880608 10 12 7
-94.5123972042696 89.5423621304038 2834.4093073452 9 11 6
-34.7913554327588 92.6109832070262 2773.33465872052 13 16 9
-40.0926151890426 90.9333602313617 2793.85744643245 14 17 10
-51.5988866820847 88.6564045196243 2823.7403300378 12 15 8
-66.3705817669025 86.0429288036544 2858.7767235415 10 13 6
-30.8997608976003 88.1750834795673 2819.17818133423 9 12 5
-0.209104572681751 89.8932250824149 2786.2783020159 10 13 6
-5.24313385727559 88.1941106988419 2806.90970958147 10 13 6
13.9616687877637 88.8393396728737 2790.94512795129 12 15 8
25.7940345734802 88.7795436485547 2786.02637744403 14 17 10
28.1272901418059 87.7862360477857 2795.60986195 15 18 11
7.80215820565133 84.5209377853381 2840.2705672686 17 20 13
4.25925529762061 82.9017457521188 2859.34698482892 13 16 9
6.84788092199429 81.8879516120165 2869.03402214694 13 16 9
35.1449633294252 83.5005032296708 2838.40248367737 14 17 10
59.9852160579437 84.7921424954203 2812.84709505995 14 17 10
72.2160068439726 84.8010606384507 2807.01033503951 15 18 9
75.7808958198962 83.9090958691132 2814.93385753744 16 19 10
66.51269076193 81.6522208957934 2843.56489269435 17 20 11
27.5208466782695 76.1925889977583 2920.60294152832 17 20 11
81.3713005552805 79.3414419584781 2861.46621504764 17 20 11
79.3510202084222 77.8004431533327 2879.00092274449 16 19 10
87.3625499393071 77.350574708619 2880.09052806652 18 21 12
109.429337019886 78.4675622675185 2857.72899643531 18 21 12
79.5140559521907 73.7762154772839 2922.25310699402 17 20 11
59.7595184296149 70.1656004461316 2970.38388379247 18 21 12
-201.895943426867 85.6119951051162 2843.82571745614 10 13 2
-213.061812525305 83.4252489670061 2871.68787030633 11 14 5
-208.304276844367 82.6238328726081 2877.93572717283 12 15 6
-164.862849837347 85.2742884317213 2830.77164532772 13 16 9
-148.793160532131 85.5116749607145 2821.09294126994 13 16 9
-147.175907255672 84.450201435857 2831.46584633419 11 13 8
-122.842416433797 85.4588853083858 2810.0229079296 10 12 7
-130.732985930277 83.5211503146815 2833.81502104481 8 10 5
-132.581206247128 82.1229714326927 2849.26043858153 6 8 3
-104.901040359178 83.4781464476419 2822.69681284739 7 9 4
-109.654627477598 81.8008050594334 2842.36253905937 9 11 6
-102.042108442602 81.2828570819062 2844.36965471368 10 12 7
-30.0872378633412 85.7371678603971 2765.58137933192 13 16 9
-25.6150458149951 84.9593154248292 2771.71352397349 14 17 10
-58.4295293950952 80.5123300167395 2832.90404223274 11 14 7
-54.8943454298008 79.6045168964292 2840.81565750813 9 12 5
-31.4147633386783 80.6833500094907 2819.02644578538 10 13 6
-14.8770505937577 81.0896119785532 2807.37834479177 10 13 6
8.34345327901853 82.1897634066214 2785.48407254365 11 14 7
18.5070806906302 81.9804893228511 2783.12747633011 12 15 8
15.7875507919529 80.4476227958296 2800.37900118823 13 16 9
12.0420084802595 78.7921012787431 2819.37390408126 15 18 11
7.28554051040198 77.0126248681025 2840.11830338244 16 19 12
3.7389395550369 75.3411228538192 2859.19362012495 13 16 9
13.4604596677721 75.0651554289028 2857.73758868007 13 16 9
27.5284191947809 75.2607329599609 2849.40658880594 14 17 10
45.3384895461115 75.8738053783255 2835.03540718519 13 16 9
77.6627932949141 78.0904856920255 2797.39890342418 14 17 8
78.5050371797837 76.887477341867 2809.61670174902 15 18 9
60.6365396695792 73.5975718515058 2852.03558583212 16 19 10
74.4889339570081 73.8113191263336 2843.61716739531 15 18 9
75.5288589884142 72.5926189814005 2855.91512435786 15 18 9
79.2686876130098 71.67005676282 2863.90971060266 17 20 11
64.0995092203189 68.5736339402122 2903.10457356021 13 16 7
66.9459238115699 67.5178419043196 2912.89604891383 17 20 11
71.9181005733232 66.7017311094041 2919.23118104433 19 22 13
91.9499427391148 67.6511446767331 2900.36247457405 17 20 11
96.8918594681047 66.8378850622385 2906.68507579357 22 25 16
-305.495840035661 72.3132597984301 2944.39261678052 26 28 14
-199.583126429092 76.9177641204739 2852.38023205934 16 17 9
-181.534268567009 77.3522583835341 2840.26470367346 14 15 9
-167.200629998792 77.453893013889 2833.1210527957 14 15 9
-150.518955375272 77.7879058035817 2822.61059672109 15 16 10
-136.912721295714 77.8429658300527 2816.2513288499 14 15 10
-130.52208608102 77.2147526715949 2819.92267890673 9 11 6
-116.994063287953 77.2762035040359 2813.5316953982 9 11 6
-127.189955609602 75.0335507249143 2840.70820059911 8 10 5
-136.06057929807 72.8948048429631 2866.26263659768 7 9 4
-120.738914918175 73.1279322406265 2857.36016019085 8 10 5
-54.6603463146245 78.4412842979077 2775.10703502903 8 10 5
-57.1464824872716 76.9476763596673 2791.3739536434 11 14 7
-67.0642068238303 73.4100610448492 2831.61962918421 13 16 9
-54.3549606119818 73.4326289498932 2825.97648892046 9 12 5
-37.69313565231 73.8747918733842 2814.37811073886 9 12 5
-21.1157802588848 74.3238509646745 2802.74573638275 13 16 9
-4.05613114871017 74.8396419981221 2790.22932538832 12 15 8
12.9143339706406 75.362848038566 2777.67649099647 13 16 9
5.08564018283164 73.2456732514432 2802.57382539663 15 18 11
6.33406367202416 72.0839401597824 2813.87696197206 16 19 12
18.7650395760583 72.1298251419316 2808.12097529158 16 19 12
35.0251255173648 72.6053359715106 2796.35994028114 15 18 11
21.9705273618127 69.8550233487923 2829.93499508745 12 15 8
32.7053424867698 69.7216376262907 2826.73028538298 14 17 10
45.5918931535466 69.8367450438857 2820.07942487142 15 18 11
56.7924675052189 69.7715860024757 2815.98371527429 14 17 10
64.1638284575914 69.2769981611782 2817.89326788956 16 19 10
87.159996098364 70.5815206541568 2794.82780626731 16 19 10
83.186280935228 68.7870238574823 2814.81018512461 17 20 11
96.9325050938514 69.0446150775261 2806.34844682835 17 20 11
87.2346735186311 66.5515395704091 2835.8861277259 17 20 11
88.2709907893637 65.3026639232679 2848.1831098803 15 18 9
81.4692942004056 63.1036139761239 2873.49688877452 13 16 7
61.1815154864594 59.2493823777093 2921.41360653295 18 21 12
80.7736053075121 60.1967581527514 2903.44592826417 20 23 14
81.5708856346318 58.8621019456426 2916.72558438728 18 21 12
99.4654188776682 59.6303529045904 2901.30835961305 20 23 14
-254.009342732757 69.1234656524404 2874.63674124821 24 26 13
-285.65647638753 64.8544386523842 2929.82519904673 21 23 10
-219.279236226403 69.8754966154182 2853.08977456595 19 21 10
-212.746850713146 69.2325613584503 2856.81837267912 22 24 13
-176.343285704391 71.480139413989 2819.75449061293 17 18 10
-181.454511401286 69.7213243592676 2839.27602904197 14 15 9
-174.979246879475 69.0829894115176 2842.98146440059 14 15 9
-157.662563362552 69.5172439725587 2831.64855098728 15 16 10
-137.432741697636 70.257527393849 2816.09827182229 15 16 10
-126.266594081492 70.1063317146529 2813.06834058763 9 11 6
-122.86231836604 69.1749224392246 2820.9271308909 9 11 6
-138.960291483 66.2465416570055 2856.50797606364 9 11 6
-135.410661677981 65.3032874809352 2864.42570899091 8 10 5
-128.308164111873 64.7225922481932 2867.3058615365 8 10 5
-106.010239210541 65.7292327477016 2848.27543403163 8 10 5
-67.5490234186589 68.4617836219769 2805.56738371355 12 15 8
-82.6601507440528 65.5617441334404 2840.46877280541 12 15 8
-69.3131442337178 65.6678376168052 2834.00441593162 11 14 7
-57.1688667352872 65.6546871347707 2829.21160271043 9 12 5
-26.7700707615883 67.631792678639 2797.27039646732 10 13 6
-13.0865236273663 67.8194385901471 2789.86287622347 14 17 10
5.63920978514387 68.5744081999708 2774.78229918843 13 16 9
5.63893351574407 67.2689581927159 2787.73880891108 12 15 8
-8.34395890187745 64.3860484731385 2822.01781712903 14 17 10
15.8896957815351 65.7792440651016 2798.37392499723 16 19 12
27.1637293924123 65.7290222359518 2794.30784531465 16 19 12
52.8082746167826 67.3335345830803 2767.99692940459 15 18 11
41.3189049877569 64.682529546688 2798.96829979045 12 15 8
34.9394921589365 62.5933539110062 2822.29435206198 15 18 11
34.6954450821573 61.1998084743133 2836.23163659147 15 18 11
56.2839972580596 62.3746031626815 2815.83390638061 15 18 11
65.8218157041086 62.1404629233829 2814.30317839141 17 20 11
74.796730530432 61.8436962914924 2813.6235603154 17 20 11
95.0208833359592 62.9127229211262 2794.83206965523 17 20 11
86.8147085712325 60.5384726770304 2821.73612952616 16 19 10
81.4086243290624 58.4795909753569 2844.37723789565 16 19 10
96.7516361899319 58.9686799109153 2833.32359130086 16 19 10
96.2199717000452 57.4910455001271 2848.22412431533 14 17 8
81.0888793471061 54.1602472002396 2887.4359273167 17 20 11
84.1584894043472 51.6299052951784 2911.35474161899 20 23 14
72.0897785266743 48.5935452768891 2946.40995151637 19 22 13
-272.349058577682 60.8348369444976 2885.61497012181 28 29 21
-258.885049474779 60.8493575613062 2880.27748901105 22 23 15
-255.345640206577 59.8900413342092 2888.19120546121 20 21 13
-234.563584228652 60.6450183504085 2872.86441069058 20 21 13
-186.620990236103 62.8606108665913 2832.92067083804 18 19 13
-173.48068911877 62.9014059094445 2827.45192350027 14 15 9
-177.924671161819 61.1443136074205 2846.1645457379 13 14 8
-167.21854984681 60.9378119411753 2844.02783768159 15 16 10
-146.347471713006 61.7969705029995 2827.65748954117 15 16 10
-134.547653603393 61.7242499944335 2823.80446681751 9 11 6
-145.977551637769 59.1993805219294 2852.64134447146 9 11 6
-142.447585217193 58.2407879598709 2860.55097486767 9 11 6
-113.533458354769 60.0044901178483 2832.32600116751 8 10 5
-119.442660467689 58.0324597398177 2853.68393421655 8 10 5
-90.1650612697607 59.8781414192696 2824.5264411421 8 10 5
-108.225044679289 56.5565815541887 2863.63135221358 13 16 9
-93.6124898078217 56.8119910978673 2855.52040163258 10 13 6
-88.8739674263872 55.9779737109598 2861.76106448404 9 12 5
-41.0242946358632 59.9873644419464 2804.50363133879 10 13 6
-11.8348844456002 61.9521494728766 2774.2307202445 11 14 7
-17.0107249542182 60.0321150877157 2794.80638396177 15 18 11
2.86783630785625 60.9730919784685 2778.03355259867 14 17 10
-6.60879781888246 57.173595352937 2818.45955020833 14 17 10
7.55056196163206 57.4666740892723 2810.1648186179 16 19 12
20.5318886997314 57.6330025973319 2803.55194402543 16 19 12
44.5472032135927 59.1288326723418 2779.81861233518 12 15 8
23.1526751117905 55.1883241575011 2826.20931813231 12 15 8
26.7378576097173 54.2264872611075 2834.14158694545 14 17 10
44.5726384679197 55.0006412325877 2819.77918947991 13 16 9
57.408967169593 55.179449382968 2813.10725438912 14 17 10
64.7728292067018 54.6900584265835 2815.01373135566 18 21 12
70.5149282304112 53.9986753970934 2819.50178064915 17 20 11
86.4671858832973 54.5925632765218 2807.61495364945 16 19 10
84.7043531486107 52.9530761223362 2824.17583843517 15 18 9
86.2138826728085 51.7156471303583 2835.58526875186 16 19 10
94.1254656378114 51.2938268831758 2836.63419373754 17 20 11
87.8076744120009 49.0231842548714 2861.06537977406 15 18 9
72.945518320529 44.1067197515461 2914.42388408022 19 22 13
81.0385042426365 43.6708016945125 2915.54610747132 22 25 16
92.2220602411135 43.6518027043963 2911.44341460929 20 23 14
-259.196616599169 54.3370785132816 2867.25422958521 26 27 21
-261.903124760991 52.7285166370438 2883.43253523265 21 22 16
-212.963137471373 55.1266495242796 2842.8121838961 20 21 15
-192.989045407221 55.8930403456378 2828.23722910731 20 21 15
-178.607951177158 56.0879521256174 2821.11182844951 16 17 11
