ply
format ascii 1.0
comment KinectMotionCapture
element vertex 773
property float x
property float y
property float z
property uchar red
property uchar green
property uchar blue
end_header
352.265059947968 360.860466957092 2657.99999237061 186 188 185
359.346836805344 360.70528626442 2657.00006484985 188 193 189
367.111921310425 361.228585243225 2661.00001335144 191 196 192
376.163691282272 362.973272800446 2674.00002479553 188 193 189
388.869673013687 368.110775947571 2711.99989318848 191 196 192
-171.616300940514 375.737398862839 2821.00009918213 200 205 201
-162.362769246101 372.151046991348 2793.99991035461 181 186 182
-154.308140277863 371.094882488251 2786.00001335144 185 187 184
-146.559849381447 370.704293251038 2782.99999237061 169 171 168
-138.977155089378 370.71281671524 2782.99999237061 164 166 163
-131.299570202827 370.454490184784 2780.99989891052 167 169 166
-123.765848577023 370.595365762711 2782.00006484985 159 161 158
-116.226218640804 370.735794305801 2782.99999237061 157 159 156
-108.95399004221 371.80832028389 2790.99988937378 140 142 139
-101.528815925121 372.480750083923 2796.0000038147 135 140 136
-94.5126265287399 374.884605407715 2813.99989128113 208 215 208
-87.3979851603508 377.28813290596 2832.00001716614 187 194 187
-79.0876150131226 374.495476484299 2811.00010871887 28 35 28
-70.5865249037743 370.103567838669 2778.00011634827 33 38 32
-62.3785071074963 366.377204656601 2750 13 16 9
-54.7020994126797 365.181714296341 2740.9999370575 35 38 31
-47.0745600759983 363.985747098923 2732.00011253357 112 115 108
-39.611954241991 363.85515332222 2730.99994659424 159 161 156
-32.1428701281548 363.590866327286 2729.00009155273 127 129 124
-24.6755238622427 363.19288611412 2726.0000705719 143 145 140
-17.2117911279202 362.527996301651 2720.99995613098 126 128 123
-9.75366402417421 361.063271760941 2710.00003814697 185 187 182
-2.36246245913208 360.663950443268 2707.00001716614 138 140 135
5.00868214294314 359.997689723969 2701.99990272522 139 141 136
12.3525438830256 359.330952167511 2697.00002670288 142 144 139
19.6690931916237 358.663827180862 2691.99991226196 149 151 146
26.9683413207531 358.129501342773 2687.99996376038 145 147 142
34.2711955308914 357.861161231995 2686.00010871887 136 138 133
41.5785014629364 357.725590467453 2684.99994277954 137 139 134
48.8802045583725 357.58963227272 2684.00001525879 135 137 132
56.1343915760517 357.186764478683 2680.99999427795 141 143 138
63.3010193705559 356.383740901947 2674.99995231628 145 147 142
70.5402716994286 356.113284826279 2673.00009727478 149 151 146
77.8265818953514 356.108784675598 2673.00009727478 156 158 153
85.0170701742172 355.704188346863 2670.00007629395 149 151 146
92.1908989548683 355.299144983292 2667.00005531311 145 147 142
99.4226112961769 355.160146951675 2665.99988937378 151 153 148
106.768578290939 355.420351028442 2667.99998283386 151 153 148
114.082299172878 355.546921491623 2668.99991035461 146 148 143
121.310107409954 355.406641960144 2667.99998283386 158 160 155
128.676623106003 355.665534734726 2670.00007629395 148 150 145
136.104494333267 356.05725646019 2673.00009727478 142 144 139
143.601819872856 356.581687927246 2677.00004577637 142 144 139
151.007696986198 356.839299201965 2678.99990081787 152 154 149
158.483058214188 357.229650020599 2681.99992179871 153 155 150
166.159614920616 358.019173145294 2687.99996376038 142 144 139
173.674628138542 358.408659696579 2690.99998474121 135 137 132
181.138142943382 358.664572238922 2693.00007820129 130 132 127
188.331946730614 358.387321233749 2690.99998474121 130 132 127
195.95043361187 358.908712863922 2694.9999332428 142 144 139
203.061997890472 358.497470617294 2691.99991226196 151 152 147
210.781753063202 359.151244163513 2697.00002670288 148 149 144
218.447118997574 359.671354293823 2700.99997520447 144 146 141
226.718664169312 361.123144626617 2711.99989318848 142 144 139
234.790399670601 362.175017595291 2720.00002861023 138 140 135
243.439093232155 364.025294780731 2733.99996757507 140 142 137
251.979649066925 365.608781576157 2746.00005149841 133 135 130
261.907398700714 369.055688381195 2772.0000743866 125 130 124
311.042457818985 364.682585000992 2740.00000953674 206 208 205
316.630065441132 362.535655498505 2723.99997711182 200 202 199
321.415901184082 359.59005355835 2701.99990272522 153 155 152
326.324552297592 356.910645961761 2681.99992179871 153 155 152
331.620991230011 354.76341843605 2665.99988937378 171 173 170
338.227719068527 354.079812765121 2661.00001335144 175 177 174
344.806164503098 353.395998477936 2655.99989891052 181 183 180
352.019101381302 353.377223014832 2655.99989891052 185 187 184
359.36626791954 353.49115729332 2657.00006484985 186 191 187
367.545545101166 354.402989149094 2664.00003433228 186 191 187
376.605868339539 356.112599372864 2677.00004577637 187 192 188
388.173341751099 360.083073377609 2707.00001716614 190 195 191
-162.779182195663 365.470468997955 2801.00011825562 177 182 178
-154.705002903938 364.435911178589 2792.99998283386 165 167 164
-146.77919447422 363.661855459213 2786.99994087219 155 157 154
-139.085307717323 363.409370183945 2785.00008583069 152 154 151
-131.212949752808 362.63433098793 2779.00004386902 146 148 145
-123.639754951 362.641930580139 2779.00004386902 143 145 142
-116.233170032501 363.170981407166 2782.99999237061 148 150 147
-109.038583934307 364.482581615448 2792.99998283386 111 113 110
-101.607523858547 365.141361951828 2798.00009727478 116 121 117
-94.2495912313461 366.191208362579 2805.99999427795 217 224 217
-87.0328843593597 368.023663759232 2819.9999332428 199 206 199
-78.9235457777977 366.071045398712 2805.0000667572 11 18 11
-70.997342467308 364.639908075333 2793.99991035461 23 28 22
-62.9720613360405 362.294733524323 2776.00002288818 23 26 19
-54.9049749970436 359.035521745682 2750.99992752075 26 29 22
-47.1290908753872 356.950372457504 2734.99989509583 15 18 11
-39.6143421530724 356.430917978287 2730.99994659424 88 90 85
-32.1212559938431 355.911046266556 2726.99999809265 133 135 130
-24.6498566120863 355.390667915344 2723.00004959106 138 140 135
-17.1938538551331 354.739338159561 2717.99993515015 170 172 167
-9.75065492093563 353.565543889999 2709.00011062622 170 172 167
-2.36609601415694 353.826910257339 2710.99996566772 139 141 136
5.01825381070375 353.304773569107 2707.00001716614 139 141 136
12.3807722702622 352.782189846039 2703.00006866455 144 146 141
19.6922030299902 351.73711180687 2694.9999332428 150 152 147
27.0000714808702 351.213693618774 2690.99998474121 141 143 138
34.3115441501141 350.950807332993 2688.99989128113 136 138 133
41.6584424674511 351.079046726227 2690.00005722046 134 136 131
48.9742085337639 350.945800542831 2688.99989128113 140 142 137
56.3052855432034 350.942671298981 2688.99989128113 138 140 135
63.4941533207893 350.156038999558 2683.00008773804 142 144 139
70.702850818634 349.62996840477 2678.99990081787 154 156 151
77.8894796967506 349.103480577469 2674.99995231628 163 165 160
85.1495340466499 348.968118429184 2674.00002479553 146 148 143
92.4384072422981 348.962873220444 2674.00002479553 141 143 138
99.6896326541901 348.826676607132 2673.00009727478 146 148 143
106.935039162636 348.690032958984 2671.99993133545 147 149 144
114.174596965313 348.552972078323 2671.0000038147 146 148 143
121.40829116106 348.415523767471 2670.00007629395 153 155 150
128.828883171082 348.799645900726 2673.00009727478 153 155 150
136.265337467194 349.183291196823 2676.00011825562 148 150 145
143.717631697655 349.566459655762 2678.99990081787 146 148 143
151.073008775711 349.688291549683 2680.0000667572 150 152 147
158.374220132828 349.679201841354 2680.0000667572 151 153 148
166.045770049095 350.45263171196 2686.00010871887 146 148 143
173.491209745407 350.703626871109 2687.99996376038 140 142 137
181.148752570152 351.345658302307 2693.00007820129 131 133 128
188.482940196991 351.334899663925 2693.00007820129 125 127 122
196.180000901222 351.976066827774 2697.99995422363 133 135 130
203.300103545189 351.573139429092 2694.9999332428 155 156 151
210.950285196304 352.083027362823 2698.99988174438 150 151 146
218.459755182266 352.331578731537 2700.99997520447 139 141 136
226.564556360245 353.492885828018 2710.00003814697 140 142 137
234.631240367889 354.523181915283 2717.99993515015 140 142 137
243.364006280899 356.466114521027 2733.00004005432 136 138 133
251.994013786316 358.147591352463 2746.00005149841 138 140 135
261.733293533325 361.263245344162 2769.99998092651 145 150 144
311.513781547546 357.761174440384 2743.99995803833 207 209 206
316.182523965836 354.61500287056 2720.00002861023 196 198 195
320.957660675049 351.729452610016 2697.99995422363 152 154 151
325.977295637131 349.234998226166 2678.99990081787 167 169 166
331.514626741409 347.392290830612 2664.99996185303 176 178 175
337.991744279861 346.59218788147 2658.99991989136 182 184 181
344.565033912659 345.922261476517 2654.00004386902 184 186 183
351.90537571907 346.034049987793 2654.99997138977 186 188 185
359.114825725555 346.015244722366 2654.99997138977 184 189 185
367.289036512375 346.908420324326 2661.99994087219 185 190 186
376.062899827957 348.322421312332 2673.00009727478 192 197 193
-163.021102547646 358.36723446846 2805.0000667572 188 193 189
-154.824808239937 357.09884762764 2795.00007629395 188 190 187
-146.840423345566 356.213182210922 2788.00010681152 180 182 179
-139.043480157852 355.710417032242 2783.99991989136 175 177 174
-131.17341697216 354.951620101929 2778.00011634827 162 164 161
-123.558022081852 354.831248521805 2776.99995040894 157 159 156
-116.156458854675 355.349332094193 2780.99989891052 140 145 141
-109.005965292454 356.761485338211 2792.00005531311 124 129 125
-101.649843156338 357.662111520767 2799.00002479553 91 96 92
-94.154380261898 358.178913593292 2802.99997329712 204 211 204
-86.6985097527504 358.950942754745 2809.00001525879 234 241 234
-78.9000764489174 358.316838741302 2803.99990081787 9 16 9
-70.2646002173424 353.337526321411 2765.00010490417 19 24 17
-62.5674426555634 352.44682431221 2757.99989700317 39 44 37
-55.1277920603752 352.961510419846 2762.00008392334 31 36 29
-47.3042130470276 350.792020559311 2744.99988555908 27 30 23
-39.5876877009869 348.749905824661 2729.00009155273 17 19 14
-32.0878252387047 348.113030195236 2723.99997711182 69 71 66
-24.5970040559769 347.220152616501 2717.00000762939 130 132 127
-17.1632450073957 346.710205078125 2713.00005912781 161 163 158
-9.74043551832438 345.816403627396 2706.00008964539 142 144 139
-2.36361846327782 346.072345972061 2707.99994468689 131 133 128
5.01669850200415 345.81670165062 2706.00008964539 139 141 136
12.3906694352627 345.688343048096 2704.99992370605 146 148 143
19.7226032614708 344.920605421066 2698.99988174438 144 146 141
27.0317774266005 344.280332326889 2694.00000572205 137 139 134
34.3263447284698 343.76734495163 2690.00005722046 136 138 133
41.6609197854996 343.765109777451 2690.00005722046 131 133 128
48.9953309297562 343.762427568436 2690.00005722046 129 131 126
56.3295632600784 343.759328126907 2690.00005722046 132 134 129
63.545249402523 343.116819858551 2684.99994277954 165 167 162
70.7598254084587 342.601716518402 2680.99999427795 163 165 160
78.0396908521652 342.469602823257 2680.0000667572 149 151 146
85.3456482291222 342.464804649353 2680.0000667572 134 136 131
92.6858708262444 342.587381601334 2680.99999427795 132 134 129
99.9192893505096 342.326164245605 2678.99990081787 134 136 131
107.101432979107 341.93679690361 2676.00011825562 135 137 132
114.35230076313 341.802537441254 2674.99995231628 145 147 142
121.642775833607 341.795682907104 2674.99995231628 146 148 143
129.029214382172 342.043936252594 2677.00004577637 161 163 158
136.42606139183 342.29177236557 2678.99990081787 157 159 154
143.940627574921 342.794746160507 2683.00008773804 148 150 145
151.363685727119 343.041747808456 2684.99994277954 146 148 143
158.67891907692 343.03280711174 2684.99994277954 149 151 146
166.11722111702 343.278974294662 2687.00003623962 157 159 154
173.565775156021 343.524694442749 2688.99989128113 153 155 150
181.293740868568 344.281047582626 2694.9999332428 138 140 135
188.843756914139 344.653725624084 2697.99995422363 133 135 130
196.627557277679 345.40918469429 2703.9999961853 127 129 124
203.990697860718 345.397800207138 2703.9999961853 133 134 129
211.353152990341 345.386028289795 2703.9999961853 149 150 145
218.957498669624 345.757037401199 2707.00001716614 146 148 143
226.66098177433 346.255362033844 2710.99996566772 135 137 132
234.817162156105 347.391903400421 2720.00002861023 141 143 138
243.555799126625 349.294245243073 2734.99989509583 136 138 133
252.28351354599 351.068377494812 2749.00007247925 137 139 134
261.369943618774 353.225082159042 2766.00003242493 137 142 136
315.734654664993 346.714913845062 2716.00008010864 194 196 193
320.261180400848 343.634158372879 2691.99991226196 144 146 143
325.264722108841 341.191709041595 2673.00009727478 165 167 164
331.034719944 339.642584323883 2661.00001335144 169 171 168
337.628334760666 338.986724615097 2655.99989891052 175 177 174
344.323575496674 338.458299636841 2651.99995040894 175 177 174
351.658791303635 338.567674160004 2653.00011634827 177 179 176
358.998358249664 338.676780462265 2654.00004386902 184 189 185
367.308139801025 339.678853750229 2661.99994087219 187 192 188
376.363754272461 341.31845831871 2674.99995231628 194 199 195
-162.739813327789 350.115746259689 2799.99995231628 189 194 190
-154.667481780052 349.124401807785 2792.00005531311 194 196 193
-146.638169884682 348.132610321045 2783.99991989136 180 182 179
-138.801753520966 347.515523433685 2779.00004386902 177 179 176
-131.039306521416 347.022950649261 2775.00009536743 168 170 167
-123.476162552834 347.030282020569 2775.00009536743 169 171 170
-116.121418774128 347.662419080734 2779.99997138977 144 149 145
-108.856089413166 348.669350147247 2788.00010681152 124 129 125
-101.47413611412 349.425762891769 2793.99991035461 79 85 81
-93.7567353248596 349.056154489517 2790.99988937378 201 208 201
-86.6418108344078 351.062387228012 2806.99992179871 221 228 221
-78.0886113643646 347.065031528473 2775.00009536743 16 23 16
-69.7095841169357 343.067020177841 2743.00003051758 27 34 26
-62.7072229981422 345.697373151779 2763.99993896484 29 34 27
-54.1329756379128 339.196979999542 2711.99989318848 26 31 24
-46.8933656811714 340.325564146042 2720.99995613098 21 24 17
-39.4594296813011 340.202987194061 2720.00002861023 21 23 18
-32.0190154016018 339.954942464828 2717.99993515015 9 11 6
-24.5441198348999 339.081019163132 2710.99996566772 64 66 61
-17.1389412134886 338.83211016655 2709.00011062622 144 146 141
-9.74100455641747 338.457643985748 2706.00008964539 112 114 109
-2.36288388259709 338.583052158356 2707.00001716614 142 144 139
5.01699186861515 338.45791220665 2706.00008964539 140 142 137
12.3959761112928 338.457435369492 2706.00008964539 145 147 142
19.7529904544353 338.081270456314 2703.00006866455 139 141 136
27.1036010235548 337.829738855362 2700.99997520447 137 139 134
34.3921519815922 337.077468633652 2694.9999332428 136 138 133
41.6943281888962 336.700081825256 2691.99991226196 136 138 133
48.9617623388767 336.197137832642 2687.99996376038 137 139 134
56.3119053840637 336.319148540497 2688.99989128113 151 153 148
63.596285879612 336.0655605793 2687.00003623962 164 166 161
70.8959177136421 335.936605930328 2686.00010871887 149 151 146
78.1607180833817 335.682183504105 2684.00001525879 134 136 131
85.5735391378403 336.052656173706 2687.00003623962 134 136 131
92.9678231477737 336.297631263733 2688.99989128113 135 137 132
100.260779261589 336.167067289352 2687.99996376038 135 137 132
107.50787705183 335.910946130753 2686.00010871887 131 133 128
114.70091342926 335.529416799545 2683.00008773804 129 131 126
121.877186000347 335.147440433502 2680.0000667572 126 128 123
129.13304567337 335.01523733139 2678.99990081787 156 158 153
136.484831571579 335.132747888565 2680.0000667572 157 159 154
144.00252699852 335.624933242798 2684.00001525879 151 153 148
151.428744196892 335.866659879684 2686.00010871887 147 149 144
158.747091889381 335.857838392258 2686.00010871887 149 151 146
166.188508272171 336.098730564117 2687.99996376038 156 158 153
173.833876848221 336.714297533035 2693.00007820129 157 159 154
181.505858898163 337.32944726944 2697.99995422363 148 150 145
189.204424619675 337.944179773331 2703.00006866455 140 142 137
196.784138679504 338.308423757553 2706.00008964539 134 136 131
204.37940955162 338.672280311584 2709.00011062622 126 127 122
211.599513888359 338.410645723343 2707.00001716614 137 138 133
219.212427735329 338.773757219315 2710.00003814697 155 157 152
226.840868592262 339.136362075806 2713.00005912781 145 147 142
234.916567802429 340.123653411865 2720.99995613098 136 138 133
243.213072419167 341.360449790955 2730.99994659424 143 145 140
251.746743917465 342.846781015396 2743.00003051758 146 148 143
260.628342628479 344.707578420639 2757.99989700317 148 153 147
315.635174512863 339.21030163765 2714.99991416931 209 211 208
320.040255784988 336.07017993927 2690.00005722046 142 144 141
325.160175561905 333.804488182068 2671.99993133545 170 172 169
330.927729606628 332.288265228271 2660.00008583069 175 177 174
337.391793727875 331.521391868591 2654.00004386902 176 178 175
344.341486692429 331.253916025162 2651.99995040894 179 181 178
351.544409990311 331.236004829407 2651.99995040894 183 185 182
358.881592750549 331.342756748199 2653.00011634827 175 180 176
367.188960313797 332.323402166367 2661.00001335144 179 184 180
376.945704221725 334.552407264709 2678.99990081787 176 181 177
-162.516474723816 342.01255440712 2796.0000038147 187 198 192
-154.343783855438 340.798109769821 2786.00001335144 191 201 193
-146.435752511024 340.072572231293 2779.99997138977 177 182 176
-138.659760355949 339.591234922409 2776.00002288818 176 178 173
-130.90506196022 339.109480381012 2772.0000743866 166 165 160
-123.305164277554 338.994234800339 2770.99990844727 164 165 159
-115.835599601269 339.245676994324 2773.00000190735 152 153 145
-108.510866761208 339.986026287079 2779.00004386902 136 139 130
-101.116694509983 340.603649616241 2783.99991989136 83 88 81
-93.2917594909668 339.752733707428 2776.99995040894 207 214 206
-86.2454771995544 341.837674379349 2793.99991035461 218 225 217
-78.1774967908859 339.88481760025 2778.00011634827 16 23 15
-70.3489482402802 338.66548538208 2767.99988746643 25 32 24
-46.3790111243725 329.254329204559 2690.99998474121 22 25 18
-38.8378575444222 327.543795108795 2677.00004577637 25 30 24
-31.8441390991211 330.72704076767 2703.00006866455 20 25 19
-24.4730990380049 330.728650093079 2703.00006866455 15 20 14
-17.0893091708422 330.485105514526 2700.99997520447 60 65 59
-9.71996504813433 330.363512039185 2700.00004768372 113 118 112
-2.35690921545029 330.363869667053 2700.00004768372 121 126 120
5.00430120155215 330.241411924362 2698.99988174438 126 131 125
12.364617548883 330.240905284882 2698.99988174438 137 142 136
19.7321996092796 330.362379550934 2700.00004768372 137 142 136
27.1151904016733 330.605745315552 2701.99990272522 129 134 128
34.4196557998657 329.992234706879 2697.00002670288 123 128 122
41.7122133076191 329.500645399094 2693.00007820129 146 151 145
48.9827841520309 329.008638858795 2688.99989128113 180 185 179
56.3779585063457 329.372674226761 2691.99991226196 176 181 175
63.6709332466125 329.124599695206 2690.00005722046 122 127 121
71.0319578647614 329.243123531342 2690.99998474121 113 118 112
78.3399194478989 329.116553068161 2690.00005722046 118 123 117
85.8332067728043 329.723596572876 2694.9999332428 118 123 119
93.2151600718498 329.840898513794 2696.00009918213 135 137 132
100.564897060394 329.835444688797 2696.00009918213 134 136 131
107.794180512428 329.46252822876 2693.00007820129 124 126 121
114.963941276073 328.96688580513 2688.99989128113 108 110 105
122.111491858959 328.470885753632 2684.99994277954 103 105 100
129.23675775528 327.974498271942 2680.99999427795 149 151 146
136.543467640877 327.967047691345 2680.99999427795 158 160 155
144.064292311668 328.448474407196 2684.99994277954 155 157 152
151.606380939484 328.929543495178 2688.99989128113 147 149 144
158.93329679966 328.920871019363 2688.99989128113 147 149 144
166.383296251297 329.156488180161 2690.99998474121 153 155 150
174.037262797356 329.758673906326 2696.00009918213 158 160 155
181.785076856613 330.482661724091 2701.99990272522 156 158 153
189.424961805344 330.96170425415 2706.00008964539 145 150 144
196.867763996124 331.073343753815 2707.00001716614 141 146 140
204.466164112091 331.429213285446 2710.00003814697 126 128 123
211.845695972443 331.417828798294 2710.00003814697 125 126 121
219.467163085938 331.772953271866 2713.00005912781 158 160 155
227.020531892776 332.005321979523 2714.99991416931 159 161 156
235.015720129013 332.848757505417 2721.99988365173 134 136 131
243.137285113335 333.814084529877 2730.00001907349 140 142 137
251.668661832809 335.268050432205 2742.00010299683 143 145 140
260.831475257874 337.455123662949 2759.99999046326 52 57 51
315.302938222885 331.465631723404 2711.99989318848 214 216 213
320.056945085526 328.760355710983 2690.00005722046 142 144 139
325.177043676376 326.543867588043 2671.99993133545 162 164 159
330.695986747742 324.816167354584 2657.99999237061 166 168 163
336.900591850281 323.821485042572 2650.00009536743 165 167 162
344.229280948639 323.926389217377 2651.00002288818 168 170 167
351.694941520691 324.153184890747 2653.00011634827 171 173 170
359.440892934799 324.624001979828 2657.00006484985 187 189 184
367.345482110977 325.21665096283 2661.99994087219 189 191 186
377.246052026749 327.519297599792 2680.99999427795 171 173 168
-162.641704082489 334.647536277771 2798.00009727478 189 200 192
-154.518529772758 333.579778671265 2789.00003433228 189 199 191
-146.496549248695 332.631170749664 2780.99989891052 183 188 182
-138.667464256287 332.040965557098 2776.00002288818 180 181 175
-130.959585309029 331.689566373825 2773.00000190735 175 170 164
-123.356536030769 331.576943397522 2772.0000743866 170 167 158
-115.883834660053 331.82281255722 2773.9999294281 148 148 136
-108.477890491486 332.307517528534 2778.00011634827 139 141 130
-101.122364401817 333.03102850914 2783.99991989136 85 88 77
-93.4649780392647 332.797199487686 2782.00006484985 238 243 236
-86.8985876441002 336.749881505966 2815.00005722046 156 161 154
-78.6884650588036 334.481537342072 2796.0000038147 16 23 15
-69.9970722198486 329.461216926575 2753.99994850159 24 31 23
-61.920203268528 326.474159955978 2729.00009155273 20 26 16
-24.4382601231337 322.897166013718 2698.99988174438 18 23 17
-17.0459821820259 322.300136089325 2694.00000572205 22 27 21
-9.72411315888166 323.138326406479 2700.99997520447 72 77 71
-2.35878792591393 323.258280754089 2701.99990272522 122 127 121
5.00458339229226 322.89931178093 2698.99988174438 118 123 117
12.3515734449029 322.539985179901 2696.00009918213 126 131 125
19.7113864123821 322.658687829971 2697.00002670288 125 130 124
27.0866118371487 322.896629571915 2698.99988174438 121 126 120
34.408837556839 322.536051273346 2696.00009918213 156 161 155
41.7145602405071 322.174996137619 2693.00007820129 169 174 168
49.0401946008205 322.052806615829 2691.99991226196 167 172 166
56.4858578145504 322.648018598557 2697.00002670288 141 146 140
63.8165473937988 322.525054216385 2696.00009918213 105 110 104
71.1943358182907 322.640925645828 2697.00002670288 99 104 98
78.4899368882179 322.397500276566 2694.9999332428 93 98 92
85.9972685575485 322.991043329239 2700.00004768372 100 105 101
93.324102461338 322.866439819336 2698.99988174438 106 111 107
100.607834756374 322.6218521595 2697.00002670288 110 115 111
107.840247452259 322.257220745087 2694.00000572205 117 122 118
115.098625421524 322.011768817902 2691.99991226196 133 138 134
122.300215065479 321.646362543106 2688.99989128113 147 149 144
129.436761140823 321.160972118378 2684.99994277954 141 143 138
136.754795908928 321.153670549393 2684.99994277954 143 145 140
144.179597496986 321.3851749897 2687.00003623962 149 151 146
151.558384299278 321.496665477753 2687.99996376038 152 157 151
158.823862671852 321.36857509613 2687.00003623962 151 156 150
166.268795728683 321.59885764122 2688.99989128113 148 153 147
173.917680978775 322.187602519989 2694.00000572205 149 156 149
181.66047334671 322.895467281342 2700.00004768372 151 158 151
189.295291900635 323.363810777664 2703.9999961853 151 158 151
196.805760264397 323.59254360199 2706.00008964539 151 161 153
204.250931739807 323.701322078705 2707.00001716614 152 157 153
211.622655391693 323.690146207809 2707.00001716614 140 142 139
219.074532389641 323.798149824142 2707.99994468689 134 136 133
226.69829428196 324.144929647446 2710.99996566772 137 142 138
234.510287642479 324.730455875397 2716.00008010864 143 148 142
242.437765002251 325.435131788254 2721.99988365173 133 138 132
250.672399997711 326.498061418533 2730.99994659424 146 151 145
259.994745254517 328.875631093979 2750.99992752075 16 23 16
314.505308866501 323.258191347122 2704.99992370605 143 142 137
319.716393947601 321.091055870056 2687.00003623962 141 141 133
324.828505516052 318.923771381378 2668.99991035461 172 169 162
330.712795257568 317.592889070511 2657.99999237061 185 182 175
336.790472269058 316.500782966614 2648.9999294281 181 181 173
343.986809253693 316.48376584053 2648.9999294281 184 185 177
351.447343826294 316.70543551445 2651.00002288818 199 198 193
359.188169240952 317.165732383728 2654.99997138977 182 179 172
367.363631725311 317.984044551849 2661.99994087219 158 155 146
376.842468976974 319.877058267593 2677.99997329712 201 202 194
-163.057416677475 327.854871749878 2805.0000667572 202 207 200
-155.025601387024 327.045261859894 2798.00009727478 206 209 202
-147.03132212162 326.235145330429 2790.99988937378 191 187 178
-139.024704694748 325.307756662369 2782.99999237061 158 149 142
-131.108403205872 324.496805667877 2776.00002288818 126 112 103
-123.36328625679 324.036121368408 2772.0000743866 120 110 98
-115.890182554722 324.276387691498 2773.9999294281 124 116 103
-108.444780111313 324.633181095123 2776.99995040894 122 116 104
-101.127915084362 325.457185506821 2783.99991989136 99 95 84
-94.3772718310356 328.3851146698 2809.00001525879 210 210 200
-87.3047038912773 330.611288547516 2828.00006866455 0 1 0
-78.5802230238914 326.407134532928 2792.00005531311 23 26 19
-69.9501112103462 321.734875440598 2752.00009346008 26 29 22
-61.7194063961506 317.997336387634 2720.00002861023 24 27 18
-31.9066122174263 316.604614257813 2707.99994468689 14 19 13
-24.3219006806612 314.034044742584 2686.00010871887 14 19 13
-16.977321356535 313.684433698654 2683.00008773804 5 10 4
-9.7210519015789 315.672725439072 2700.00004768372 17 22 16
-2.35804589465261 315.789967775345 2700.99997520447 65 70 64
5.00115286558867 315.322250127792 2697.00002670288 129 134 128
12.3385125771165 314.854085445404 2693.00007820129 122 127 121
19.6759346872568 314.736306667328 2691.99991226196 119 124 118
27.0178616046906 314.735025167465 2691.99991226196 127 132 126
34.3213938176632 314.382612705231 2688.99989128113 184 189 183
41.6549034416676 314.380496740341 2688.99989128113 183 188 181
49.0064732730389 314.494967460632 2690.00005722046 116 121 115
56.4680360257626 315.193563699722 2696.00009918213 83 88 82
63.7964010238647 315.073311328888 2694.9999332428 94 99 93
71.1718648672104 315.186530351639 2696.00009918213 103 108 102
78.436017036438 314.831763505936 2693.00007820129 101 106 100
85.8427509665489 315.061032772064 2694.9999332428 117 122 116
93.0871888995171 314.705461263657 2691.99991226196 120 125 121
100.464127957821 314.817100763321 2693.00007820129 139 144 140
107.72605240345 314.577639102936 2690.99998474121 152 157 153
115.104928612709 314.688473939896 2691.99991226196 161 166 162
122.443355619907 314.68203663826 2691.99991226196 162 164 159
129.684895277023 314.441472291946 2690.00005722046 133 135 130
136.965960264206 314.317345619202 2688.99989128113 135 137 132
144.294753670692 314.309775829315 2688.99989128113 144 146 141
151.679396629333 314.418703317642 2690.00005722046 149 154 148
158.950686454773 314.293473958969 2688.99989128113 150 155 149
166.277766227722 314.28474187851 2688.99989128113 139 144 138
173.862501978874 314.743191003799 2693.00007820129 136 143 136
181.468397378922 315.201163291931 2697.00002670288 156 163 156
188.955411314964 315.42506814003 2698.99988174438 161 168 161
196.525350213051 315.765410661697 2701.99990272522 152 159 152
203.959986567497 315.871685743332 2703.00006866455 147 152 148
211.555749177933 316.211313009262 2706.00008964539 148 150 147
219.005256891251 316.316843032837 2707.00001716614 126 128 125
226.54302418232 316.538840532303 2709.00011062622 130 135 129
234.263598918915 316.994160413742 2713.00005912781 152 157 151
242.183297872543 317.682832479477 2719.00010108948 131 136 130
250.501960515976 318.838328123093 2729.00009155273 29 34 28
260.008305311203 321.395397186279 2750.99992752075 27 32 26
314.63748216629 316.022008657455 2706.00008964539 127 122 116
319.732457399368 313.787311315537 2687.00003623962 151 147 138
324.844807386398 311.669260263443 2668.99991035461 191 182 175
330.978125333786 310.602098703384 2660.00008583069 173 164 157
337.315797805786 309.768319129944 2653.00011634827 181 174 166
344.393402338028 309.634804725647 2651.99995040894 204 200 191
352.260082960129 310.201555490494 2657.00006484985 191 184 178
360.017478466034 310.651242733002 2661.00001335144 212 209 200
368.071556091309 311.334162950516 2667.00005531311 206 203 194
377.423524856567 313.067197799683 2681.99992179871 166 167 159
-163.821846246719 321.707934141159 2818.00007820129 111 112 106
-155.809566378593 321.031361818314 2812.00003623962 79 79 69
-147.7240473032 320.12602686882 2803.99990081787 78 70 59
-139.481753110886 318.763613700867 2792.00005531311 84 70 61
-131.39882683754 317.629128694534 2782.00006484985 117 97 86
-123.547941446304 316.95082783699 2776.00002288818 125 109 94
-115.979984402657 316.957205533981 2776.00002288818 114 102 86
-108.333468437195 316.734790802002 2773.9999294281 105 96 81
-100.988067686558 317.425459623337 2779.99997138977 91 83 70
-93.9455553889275 319.257587194443 2796.0000038147 124 120 109
-86.9080722332001 321.431964635849 2815.00005722046 10 7 0
-78.2748609781265 317.553997039795 2780.99989891052 24 25 17
-69.8522180318832 313.789814710617 2747.99990653992 25 26 18
-61.2689070403576 308.312267065048 2700.00004768372 29 30 24
-53.72579023242 307.287603616714 2690.99998474121 27 28 22
-45.9040589630604 304.092973470688 2663.00010681152 13 16 9
-38.2348634302616 300.897806882858 2634.99999046326 18 23 17
-31.7905135452747 308.093845844269 2697.99995422363 18 23 17
-23.9700563251972 302.271515130997 2647.0000743866 15 20 14
-16.990901902318 306.611955165863 2684.99994277954 17 22 16
-9.71437990665436 308.097213506699 2697.99995422363 18 23 17
-2.35817418433726 308.440148830414 2700.99997520447 25 30 24
4.99586155638099 307.640701532364 2694.00000572205 11 16 10
12.3346019536257 307.411849498749 2691.99991226196 12 17 11
19.6696948260069 307.29678273201 2690.99998474121 165 170 164
27.019327506423 307.409703731537 2691.99991226196 175 180 174
34.3104936182499 306.951314210892 2687.99996376038 73 78 72
41.6106916964054 306.72088265419 2686.00010871887 70 75 68
48.9362552762032 306.718438863754 2686.00010871887 119 124 117
56.3244670629501 307.058185338974 2688.99989128113 142 147 140
63.6814907193184 307.169169187546 2690.00005722046 147 152 146
70.9909126162529 307.051330804825 2688.99989128113 150 155 149
78.2363638281822 306.704789400101 2686.00010871887 157 162 156
85.5288505554199 306.58620595932 2684.99994277954 162 167 161
92.8501412272453 306.581437587738 2684.99994277954 168 173 167
100.245699286461 306.804656982422 2687.00003623962 174 179 175
107.611738145351 306.913286447525 2687.99996376038 166 171 167
115.111105144024 307.364076375961 2691.99991226196 123 128 124
122.495405375957 307.471930980682 2693.00007820129 104 106 101
129.836484789848 307.46528506279 2693.00007820129 95 97 92
137.024238705635 307.11567401886 2690.00005722046 100 102 97
144.356116652489 307.108223438263 2690.00005722046 107 109 104
151.631072163582 306.98624253273 2688.99989128113 118 123 117
158.900007605553 306.863903999329 2687.99996376038 126 131 125
166.224747896194 306.855350732803 2687.99996376038 140 145 139
173.677995800972 307.074755430222 2690.00005722046 133 138 132
181.208834052086 307.407945394516 2693.00007820129 123 128 122
188.755318522453 307.740747928619 2696.00009918213 134 139 133
196.244701743126 307.958960533142 2697.99995422363 148 155 148
203.744277358055 308.176875114441 2700.00004768372 166 168 163
211.254015564919 308.394402265549 2701.99990272522 159 161 156
218.854829668999 308.725714683533 2704.99992370605 56 58 53
226.220235228539 308.714270591736 2704.99992370605 15 17 12
233.671262860298 308.816611766815 2706.00008964539 21 26 20
240.948706865311 308.690339326859 2704.99992370605 13 18 12
249.41323697567 310.04723906517 2717.00000762939 7 12 6
256.524443626404 309.692084789276 2713.99998664856 19 24 18
314.07168507576 308.094918727875 2700.99997520447 104 91 82
319.391280412674 306.140333414078 2684.00001525879 84 70 59
324.495613574982 304.071545600891 2665.99988937378 131 113 99
330.745428800583 303.143233060837 2657.99999237061 143 125 111
337.586492300034 302.784949541092 2654.99997138977 144 126 112
344.929546117783 302.882552146912 2655.99989891052 121 103 91
352.939963340759 303.550064563751 2661.99994087219 103 85 75
360.981822013855 304.217219352722 2667.99998283386 58 51 41
370.159327983856 305.796205997467 2681.99992179871 171 168 159
-156.925946474075 315.608859062195 2832.00001716614 219 215 203
-148.25864136219 313.610762357712 2813.99989128113 121 108 92
-139.688923954964 311.612188816071 2796.0000038147 119 100 85
-131.405740976334 310.058921575546 2782.00006484985 161 134 117
-123.554445803165 309.396833181381 2776.00002288818 133 112 95
-115.90252071619 309.1801404953 2773.9999294281 129 112 94
-108.143895864487 308.628708124161 2769.00005340576 127 111 95
-100.66644847393 308.857083320618 2770.99990844727 107 93 80
-92.9088816046715 308.193415403366 2765.00010490417 38 30 19
-85.9246775507927 310.204386711121 2782.99999237061 8 4 0
-78.081987798214 309.205532073975 2773.9999294281 24 24 16
-61.4310130476952 301.74458026886 2707.00001716614 29 30 24
-53.7286512553692 299.964100122452 2690.99998474121 26 27 21
-46.0444018244743 297.737300395966 2671.0000038147 10 13 6
-38.5126136243343 295.844525098801 2654.00004386902 17 19 14
-30.8730863034725 292.056351900101 2619.99988555908 12 17 11
-9.65728424489498 298.970848321915 2681.99992179871 19 24 18
-2.33472557738423 298.079401254654 2674.00002479553 15 20 14
4.97387303039432 298.971086740494 2681.99992179871 28 33 27
12.3123480007052 299.528032541275 2687.00003623962 20 25 19
19.6634344756603 299.861609935761 2690.00005722046 3 8 2
27.0508788526058 300.417691469193 2694.9999332428 15 20 14
34.3123227357864 299.635797739029 2687.99996376038 67 72 66
41.5974147617817 299.299389123917 2684.99994277954 124 129 122
48.8659776747227 298.962593078613 2681.99992179871 147 152 145
56.2646239995956 299.405694007874 2686.00010871887 147 152 145
63.5901764035225 299.402564764023 2686.00010871887 156 161 155
70.8890706300735 299.287557601929 2684.99994277954 155 160 154
78.0657306313515 298.726320266724 2680.0000667572 147 152 146
85.2785259485245 298.387616872787 2677.00004577637 157 162 156
92.6129668951035 298.494428396225 2677.99997329712 148 153 147
100.06444901228 298.935264348984 2681.99992179871 97 102 98
107.577383518219 299.487084150314 2687.00003623962 89 94 90
115.074425935745 299.927145242691 2690.99998474121 93 98 94
122.410871088505 299.920946359634 2690.99998474121 93 95 90
129.602208733559 299.580037593842 2687.99996376038 96 98 93
136.827662587166 299.35023188591 2686.00010871887 101 103 98
144.202664494514 299.454361200333 2687.00003623962 108 110 105
151.638984680176 299.669623374939 2688.99989128113 127 132 126
158.967405557632 299.661606550217 2688.99989128113 135 140 134
166.418924927711 299.876093864441 2690.99998474121 141 146 140
173.8161444664 299.978762865067 2691.99991226196 142 147 141
181.285485625267 300.192534923553 2694.00000572205 114 119 113
188.625007867813 300.183057785034 2694.00000572205 113 118 112
195.891126990318 300.061881542206 2693.00007820129 158 163 157
203.452900052071 300.385981798172 2696.00009918213 84 86 81
210.873931646347 300.486892461777 2697.00002670288 32 34 29
218.78507733345 301.255881786346 2703.9999961853 8 10 5
226.482674479485 301.690280437469 2707.99994468689 20 22 17
234.1148853302 302.012890577316 2710.99996566772 11 16 10
239.802867174149 299.884408712387 2691.99991226196 12 17 11
247.406184673309 300.206452608109 2694.9999332428 12 17 11
312.924116849899 299.637347459793 2690.99998474121 92 78 65
318.692684173584 298.174679279327 2677.99997329712 125 108 92
324.511259794235 296.82320356369 2665.99988937378 136 115 98
330.885738134384 296.028256416321 2658.99991989136 143 120 104
338.111251592636 296.012431383133 2658.99991989136 147 124 108
345.595359802246 296.21896147728 2661.00001335144 144 121 107
354.017376899719 297.204375267029 2670.00007629395 138 114 102
362.757831811905 298.412024974823 2680.99999427795 71 62 53
373.489201068878 301.177531480789 2706.00008964539 49 46 37
-148.002818226814 305.409014225006 2809.00001525879 127 114 97
-139.346346259117 303.241789340973 2789.00003433228 156 137 120
-131.176307797432 301.943898200989 2776.99995040894 153 125 104
-123.427271842957 301.515489816666 2773.00000190735 153 125 103
-115.783162415028 301.30410194397 2770.99990844727 139 112 91
-108.071379363537 300.874888896942 2766.99995994568 134 109 89
-100.599005818367 301.097720861435 2769.00005340576 135 114 97
-92.9136946797371 300.667732954025 2765.00010490417 95 81 68
-85.6821238994598 301.759749650955 2775.00009536743 27 15 3
-77.8889879584312 300.89396238327 2766.99995994568 30 26 15
-69.9104070663452 299.049139022827 2750 31 28 19
-61.2072646617889 293.288975954056 2697.00002670288 24 25 19
-53.4718781709671 291.225731372833 2677.99997329712 20 21 15
-46.4088320732117 292.750746011734 2691.99991226196 19 20 14
-38.8338826596737 291.01300239563 2676.00011825562 18 20 15
-31.3578508794308 289.383560419083 2661.00001335144 27 29 24
-24.1265408694744 289.711236953735 2664.00003433228 21 23 18
-16.9863663613796 291.887313127518 2684.00001525879 26 28 23
-9.5641640946269 288.842976093292 2655.99989891052 22 24 19
-2.32786196283996 289.930790662766 2665.99988937378 18 20 15
4.95558651164174 290.583252906799 2671.99993133545 14 16 11
12.2259249910712 290.14778137207 2667.99998283386 6 8 3
19.8910757899284 295.910745859146 2720.99995613098 12 14 9
27.2430144250393 295.148313045502 2713.99998664856 12 14 9
34.4545319676399 293.51544380188 2698.99988174438 6 8 3
41.6460633277893 292.317241430283 2687.99996376038 9 12 5
48.850305378437 291.553676128387 2680.99999427795 4 7 0
56.2256574630737 291.877210140228 2684.00001525879 7 10 3
63.5934844613075 292.091637849808 2686.00010871887 1 4 0
70.892758667469 291.979432106018 2684.99994277954 0 2 0
78.0989155173302 291.540592908859 2680.99999427795 3 5 0
85.282951593399 291.101425886154 2677.00004577637 90 92 87
92.6523581147194 291.314363479614 2678.99990081787 148 150 145
99.9576821923256 291.309386491776 2678.99990081787 171 173 168
107.462823390961 291.847765445709 2684.00001525879 169 171 166
114.823758602142 291.950821876526 2684.99994277954 177 179 174
122.189730405807 292.053550481796 2686.00010871887 172 174 169
129.367798566818 291.72095656395 2683.00008773804 171 173 168
136.52902841568 291.387975215912 2680.0000667572 164 166 161
143.888056278229 291.489601135254 2680.99999427795 164 166 161
151.195585727692 291.482120752335 2680.99999427795 154 156 151
158.679932355881 291.80046916008 2684.00001525879 138 140 135
166.303709149361 292.33580827713 2688.99989128113 105 107 102
173.824965953827 292.653411626816 2691.99991226196 100 105 99
181.16007745266 292.644470930099 2691.99991226196 46 51 45
188.564538955688 292.743921279907 2693.00007820129 8 13 7
195.828258991241 292.62563586235 2691.99991226196 10 15 8
203.312188386917 292.833089828491 2694.00000572205 16 19 12
210.258945822716 292.279332876205 2688.99989128113 11 14 7
218.067780137062 292.920857667923 2694.9999332428 20 23 16
225.65758228302 293.235957622528 2697.99995422363 12 15 8
232.140198349953 292.137831449509 2687.99996376038 14 16 11
237.409472465515 289.626657962799 2664.99996185303 14 16 11
245.674088597298 290.810316801071 2676.00011825562 8 13 7
311.427265405655 290.907204151154 2677.99997329712 133 116 98
317.398726940155 289.697527885437 2667.00005531311 144 123 102
323.796272277832 288.922190666199 2660.00008583069 145 120 100
330.527931451797 288.472414016724 2655.99989891052 144 117 98
337.872743606567 288.565546274185 2657.00006484985 156 129 112
345.351666212082 288.766920566559 2658.99991989136 138 111 94
354.033797979355 289.94545340538 2670.00007629395 124 98 83
364.127695560455 292.209446430206 2690.99998474121 102 94 83
376.266926527023 295.993059873581 2726.0000705719 49 46 37
-147.430628538132 296.597331762314 2798.00009727478 136 123 104
-139.05356824398 295.014411211014 2782.99999237061 156 138 118
-130.757763981819 293.431013822556 2767.99988746643 166 138 116
-123.166434466839 293.331354856491 2766.99995994568 157 125 102
-115.580089390278 293.231308460236 2766.00003242493 151 120 99
-108.076855540276 293.342918157578 2766.99995994568 137 110 89
-100.531436502934 293.348163366318 2766.99995994568 118 99 82
-92.9184183478355 293.141007423401 2765.00010490417 98 82 67
-85.4703336954117 293.463498353958 2767.99988746643 53 39 26
-77.7803510427475 292.937487363815 2763.00001144409 32 25 15
-68.2106018066406 284.459382295609 2683.00008773804 27 27 19
-60.4387298226357 282.342165708542 2663.00010681152 25 26 20
-54.0337115526199 286.904096603394 2706.00008964539 25 26 20
-46.4801676571369 285.846412181854 2696.00009918213 31 32 26
-39.0680655837059 285.424441099167 2691.99991226196 24 26 21
-31.689427793026 285.108149051666 2688.99989128113 19 21 16
-24.3723150342703 285.321652889252 2690.99998474121 17 19 14
-17.0441959053278 285.534739494324 2693.00007820129 19 21 16
-9.69069264829159 285.323321819305 2690.99998474121 22 24 19
-2.34195240773261 284.369379281998 2681.99992179871 21 23 18
4.95583936572075 283.309012651443 2671.99993133545 18 20 15
12.3182022944093 285.005033016205 2687.99996376038 15 17 12
19.7897460311651 287.018805742264 2707.00001716614 11 13 8
27.2644851356745 287.9718542099 2716.00008010864 11 13 8
34.4818271696568 286.379873752594 2700.99997520447 10 12 7
41.6946709156036 285.317689180374 2690.99998474121 8 11 4
48.9621236920357 284.891277551651 2687.00003623962 12 15 8
56.2285222113132 284.570574760437 2684.00001525879 10 13 6
63.5493621230125 284.567564725876 2684.00001525879 19 22 15
70.9491744637489 284.882217645645 2687.00003623962 16 19 12
78.2194137573242 284.666419029236 2684.99994277954 8 11 4
85.2235704660416 283.602118492126 2674.99995231628 6 9 2
92.5187170505524 283.597677946091 2674.99995231628 0 2 0
99.8508185148239 283.698856830597 2676.00011825562 8 10 5
107.38817602396 284.3297123909 2681.99992179871 25 27 22
114.786796271801 284.536212682724 2684.00001525879 58 60 55
122.195892035961 284.74235534668 2686.00010871887 84 86 81
129.326090216637 284.312009811401 2681.99992179871 152 155 148
136.535882949829 284.093379974365 2680.0000667572 176 179 172
143.787920475006 283.980399370193 2678.99990081787 168 171 164
151.203155517578 284.185111522675 2680.99999427795 93 96 89
158.687844872475 284.495413303375 2684.00001525879 65 68 61
166.373863816261 285.123378038406 2690.00005722046 14 17 10
174.091935157776 285.750955343246 2696.00009918213 6 9 2
180.967167019844 285.000294446945 2688.99989128113 0 3 0
187.943652272224 284.461319446564 2684.00001525879 8 11 4
194.746688008308 283.710092306137 2677.00004577637 12 15 8
202.642947435379 284.548223018646 2684.99994277954 15 16 10
209.87831056118 284.432232379913 2684.00001525879 12 13 5
217.673867940903 285.057693719864 2690.00005722046 12 13 5
224.246650934219 284.093260765076 2680.99999427795 17 20 13
229.646891355515 281.751126050949 2658.99991989136 14 17 10
237.064644694328 281.951874494553 2661.00001335144 7 10 3
244.951471686363 282.682001590729 2667.99998283386 10 12 7
254.860699176788 285.63666343689 2696.00009918213 20 25 19
303.932785987854 283.426076173782 2676.00011825562 164 157 141
309.697359800339 282.034993171692 2663.00010681152 147 130 110
316.104292869568 281.279236078262 2655.99989891052 135 115 91
322.959125041962 280.946880578995 2653.00011634827 147 121 96
330.045372247696 280.826061964035 2651.99995040894 147 119 95
337.125211954117 280.705004930496 2651.00002288818 149 123 100
344.84788775444 281.113147735596 2654.99997138977 150 123 102
354.049861431122 282.685607671738 2670.00007629395 145 118 99
367.121130228043 287.221908569336 2713.00005912781 126 118 107
-156.838685274124 292.278170585632 2829.99992370605 210 208 193
-147.174403071404 288.464188575745 2792.99998283386 149 134 113
-138.760596513748 286.818623542786 2776.99995040894 164 144 120
-130.622491240501 285.585761070251 2765.00010490417 167 137 113
-123.038969933987 285.488694906235 2763.99993896484 161 127 102
-115.502215921879 285.4945063591 2763.99993896484 146 114 93
-108.082205057144 285.809844732285 2766.99995994568 129 101 80
-100.536428391933 285.814940929413 2766.99995994568 116 93 77
-93.0238515138626 285.923004150391 2767.99988746643 111 94 78
-85.4745805263519 285.927385091782 2767.99988746643 75 61 48
-77.5590091943741 284.588515758514 2755.00011444092 30 23 13
-68.849615752697 279.737055301666 2707.99994468689 29 29 21
-61.3723136484623 279.327064752579 2703.9999961853 29 28 23
-53.5371787846088 276.953935623169 2680.99999427795 29 32 25
-39.3312647938728 279.954314231873 2710.00003814697 22 24 19
-31.8795777857304 279.439568519592 2704.99992370605 17 19 14
-24.5275106281042 279.750883579254 2707.99994468689 14 16 11
-17.1463191509247 279.855191707611 2709.00011062622 12 14 9
-9.75960306823254 279.959172010422 2710.00003814697 13 15 10
-2.34905583783984 277.893364429474 2690.00005722046 12 14 9
4.96165174990892 276.343673467636 2674.99995231628 11 13 8
12.2500779107213 276.136696338654 2673.00009727478 12 14 9
19.7103153914213 278.511941432953 2696.00009918213 16 18 13
27.0650684833527 278.51077914238 2696.00009918213 19 21 16
34.3175791203976 277.682781219482 2687.99996376038 22 25 18
41.7432375252247 278.300732374191 2694.00000572205 23 26 19
49.0010194480419 277.781963348389 2688.99989128113 19 22 13
56.2313310801983 277.26286649704 2684.00001525879 15 18 9
63.3394345641136 276.330232620239 2674.99995231628 20 23 16
70.8734914660454 277.256608009338 2684.00001525879 20 23 16
78.3398374915123 277.769416570663 2688.99989128113 15 18 11
85.323378443718 276.629120111465 2677.99997329712 7 10 3
92.5579071044922 276.418209075928 2676.00011825562 11 14 7
99.5945483446121 275.690376758575 2668.99991035461 13 15 10
107.353463768959 276.924848556519 2680.99999427795 12 14 9
114.706926047802 277.022659778595 2681.99992179871 12 14 9
122.156418859959 277.326762676239 2684.99994277954 12 17 10
129.284217953682 276.907473802567 2680.99999427795 11 14 7
136.287838220596 276.281327009201 2674.99995231628 8 11 4
143.52659881115 276.171237230301 2674.00002479553 14 17 10
150.702938437462 275.957554578781 2671.99993133545 22 25 18
158.636495471001 277.086108922958 2683.00008773804 28 31 24
166.505664587021 278.007715940475 2691.99991226196 9 12 5
174.423292279243 278.928965330124 2700.99997520447 9 12 5
180.572167038918 277.061611413956 2683.00008773804 9 12 5
187.182456254959 276.020139455795 2673.00009727478 12 15 8
195.047110319138 276.837080717087 2680.99999427795 8 11 4
203.18104326725 277.963429689407 2691.99991226196 17 18 10
210.279360413551 277.643829584122 2688.99989128113 15 16 8
217.684298753738 277.736932039261 2690.00005722046 13 14 6
