ply
format ascii 1.0
comment KinectMotionCapture
element vertex 779
property float x
property float y
property float z
property uchar red
property uchar green
property uchar blue
end_header
-1011.00566612055 -257.372785216713 2629.25122876387 18 21 12
-996.308981504014 -256.417148837323 2637.63442929695 18 21 12
-993.084681113874 -256.255954752426 2645.24753434441 17 20 11
-999.264456460412 -256.746381035708 2652.29598896234 17 20 11
-1006.49617776163 -257.309994287344 2659.30758592949 17 20 11
-996.980481553672 -256.712326971339 2667.21731808449 19 21 10
-1025.17246842001 -258.730532957192 2673.19900844833 19 20 12
-1003.0676268358 -257.259126570733 2681.67890503612 18 21 12
-1021.85236194265 -258.625532438806 2688.21542540876 17 20 11
-1033.30997601702 -259.483915914386 2695.14369192015 17 20 11
-1056.33821935651 -261.146724957521 2701.6612536257 17 20 11
-1102.5266737399 -264.419934521234 2707.42586546482 16 19 10
-1132.96379736713 -266.665856971973 2721.59954033212 15 20 13
-982.325162489993 -260.739285585767 2380.36295483572 26 29 22
-1031.34212801104 -264.29157625826 2380.86686639434 29 32 25
-1016.05006037007 -263.270729971396 2390.97701695565 30 33 26
-990.507994681035 -261.519276987823 2402.45819144018 29 30 22
-991.531345581889 -261.657290173305 2410.06780787021 25 28 21
-956.7142206385 -259.242861649461 2422.60074378029 23 26 19
-1014.06713790116 -263.391463620683 2422.50458047506 21 24 17
-1020.22683265572 -263.894702278729 2429.470390728 21 24 17
-1000.73914753553 -262.569813746506 2439.7812028241 21 24 17
-997.650262734164 -262.412850541701 2447.89533727822 21 24 17
-988.388874448001 -261.815192112043 2456.74925929346 18 21 14
-1017.15721708579 -263.929565319342 2460.91381034057 18 21 14
-1019.20896131386 -264.138323189079 2468.39973573806 17 20 13
-983.161481018781 -261.627481408193 2480.32272306039 16 19 12
-996.520933242905 -262.642367666013 2486.41976441695 16 19 12
-1007.83326886147 -263.51127960445 2492.80292239795 16 19 12
-1041.85902771433 -266.002859083861 2496.76562116655 15 18 11
-1061.47291910722 -267.465779481052 2502.42245269119 13 16 9
-1088.36514514015 -269.511041095585 2515.25119449443 9 12 5
-1072.86279955239 -268.463679990768 2524.59736432068 9 12 5
-1100.82322079491 -270.524777665127 2529.6931463647 9 12 5
-1096.69916858484 -270.290849141501 2537.908819375 8 11 4
-1057.29796645194 -267.591013762017 2556.98101741057 10 13 6
-1064.54695871245 -268.169852990861 2564.04712517965 10 13 6
-1052.06219909485 -267.334894390378 2572.77301028518 10 13 6
-1022.92193345896 -265.305794286795 2582.75995562693 12 15 6
-957.323812516751 -260.662041449021 2595.41821731593 16 19 10
-1015.52748521775 -264.892292418882 2598.43012232887 17 20 11
-1012.3392943672 -264.721641713356 2606.18326543474 17 20 11
-1024.71945020509 -265.725557737315 2620.34211647519 17 20 11
-994.378362606241 -263.605590280185 2629.82433449748 16 19 10
-996.378503503828 -263.806473675939 2637.12363837351 16 19 10
-1005.69636316204 -264.532885686664 2643.98430578329 16 19 10
-1012.93167631825 -265.109969559581 2651.000733959 16 19 10
-992.956240396556 -263.732136194437 2659.53404952147 17 19 8
-1007.52008505645 -264.836107625802 2666.15019983836 17 19 8
-1011.52285431419 -265.238739768734 2680.7574967138 16 19 10
-994.629350609159 -264.081046841794 2688.90547625352 16 19 10
-1031.28116394554 -266.775693918655 2694.69735360787 16 19 10
-1061.60041737586 -269.074819811538 2708.39980966784 16 19 10
-1056.26186537705 -268.749308521418 2716.06042394665 14 19 12
-992.657967064672 -269.07884848277 2386.18536888043 29 32 25
-1000.84212623959 -269.743009743017 2392.77245084426 31 34 27
-1013.12628631981 -270.70922403826 2398.80512155794 29 30 22
-997.785978125477 -269.638145066962 2408.76787868675 25 28 21
-996.762152110342 -269.622248687604 2416.66653967398 23 26 19
-1005.9845497873 -270.36188192931 2423.1644282643 21 24 17
-1007.01043659255 -270.49654198485 2430.78464797854 21 24 17
-990.583617896097 -269.342046849008 2440.66331856941 22 25 18
-993.648212226388 -269.626170958308 2447.96585520078 21 24 17
-1025.49663927256 -272.036426568139 2451.68946114149 19 22 15
-1014.17263228951 -271.314524371556 2468.54993576716 18 21 14
-1018.27979449531 -271.67491000796 2475.7788546624 16 19 12
-1003.83509743067 -270.663211814817 2485.13303008177 16 19 12
-997.619590514301 -270.259334930037 2493.48347894841 16 19 12
-1037.84304074003 -273.291050385698 2496.73712616295 15 18 11
-1067.78985519956 -275.563422942974 2501.28011018504 13 16 9
-1078.13498048005 -276.38546919941 2507.99811467126 10 13 6
-1059.52862931676 -275.063894274744 2517.68273458996 9 12 5
-1068.84104654532 -275.809086350071 2524.51133857551 9 12 5
-1080.23499959119 -276.708746414432 2531.17718428799 9 12 5
-1088.53195111454 -277.379020705781 2538.17918268701 8 11 4
-1044.94909868705 -274.258344482577 2557.57856921942 11 14 7
-1067.77098096846 -276.004905632715 2563.27707606612 11 14 7
-1058.40003293085 -275.36425585012 2571.75229570949 10 13 6
-986.607331102777 -270.091824297293 2585.18705883113 12 15 6
-943.855705799223 -266.971816929811 2595.98231630292 15 18 9
-988.530933300112 -270.339858044991 2599.96599104142 16 19 10
-982.194712586304 -269.921846707356 2607.87717699101 17 20 11
-1011.30740149925 -272.136237865236 2613.25707216975 17 20 11
-1017.49612189682 -272.648610123402 2620.32488246931 14 17 8
-1017.42402146625 -272.695984951429 2627.82084750657 14 17 8
-1002.71752212909 -271.655683243163 2636.221061162 13 16 7
-1044.39957049316 -274.859799739365 2648.67767277924 13 16 7
-1011.8695086977 -272.493509714598 2657.9817436019 13 16 7
-982.436108135161 -270.356508340257 2666.94845962753 17 19 8
-1015.8798312296 -272.897073197812 2672.61649630441 17 18 10
-1038.87241088518 -274.661007929746 2678.93780027557 16 19 10
-1056.64303378421 -276.037099885251 2685.5983968544 17 20 11
-1037.65654926151 -274.676875147064 2693.89605758263 17 20 11
-1040.72327808964 -274.958588867524 2701.20804097948 15 21 11
-1011.99979057312 -272.978478827025 2724.40136220617 15 20 13
-1031.57195559265 -279.521521210767 2372.10478121461 25 27 22
-1000.95002982879 -277.242755278318 2384.54180862387 27 30 23
-991.757027674409 -276.59703040949 2393.67998157646 27 30 23
-991.757843721178 -276.65220296201 2401.44174812781 26 27 21
-1004.04418829402 -277.644549249772 2407.46603106242 27 30 23
-1003.02264726961 -277.621003144867 2415.37800540859 25 28 21
-1005.07301111705 -277.831565424125 2422.85766651367 21 24 17
-1000.96610286241 -277.571480313078 2431.1525765478 21 24 17
-1010.19998791995 -278.330060878257 2437.68115318265 20 23 16
-1030.74745304533 -279.953164731784 2442.80670916767 19 22 15
-1016.35678644068 -278.906123626715 2452.38380275966 20 23 16
-1014.29177180662 -278.800550135302 2460.3696722904 20 23 16
-1016.33980095482 -279.008993870285 2467.84200265272 19 22 15
-1011.1741551381 -278.665469755813 2476.15595605124 17 20 13
-1016.31030968817 -279.109609028305 2483.25519477575 16 19 12
-1026.61001434083 -279.948757757173 2489.79376376725 14 17 10
-983.223880424793 -276.678777889631 2502.22422029084 14 17 10
-1033.80956529907 -280.601327306776 2504.42239697503 11 14 7
-1028.62263027508 -280.254532259606 2512.65937281519 10 13 6
-1059.64293518413 -282.680510380764 2517.19471758196 10 13 6
-1029.6083985824 -280.429983595101 2527.89845672189 11 14 7
-1061.70221464124 -282.938690307362 2532.47098709959 10 13 6
-1057.5291952913 -282.71846989277 2548.2888409029 9 12 5
-1020.1294378416 -279.900238977518 2559.28147798091 12 15 8
-1030.47246235091 -280.742144974792 2565.9791443148 11 14 7
-1038.74726630454 -281.425512482158 2572.89064675708 11 14 5
-1000.20784848733 -278.517306853109 2583.60507396621 12 15 6
-1011.59090254412 -279.438755186612 2590.21669789587 14 17 8
-1000.06408866758 -278.60199126159 2598.60406718887 16 19 10
-1012.49930155557 -279.604334114237 2605.17475769246 16 19 10
-1009.29838389181 -279.406389910551 2612.89788032121 16 19 10
-1010.26610596214 -279.528322355911 2620.31111034394 15 18 9
-1006.00869599358 -279.248924678815 2628.05942995502 15 18 9
-1014.28811446721 -279.932659716345 2634.98876218888 15 18 9
-1050.8238295048 -282.788218425623 2640.24799813358 14 17 8
-1058.09272231473 -283.395231460393 2647.36927625363 14 17 8
-1000.41491062633 -279.008980524523 2658.09817050154 14 17 8
-1001.36308851791 -279.129345784725 2665.43982625781 16 18 7
-1006.50617318698 -279.57243803545 2672.56545619059 16 17 9
-1055.74424131825 -283.408237114186 2677.6076064244 16 19 10
-1032.5623219501 -281.6728808207 2686.15148883958 16 19 10
-1051.3142342612 -283.21296859542 2700.24913170966 16 22 12
-1016.49439250495 -280.58066778391 2709.01321339852 15 20 13
-1047.0282702275 -288.369857045281 2369.35247059912 28 28 26
-1024.58204268249 -286.651711671783 2380.61696648801 29 30 25
-979.594760187215 -283.154754900857 2395.0395432789 25 26 21
-1015.41603934433 -286.029932051219 2397.63383276842 27 28 23
-1029.77102373433 -287.212225334088 2403.42507752187 24 27 20
-1016.46332476888 -286.211631652686 2413.09737284629 23 26 17
-1011.34107560954 -285.856316557424 2421.57989373616 22 25 16
-980.543551063766 -283.473480475697 2433.43066172872 21 24 15
-1018.5299228205 -286.520472304913 2436.16147110936 21 24 15
-1018.52896313187 -286.568218685368 2443.92133319948 21 24 15
-1012.35265097891 -286.1278029638 2452.4403732494 20 23 14
-993.811010855718 -284.709790449265 2462.42613822263 19 22 13
-992.753415181073 -284.672600755152 2470.21286256699 17 20 11
-1002.00017212199 -285.44953780533 2476.77764065832 16 19 10
-1000.94063445776 -285.411603612864 2484.55762481324 16 19 10
-1000.90879938961 -285.454623773544 2492.20583655837 11 14 5
-991.576719372541 -284.761851067359 2500.85734420686 12 15 6
-972.924843382636 -283.331262523369 2510.44176485927 13 18 11
-994.588306491355 -285.089543388694 2515.72820953137 14 19 13
-1018.34891602871 -287.014213944445 2520.903257355 11 16 12
-1030.74454347185 -288.039821945128 2527.31228646392 9 14 10
-1079.43569568599 -291.938875871482 2530.2839092907 13 18 14
-1079.43646422861 -291.983933810756 2538.05188530576 8 11 4
-1046.21708900904 -289.398020866596 2548.83164928459 11 12 6
-1025.41372561112 -287.794302832363 2558.33089355883 9 9 0
-1057.5917601609 -290.387210717164 2563.16295047469 20 18 6
-1058.60555300713 -290.511576021075 2570.74476725666 13 13 3
-1068.98560742676 -291.378098483548 2577.56437684245 10 15 9
-1041.87909360624 -289.273344166076 2587.35643838921 14 16 11
-1061.63688145091 -290.883227894211 2593.45474428286 18 19 14
-1028.223585364 -288.277320358716 2603.52807064945 18 19 13
-989.543122863956 -285.252512608476 2613.79151404784 16 19 12
-1003.02992367117 -286.364855981005 2620.30077543598 13 18 11
-1001.89976313932 -286.317771872403 2627.8243275032 14 21 13
-1027.95845564348 -288.428193947415 2633.62086339451 14 21 13
-1034.16416554541 -288.963615860864 2640.73720004825 18 19 13
-1025.71298669897 -288.335743451984 2648.72202605694 18 17 12
-996.286672349913 -286.042263739592 2657.81384403526 18 17 12
-994.084929982752 -285.910016920565 2665.30891043359 18 17 12
-1048.54829430022 -290.278403218973 2669.93278264353 18 17 12
-1005.41645266825 -286.895371763364 2679.48243104808 16 17 11
-1016.86949418075 -287.848252119371 2686.33406015008 16 17 11
-1016.7674804048 -287.883271294725 2693.72676351107 16 19 12
-1054.54593875982 -290.92934042607 2699.58346313095 15 20 13
-1010.23657630677 -287.450742411787 2708.71786362104 13 20 12
-986.939206598178 -285.64172559317 2716.87960694917 22 29 21
-1054.31983178195 -296.626135264059 2367.83224734728 37 37 35
-1053.34479928915 -296.59323767239 2375.9228027951 32 32 30
-1056.4587485739 -296.892716916706 2383.39889027067 29 30 25
-997.102192700375 -292.10386853846 2399.83900550828 24 25 19
-1015.54758364412 -293.650706022721 2405.00076341373 25 28 21
-1010.4277130735 -293.277585141439 2413.50335717846 24 27 18
-990.929518381814 -291.732264792177 2423.91524742744 22 25 16
-1004.2650571746 -292.862113255558 2429.85092178209 21 24 15
-995.006191633372 -292.150087436607 2438.78734485973 21 24 15
-998.072722277452 -292.442342349348 2446.09100825855 21 24 15
-983.644852764064 -291.307699400216 2455.58528196031 19 22 13
-985.671555164432 -291.514427553417 2462.97951341638 18 21 12
-993.881495822814 -292.225299732152 2469.63282614668 17 20 11
-1030.97565181606 -295.292739404687 2472.93535297598 16 19 10
-1022.71019475745 -294.659369741753 2481.6131982608 15 18 9
-990.677703008838 -292.085651723761 2492.89560832225 17 20 11
-988.5673137971 -291.953341336781 2500.72989121541 15 18 9
-983.348539133738 -291.566990944873 2508.87362588891 11 16 9
-999.851503205444 -292.9539599855 2514.7180358809 13 15 10
-1054.69059332922 -297.472254486051 2516.74593979413 10 15 11
-1057.78802770116 -297.765195249534 2524.16390966729 9 11 8
-1086.81171627467 -300.176212301064 2529.08922473354 2 4 1
-1090.96678079481 -300.55559764948 2536.48400010983 10 11 5
-1108.62444418566 -302.038490543574 2542.65777165273 10 10 2
-1070.18897859714 -298.936659142247 2553.88039828906 19 17 5
-1063.93357643438 -298.464509605461 2562.12582770346 13 9 0
-1079.51831651776 -299.777705370319 2568.50487798481 13 11 0
-1008.62683730989 -294.057556640027 2589.46468963223 16 17 12
-1058.6068010922 -298.183989463528 2593.18154169492 18 17 13
-990.743759791183 -292.670207228544 2605.77345880983 19 18 13
-990.65495709802 -292.700566190273 2613.21722552432 16 19 12
-1006.23594695334 -294.013263319069 2619.58173773411 14 19 12
-999.878022047786 -293.530534512704 2627.45412851791 12 22 13
-1025.94377378023 -295.70213890568 2633.23824662764 15 22 14
-1039.47799447374 -296.848272158564 2639.902235598 16 21 14
-1004.83290853989 -294.049301305442 2649.41944912071 19 18 13
-989.009375726513 -292.79091644412 2657.70634308183 18 17 12
-1019.32386719369 -295.311872552586 2663.45842615235 17 16 11
-1018.18094162444 -295.256322369828 2670.93992917358 17 16 11
-1000.22438563573 -293.822957617742 2679.21136907963 16 17 11
-989.599844703679 -292.990188869873 2687.04892922233 16 17 11
-1026.29797983293 -296.036329533306 2692.79087566515 16 19 12
-1025.1453765657 -295.980468805966 2700.23664335216 12 17 10
-1048.21726294108 -297.911046949426 2706.74718770411 22 27 20
-1002.79826334461 -294.225395227532 2715.78969524203 5 12 4
-1007.43012260061 -300.363396572948 2374.5205005231 34 34 32
-1034.04355921154 -302.638885636857 2378.37615751628 31 31 29
-1036.1197645022 -302.853649702406 2385.94911004733 28 29 24
-996.190253132359 -299.539011992472 2399.55163305386 24 25 19
-1000.28690337145 -299.922212687806 2406.72711884318 25 28 21
-995.15272840338 -299.529356549819 2415.18906299172 24 27 18
-1011.56832697018 -300.947293240354 2420.6895506342 22 25 16
-999.236916110021 -299.948625942467 2430.08814672185 20 23 14
-999.222315364796 -299.984916613013 2437.80459477793 19 22 13
-974.512943540086 -297.944283848926 2448.66365096754 19 22 13
-970.357080337772 -297.631226175997 2456.81024497833 18 21 12
-966.192149398915 -297.317069144706 2464.92479536038 20 23 14
-1019.75261327216 -301.858598025301 2466.08706202236 21 24 15
-1031.08546040361 -302.848296195695 2472.46918810443 21 24 15
-1018.6857240991 -301.840802456545 2481.61967776161 20 23 14
-1015.56357490419 -301.613560704021 2489.65467823804 18 18 10
-991.757440580255 -299.644917324219 2499.9255075255 15 15 7
-1014.46991760049 -301.591694375583 2505.09140824171 11 12 6
-1032.00870917919 -303.137868553605 2518.57744934543 13 12 8
-1092.11747491086 -308.269800542805 2528.0923881786 11 10 6
-1103.54325238493 -309.267242718985 2534.81465724912 3 0 0
-1093.16601632342 -308.427672351566 2543.57563511474 23 20 11
-1059.87638177187 -305.69086183389 2561.98337858368 29 23 11
-1021.33213652945 -302.475878228225 2572.87356606357 10 13 6
-1073.35926661195 -306.895082665718 2576.21273490388 9 14 8
-1095.22497853297 -308.772531299654 2582.17485348577 13 14 8
-1033.66783101517 -303.615679506294 2594.57419075031 17 16 11
-1022.1275271495 -302.675686541149 2602.97664776942 18 18 10
-1018.9247314121 -302.438539949186 2610.71847683702 16 19 10
-1005.2622694241 -301.31898214796 2619.14778528533 15 21 11
-1018.77339828092 -302.491732276931 2625.70923428979 15 22 14
-1026.02014894349 -303.136216573602 2632.72464556329 15 22 14
-1036.41585602299 -304.04660328006 2639.57467682001 20 21 15
-1017.47564187432 -302.48117143138 2648.17368740513 21 20 16
-1023.67864431654 -303.037884845381 2655.26652945279 21 20 16
-1022.54041764054 -302.974906350567 2662.77016839105 17 16 11
-1000.39264935626 -301.138072970978 2671.32139802803 17 16 11
-1002.38431462443 -301.339420277732 2678.58894066409 16 17 11
-1020.15128262044 -302.87325391541 2685.13637746411 16 17 11
-1018.99621450768 -302.80925188663 2692.57813365426 16 19 12
-1047.32404948838 -305.23615417182 2698.80617199336 12 17 10
-1049.34174716492 -305.440858855011 2706.16824818775 18 23 16
-1027.10493754321 -303.596153588561 2714.39385468772 11 16 9
-1025.96028544045 -309.513998828526 2371.30006046521 28 29 24
-1019.84359749595 -309.020004665823 2380.07522916049 29 30 25
-993.231276440345 -306.751218683137 2391.80569259045 28 29 24
-994.251489908026 -306.873727076209 2399.41252023777 27 28 22
-989.115877542878 -306.462804250626 2407.88146299591 25 28 21
-996.286588478956 -307.11703718594 2414.60839888824 24 27 18
-989.085022980181 -306.526349010136 2423.31299777685 21 24 15
-1007.56511768691 -308.159690570238 2428.54898980756 20 23 14
-1005.49780721741 -308.013010712605 2436.55228775896 19 22 13
-995.190613677813 -307.1519647184 2445.58687836696 19 22 13
-982.806294937715 -306.11049669898 2454.816060001 20 23 14
-999.259767095624 -307.56753126301 2460.43248051372 21 24 15
-1035.32905809569 -310.724871163879 2463.76944657783 21 24 15
-1047.70744568173 -311.829011643832 2470.06488618006 19 22 13
-1016.72259363037 -309.173796908255 2481.39118045991 18 21 12
-1021.86450389524 -309.650026776884 2488.49152870291 15 14 9
-1049.76329345252 -312.099465180288 2493.11330637269 16 13 8
-1038.36992023342 -311.141574575695 2502.07258771752 13 12 8
-1008.27215400449 -308.59035910773 2520.52404750551 17 13 10
-1024.81864141761 -310.05503196532 2526.48099301163 16 12 9
-1094.31294596088 -316.113923399055 2527.39505297601 16 12 9
-1099.5118315117 -316.594663153884 2534.70409198284 20 15 9
-1049.63558121035 -312.295765905393 2547.06740331638 30 26 17
-1051.68487520779 -312.502565168258 2554.54546804964 52 48 37
-1081.83176878412 -315.148264899395 2559.5965364068 11 7 0
-1108.89290113091 -317.526597704834 2565.04946976674 24 22 10
-1083.88367583653 -315.384334137139 2574.85939316211 10 15 8
-1064.05126723273 -313.691116889142 2584.12285799645 14 15 9
-1077.5810890478 -314.894738850508 2590.73421943238 19 16 9
-1057.71117103736 -313.197645583425 2599.86086630702 18 18 10
-1028.40647503358 -310.680638456858 2609.54535287228 17 19 8
-1013.69797370718 -309.431048624428 2618.07026709925 17 20 11
-1009.43021660501 -309.088304745504 2625.82109232936 15 22 14
-1015.62456867674 -309.654531184866 2632.87581122059 15 22 14
-1026.01591156487 -310.58560628076 2639.69564850158 20 21 16
-1037.3890241775 -311.630649281791 2653.98590038572 22 21 17
-1041.50809139451 -312.017244205074 2661.24154406012 17 18 12
-1013.05937767157 -309.572537800073 2670.16215779134 16 17 11
-1028.72680884512 -310.963281112623 2676.798335399 16 17 11
-1048.62092128448 -312.721909702782 2683.30887807483 16 17 11
-1044.32490508908 -312.377399444839 2690.95589802967 15 18 11
-1040.02022068995 -312.032175497811 2698.5711852289 14 19 12
-1051.52036329109 -313.061902594426 2705.54917443241 12 17 10
-1002.90167667433 -308.861869492414 2714.72651483606 8 13 6
-1000.50748082512 -314.833877050281 2374.75185510331 27 28 23
-1028.15742310896 -317.327717909075 2378.42074921123 29 30 24
-961.579047493757 -311.423668743766 2396.02877233894 31 32 26
-975.905032250195 -312.729232012358 2401.63452092103 29 30 24
-987.169809467769 -313.761776452143 2407.73686586277 23 26 17
-985.099237810119 -313.605426169247 2415.7350900845 22 25 16
-972.748200527146 -312.531876618799 2425.10809384506 21 24 15
-991.222385960993 -314.206473144864 2430.29609967796 20 23 14
-1012.80598690714 -316.158566431166 2435.1636687766 20 23 14
-1007.64647311636 -315.72534710769 2443.55701804495 20 23 14
-1006.5979782769 -315.658536014793 2451.3962334071 19 22 13
-1017.91731918089 -316.694509834771 2457.6999265137 18 21 12
-1030.28126984162 -317.823726453158 2463.92593288076 16 19 10
-1030.26970457878 -317.848692243523 2471.65987200198 14 17 8
-981.694703889886 -313.539632837329 2484.96456357869 13 16 7
-1011.62650205161 -316.235956387793 2489.18506358964 16 17 11
-1035.38910292044 -318.38180657543 2494.22693457358 17 16 12
-1064.35787252359 -320.992705141508 2498.82308056487 16 15 11
-1085.07548733145 -322.867181529706 2504.42073649113 16 15 10
-1073.67858475178 -321.8746272646 2513.38879883247 15 14 9
-1075.75020017786 -322.084239177769 2520.94796289523 13 10 5
-1074.70700219073 -322.015730036497 2528.80791649079 16 13 8
-1071.58159732008 -321.760954406025 2536.84728370795 2 3 0
-1128.80452948543 -326.969068126144 2562.87662071785 0 3 0
-1104.84031107778 -324.852398208848 2572.65397099259 8 13 7
-1087.0994042664 -323.291124479731 2581.80682905994 12 13 7
-1079.77053398455 -322.659999686938 2590.06337078063 19 16 9
-1066.16060415287 -321.467442434077 2598.73473788401 20 17 10
-1021.16878703238 -317.469925464041 2609.56018562104 18 20 9
-992.849741583865 -314.961877473799 2619.00129377936 17 20 11
-1010.546733265 -316.566880632339 2625.24491855001 14 21 13
-1014.64790857158 -316.956605242371 2632.43215714734 14 21 13
-1017.70345799201 -317.253085066343 2639.69331104975 19 21 16
-1033.34729991122 -318.675182336944 2646.22211113173 21 21 19
-1090.99461979904 -323.853627529807 2650.46606738194 22 21 17
-1024.77724310499 -317.955834328337 2661.61688927101 19 20 14
-1037.29610778186 -319.099154944442 2668.40915649183 18 19 13
-1047.72578303616 -320.05597916978 2675.35505768315 16 17 11
-1049.74674407173 -320.260830211163 2682.72915768711 16 17 11
-1045.44839738767 -319.900511260265 2690.37750577545 15 18 11
-1016.90156827707 -317.370978465918 2698.98739124389 9 14 7
-1018.89734038689 -317.573956077326 2706.26915248905 13 18 11
-1066.27244883751 -321.83801230243 2711.91768920716 10 15 8
-1096.8122909487 -324.596449207809 2718.35559308599 14 21 13
-1022.11807828182 -324.330601209148 2371.0600516037 29 30 25
-997.553497472495 -322.103434304666 2382.57445634623 24 25 19
-982.176499970898 -320.717848723273 2392.59955627705 31 32 26
-972.929249126805 -319.893590332108 2401.64903119687 26 27 21
-983.168056707122 -320.855728165884 2407.88385241201 22 25 16
-991.363966662058 -321.630426949402 2414.44477511346 22 25 16
-974.899210232036 -320.142911103063 2424.39284217794 20 23 14
-998.523457175978 -322.332086056011 2428.89367916667 20 23 14
-1010.8550906181 -323.485408429103 2434.98447892349 20 23 14
-997.450317989244 -322.277470782032 2444.42726488695 20 23 14
-1002.5770992429 -322.769223057096 2451.46164204172 15 18 9
-1011.83368366763 -323.639780703529 2458.00380051092 15 18 9
-1009.74634476232 -323.469179825456 2465.94783928566 15 18 9
-977.699583406771 -320.548888310604 2477.39607745587 17 20 11
-992.117101195127 -321.892303570085 2483.31777248001 18 21 12
-998.276961034082 -322.477762901288 2490.23228583021 16 18 13
-1048.94822021208 -327.148752776325 2492.27565700824 14 16 11
-1067.57874016161 -328.878978326916 2498.00898100326 14 15 10
-1058.24776057171 -328.042263501085 2506.75545184103 14 15 9
-1074.82558737157 -329.603533843163 2520.56133754398 13 12 7
-1087.28151167506 -330.766725296414 2527.10737408815 8 9 3
-1129.8915726617 -334.698949908391 2530.85993516488 0 5 0
-1101.82561726626 -332.217327015987 2572.39738380394 4 11 4
-1070.50756522756 -329.359180013873 2582.61562166819 9 11 6
-1057.94131558969 -328.223307455474 2591.22893162004 17 14 7
-1056.85015319082 -328.141625826229 2598.91911917494 21 17 8
-1004.51319068167 -323.351184723196 2610.25019321553 22 22 12
-1002.33174804417 -323.169007081682 2617.85215223886 18 20 9
-1012.71058486423 -324.141094088778 2624.59966416648 14 20 10
-1023.10038804916 -325.11422548223 2631.38816170918 13 21 10
-1036.64732367278 -326.37782420179 2638.02519717672 16 21 15
-985.152798157353 -321.663251312318 2648.53892603683 21 21 19
-1053.28794371505 -327.944905599085 2652.05962406307 22 23 18
-1059.4478420853 -328.549163126036 2666.75505304418 20 21 15
-1033.06891468871 -326.143137730983 2675.54331580481 16 19 12
-1008.75745051286 -323.926916114727 2684.09333330919 15 18 11
-1016.01770296943 -324.613752173365 2691.13306443468 14 17 10
-1019.06815180476 -324.913851898979 2698.37206642537 14 17 10
-1028.44983270227 -325.796335855991 2705.37115393164 13 18 11
-1052.62165688478 -328.0395475993 2711.87185090687 13 18 11
-1103.23466028695 -332.715420778781 2717.59216712855 10 15 8
-1023.26514175585 -332.003050259689 2370.4748907917 30 31 26
-1037.62823915214 -333.376275525964 2376.17571308849 25 26 20
-1008.9413785118 -330.691975634198 2388.25972115984 25 26 20
-991.498518928751 -329.066738618494 2398.55955324094 25 26 20
-976.08195286905 -327.631865545842 2408.4688604125 20 23 14
-979.136567743893 -327.93765320736 2415.72066804895 21 24 15
-1002.75764445118 -330.181866616626 2420.17591519282 22 25 16
-1005.82917894159 -330.488679716822 2427.48896561492 21 24 15
-991.39690206736 -329.145048114237 2437.09882014477 17 20 11
-980.032731857166 -328.090252521491 2446.2277072745 15 18 9
-981.023061748992 -328.199780411595 2453.73270729423 18 21 12
-993.362418257552 -329.379348306319 2459.83468221214 17 20 11
-997.455008365399 -329.781084571203 2466.98339114166 17 20 11
-1014.9830374388 -331.449665065735 2472.55862244145 17 20 11
-1009.78444922283 -330.974725031313 2480.83323630025 15 18 9
-1016.9919344158 -331.66966882554 2487.67193411826 14 21 13
-1056.30446915227 -335.392756307245 2491.00335493659 13 20 12
-1038.6808300602 -333.74534037759 2500.64599073769 10 15 8
-1033.4409832108 -333.280089835889 2516.55394270705 12 15 8
-1093.62689173038 -338.972593186715 2518.20874141223 10 13 6
-1091.55284136856 -338.79140538915 2526.20973099371 9 14 8
-1115.4659061004 -341.061987436368 2531.73149564456 1 12 6
-1095.69075855609 -339.252423551294 2564.66079509611 152 172 170
-1088.37491207269 -338.575790317243 2572.99535229778 8 17 12
-1106.10186235389 -340.262762868563 2579.29845629532 9 14 10
-1086.24076471804 -338.402055495636 2588.56114887316 12 12 4
-1078.89440084585 -337.722354904291 2596.78433756031 14 11 4
-973.198218455825 -327.759060834111 2611.99522980211 16 16 6
-1012.8671313525 -331.517010926772 2616.62780245355 17 19 8
-1016.96993261746 -331.917964105549 2623.81491780768 14 20 10
-1033.65510343041 -333.506634646594 2630.20755292768 14 22 11
-1038.82104953331 -334.008115507677 2637.38119937168 18 23 17
-1027.19579455314 -332.924279485003 2645.55906452888 22 22 20
-972.484458407544 -327.77226081725 2656.09640555854 22 24 19
-1072.21312783055 -337.203081508629 2658.03054497453 21 24 17
-1066.88917554094 -336.714747191432 2665.84909207003 20 23 16
-1062.60806682903 -336.324874309301 2673.57917115288 16 19 12
-1025.56181653743 -332.855496679139 2690.19173135547 12 15 8
-1027.56355853978 -333.05939580402 2697.49507584619 16 19 12
-1066.41923200399 -336.760240049028 2710.83419369341 11 16 9
-1055.76216883774 -335.769249738702 2718.65182698875 15 20 13
-1020.29774758511 -339.261594104534 2362.66844302619 27 28 23
-1027.48518715908 -339.972004435445 2369.42202160565 28 29 23
-1011.10244804261 -338.400623806526 2379.72755071372 24 25 19
-1022.39041649053 -339.507365225163 2385.86915606019 25 26 20
-972.100271102803 -334.652726626612 2400.94294243849 26 27 21
-974.12540530966 -334.861815131787 2408.32986129674 21 24 15
-994.653223437866 -336.86182532982 2413.14451289734 21 24 15
-1004.92023225742 -337.868405080482 2419.45505246424 20 23 14
-1015.19818691912 -338.875738011966 2425.80668530122 20 23 14
-988.404252024864 -336.293360690117 2437.06083729847 17 20 11
-976.001008526655 -335.103908683546 2446.31411337973 17 20 11
-982.14506801144 -335.710069518977 2453.15689326565 19 22 13
-997.584853239631 -337.216185408142 2458.87502589057 17 20 11
-1019.24076178981 -339.324061270509 2463.91270598786 17 20 11
-1022.31770619497 -339.632713148667 2471.24468145495 17 20 11
-1019.18923257871 -339.340099349032 2479.29747308277 16 19 10
-1015.01834980248 -338.946287295824 2487.44021547 14 21 13
-1039.84163818813 -341.360488311298 2492.35446826619 10 20 11
-1032.56358139823 -340.665407917977 2500.84097776388 9 17 6
-1023.19805847944 -339.767855850764 2509.49760544115 10 16 6
-1030.42379381577 -340.477214607407 2516.39496161192 8 15 7
-1015.84436162619 -339.074278756262 2525.49589889546 5 14 9
-1022.02988000049 -339.682627894522 2532.49029691009 13 25 21
-1075.02551455517 -344.825523240069 2535.07211209598 57 81 81
-1116.66017555054 -348.90413013861 2570.18045659148 0 14 15
-1159.47725636803 -353.061671281691 2574.55938866313 3 13 14
-1153.22972260758 -352.465374656459 2582.91334090808 18 20 17
-1105.1380235685 -347.814472902008 2594.33100874228 12 13 8
-996.181150869572 -337.273966576968 2617.28347851158 19 21 10
-1017.04008526741 -339.303953664689 2623.30857408547 15 21 11
-1037.92485435267 -341.336805993211 2629.42685080471 15 21 11
-1048.34103781793 -342.355215632726 2636.28470684365 17 22 16
-1018.86464026351 -339.507509391746 2645.54048531253 20 20 18
-986.192845556444 -336.350122122184 2654.81778699918 24 26 21
-994.483605248241 -337.162709891715 2661.7069470613 23 26 19
-1099.58958598251 -347.359514363673 2663.63985644852 23 26 19
-1058.47369871007 -343.384021119236 2673.25575686283 20 23 16
-1033.10441864652 -340.934794365924 2681.92266795478 18 21 14
-1035.11203204987 -341.13937254766 2689.24738308568 15 18 11
-1128.82644820144 -350.255999866752 2708.01706404595 15 18 11
-1074.85931279695 -345.035220825579 2717.4636388613 14 17 10
-1023.50929618685 -347.141617319322 2369.6172594046 30 31 25
-987.631828704056 -343.586316467015 2382.82995873439 27 28 22
-995.827492230931 -344.409452755442 2389.35938559189 26 27 21
-994.789236544618 -344.31471160859 2397.25425049678 20 21 13
-968.055922755846 -341.666559762497 2408.77500336854 22 25 16
-994.755914271408 -344.327136537306 2412.70889753725 21 24 15
-1007.08328048011 -345.559451943286 2418.73398182708 19 22 13
-999.858946992044 -344.848749220812 2427.4298185358 19 22 13
-1000.86555974329 -344.955531856273 2434.99607780877 18 21 12
-998.776881635652 -344.754622034484 2442.95427986809 18 21 12
-995.650118748053 -344.450075146178 2451.02095702361 17 20 11
-1024.52791697896 -347.325817687331 2455.11120649605 16 19 10
-1025.54223166754 -347.4325090616 2462.70611917033 17 20 11
-1020.35038743358 -346.922071706221 2471.02818326269 19 22 13
-1009.97428208808 -345.896162188159 2479.91100403996 19 22 13
-1018.21992443025 -346.720804062988 2486.62504189464 13 20 12
-1049.27044252353 -349.811766617934 2490.85365495624 11 18 10
-1028.5146565564 -347.75372350865 2500.81545295172 10 16 6
-1011.87748270164 -346.104854590506 2510.22523779366 10 16 6
-1011.82836224762 -346.104392201177 2517.8357958721 8 15 8
-1034.63564760175 -348.37557477012 2523.14888868918 4 15 9
-1064.74978228514 -351.372864634712 2527.85635409312 0 9 9
-1131.39845281042 -358.025530052273 2576.27970574497 0 11 14
-1119.90041171803 -356.886682912221 2584.96462227393 6 12 10
-976.450798556129 -342.634882158397 2610.78328701682 12 13 5
-1037.10202249952 -348.667780648772 2613.95080302005 18 21 10
-1002.43250555936 -345.225470438126 2623.78347979574 16 22 12
-1025.41173547982 -347.513708701708 2629.72420101464 16 22 12
-1032.67251127677 -348.239713136803 2636.74114633798 18 20 15
-1019.98094536955 -346.982305995624 2644.96591211623 20 20 18
-1006.21787379901 -345.61837852454 2653.17688814264 22 24 19
-982.966130460722 -343.311377788876 2661.82243421664 22 25 18
-1045.99682416438 -349.582245486542 2665.88064398569 21 24 17
-1051.17551588397 -350.10206822925 2673.09003230251 19 22 15
-1039.4932441767 -348.945784246784 2681.10194537608 17 20 13
-1060.49057010432 -351.038625552705 2687.60117871314 15 18 11
-1056.18166280439 -350.615910601347 2695.24971087276 10 13 6
-1086.64442243581 -353.656659728969 2709.01675524502 14 17 10
-1122.98539281664 -364.821441441694 2345.92312567309 24 25 20
-1041.05781555139 -356.47746522972 2366.53153549532 28 29 23
-1030.82402862491 -355.438720848326 2375.94993090708 25 26 20
-980.535422259577 -350.317791001559 2391.19848274999 24 25 19
-992.83947090346 -351.574964185185 2397.12129959229 17 18 10
-1009.26964299605 -353.252224499218 2402.51217251956 21 24 15
-994.857708518981 -351.786278578654 2412.27384821773 21 24 15
-988.657923494825 -351.156800848531 2420.82603097464 19 22 13
-980.386254749051 -350.315851311857 2429.61186854784 19 22 13
-991.687001129343 -351.469359416011 2435.77138981583 19 22 13
-1011.25307469245 -353.464785646907 2440.91448680417 19 22 13
-1004.0029612857 -352.727186060461 2449.53158899938 19 22 13
-1019.46655860695 -354.304046984246 2455.29346654747 17 20 11
-1028.74604103582 -355.250616221101 2461.87265107925 16 19 10
-1020.44940776987 -354.405624085061 2470.56835256754 17 20 11
-1013.1735958192 -353.664409766235 2479.09139423625 16 19 10
-1024.53050064211 -354.82205158966 2485.45774000347 16 17 9
-1049.37623784541 -357.354092881389 2490.38094267832 15 16 8
-1017.20022371497 -354.074795987861 2501.57594783016 15 16 8
-1017.15597844857 -354.069936665407 2509.20831154062 16 16 8
-1009.83766702205 -353.323633770718 2517.57677364558 10 15 9
-1047.20325732131 -357.130913246944 2521.41998673244 6 15 14
-1075.2557584344 -359.989027218637 2526.35351990042 1 14 20
-1129.42717877716 -365.502865143909 2575.92984386054 0 5 12
-1090.72838109237 -361.558093722225 2586.70695823553 9 19 21
-1056.16035210649 -358.034286138651 2596.96789306918 7 13 11
-997.453373159693 -352.050666250855 2608.78143553769 20 23 16
-988.969640459181 -351.185248224899 2616.79536933355 16 22 12
-1035.00691173193 -355.875947728997 2621.10373897213 16 22 12
-1030.72933913776 -355.43935357515 2628.8773733547 17 23 13
-1035.89478559627 -355.965154068623 2636.03381057425 19 22 15
-1041.06442347837 -356.491497087566 2643.20546720593 19 19 17
-1055.70254976806 -357.982840950637 2649.85377300377 19 20 15
-1072.46273604179 -359.690636752001 2656.44971637396 19 24 17
-1028.16611145196 -355.176612279051 2666.28605313688 20 25 18
-1023.84938042317 -354.736933416514 2673.91624745013 21 24 17
-1027.95991000112 -355.156276493968 2681.11951707385 20 23 16
-1063.72870722701 -358.80200509393 2686.92878597673 15 18 11
-1083.70457260301 -360.838644790716 2693.56733962452 11 14 7
-1054.04405569119 -357.817256475882 2702.24917277485 15 18 11
-1076.14955274237 -360.071404251108 2708.86373843105 13 16 9
-1071.83115249351 -359.633207560391 2716.48679949164 11 14 7
-1079.07737756207 -368.035400532423 2352.32231945291 27 28 23
-1013.49454573793 -361.184207771278 2370.32732903167 26 27 21
-977.578912785174 -357.431553131868 2383.52292630127 23 24 16
-975.500446947549 -357.213057468749 2391.5310763197 23 24 16
-980.610187576294 -357.745008378891 2398.47680566028 20 21 13
-1004.23573359881 -360.210688011241 2402.80789529379 20 23 14
-1016.5704294468 -361.496649611799 2408.82632369886 20 23 14
-987.7251305927 -358.481104986558 2420.53121231942 20 23 14
-976.356265305214 -357.290650786376 2429.72831529029 20 23 14
-984.562790532674 -358.144511283325 2436.2796008789 19 22 13
-1014.45014291287 -361.262812045939 2440.0677390707 19 22 13
-1021.65578385739 -362.011554123103 2446.86562413624 19 22 13
-1042.30326567145 -364.164094001891 2452.02733527106 16 19 10
-1018.50770958608 -361.674581368707 2462.66628906376 15 18 9
-990.536755579353 -358.748769282294 2473.66447592395 16 19 10
-1057.79729678815 -365.768847994592 2473.47173689526 16 19 10
-1032.91767162593 -363.16563599979 2484.05385888631 17 17 7
-1018.37094049422 -361.641353040351 2493.35189197761 17 17 7
-1018.32895848334 -361.631845331114 2500.99559346028 17 17 7
-1028.66830176813 -362.706355214483 2507.53273821231 19 16 9
-1031.7450893979 -363.022267526577 2514.85954774524 13 15 12
-1030.66343809086 -362.903791147382 2522.60827839881 8 13 16
-1030.61781927752 -362.893458459009 2530.23899799543 0 11 19
-1056.30194161138 -365.528569462354 2588.86576860594 14 25 29
-1074.04612843915 -367.375353297981 2595.13197204394 10 19 18
-1066.66647851644 -366.59908080732 2603.29161756853 12 17 10
-1029.91715133741 -362.756540005844 2613.44955001527 15 21 11
-1032.9830692967 -363.071021887064 2620.73690569125 16 22 12
-1039.19972057571 -363.714692589274 2627.8255229153 17 23 13
-1033.86561712293 -363.152449210776 2635.65211402112 19 22 15
-1053.75249483736 -365.223450463449 2641.93857983507 19 19 17
-1070.50748716891 -366.967565423025 2648.49323812326 19 20 15
-1074.64981518695 -367.39509192774 2655.80940253516 20 25 18
-1033.49686500968 -363.094304315283 2665.49306948259 21 26 19
-1047.10151609191 -364.5100845283 2672.24738268537 21 26 19
-1007.97827780841 -360.421776375092 2681.53925388349 19 24 17
-1072.24624362902 -367.126700275525 2686.02085177644 18 21 14
-1058.43253354075 -365.681068930061 2694.09540046045 17 20 13
-1078.42165255359 -367.764183731591 2700.75382031602 10 13 6
-1065.64579878361 -366.427477538265 2708.71570704999 13 16 9
-1099.42095917722 -369.95016213931 2714.99424646734 11 14 7
-1070.74941389 -366.954869313656 2723.43421269412 17 20 13
-1023.85648316327 -369.807664950284 2360.49246109393 21 24 17
-990.012433366819 -366.180317660352 2373.5076873346 19 22 15
-974.598231438503 -364.524761549793 2383.56509977986 26 29 20
-962.24165632503 -363.196283850062 2393.07849094896 23 26 17
-968.370514296205 -363.845282211577 2399.83778522286 18 21 12
-1001.25418939216 -367.356537353885 2402.81363041829 20 23 16
-1005.35379299962 -367.787845292768 2409.96878006789 20 23 16
-984.72980863676 -365.573486640815 2420.51955006057 19 22 15
-1002.22006838217 -367.436819688036 2425.83159468176 19 22 15
-1010.44637468201 -368.308673287244 2432.44403458984 18 21 14
-1013.51890730229 -368.628779701301 2439.75332719254 17 20 13
-1023.82444208578 -369.722428254285 2446.15286445146 16 19 12
-1035.17522739388 -370.927763427344 2452.46544955289 16 19 12
-1008.26057141056 -368.039357214551 2463.46459842806 17 20 13
-1002.01057357732 -367.361382756205 2471.86096916166 16 19 12
-1016.46865173651 -368.898327370982 2477.81107258956 15 18 11
-1056.86081819809 -373.209151948701 2480.8835675829 21 21 11
-1023.65004356826 -369.646884065887 2492.31168326118 15 12 3
-1022.57207566431 -369.521497358473 2500.07845248801 23 20 13
-1059.92646946923 -373.506499962821 2503.76789010668 19 18 13
-1048.47049573045 -372.270849266859 2512.67011117209 16 17 12
-1047.39839259233 -372.145736484143 2520.45848218326 16 21 24
-1104.61664921981 -378.254160896901 2522.52227044755 0 9 16
-1044.81163818724 -371.762254506352 2596.82110310074 11 22 26
-1061.51437182652 -373.537353746422 2603.16217325428 16 18 13
-1061.45552397652 -373.520523143893 2610.74787847344 16 19 12
-1045.65058032517 -371.820642297141 2619.38252780239 19 20 12
-1034.02225196196 -370.567426350109 2627.65591970781 20 21 13
-1023.42641993135 -369.424826301904 2635.79568163796 20 21 15
-1030.69182401457 -370.191513666066 2642.80412580945 21 20 16
-1045.33137103549 -371.746557741426 2649.41656050212 19 20 15
-1021.02230384952 -369.138964326852 2658.22349824749 19 24 17
-1065.17684029509 -373.848842928077 2663.3231035919 20 25 18
-1052.44282314557 -372.478676228897 2671.46144670961 20 25 18
-997.478249613358 -366.595616086858 2681.51917924978 19 24 17
-1006.85107145036 -367.588853423915 2688.41545091455 18 21 14
-1050.04801349012 -372.196945070429 2693.92027925245 19 22 15
-1079.5541251286 -375.342172441139 2700.17412366995 8 11 4
-1094.28394147894 -376.908407578501 2707.11464523976 15 18 11
-1129.14878810787 -380.626653608144 2713.41825942113 12 15 8
-1051.7456852001 -372.348304752816 2723.5076213477 14 17 10
-976.815787636794 -372.198355053173 2359.67764535989 17 19 14
-990.130310758031 -373.646549741519 2365.33430550424 22 25 18
-994.222878997868 -374.083983109472 2372.46039596002 21 24 15
-981.885220918609 -372.721184897498 2382.06569054425 24 27 18
-955.138377310778 -369.779805731052 2393.72133822904 22 25 16
-956.120425492426 -369.875667193068 2401.20421814929 20 23 14
-996.211389921678 -374.255050961459 2403.11419532422 21 24 17
-1015.75626284709 -376.383429662973 2408.09463927021 21 24 17
-1003.3750185448 -375.014557828527 2417.54287034075 19 22 15
-1022.94618733525 -377.1451041452 2422.61864813854 18 21 14
-1026.02789106566 -377.46921733011 2429.95946161035 17 20 13
-1014.6517527255 -376.209815385153 2439.17309115868 17 20 13
-1019.79299173445 -376.759042109568 2446.22486076671 16 19 12
-1036.31474101128 -378.554281511024 2451.88125601093 16 19 12
-995.934686220764 -374.118395762173 2464.5188969143 18 21 14
-982.422613672728 -372.624582228742 2473.74378637694 18 21 14
-1039.36229503448 -378.84462634443 2474.70280844178 16 19 12
-1013.41068900349 -375.988567410221 2485.36083027476 20 20 12
-1048.6505864811 -379.831861796258 2489.08166537917 16 16 6
-1046.54940700213 -379.586643463214 2497.02142637137 29 30 24
-1052.75609238262 -380.250881724062 2504.0600568877 1 2 0
-1062.088177385 -381.257199692415 2510.7968222439 16 21 17
-1102.64989082115 -385.681561383214 2514.42713053405 0 3 5
-1165.13340206837 -392.504876702558 2516.10497257985 23 36 42
-1047.96942453802 -379.525668267097 2603.64393188312 14 14 12
-1043.70299553094 -379.043745443863 2611.48755836935 20 17 12
-1028.92839672978 -377.412531465997 2620.00800313443 23 19 10
-1017.28281793036 -376.123700377861 2628.23983308682 24 20 11
-1012.97822419957 -375.638287876011 2635.94396463438 21 21 13
-1027.60273902526 -377.223422686638 2642.48159001739 19 20 14
-1011.71291825881 -375.471267077095 2650.83411080204 19 22 13
-1018.9759702059 -376.251604106199 2657.82520426922 21 24 15
-1033.62598585455 -377.839861513571 2664.45553776577 23 26 17
-1031.41385871564 -377.584295484436 2671.98990483538 24 27 18
-1028.14014779035 -377.2129009225 2679.55319684957 23 26 17
-986.82998405063 -372.682614165647 2688.79712537548 19 22 13
-1021.57145243922 -376.468799602869 2694.60069596916 17 18 10
-1091.26493314517 -384.076693679959 2699.17261919464 16 17 9
-1132.46960846073 -388.569409418768 2705.14696375837 13 14 6
-1058.27096057959 -380.444895651123 2715.34682554642 13 14 6
-1097.38375636237 -384.709500901935 2721.4910891911 16 17 9
-981.019234328568 -380.082032596808 2358.61698761268 26 28 23
-1008.704586054 -383.170052461025 2362.04221651879 27 30 23
-1006.64976560569 -382.923668178798 2370.15483562499 24 27 18
-1002.53399433855 -382.446056704059 2378.55510281175 22 25 16
-937.746621132647 -375.167532982587 2395.88696834736 20 23 14
-942.831121737806 -375.720942176682 2402.72543879013 17 20 11
-995.281910406268 -381.582518233238 2402.8306106099 17 20 13
-1003.49850982166 -382.485944962435 2409.38707713711 17 20 13
-1003.47496160117 -382.465514007832 2417.1061160359 14 17 10
-1009.63898546187 -383.13833558728 2423.98093363264 14 17 10
-1015.8087313005 -383.811407440233 2430.87590877986 16 19 12
-1038.51485615761 -386.337020074905 2435.65277867448 16 19 12
-1048.84241912084 -387.475212466197 2442.10597959974 16 19 12
-1005.38102686874 -382.587099060425 2455.27862147743 16 19 12
-987.739747148972 -380.591679963406 2465.07547206704 17 20 13
-983.539839304315 -380.102200316572 2473.17084957434 17 20 13
-994.882775642401 -381.353476263522 2479.42528838887 16 19 12
-1066.41234005813 -389.345779193068 2478.88257378797 22 27 21
-1052.9054030143 -387.813040254999 2488.1501768114 11 17 13
-1064.31044149953 -389.070177135451 2494.63241746251 6 18 14
-1050.77737514293 -387.534416211839 2503.80491539232 6 21 18
-1068.43271719556 -389.491136573759 2509.67184742586 11 21 20
-1102.76658654102 -393.315206142212 2513.93723557997 0 18 20
-1010.19160255645 -382.709264216835 2613.33997055426 17 16 11
-998.538178293316 -381.385790186853 2621.56454357746 23 20 11
-1007.88733451634 -382.412452240813 2628.35184683944 24 21 12
-1025.66075568517 -384.381666577394 2634.64836642449 20 23 14
-1023.45786994259 -384.116085351094 2642.22429708111 17 22 15
-1018.08985297328 -383.496832387845 2649.96096681426 20 23 14
-1019.03527132826 -383.583886745155 2657.3124786897 21 24 15
-1044.23576393608 -386.384036970908 2663.3835487061 22 25 16
-1024.08754029906 -384.112336954351 2671.84060697877 24 27 18
-944.770164130148 -375.224133487591 2683.00031851796 23 26 17
-1015.40463151027 -383.10577060172 2686.99679342903 22 25 16
-1012.10760463 -382.719895088508 2694.48266038677 17 18 10
-1095.33981693391 -391.959670539141 2721.014855312 16 17 9
-1112.23222765008 -393.832265325516 2727.99860569237 17 19 8
-986.250861271488 -388.098471289795 2357.39269377379 7 9 4
-988.288111437155 -388.311502787515 2364.82210741336 22 25 18
-1011.89510763784 -390.996924901202 2368.94652031754 19 22 15
-1013.94695800656 -391.210720723015 2376.42965909525 19 22 13
-993.369759466454 -388.830322424316 2387.2589644187 20 23 14
-983.054030025079 -387.626073948407 2396.47761395396 13 16 7
-1022.15217849337 -392.062590149157 2406.35620882333 15 18 11
-1002.51385955433 -389.7662948452 2424.51461224634 15 18 11
-1012.81062735492 -390.922934618662 2430.84183005703 17 20 13
-1032.42123310147 -393.14619353533 2436.00549566133 18 21 14
-1037.57529105512 -393.712911263251 2443.09474561712 16 19 12
-1018.92821248408 -391.552768096209 2453.15758074183 15 18 11
-986.787749752037 -387.847107722714 2464.75376484887 15 18 11
-1017.82349590357 -391.377978782794 2468.64886836282 15 18 11
-1033.34150728689 -393.13096616646 2474.5015776321 14 17 10
-1046.80204957604 -394.647930060895 2480.65789007382 11 17 13
-1088.32044435142 -399.377592511597 2483.7501683482 5 16 12
-1061.29818035273 -396.258044459257 2494.49664963248 1 17 14
-1062.31660920177 -396.349499197249 2502.11645699269 2 22 20
-1056.04802995229 -395.606583633751 2510.48483898375 0 10 7
-1039.65576793685 -393.405063448709 2610.77379153432 18 21 14
-1015.40754502951 -390.607292505794 2619.92670029659 19 21 10
-1023.71890935761 -391.533810213504 2626.82043193621 18 21 10
-1030.98666314081 -392.341083138974 2633.81104746198 17 25 14
-1022.46803342039 -391.343214401891 2641.77903790767 18 26 15
-1024.47107851786 -391.548766162507 2649.08617714749 20 26 16
-1020.14811820883 -391.031248715046 2656.74238657173 22 25 16
-1036.91709115683 -392.925382471933 2663.25423813363 21 24 15
-1041.03726161919 -393.373568435508 2670.47509258326 22 25 16
-976.49049661233 -385.972710595077 2680.98395477147 23 26 17
-1047.17139811167 -394.029904984261 2685.04292181592 25 28 19
-1084.09297173778 -398.22787000057 2690.88725000722 21 22 14
-1076.60067731578 -397.349667128717 2698.6930220902 19 20 12
-1108.06667441507 -400.861521711203 2727.57827842765 15 16 8
-961.693607806567 -392.618532789138 2368.57170612441 12 14 9
-989.399899696128 -395.839526541014 2371.99072900439 17 20 13
-1012.00040791167 -398.461467140025 2376.3146485753 13 16 7
-1016.10788427321 -398.916098963568 2383.48430273804 14 17 8
-989.327004135793 -395.751451437066 2395.15546843627 14 17 8
-990.327058668713 -395.841589823148 2402.70788663768 15 18 11
-1006.79217905348 -397.742924280935 2408.08704704021 16 19 12
-999.544830973289 -396.866369739572 2416.80214523508 18 21 14
-975.763722939873 -394.053353920318 2427.69805576651 18 21 14
-994.310629866261 -396.197567949265 2432.85957034165 19 22 15
-1032.52576045508 -400.644246763072 2435.55695636529 19 22 15
-1005.60484887484 -397.463338997262 2446.71754960307 16 19 12
-976.5727536504 -394.035631840977 2457.98911775676 14 17 10
-1031.42415461279 -400.428598813964 2458.87915934217 14 17 10
-1038.65352669527 -401.245585470836 2465.7211383943 15 18 11
-1036.55149803526 -400.970122004544 2473.67777076002 14 17 10
-1040.67351016597 -401.423026745086 2480.90248377452 10 16 12
-1056.22703046162 -403.213567654639 2486.86332134542 12 23 19
-1051.00481809933 -402.572589770551 2495.15505098521 11 30 26
-1081.79742211339 -405.753034737177 2599.68134728033 0 4 0
-1071.24242534461 -404.489862179869 2608.04884570434 16 21 14
