ply
format ascii 1.0
comment KinectMotionCapture
element vertex 761
property float x
property float y
property float z
property uchar red
property uchar green
property uchar blue
end_header
302.273677162727 613.739710173703 3534.85056963829 151 149 150
308.758634413604 613.651712658686 3542.8712479068 146 144 145
313.794274004564 614.018153969362 3554.61741020901 145 143 144
319.973905017712 614.03845516553 3563.59270853844 144 142 143
327.274675089348 613.714486573235 3569.7878759581 132 130 131
335.312706971279 613.161672408505 3574.12541654435 130 128 129
344.072663485856 612.381192505154 3576.59936866618 127 125 126
354.251363740186 611.147859225062 3575.33544557299 119 119 119
368.645765590932 608.560206740679 3562.84222621168 123 123 123
382.25188152346 606.204515843574 3552.18595076477 154 154 154
393.343197649267 604.642596810849 3548.05734831739 154 154 154
403.356087281458 603.420691362667 3546.72646028264 139 139 139
413.686659611141 602.08813337379 3544.44597307153 157 157 157
422.964181651482 601.093553986275 3544.97323311677 171 171 171
430.196738880971 600.770506561905 3551.14077465685 166 166 166
435.094290351982 601.226891178337 3563.90915245355 169 169 169
441.374717197773 601.233318563486 3572.92536746247 175 175 175
448.015779499136 601.125660453374 3581.00940058387 180 180 178
456.322089221632 600.460782515046 3584.3776062399 186 185 181
-52.3781751696022 651.561553773181 3640.19055052857 211 211 209
-44.3617980946924 651.105263486263 3645.59765698188 200 200 198
-35.4444890376668 650.412809187675 3649.21346096863 185 185 185
-26.9685781312696 649.837168244957 3653.72846869586 161 161 163
-19.8061669712768 649.61171239543 3660.94567701437 143 143 143
-8.24961911005029 648.215706496955 3659.16205954345 150 150 150
11.9725739606078 644.488674759094 3639.32706284547 155 155 155
43.7340250386773 637.627192346932 3595.05811070379 155 155 155
70.0713476970145 632.181244417986 3561.52896458717 158 158 158
92.3573012537724 627.795448171365 3536.06119985651 171 171 171
104.290682273579 626.202464946705 3532.27403621408 187 187 187
114.073794903761 625.190453819286 3533.00613844133 189 189 189
122.583632525156 624.525590294747 3536.45675099498 181 181 181
134.430374201217 622.938012242356 3532.63420949873 150 150 150
147.480532930437 621.008038798666 3526.06509388997 168 168 168
166.654854823727 617.35891707336 3505.80523102641 199 199 199
183.241345491496 614.407660067061 3490.96564729055 186 186 186
194.844254561504 612.837541941872 3487.0445045816 175 175 175
201.959266900125 612.527124952592 3493.16435729142 180 180 180
212.304468872003 611.302418331 3491.96778417841 182 182 182
220.229021512098 610.762480360583 3496.25928022416 187 187 187
228.555736340563 610.108060536711 3499.63566849363 175 175 175
234.517514350724 610.133965477943 3508.522717208 164 164 164
242.468425761406 609.590653965328 3512.82491130407 163 163 163
251.202897933028 608.820382464782 3515.28846761876 158 158 158
262.638727775456 607.259915147469 3511.2996025617 154 154 154
272.113915275091 606.26548587528 3511.90689481564 158 156 157
280.047962854554 605.721747057373 3516.20226410457 163 161 162
286.092216248824 605.738547256089 3525.12277553015 161 159 160
293.672819669996 605.304169741298 3530.35327422011 155 153 154
300.141964222169 605.20415474195 3538.367641128 148 146 147
307.007873783073 604.989995833419 3545.46471241823 147 145 146
313.156352985876 604.996775021646 3554.4275000931 151 149 150
318.968957814921 605.11191745053 3564.332281389 146 144 145
324.817017854384 605.223832396828 3574.25144271228 136 134 135
331.784141667048 604.999915551887 3581.38982612628 125 123 124
339.847644689022 604.441885334975 3585.73771933326 120 118 119
350.053089214196 603.220181660064 3584.48453665695 101 101 101
363.769234205636 600.897467198521 3573.87256124546 125 125 125
379.16461645861 598.030058885329 3558.55007058601 154 154 154
392.018406235626 595.939351626527 3549.74479138242 150 150 150
402.729809884131 594.511366746858 3546.54041524539 143 143 143
412.718497913035 593.30474411928 3545.19935508647 162 162 162
421.317595804932 592.536739750642 3547.60808212845 169 169 169
427.880822253379 592.423054104306 3555.66064575055 166 166 166
433.461252700209 592.63349653959 3566.54976430296 166 166 166
441.081994913899 592.188382640474 3571.79633905847 172 172 172
447.719910898305 592.067458993963 3579.87945603407 179 179 177
455.039234394597 591.727584519792 3586.0822561664 187 186 182
-54.4214003823473 642.2979296621 3642.67016049217 212 212 210
-46.3974431747383 641.835240533509 3648.08038458908 215 215 213
-36.5820001190893 640.91249274395 3649.90370872859 162 162 162
-28.5459823865219 640.448011217133 3655.31882963265 160 160 162
-21.3789605398518 640.210982052277 3662.53799250815 125 125 125
-12.0032803859107 639.401236416589 3665.26146860329 115 115 115
4.76249051123134 636.654812460322 3652.65053787252 138 138 138
34.4106219801459 630.503390285709 3612.91483344751 152 152 152
63.3863567792159 624.484029051465 3573.98494475024 154 154 154
86.5690837296633 619.955942457179 3546.72373945973 177 177 177
100.658976073276 617.81652672949 3538.41931864027 189 189 189
111.727662291653 616.472264161074 3536.43777724011 189 189 189
119.828296926616 615.919062969419 3540.80066817188 159 159 159
131.272341552434 614.464743540829 3537.89313279386 148 148 148
145.584319066003 612.22636842249 3528.60057463089 196 196 196
167.656746331413 607.862472045252 3501.96738047652 205 205 205
183.00850545869 605.302263043797 3489.8615802917 174 174 174
193.389686709621 604.08920155628 3488.67948666738 176 176 176
199.295920446426 604.104593028546 3497.54412558752 183 183 183
211.665159446326 602.335695077929 3491.77689763107 178 178 178
219.989347466944 601.681774328821 3495.15225903106 187 187 187
228.313915028865 601.027345300544 3498.52777795726 173 173 173
233.48363387589 601.258437615601 3509.25018854055 163 163 163
240.261566866945 601.043771498988 3516.31189981088 163 163 163
249.006865450049 600.275218028542 3518.77956941426 158 158 158
259.294403424634 599.066133182413 3517.55978737431 153 153 153
269.172554238351 597.9684562685 3517.25221106984 158 156 157
277.885510555175 597.201209917034 3519.70677561074 160 158 159
284.697465372345 596.981666487155 3526.78229904656 164 162 163
291.529910626996 596.760056731521 3533.86587735124 159 157 158
298.008637614256 596.645504142117 3541.88423431029 144 142 143
304.141134798566 596.637469784073 3550.84066326155 149 147 148
311.41121220549 596.300361239308 3557.02350303558 150 148 149
316.497438879118 596.61285169639 3568.79055662256 143 141 142
321.993296430587 596.812934020293 3579.64525350803 143 141 142
327.529564736077 597.009420717258 3590.51659690243 129 127 128
334.900821757905 596.662532506216 3596.74047771418 113 111 112
344.425325302147 595.667603254103 3597.36774147551 82 82 82
358.53415741625 593.275487024965 3585.83622297934 124 124 124
373.966759485655 590.460093981961 3570.52840809877 155 155 155
388.600220681923 587.866618819186 3557.05296094013 148 148 148
400.718524742817 586.028496969257 3550.10584775643 152 152 152
412.093419760212 584.407877471155 3545.01370118683 170 170 170
421.034243718701 583.536186988041 3546.48276846549 168 168 168
426.23994698263 583.834375088459 3558.29804846034 165 165 165
431.826865768646 584.022485187286 3569.18996336842 164 164 164
439.788749343034 583.465512284716 3573.49670356559 171 171 171
446.43117467988 583.330602419236 3581.58175235783 179 179 177
454.083940448994 582.876734639159 3586.84135957648 190 189 185
-55.1145273693154 632.679547098027 3642.46242299479 191 191 189
-46.6427406555412 632.098853058112 3646.9757991667 224 224 222
-36.8291741069682 631.181389271558 3648.79858069701 157 157 157
-29.2384869078097 630.823153405225 3655.11139324783 173 173 175
-22.0718736849295 630.574858931445 3662.33047606242 189 189 189
-14.4463725202875 630.213057842492 3668.65741156507 159 159 159
3.2036449352244 627.292309719473 3654.24821105505 128 128 128
29.4057039873412 622.159171144802 3621.74047756811 146 146 146
60.566767838677 615.711956098712 3578.30435822065 161 161 161
81.6314615841658 611.828429926101 3555.57498861595 173 173 173
97.8747260244877 609.170267641624 3542.75182971669 190 190 190
108.957512083751 607.841201431324 3540.77613928468 185 185 185
117.910927928478 607.064019777829 3543.32813949471 155 155 155
128.946943181979 605.737767903235 3541.33323333577 148 148 148
143.686992729402 603.42700279483 3531.13573906487 196 196 196
166.186165627061 599.043065829645 3503.59667495775 197 197 197
179.907474657723 596.965519907154 3495.14254840533 167 167 167
189.897954913014 595.873713453478 3494.8801517743 175 175 175
196.630568006711 595.653581867822 3501.92355476547 181 181 181
209.417088743205 593.802185321282 3495.24684117996 179 179 179
218.950810370684 592.822067524428 3495.87772501122 181 181 181
226.88108629628 592.275513756273 3500.17184574728 165 165 165
232.449269010875 592.376247793106 3509.97777146933 160 160 160
239.621486503548 592.042439186272 3516.12096344354 164 164 164
247.9777749278 591.384181899267 3519.50935493972 160 160 160
257.108316779249 590.510616579662 3521.05499463571 152 152 152
266.613362102661 589.530230268264 3521.67426966952 142 140 141
276.485246022273 588.443570462709 3521.36407243728 161 159 160
283.681336897784 588.105808136954 3527.51696054348 165 163 164
290.139120839147 587.979554866857 3535.52692649933 169 167 168
296.996540847901 587.744513870618 3542.62097593701 159 157 158
304.617966154053 587.294982195865 3547.86786075736 145 143 144
311.511048405567 587.056284295507 3554.97612007671 145 143 144
316.590863381157 587.344535432867 3566.74076133993 148 146 147
321.352149903614 587.734395676858 3579.45447065926 157 155 156
327.248959118519 587.803534074465 3589.3936944135 155 153 154
333.899293503974 587.659090950576 3597.48201778309 130 128 129
341.28797906178 587.302154374396 3603.71303144966 87 87 87
354.001996362808 585.371581462149 3595.92875372776 116 116 116
369.466747470006 582.608665213722 3580.63355800543 151 151 151
386.225578102798 579.435823271431 3561.54994325583 152 152 152
400.091148228892 577.105779923225 3549.9194592056 166 166 166
411.468183916037 575.509857682616 3544.82799217958 174 174 174
418.020413386123 575.370198422156 3552.87655730237 168 168 168
423.920098350903 575.435313196965 3562.81697592536 163 163 163
430.191102013298 575.393859303683 3571.82973848101 165 165 165
439.495724471246 574.420893801719 3572.36780746631 170 170 170
446.466287261772 574.169631332432 3579.50753334396 180 180 180
454.113907069186 573.71084577014 3584.7653515011 184 183 181
461.118967069259 573.456043174211 3591.91907188812 186 185 181
-51.3019765922702 621.96349122813 3633.29846950963 189 189 187
-47.7836111662409 622.585586842992 3647.66504209979 209 209 207
-40.1941310965221 622.219287177237 3653.97742701384 234 234 234
-30.8166104890799 621.415109757653 3656.70134886348 211 211 213
-23.2049866912951 621.04624870844 3663.022719031 138 138 138
-16.0150940281623 620.784423620153 3670.25133008469 166 166 166
-0.0970669386066714 618.351454392283 3659.45265149363 185 185 185
23.5313861294337 613.975661051623 3632.37076321451 163 163 163
52.5820170013755 608.208030832823 3593.469291355 153 153 153
77.1177279135127 603.537222094974 3563.52029984015 178 178 178
96.7893638263624 600.064879387629 3543.46045596922 186 186 186
106.18562284035 599.181529590644 3545.11375682879 180 180 180
115.572399480634 598.298632183839 3546.7632149133 147 147 147
127.0376559955 596.88067966644 3543.86399242787 144 144 144
144.694131269651 593.861967408977 3527.30053289757 197 197 197
164.302476161092 590.318182186136 3506.13653908452 190 190 190
178.034195529642 588.275342951202 3497.68662176361 164 164 164
186.811010724335 587.51251169282 3500.16700884732 179 179 179
194.368311755629 587.067905609947 3505.38815009418 181 181 181
206.36265170884 585.457386992341 3500.54673583633 182 182 182
215.112782286814 584.6954689701 3503.01656881192 180 180 180
224.25561094355 583.828013658118 3504.56713703628 160 160 160
231.414628934537 583.487330489448 3510.70503673292 157 157 157
239.373719060738 582.934823009838 3515.01061203598 165 165 165
246.948374764234 582.486421016653 3520.23880883885 158 158 158
255.694984121467 581.722689810535 3522.7072298405 156 156 156
264.436816123995 580.958924086528 3525.17345956011 146 144 145
273.937921521769 579.986620821411 3525.79107807861 156 154 155
280.76685858635 579.743614761882 3532.87365534664 159 157 158
288.747408781753 579.186956220999 3537.18795114387 168 166 167
296.358554208561 578.733152619114 3542.43096332036 180 178 179
303.979982820344 578.278121281009 3547.67789116508 174 172 173
309.764387180679 578.338262361786 3557.57167118586 160 158 159
314.850464518311 578.601299925451 3569.3390391472 173 171 172
320.710896672375 578.654580601193 3579.26365428398 156 154 155
326.244872081801 578.80728363644 3590.1344011692 139 137 138
332.178662629202 578.853915398736 3600.08876899758 131 129 130
337.791089497 578.999541532461 3610.9910767379 115 115 117
350.528014318618 577.100174583093 3603.21609480294 128 128 130
367.07233192019 574.084721006562 3585.12324042658 154 154 156
384.547153280048 570.773127615863 3564.17270344352 144 144 146
398.077225919475 568.587761518731 3553.48409036294 148 148 150
410.154591673543 566.813107557645 3546.51992047902 135 135 137
417.736003456898 566.356255373272 3551.75065959444 169 169 171
423.971159007192 566.301681439286 3560.74900694936 163 163 165
429.899901140162 566.344977171573 3570.70135599664 164 164 166
438.868968780401 565.4810017156 3572.18180046449 167 167 169
446.170529855693 565.118683859754 3578.37757883289 176 176 176
454.802257144234 564.35461533435 3580.79923022765 184 183 181
463.102039876206 563.690463733607 3584.16478764593 183 182 178
-54.2463096174994 612.904458803095 3637.56929283039 230 230 228
-48.4763561356278 612.958895022151 3647.45752226053 183 183 181
-40.8871231290007 612.584007171945 3653.76987223657 162 162 162
-31.5091017994018 611.782211013244 3656.49397877577 171 171 173
-25.2195600496863 611.72323849846 3665.51438005824 148 148 148
-18.4606563387346 611.55551859718 3673.64683881152 140 140 140
-3.40008131200142 609.376554255021 3664.65667494334 134 134 134
19.3845031230631 605.303208697544 3639.38869126437 140 140 140
46.7431950456931 600.083402817855 3604.11324550452 154 154 154
70.8889049563905 595.61612982219 3575.08386796689 173 173 173
93.1513976996814 591.582360741776 3549.60393584882 181 181 181
103.83476508719 590.388665399495 3548.54404846397 188 188 188
114.073009146143 589.30110422312 3548.38219469331 146 146 146
125.962862555113 587.797258652779 3544.57673138997 139 139 139
144.872428220187 584.525835683423 3525.28561589182 204 204 204
162.417579380018 581.575724943605 3508.67630480759 167 167 167
174.519010028374 579.982569481415 3503.87837643339 165 165 165
183.721775082031 579.117329437015 3505.45319568986 186 186 186
192.104539380162 578.45921612 3508.85230598888 181 181 181
203.305916334851 577.078608713818 3505.84595746998 178 178 178
212.471936285451 576.215084393006 3507.40588588938 168 168 168
222.423194287123 575.146464801523 3507.12768992171 161 161 161
230.379612500446 574.591718192349 3511.43220035814 161 161 161
238.341318849441 574.036248319613 3515.73911463199 161 161 161
245.138719871175 573.786271703335 3522.80871878767 164 164 164
252.344009443513 573.432388235613 3528.96545357502 157 157 157
261.104075352442 572.66986238403 3531.43931390303 155 153 154
270.623894189252 571.704265814291 3532.06445852572 149 147 148
278.989327781491 571.043430913582 3535.45657237335 161 159 160
287.354875980907 570.382258164196 3538.84873518542 162 160 161
294.971174157495 569.92252244407 3544.09362141115 153 151 152
302.225444173511 569.562277639336 3550.27023625094 159 157 158
307.2772088721 569.803764631361 3562.02387461486 174 172 173
313.475877028334 569.740156192719 3571.00751696105 156 154 155
320.434065165855 569.473435715738 3578.14234959669 155 153 154
325.964436783232 569.604491856935 3589.011544183 171 169 170
330.816288815499 569.931375773412 3601.76240018015 182 180 181
335.361722188935 570.35340454479 3615.46753362728 119 119 121
348.114115466723 568.485813881324 3607.69831667869 132 132 134
365.37969074151 565.333971154892 3587.74065471255 146 146 148
383.566110258117 561.894997607885 3564.92158801063 152 152 154
396.40836824325 559.947949324715 3556.11055077019 147 147 149
407.807364894474 558.399871435318 3551.02761293607 175 175 177
415.401364846186 557.936636650741 3556.26375451674 166 166 168
424.361957838795 557.079734082182 3557.7404568226 154 154 156
431.292102024471 556.81084193139 3564.86395112117 165 165 167
438.576167671099 556.44219908831 3571.05269365591 171 171 173
445.211817875221 556.26708858987 3579.13530395467 178 178 178
453.188525736281 555.700303540006 3583.44812077408 175 174 172
461.496263315287 555.035641243848 3586.8169029246 179 178 174
-59.8981926440767 604.442005658913 3647.21294693577 215 215 213
-51.859205484758 603.954788581265 3652.62918524245 195 195 193
-44.7010440622957 603.674012464843 3659.84534941137 176 176 176
-35.3047264890043 602.87321754926 3662.57685638109 164 164 166
-28.5575548126296 602.692738427559 3670.70466162795 140 140 140
-20.9075180839411 602.303439147928 3677.04173983575 126 126 126
-7.57676917688221 600.573610895648 3671.66352430302 119 119 119
13.9351657472138 596.89417348646 3649.11369255136 141 141 141
42.1917539762646 591.58420271859 3612.04486579432 160 160 160
67.2239720007395 587.008394720735 3581.21737827474 175 175 175
87.8083979456452 583.469190851292 3559.36974990836 176 176 176
100.636253242639 581.776725208892 3553.7876331111 182 182 182
112.572968117002 580.291433490757 3550.00100305055 141 141 141
126.141868893188 578.402400478928 3542.56254674068 143 143 143
142.558776780009 575.807911967721 3528.73040407162 193 193 193
158.46692370637 573.321700371736 3515.77051234819 154 154 154
168.949267220552 572.155378897833 3514.62902433226 146 146 146
179.406663033079 570.990640024933 3513.47768039922 189 189 189
187.812622640663 570.330539546769 3516.88619737713 184 184 184
199.844134957725 568.766271565014 3512.0594833793 173 173 173
209.428884454042 567.806439799575 3512.71087427118 162 162 162
220.191950577482 566.54733267521 3510.60494400093 162 162 162
227.763430546663 566.088781247624 3515.83193190138 163 163 163
236.523301358912 565.330156299864 3518.30568366834 158 158 158
243.327905822613 565.068550389371 3525.37829259361 164 164 164
250.540576270777 564.705743382357 3531.53808348337 156 156 156
259.693904077498 563.846243329505 3533.09284244062 151 149 150
267.689769961589 563.283589267094 3537.4133848963 158 156 157
275.690762742894 562.720135051587 3541.7362664879 160 158 159
282.564756457646 562.451058949399 3548.8370272522 156 154 155
291.708470604314 561.590766390143 3550.38789971346 150 148 149
298.980288470239 561.220912088022 3556.57169239095 148 146 147
305.527681597474 561.045112803158 3564.61857324426 155 153 154
311.365918772426 561.062044679989 3574.53447730495 166 164 165
318.698571730277 560.686175005504 3580.7429472758 178 176 177
324.597560389314 560.697546454834 3590.68349132927 183 181 182
328.014279096806 561.384739196804 3607.16603075029 170 168 169
333.287488986236 561.581871919332 3619.00966689914 126 126 128
346.761857176112 559.553112448013 3609.37637781531 138 138 140
364.389720134137 556.372796728846 3588.48681124404 144 144 146
380.836880341763 553.491257991497 3570.35360348802 151 151 153
393.003299069209 551.770525569023 3563.42482458612 146 146 148
404.424594434134 550.245482663005 3558.35099797112 191 191 193
413.748496479359 549.297321048741 3558.89668511826 163 163 165
422.717453692199 548.4454046404 3560.376736244 152 152 154
431.338946993189 547.689075548596 3562.79444253332 167 167 169
438.952102856598 547.217753119708 3568.03814428276 171 171 173
445.579532302919 547.029694873124 3576.11752419523 175 175 175
452.890327191647 546.650087459084 3582.31717231952 173 172 170
459.88912312007 546.363292841966 3589.46859891902 180 179 175
-61.9449646394192 595.106662237004 3649.691664445 209 209 207
-52.5526936619523 594.309356059069 3652.42150653301 177 177 175
-44.9488268251008 593.916182944484 3658.73992024074 171 171 171
-35.9981818581476 593.218845900382 3662.36925871154 193 193 195
-30.1336181856182 593.225681980385 3672.2958987083 201 201 201
-22.9173253076091 592.927956452478 3679.53572836437 192 192 192
-11.7563199707331 591.725768817165 3678.66929757652 168 168 168
11.0821034299886 587.823456534645 3653.42155930184 131 131 131
39.3604184730227 582.635196630241 3616.36086426951 160 160 160
66.1265070780583 577.763257811012 3581.92190624986 171 171 171
83.3127891453438 575.095849281942 3567.32302231573 178 178 178
97.8587845591645 573.031561855112 3558.12389680829 161 161 161
111.913785866113 571.071518974446 3549.80398925757 131 131 131
125.48534969032 569.215062166673 3542.36636427827 170 170 170
138.996686698514 567.36295858393 3534.90432089085 163 163 163
154.100113937209 565.121368051498 3523.77462320942 145 145 145
166.248936311453 563.573569314075 3518.99528239171 161 161 161
179.16879077435 561.832775146583 3512.37171635318 189 189 189
187.57253845773 561.172730362822 3515.77933731648 184 184 184
198.797607779617 559.828412896402 3512.78230660165 153 153 153
208.7862278348 558.778950337466 3512.51909306013 141 141 141
218.357063036512 557.827991868866 3513.16478289536 155 155 155
225.540760386135 557.460277325763 3519.31287998021 157 157 157
233.525707687414 556.897203135994 3523.62900476338 159 159 159
242.296553990702 556.139950224505 3526.10719002938 156 156 156
249.511537219726 555.768621213864 3532.26798194222 157 157 157
259.053352524715 554.81801921395 3532.90191912457 156 154 155
266.283955757463 554.444705458406 3539.06905051027 151 149 150
275.810877105233 553.494506389471 3539.69695418057 159 157 158
280.791240569182 553.69326161231 3551.4220065847 151 149 150
288.443004047476 553.219657463793 3556.68135757918 147 145 146
294.614717135853 553.125995193322 3565.65431380888 165 163 164
302.296902164952 552.649198299048 3570.92626370082 161 159 160
308.886889175841 552.455862858235 3578.99026620912 180 178 179
315.502104225308 552.260104800521 3587.06475896115 192 190 191
321.417865784675 552.25092934736 3597.01224998327 176 174 175
324.850011129358 552.898433943658 3613.50133636591 134 132 133
330.854286253511 552.881438749275 3623.48472517592 130 130 130
344.344401481168 550.889957367892 3613.85752939856 127 127 129
362.342551967248 547.686094020835 3592.03925996984 150 150 152
378.804638726191 544.866615797515 3573.91162546711 145 145 147
390.983597021773 543.175250734789 3566.98795837763 173 173 175
402.761847740405 541.581036761788 3560.98011938876 192 192 194
411.752197836457 540.73337315763 3562.46880010652 152 152 154
421.07158170898 539.793489843336 3563.01259513023 159 159 161
430.038338147914 538.946978207177 3564.49171421147 182 182 184
437.990930182053 538.377674963504 3568.79504301688 177 177 179
445.616263341551 537.899649244407 3574.0437260765 177 177 179
451.93348691383 537.787942855828 3583.07573524154 176 174 175
458.934414340565 537.490159889495 3590.22810815833 179 178 176
465.954987792553 537.190426446765 3597.38870762242 198 197 193
-60.8333913203767 585.062825086548 3645.9023723679 239 239 237
-53.2459078137502 584.6627063043 3652.21394800081 220 220 218
-46.0886801183353 584.359319134327 3659.42990549587 208 208 208
-38.4664319708459 583.955812951693 3665.75583998812 193 193 195
-31.2691692467448 583.648571870225 3672.98777936821 134 134 136
-24.4893385880813 583.437087115683 3681.12878579374 124 124 126
-13.7581899052628 582.345413161878 3681.16653679308 119 119 121
4.32476097450984 579.600289484933 3665.85248863591 132 132 134
35.234166085093 573.949070280197 3623.38699192949 166 166 168
62.0290794290999 569.190036280932 3588.95884905503 161 161 163
78.3878386475489 566.768906026877 3576.18091376301 174 174 176
94.6561738025895 564.354496995083 3563.36605823562 150 150 152
108.308223360796 562.524893552621 3555.96107504617 134 134 136
124.410572559928 560.122768523514 3543.07891986974 195 195 197
134.600198803318 559.070561251693 3542.89711311643 187 187 189
147.250049555163 557.445070538654 3537.24241588602 150 152 151
163.136000673922 555.058829611727 3524.27277948665 163 165 164
178.523029258816 552.774687210567 3512.17890991967 198 200 199
186.521341847355 552.209562394473 3516.50071898287 185 187 186
194.525257724074 551.64358062161 3520.82454604677 142 144 143
204.137199985894 550.697853524277 3521.48684018755 142 144 143
215.724801385276 549.280181737106 3517.55834400934 150 152 151
223.316569316388 548.808790438975 3522.79338645827 157 159 158
230.525702859028 548.430333322973 3528.95186390356 157 159 158
238.53128096681 547.862391269553 3533.276636078 152 154 153
248.094085304499 546.918704218663 3533.91901915782 156 156 156
258.412776215718 545.788661313831 3532.71099437867 156 154 155
264.877336683045 545.593750869224 3540.72448173118 153 151 152
273.649616646201 544.837585307577 3543.20298200756 157 155 156
278.26095075545 545.103813575266 3555.85691375195 156 154 155
285.92526951679 544.623679991731 3561.12165500963 142 140 141
291.736146503723 544.605090732191 3571.02675036421 139 137 138
299.803782386223 544.02924856643 3575.3764519469 159 157 158
307.141115840306 543.636928293361 3581.58694170863 161 159 160
312.667940092829 543.702715574986 3592.45545193871 139 137 138
319.323139396959 543.489658005388 3600.54600793171 138 136 137
322.762999482455 544.09810992919 3617.03877119351 138 136 137
328.776442680817 544.061230124538 3627.02602281185 132 132 132
341.56985678019 542.28952812468 3619.27268809389 128 128 128
359.588777241796 539.158291019063 3597.46227779426 146 146 146
376.770715139759 536.219063175321 3577.46914008289 150 150 150
389.309637408836 534.466502478461 3569.61287556335 193 193 193
401.097758070374 532.899063311753 3563.60882989883 180 180 180
410.78109074701 531.876094893541 3563.22154961188 170 170 170
419.764116928588 531.03423654442 3564.70747815276 183 183 185
429.41115606553 530.013396394049 3564.30548673658 180 180 182
437.698638323505 529.351952843786 3567.66604325365 177 177 179
444.989213050764 528.958136656062 3573.8576120762 176 176 178
451.305633687834 528.830175006484 3582.88941934891 172 172 172
457.979002337579 528.610501866828 3590.98763935222 178 178 176
465.650894459393 528.122361437367 3596.25525047315 187 188 183
-60.6230174544402 575.231686544576 3643.90419509505 200 200 198
-53.9389497114755 575.014966932314 3652.00646747206 187 187 185
-47.2285798662859 574.795829271255 3660.11966493894 155 155 155
-40.9359159243732 574.669749820106 3669.14183902724 157 157 159
-33.7290082661121 574.350446905162 3676.37777499837 158 158 160
-26.5008851998128 574.029164252689 3683.62231594405 151 151 153
-17.9427642464123 573.421510040238 3688.17110981632 132 132 134
0.165011755353772 570.731839876074 3672.86643562641 126 126 128
27.6548038369437 565.973334989369 3637.64083208454 150 150 152
57.4998840689163 560.666209336516 3596.89966313995 165 165 167
75.1638578365237 558.01023086305 3581.41529841683 166 166 168
91.8748662318696 555.549742134185 3567.7012192819 144 144 146
105.963438898056 553.658083355772 3559.39438620425 161 161 163
122.079669372501 551.304108633937 3546.51774371837 196 196 198
131.032447439418 550.541413439197 3549.06937589327 156 156 158
144.942891679371 548.66267192007 3540.69032196631 144 146 145
161.253740592388 546.231819387449 3526.81425367926 182 184 183
177.060433113545 543.900730348626 3513.81185077143 182 184 183
185.064039557414 543.332232607181 3518.13557161852 156 158 157
192.26636638463 542.947410634616 3524.29134131675 139 141 140
201.488468652875 542.100927111862 3525.87410513188 141 143 142
213.887265525906 540.52034322609 3520.11741757994 156 158 157
222.278049536944 539.859502358656 3523.51979567808 161 163 162
229.48946831645 539.472525421286 3529.67926297754 159 161 160
235.93507301336 539.266360022874 3537.6849033556 158 160 159
245.899602577633 538.238741438648 3537.41177017331 151 153 152
256.229746640486 537.121479849609 3536.20828581537 149 147 148
264.236115483828 536.549589701014 3540.53340807854 155 153 154
271.867291018184 536.067275430931 3545.78448918046 151 149 150
277.618661001099 536.03484031988 3555.66559551775 155 153 154
284.156519772968 535.819238338403 3563.70891767159 163 161 162
290.346897498502 535.691041118891 3572.68969284637 154 152 153
298.049390526649 535.20164187098 3577.96970359936 140 138 139
305.761929586547 534.711082624216 3583.25404793858 164 162 163
312.388687371971 534.486948351923 3591.33317212019 180 178 179
317.226770632875 534.705473098206 3604.07927457216 166 164 165
321.755176059954 535.008461890913 3617.77841581483 160 158 159
326.697010638366 535.218019413489 3630.56659441061 127 127 125
338.792859563945 533.655190923036 3624.68711079621 153 153 151
356.479937796167 530.684779897566 3603.81992905033 152 152 150
374.735098494144 527.548541227319 3581.02614329221 148 148 148
389.024667451401 525.389002026234 3568.48723285174 186 186 186
400.467442403345 523.936828020981 3563.42155084322 159 159 159
411.179347572017 522.662672509268 3560.21595455694 162 162 162
419.47564975394 522.001396926452 3563.58008092569 173 173 175
428.108912494836 521.252773010831 3566.00249417487 177 177 179
435.397168534337 520.851429411137 3572.19318123287 174 174 176
442.367855444656 520.535120708276 3579.33345039846 182 182 184
449.68811327854 520.130494465111 3585.53711963823 172 172 172
457.023026847473 519.72434841891 3591.74673440116 176 176 176
465.022133448239 519.14470029182 3596.06871781048 178 178 176
-62.2185353967923 565.78338155009 3645.4876702535 166 166 164
-56.8776673914153 565.831329234607 3656.28076610697 165 165 163
-50.1553050279906 565.59719945863 3664.39867566926 135 135 135
-43.8508487184737 565.453388635425 3673.42575880277 132 132 134
-34.8653979618183 564.751978919581 3677.06922076141 143 143 145
-27.1962001174573 564.326939721843 3683.41432806827 156 156 158
-16.4552817022674 563.255921463291 3683.45587819861 158 158 160
-2.26174599225137 561.451089050225 3676.26969393831 151 151 153
24.3839470356781 556.992360277878 3642.8579219514 167 167 169
54.6829957435462 551.726250450862 3601.22144259995 167 167 169
71.937699950176 549.2176259182 3586.64905876674 157 157 159
89.5156641364074 546.625523526707 3571.12912798256 141 141 143
104.459812453178 544.586529542314 3561.0122119089 183 183 185
121.841368341703 542.009121458627 3545.41264541518 192 192 194
131.208222558851 541.15873118727 3547.05404788279 150 150 152
143.875284745241 539.586482314397 3541.40591588187 149 151 150
159.781655129289 537.297199814766 3528.44355495361 191 193 192
171.102142896766 536.00339500757 3525.48477562039 169 171 170
179.950974069482 535.250065662409 3527.99450666893 144 146 145
186.77740151448 534.944140284799 3535.07628749447 141 143 142
198.035837551551 533.654145861998 3532.09235497279 143 145 144
210.454655494436 532.099353199448 3526.34357832 158 160 159
219.655468251005 531.259194466736 3527.91741699568 165 167 166
227.666181108217 530.685530937569 3532.24405433453 151 153 152
233.727791735156 530.55345842173 3541.17272199545 154 156 155
243.703568713881 529.53585786469 3540.90406687781 160 162 161
253.273494119363 528.60753695633 3541.54921675645 144 142 143
261.678553367342 527.943712029445 3544.95739741543 162 160 161
268.18004615193 527.717900290476 3552.98607262539 168 166 167
275.463462884468 527.314758272252 3559.17481391375 159 157 158
282.762284162014 526.910042538155 3565.36954709523 164 162 163
290.076288856639 526.503759779794 3571.57069703907 168 166 167
297.405540140354 526.095940294191 3577.77803186698 172 170 171
304.750001912379 525.686557053491 3583.99153716688 202 200 201
311.378577680062 525.448554716318 3592.07175977934 163 161 162
316.943591527665 525.466997741684 3602.95583433639 160 158 159
321.828174516949 525.654012625812 3615.72100303569 164 162 163
327.121223153351 525.750793551802 3627.57343239214 142 142 140
338.14562059594 524.472915637134 3624.4946474589 154 154 152
354.426750118784 521.915525097365 3607.37056624125 150 150 148
372.347432051629 518.940375757182 3585.51919675338 156 156 156
386.653305385386 516.826439143517 3572.98654218448 177 177 177
398.110896569454 515.397843996475 3567.92642321569 153 153 153
409.179739118834 514.05728760258 3563.78730073425 166 166 166
417.826704642227 513.310811364706 3566.21498863778 177 177 179
426.468110752341 512.564441406189 3568.64068199518 154 154 156
433.428672437106 512.238414311885 3575.7769251913 147 147 149
441.074104164323 511.742800699481 3581.03413655683 158 158 160
448.069190020122 511.413321006583 3588.1843845154 171 171 171
455.08405899625 511.081975053627 3595.34265666522 176 176 176
462.443541476015 510.665454028183 3601.56229784591 178 178 176
-46.8493587990178 551.849212202389 3592.47733763014 123 124 118
-65.6221134244754 556.68509631084 3650.65165418969 202 202 200
-60.7168413100958 556.799987286173 3662.34693830558 196 196 194
-53.9775442978323 556.55043312354 3670.47207872662 181 181 181
-47.6561168096457 556.388396370602 3679.50591429138 181 181 183
-39.5363386387506 555.864765354981 3684.95539754154 167 167 169
-30.0876290597338 555.071321004792 3687.70831917512 147 147 149
-18.8961790424287 553.920519786989 3686.85382572803 149 149 151
-4.69001620203535 552.14746872844 3679.67277043606 168 168 170
20.6793217544901 548.066473372681 3648.9777726213 160 160 162
53.1518087367129 542.491604698929 3602.82908819386 173 173 175
73.4018261763454 539.417296635237 3581.92160177519 135 135 137
88.0030789701394 537.501687980862 3572.74372264556 141 141 143
103.377114787538 535.414912890884 3561.72216177844 202 202 204
118.670657712546 533.334186333337 3550.66796406224 158 158 160
129.302764722081 532.224557154289 3549.58694174082 137 137 139
144.463132891983 530.153604693641 3538.47874842313 187 189 188
158.720229362747 528.263295702262 3529.16107384115 202 204 203
166.365379637374 527.77251636509 3534.41813460603 147 149 148
174.021166325032 527.280565556285 3539.67951085875 141 143 142
184.513964735086 526.180245443457 3538.54175568389 138 140 139
197.389104946594 524.562241813316 3531.89941166895 146 148 147
209.411509220153 523.120967462958 3527.06807763052 163 165 164
218.219330900941 522.372112633085 3529.5611703102 161 163 162
225.841646787541 521.881085560104 3534.80873024408 160 162 161
233.474318904782 521.388933687896 3540.06074909472 164 166 165
243.060133501674 520.467872003324 3540.71227737164 155 157 156
251.086954998323 519.889046770169 3545.04547610899 201 199 200
258.735504990597 519.394590841883 3550.30394126306 203 201 202
265.251656870349 519.153844712567 3558.33840780904 185 183 184
274.441954842819 518.317502437657 3559.90821742184 161 159 160
282.494709140314 517.735277634985 3564.25194193466 161 159 160
290.179211061393 517.236628340454 3569.52499555501 171 169 170
296.761619441156 516.989198206362 3577.5863395522 214 212 213
303.737520683778 516.655554330675 3584.72910858649 189 187 188
310.733760340113 516.319915949893 3591.87987039191 158 156 157
315.93441033936 516.399992867386 3603.69475757893 176 174 175
321.901747413885 516.309495044099 3613.66400479032 161 159 160
327.546470324751 516.298937838789 3624.5805727972 151 151 149
337.498248214397 515.28963472759 3624.30213772574 144 144 142
352.724886934817 513.040687971368 3609.98544437676 170 170 168
372.060625389374 509.808678932261 3584.39347839327 189 189 187
387.063481460813 507.576804518749 3569.98604762865 169 169 169
397.479278680264 506.419930987197 3567.73873573238 148 148 148
407.521347812578 505.347096682135 3566.41853235224 154 154 154
414.134396365294 505.093144321531 3574.49233177546 159 159 159
421.785732139772 504.592400406513 3579.75197253427 137 137 139
429.78209293331 504.009174042058 3584.07287130773 149 149 151
438.781260039127 503.181912847016 3585.56496732568 173 173 175
447.439490183123 502.436092899064 3587.99746844648 169 169 171
455.109163122333 501.932521314491 3593.26455522657 175 175 175
461.813131342548 501.669363059601 3601.37523715832 179 179 177
466.928867264462 501.805426378026 3614.23438424425 187 188 183
-68.575829014293 547.465227029098 3654.92015490248 193 193 191
-64.1089585340084 547.641759713481 3667.51627421326 193 193 191
-55.1198761724208 546.940002496283 3671.16120921701 177 177 177
-46.5743120351889 546.325069560581 3675.70471686741 162 162 164
-37.5807502794607 545.622419464456 3679.35147231395 142 142 144
-30.7835067140174 545.353300391285 3687.50022318125 155 155 157
-20.901555525952 544.475674541674 3689.35013398121 171 171 173
-9.72581274219908 543.339233219128 3688.48942916879 151 151 153
13.5172649986617 539.790826504123 3662.32404192351 144 144 146
51.1906021864852 533.331081887344 3605.34112545412 172 172 174
73.16089489337 529.986462026039 3580.81672541456 137 137 139
87.7626198845862 528.109072666109 3571.63874778249 140 140 142
101.872382132668 526.322226203893 3563.33969976791 189 189 191
115.078598344713 524.710575432742 3556.83110070465 144 144 146
127.81294671857 523.187989615885 3551.20983597275 138 138 140
143.809949017239 520.990525275745 3538.28373253568 200 202 201
158.07004321382 519.138310206058 3528.96698297014 196 198 197
162.442900611952 519.317120737842 3541.52501978337 139 141 140
170.525356349246 518.733717909823 3545.88103635477 144 146 145
181.845015318155 517.477458383211 3542.92163686389 137 139 138
197.946680218415 515.217929907817 3528.95931563328 152 154 153
209.165724585325 513.968909630279 3525.95912313008 168 170 169
217.178873505413 513.389643359117 3530.28678928082 164 166 165
224.409761043781 512.97607776142 3536.45434087785 163 165 164
234.003822715479 512.06285088316 3537.10914895135 167 169 168
244.360321364635 510.984905750855 3535.91629459754 173 175 174
251.215970014799 510.652037477595 3543.0101111022 195 193 194
257.708465588387 510.399656193855 3551.03508756841 193 191 192
264.607590967087 510.062685803752 3558.1465385859 166 164 165
274.934352941103 508.985781578223 3556.94163617285 155 153 154
282.979611241658 508.401326248483 3561.28234251631 182 180 181
289.535879461181 508.142571889303 3569.33344560857 200 198 199
295.004700781302 508.125686938499 3580.17884026796 153 151 152
301.250931442414 507.9428676133 3589.18264392203 151 149 150
308.25939777527 507.595261732947 3596.33844693269 178 176 177
314.561323749219 507.407357291346 3605.36483976883 163 161 162
321.61527044637 507.055475605819 3612.53908986678 171 169 170
327.256140893263 507.023280380327 3623.45451927509 181 181 179
335.78349163836 506.345940856762 3626.91231733334 143 143 141
349.255688908841 504.548348602353 3617.27613984856 139 139 137
370.371362859497 501.000614636555 3587.01295232465 136 136 134
385.733982270794 498.740562307428 3571.67233540298 151 151 149
396.50190086286 497.520379739611 3568.48926668203 159 159 157
403.803299082261 497.094637397485 3574.68545985155 165 165 165
409.416844867538 497.062290729736 3585.58982684551 152 152 152
416.422588139311 496.711269194167 3592.74455319773 150 150 150
426.802774654992 495.572549602286 3590.48268517744 159 159 159
436.486172537784 494.592714006104 3590.09536158352 162 162 162
446.148789173756 493.614240932669 3589.69961348219 165 165 167
454.151343122389 493.026937329979 3594.0230507247 169 169 171
460.531815961236 492.82786329499 3603.0813312934 175 175 173
465.973760612175 492.858779983887 3614.99454682608 177 177 175
-76.9589381155757 539.237621771578 3669.92928089007 200 200 198
-67.0533263248319 538.364786372221 3671.78873539041 194 194 192
-57.6041010453283 537.577069557965 3674.5418224143 169 169 169
-48.6036320504994 536.873782550078 3678.19137938072 165 165 167
-40.0443680835572 536.254386852741 3682.7404678218 190 190 192
-32.79808432523 535.886439326973 3689.99297283681 191 191 193
-23.3449741157807 535.097164832813 3692.7473874216 164 164 166
-12.1578307615295 533.973299775605 3691.89120329489 133 133 135
10.6701012670842 530.597459864396 3666.63522662079 168 168 170
45.792270388969 524.819279952221 3615.08781470935 166 166 168
72.4935595680081 520.643187937375 3580.61734553132 138 138 140
86.2494830276168 518.969505352529 3573.25298108578 133 133 135
99.1013991841339 517.465565132674 3567.67917738907 169 169 171
112.742040864734 515.800283849846 3560.26807248693 134 134 136
127.989677535125 513.810402278755 3549.1948562992 140 140 142
144.8141161799 511.498164413051 3534.44651519899 204 206 205
154.949399563804 510.503567963762 3534.24226873187 188 190 189
159.744981625798 510.571961189485 3545.89349256157 134 136 135
169.060379821182 509.740193633254 3547.51366246823 146 148 147
183.619916418162 507.852329777944 3537.23987430411 137 139 138
200.9152009761 505.402540646674 3520.52560169849 159 161 160
211.314862873135 504.336089908779 3519.35013671412 176 178 177
218.12072517176 503.997362833985 3526.42383948526 171 173 172
224.947190024548 503.656704576926 3533.5058987227 152 154 153
234.925945059703 502.67192425888 3533.23820063058 153 155 154
244.884664168979 501.688372693071 3532.96238082017 185 187 186
252.118581495495 501.265212090856 3539.13123188452 198 196 197
257.832509569506 501.159230020545 3548.99773572359 183 181 182
265.107369285821 500.732212924472 3555.18319330318 150 148 149
274.670279885135 499.827984626516 3555.82532032099 165 163 164
283.465625555311 499.082813586174 3558.31307640353 205 203 204
289.639938230791 498.889821632898 3567.28783807958 203 201 202
295.102351191757 498.851441384594 3578.13105819472 152 150 151
300.974042751885 498.731002341611 3588.06154893349 157 155 156
309.077793697169 498.137877862328 3592.42600424491 167 165 166
316.095863458362 497.778198492902 3599.58578712955 174 172 173
322.41204937983 497.572352233487 3608.61808971167 186 184 185
326.607623855736 497.829733949929 3623.26162388868 171 171 169
332.287769751288 497.77216581995 3634.19289074153 145 145 143
344.722955509013 496.243071497483 3627.3717383714 145 145 143
366.926474442838 492.56044663575 3594.3130951406 127 127 125
383.706795608826 490.046173925782 3575.23318998066 161 161 159
394.140736422852 488.921053592293 3572.99298361694 171 171 169
400.081513506463 488.791957955301 3582.9515122102 153 153 153
405.375947784782 488.812250184186 3594.80508236674 134 134 134
413.083009792839 488.29629206753 3600.08714437636 133 133 133
424.491809677255 486.944962203918 3595.00694173218 138 138 138
434.855219173729 485.823890699875 3592.73814704777 166 166 166
444.526514049734 484.855923140988 3592.34583307551 164 164 166
452.864798168042 484.190215550139 3595.72699122681 166 166 168
460.877052470983 483.599274153626 3600.05438364767 172 172 172
466.955964174102 483.456708829297 3610.06894406801 176 176 174
-78.1082481776261 529.599006651635 3670.61579959248 199 199 197
-68.1995539243874 528.731077309443 3672.47672220006 170 170 168
-58.2998796747518 527.863584082713 3674.33373213979 139 139 139
-48.8542818916327 527.078231887767 3677.08533249288 144 144 146
-38.9703507926433 526.211373256302 3678.93596333219 146 146 148
-31.7346928893205 525.832900607533 3686.18398856467 147 147 149
-23.1659701284705 525.209088807419 3690.73719750391 163 163 165
-14.156475357666 524.50359230165 3694.39042569058 176 176 178
8.25335003176786 521.295069325498 3670.04270052187 158 158 160
42.5385001204985 515.843651844242 3620.31152504016 179 179 181
68.4090922111034 511.941616488783 3587.66050872448 152 152 154
86.0095383011241 509.577701095537 3572.14820833546 194 194 196
97.5948294577658 508.340819618056 3569.29621455845 126 126 128
112.921375361284 506.388806394128 3558.25440390286 133 133 135
130.252590638747 504.045121209608 3542.63268329588 207 207 209
145.405303159581 502.106142807542 3531.52064715918 189 191 190
151.826508813462 501.8350808167 3539.51690043575 153 155 154
157.864087019374 501.640653034074 3548.43631017529 141 143 142
168.815267098721 500.498612684421 3546.40565858117 144 146 145
182.566843847139 498.808857218106 3537.96084786767 150 152 151
198.663782904973 496.653892909449 3523.995820609 176 178 177
209.074820397749 495.600154911827 3522.82486516379 157 159 158
217.873954724938 494.859863866234 3525.31437548428 140 142 141
226.274163556563 494.197364702363 3528.72058219506 165 167 166
236.241383928682 493.224367974697 3528.44786725651 182 184 183
246.577566050425 492.175320273687 3527.24656784978 191 193 192
253.795956636602 491.745080947724 3533.40918590157 182 180 181
260.261717988649 491.467156374699 3541.42353148172 181 179 180
266.371444089102 491.263679931888 3550.37222197989 207 205 206
274.406657756897 490.674760122533 3554.70889516211 201 199 200
283.576267868646 489.856136679693 3556.2701941025 140 138 139
290.118594085287 489.570950493898 3564.31559529589 158 156 157
295.572135469969 489.511230686064 3575.15538512058 183 181 182
301.435156355445 489.372275531373 3585.08250551158 181 179 180
309.531393556995 488.77698170717 3589.44393500435 170 168 169
317.268816867396 488.256311327508 3594.73858303479 185 183 184
322.126622422427 488.335579260702 3607.49372643285 203 201 202
326.317732942473 488.560383429353 3622.13544288807 172 172 170
330.213361872671 488.854763454968 3637.73605894121 140 141 136
339.125116644928 488.100259517505 3640.27127621328 141 142 137
362.074043763098 484.37293606908 3605.35716600092 140 140 138
379.935406547691 481.699579118486 3583.47923387886 146 146 144
390.739587845339 480.515228551006 3580.31057607415 151 151 149
397.729889819084 480.144324022294 3587.45945828822 140 140 138
404.058401559212 479.918527712717 3596.49664549654 142 142 142
413.462291556278 479.030245780776 3597.07426532802 134 134 134
424.529688371554 477.777375920219 3592.93389283904 150 150 150
434.556175036215 476.746145412218 3591.60680765597 159 159 159
443.233669155826 476.007571358664 3594.04705370235 160 160 162
451.5773380106 475.341631417571 3597.43039385652 161 161 163
460.24612647013 474.603134392096 3599.86711445886 171 171 171
467.293439539608 474.225297462936 3607.03887538155 172 172 170
-75.6360924288557 519.317369214834 3664.14251852341 185 185 183
-67.0950334286964 518.694045543699 3668.6845229017 165 165 163
-59.8907144114385 518.307565110101 3675.91991993767 143 143 143
-52.6650973541591 517.919098392197 3683.16395545492 148 148 150
-42.7628165255931 517.055956578939 3685.0219877975 141 141 143
-32.8697621958136 516.193256413428 3686.87653827494 143 143 145
-22.5483735716483 515.252576771829 3687.82604397213 157 157 159
-13.5462667803925 514.547381665344 3691.47627853361 156 156 158
5.83514562458798 511.969864369306 3673.45001619755 150 150 152
38.8526262979896 506.912080024901 3626.43901113316 174 174 176
65.6036645413691 502.962582555255 3591.98722470111 190 190 192
82.3715465368429 500.809589205973 3578.2938425535 196 196 198
93.1316684780932 499.744637744021 3577.26405670112 140 140 142
109.743597345564 497.603322373637 3563.50769894557 130 130 132
127.928767844243 495.16205947603 3546.07486209395 201 201 203
142.680442944096 493.342410756655 3535.87809517212 162 164 163
147.877033488933 493.285683724406 3546.61382473454 138 140 139
155.162965516854 492.844419900817 3552.80361617456 141 143 142
166.942325924783 491.565598423612 3548.95170941526 146 148 147
181.108826306295 489.8348161185 3539.59640117521 154 156 155
195.606800424775 488.033698529666 3529.29677205934 178 180 179
205.634881883949 487.067665314442 3529.04890378953 159 161 160
216.833817819599 485.877324368352 3526.04012475139 154 156 155
226.81438039635 484.914488112141 3525.77299219008 167 169 168
236.383114718272 484.02774618641 3526.41734465005 173 175 174
244.379631622534 483.440263350299 3530.73833889453 202 204 203
252.768215359545 482.777683971165 3534.13983929472 191 189 190
260.004247656402 482.337424222709 3540.30967630247 196 194 195
266.873990148982 481.969620990598 3547.40946410171 187 185 186
273.764162374842 481.599915212523 3554.51753817625 151 149 150
282.557834648873 480.86028107555 3557.00483197086 170 168 169
