ply
format ascii 1.0
comment KinectMotionCapture
element vertex 802
property float x
property float y
property float z
property uchar red
property uchar green
property uchar blue
end_header
-22.9586660183214 241.581548446464 3263.73595537998 15 18 11
-22.9153333762033 240.572276790261 3251.79464313956 17 20 13
-13.7666466196529 239.783783167954 3249.16393145435 13 16 9
8.79940018452219 239.303163268597 3260.04545063917 12 15 8
23.6778416476628 238.6333124522 3263.03418827741 13 16 9
29.3822637871552 237.751859213532 3256.77241153291 15 18 11
21.5630182368161 236.576714379372 3237.09013715968 12 15 8
33.6407892640289 235.838584788174 3237.2133999806 15 18 11
43.6040568663838 235.05123246008 3235.19991527305 16 19 12
80.1413509920286 234.803387897391 3259.11439347065 13 16 9
63.5898515227522 233.468304216931 3231.12132133734 15 18 11
66.3944632669766 232.531721676292 3222.07959722005 18 21 14
61.2154271816037 231.445899962631 3205.40173858751 17 20 13
73.3916766871472 230.694092405105 3205.4400507179 19 22 15
95.7912749541765 230.123638929054 3215.14315808449 19 22 15
144.560637237694 230.008674743616 3249.62823806989 16 19 12
140.126867511497 228.933542094796 3233.6279374151 19 22 15
149.578727563584 228.10306337546 3230.73441108884 14 17 10
124.446108596531 226.69897836127 3195.62253466775 22 25 18
206.178382417598 227.041537958912 3259.76240517212 15 18 11
-160.854414050261 252.106609514273 3388.4803131472 15 20 13
-180.059809156305 250.458948034475 3353.526036137 19 20 12
-145.485678770319 250.471159233011 3380.46363461715 21 18 9
-171.785169689112 247.607280594036 3325.19915155348 27 17 7
-176.817659034474 246.439134625122 3307.07123267209 61 47 38
-173.26153819843 245.525683932547 3298.70157510224 91 72 65
-169.722016780207 244.614408822482 3290.34629074664 66 42 32
-163.51851693888 243.778566149756 3284.97491073331 88 61 52
-153.954179248141 243.03287151263 3283.30660746381 103 76 69
-143.695069532764 242.302128412157 3282.35959980587 27 4 0
-125.295391861656 241.777815490121 3290.23592413525 45 26 20
-79.6862336073549 241.931692445356 3327.45832444768 59 44 39
-82.8311018319594 240.834564922441 3311.66428993187 18 15 8
-92.1765812094457 239.5953221477 3289.33517450358 13 14 6
-83.1337091197901 238.810887129159 3286.79583438094 19 22 15
-80.9408355913748 237.86327652913 3276.96145186681 18 19 13
-49.8484937368762 237.58332813756 3297.65496217684 17 18 12
-61.4342698041499 236.319888028185 3273.29796659916 16 17 11
-71.0492347934615 235.116664057369 3251.20219063444 14 17 8
-64.0827200120464 234.285852942545 3246.49270641376 12 18 8
-35.5080115148092 233.910433968004 3264.07591521317 12 18 8
-15.8889871611532 233.329668035951 3272.21869912004 16 19 12
-29.8416123939846 232.059028950987 3245.94308530995 18 21 14
-14.3844908531068 231.38726447236 3249.75384890993 14 17 10
21.6388129823115 230.115389488964 3262.21016232248 14 17 10
25.9207864848072 229.211409878095 3254.53458165539 14 17 10
32.3237113960277 228.347426520035 3248.99053511808 11 14 7
45.8596647263585 227.60835270885 3250.49678229874 14 17 10
77.3216235421073 227.169031695814 3269.54770416919 15 18 11
75.2052535589174 226.149468169637 3255.508567899 13 16 9
67.2824288697798 225.04335280105 3235.91562197583 15 18 11
60.7197026963537 223.971136444394 3217.79013185867 19 22 15
64.2134256371607 223.064374728999 3209.47451344274 16 19 12
90.1865839477178 222.495415725159 3222.69689805861 17 20 13
116.269857817862 221.911541206134 3235.82393821384 18 21 14
154.14018353863 221.477049119293 3259.9075003654 14 17 10
119.586687540138 219.069825821315 3203.85390479479 9 12 5
135.594954909834 218.322744778412 3207.18745854744 14 17 10
203.317280062004 218.209731895333 3258.32935761898 12 15 8
-166.25100909969 242.526854469512 3370.72280071633 21 24 15
-181.618176487746 241.104415067901 3340.38053059306 20 20 12
-176.671732140571 240.226553242588 3333.45212078896 20 17 8
-158.498955062143 239.683780534714 3341.52522763773 24 15 6
-130.295471999347 239.377335533593 3360.75300478374 27 17 8
-168.540325227486 237.437910766434 3305.24897260518 75 58 51
-164.983639272994 236.5353546271 3296.87843911704 91 74 66
-156.083655081066 235.759730854623 3294.46320348715 43 24 17
-144.479495813859 235.043107380516 3294.99682328406 48 27 22
-133.516634899881 234.306991920857 3294.76314485138 89 72 65
-125.229684119898 233.507927711331 3291.55582282452 58 45 37
-87.0901345768864 233.34438465571 3320.69764225696 28 19 12
-119.503613640696 231.67748279807 3273.37113778814 15 15 7
-100.978649472184 231.086730318356 3281.13930233684 14 15 7
-83.7488920203899 230.458677626168 3287.383158039 11 14 7
-67.826210849403 229.795004775571 3292.11392832421 14 15 10
-53.2234874731929 229.097364977585 3295.34182081226 15 14 9
-39.262133516182 228.380261218519 3297.80279199738 15 14 9
-59.8861678936005 227.03006027455 3264.07617308439 13 16 9
-57.052800638929 226.118436634655 3255.0093637983 13 16 7
-26.3716667839953 225.689002568009 3274.73730617389 11 17 7
-29.088248968415 224.678201212119 3259.89476222887 12 15 8
-26.2487989288012 222.812132473375 3238.91888672788 12 15 8
-15.0039238293651 222.037221788098 3238.44102785781 12 15 8
9.70219169798403 221.459822416018 3251.4383978189 12 15 8
18.9153197545737 220.640971852815 3248.75171374352 12 15 8
43.7887938866361 220.040903043529 3261.6041748848 12 15 8
35.9626447580528 218.977219083222 3241.92716182174 16 19 12
39.497253131124 218.076486838704 3233.57606746095 14 17 10
64.5329160026304 217.4543664857 3246.28778117364 13 16 9
56.5853952015947 216.406904316706 3226.71586018415 17 20 13
49.9977287637785 215.387912909228 3208.61195730445 19 22 15
46.9524577654332 214.420856311497 3194.05401630191 16 19 12
70.6965328974536 213.760846793935 3205.23891931254 13 16 9
121.458105550898 213.377128660329 3241.96943413542 11 14 7
59.3796570646021 211.789740854829 3171.38967128518 16 19 12
83.2506301147022 211.112473373018 3182.46469914095 10 13 6
141.704115336201 210.750667972994 3225.76177012297 16 19 12
160.716576969468 209.986906232456 3231.78494781545 16 19 12
-160.790077063024 235.288559606999 3391.18036860715 19 22 15
-163.591905461471 234.223004072034 3375.08880455631 20 23 16
-180.914343029561 232.845455866412 3342.47084835424 19 19 11
-185.855212301217 231.758679781818 3324.26330729569 18 15 8
-143.8980989554 231.673694141771 3359.35925503586 19 15 6
-127.598408204199 231.024418666347 3365.08610963035 17 10 2
-139.193853244485 229.803044411566 3339.4136455264 41 28 22
-155.574495380749 228.504602737953 3308.62572601586 77 64 56
-144.635259600355 227.752589550719 3308.41262735331 55 40 33
-130.980132765471 227.047039423289 3311.13862621173 36 21 16
-118.627589167842 226.310743897714 3312.34729826943 66 53 47
-102.182560223809 225.641666931683 3317.94862685506 52 41 35
-108.727954718236 224.56446434745 3298.48488618752 30 23 17
-111.271507478491 223.566689306441 3283.49228701025 8 9 3
-141.153308773875 222.127979274512 3239.26336673197 14 16 11
-69.1306286751314 221.394025908045 3291.97537630789 13 14 9
-47.6493066386543 220.767878995379 3302.47474758542 14 13 9
-40.5751765991806 219.91756157569 3297.67211575374 14 13 9
-56.3464620659411 218.742753177009 3269.00208102501 12 15 8
-38.221525669019 218.053153897628 3275.79402816695 12 15 6
-26.2958316024595 217.270784631909 3276.0493882302 10 16 6
4.65925017173818 215.779904239891 3283.63647390845 12 15 8
-2.97252950548899 214.745506332614 3263.79080408103 12 15 8
6.93154183671041 213.926060334017 3261.82883486772 12 15 8
9.08063516638036 213.01725151994 3252.03183127613 12 15 8
37.4738998760749 211.458670504983 3256.54610007528 14 17 10
32.4873866960642 210.480130483389 3239.70099524531 14 17 10
60.325462576686 209.821771558894 3255.27766621237 12 15 8
56.7343973878116 208.86131188658 3239.86916551993 13 16 9
48.0512973584273 207.865192924029 3219.61120391037 16 19 12
38.5598102255709 206.874842837723 3198.73028669313 15 18 11
74.5418011645653 206.253198501222 3221.80522748249 12 15 8
54.1179528579474 205.189209547377 3190.55008270255 12 15 8
76.4550596644513 204.446911031552 3200.3081517115 12 15 8
155.775923655753 204.068963103377 3263.89622495497 14 17 10
54.8350053756335 202.511973775916 3156.86189016064 13 16 9
134.4681592746 202.091804867498 3220.17924859616 21 24 17
-141.166035437691 227.242045488489 3415.24757461506 17 18 10
-125.006277449479 225.567382832731 3407.86911875287 14 15 9
-159.43351136532 223.984169881958 3355.67053030551 13 14 8
-147.458141435979 222.2709487682 3343.97888758152 12 11 6
-133.821206276884 221.537765097172 3346.72083288528 20 15 11
-134.823973402309 220.569188707299 3333.03942746447 13 8 2
-136.541865915157 219.596561289791 3318.65429678764 53 48 42
-128.906592153625 218.768722480808 3314.68873224496 53 46 40
-111.158234949333 218.083618665919 3321.80704497842 15 11 2
-81.8526478446491 217.547392850496 3341.40433879415 15 12 3
-52.4073323700858 216.992310304048 3360.88064720132 14 14 6
-64.0160934332275 214.943653554225 3323.31510650964 7 14 6
-63.0925893965437 214.016348970171 3311.93364780758 8 13 7
-64.9464706240108 213.061795813676 3297.66626631611 12 14 9
-47.5836535315444 212.328077176437 3303.79579467572 16 12 9
-29.2745209118075 210.663850635716 3298.52442906487 14 13 8
13.2284415233728 210.155648754996 3330.50349048657 12 15 8
8.5953792876472 209.173976575062 3313.35174180217 12 15 8
14.3714395682273 208.295148902508 3307.0275411792 12 14 9
5.43404238858036 207.291245476513 3285.6667776218 12 14 9
6.24018269340043 206.379488184469 3274.3869415379 12 14 9
26.7401581196407 205.624258148633 3283.09088040143 12 14 9
47.3217755989586 204.858001439604 3291.72412861608 12 14 9
40.3475381829139 203.890551430631 3272.6316858367 14 16 11
41.1121256486657 202.984283449975 3261.38782952115 14 16 11
34.7155724726296 202.039298692587 3243.11780234304 13 15 10
44.6851752777726 201.197373686216 3241.09886480699 13 15 10
37.4695074580451 200.26233480571 3222.21515289883 17 19 14
63.9651316184993 199.501934103473 3236.30951451469 18 20 15
76.1550661117001 198.661836268197 3236.33622198473 13 16 9
63.7937715243413 197.717556407068 3212.64932801774 10 13 6
110.782976465782 197.005802477957 3246.03467982673 11 14 7
125.279380149345 196.155918446074 3248.03244908835 15 18 11
156.591936428751 195.348447265942 3265.89198825741 17 20 13
169.030590242345 194.47470779087 3265.70365526386 21 24 17
75.1700983424923 193.371693751402 3165.76307391113 22 25 18
143.263014062628 192.62629007654 3217.91144310972 21 24 17
-192.486677331849 218.920244359917 3369.79489556276 22 25 18
-106.539323060292 218.272832121178 3443.52137463306 21 22 16
-121.036013472357 217.103051518939 3413.74625446255 15 16 10
-117.210692207647 216.197610564488 3405.14321930157 14 15 9
-123.979856242194 215.157895016041 3384.54992394872 15 16 10
-148.737462783265 213.906437817216 3343.81834723225 7 8 2
-138.494190156271 211.258323554311 3317.75364111407 26 26 18
-142.277459454592 210.304234194957 3301.18874399294 30 27 20
-111.10212288886 209.715513856249 3323.13589703838 19 16 7
-83.1522464823551 209.073339876213 3341.26239884923 14 14 4
-68.6228721454176 208.287202902785 3344.55443905002 13 16 7
-62.2000981109392 207.422021130278 3338.99319632987 8 18 9
-71.4569677255614 206.424452789101 3316.58571357872 3 13 4
-42.2478188984794 204.831831068875 3323.04019964121 10 12 7
-15.3668561206581 202.283987297147 3314.31482919948 12 11 6
14.9250966049248 200.642894571397 3321.15438516764 10 13 6
14.4385293214988 199.732403538729 3308.34845526671 12 14 9
-9.19729493964416 198.719869599966 3271.93671581163 12 14 9
-6.32377986671084 197.844645354893 3262.83487309937 12 14 9
8.50257687123523 197.018280993297 3265.87008416562 12 14 9
47.3952626309528 196.267962285597 3293.03967481662 12 14 9
45.3859192401471 195.367328698357 3278.90668856998 13 15 10
56.1159065967378 194.507187526082 3277.55239283763 14 16 11
55.4687319534586 193.618211571256 3264.88552769022 13 15 10
48.3480840456139 192.722951595775 3245.91920084069 14 16 11
72.6826522859292 191.884286392335 3257.91703632756 18 20 15
59.7447809682872 190.991907891234 3233.40565391762 17 19 14
72.6438193459633 190.132257164868 3234.1414586507 10 13 6
117.384193119421 189.277141386599 3265.5067841255 9 12 5
126.096589911929 188.395894336694 3261.93124529397 11 14 7
139.182223008408 187.511046309906 3262.50548495633 14 17 10
158.136001769596 186.616382563076 3268.58037345164 16 19 12
134.025924675288 185.765109037844 3233.90190187447 26 29 22
-195.05268522034 210.569544356816 3368.10296144868 19 22 13
-142.421574211006 210.213394290849 3416.44614128363 19 20 12
-124.950257077545 208.5241999654 3410.57752587659 9 12 5
-145.093799895315 206.496260736611 3361.88202328715 14 16 11
-142.72353198042 205.608143499606 3351.89318565059 16 18 13
-113.776392949247 204.933432333776 3371.80237219726 13 15 10
-116.710285672917 204.001098571868 3355.82409425084 14 16 11
-111.340553826234 202.234908124631 3336.62458347307 17 18 12
-82.7689281137025 201.515906288349 3355.53595153039 15 16 10
-90.9256915591841 199.675039321285 3321.59371381324 9 15 5
-90.6838652207824 198.789063243544 3309.47956099305 8 18 9
-67.3079892397475 198.01125224693 3322.30793518406 9 19 10
-40.8174302644291 196.339790753448 3325.82555715927 12 14 9
-9.63118391782558 195.55305772792 3346.44127656053 13 14 9
-22.440722504613 194.623236036117 3320.4956453206 14 13 9
-11.1529279214309 193.766653632292 3319.981115826 14 13 8
-25.5094700734753 192.855545148628 3292.72968517623 12 15 8
-26.071643815512 191.982984503227 3279.98904032077 12 15 8
-16.9039247111824 191.127454012512 3277.34195150337 11 13 8
2.0802733062828 190.277316132543 3284.71376239206 11 13 8
-24.4979121688367 189.400254226222 3245.55772078685 11 13 8
25.6320100427376 186.820441470037 3260.3529281101 12 14 9
37.7258132907556 185.950053830293 3260.46315226442 14 16 11
61.2958754298574 184.197639591863 3259.89597852609 13 15 10
50.556962274527 183.368161729426 3237.44868608051 16 18 13
72.7711259072379 182.462189915694 3247.31437496439 14 16 11
71.2956580696913 181.617742906933 3234.04187188032 8 11 4
99.4025418062638 180.676685657337 3249.38738930863 8 11 4
116.036729480732 179.763663513543 3253.50277160926 10 13 6
153.076766844607 178.757297293392 3276.98641941063 10 13 6
162.593705155033 177.854626977194 3274.03695522201 12 15 8
135.583089111596 177.130575275569 3236.57830160889 21 24 17
108.382645794502 176.432089303332 3199.28401245055 21 24 17
-118.939703859484 200.937845375909 3431.88454915423 14 17 10
-134.771800524762 199.939830317102 3400.61892328196 12 15 8
-160.623762574494 198.910280519457 3358.18790411131 12 15 8
-145.712915301441 198.099042075108 3362.47304704958 12 15 8
-137.376388719199 197.252554257928 3359.22306319908 15 18 11
-104.428645042905 196.497959451591 3383.60518029319 15 18 11
-96.658303899785 195.635673923975 3379.52277121154 15 18 11
-110.286512850657 194.709152333581 3351.64016787399 13 16 9
-105.250100256572 193.846788891565 3344.63367892652 12 15 8
-121.760372401884 192.940160164401 3313.95557544666 11 14 7
-76.9739318744116 192.156318517623 3350.57387035299 11 14 7
-115.2475031502 191.234577136996 3296.41139539699 8 13 6
-98.094603399562 190.397628411344 3302.7235355957 8 13 6
-86.3267020441767 189.54937494866 3303.11608720476 9 14 7
-49.2415058790607 188.697952351387 3330.52968834048 10 15 8
-49.6698436948084 187.835072659729 3317.67298034421 12 15 8
-32.95257047753 186.96475395144 3323.03964908402 12 13 7
-8.58908834926497 186.077398686702 3336.33600024982 12 13 7
-11.0914236936424 185.217649696742 3321.30678204443 12 13 7
-11.5667352829774 184.361111941422 3308.49074681027 10 13 6
-47.5652008651983 183.593308787318 3258.97197832172 10 13 6
4.80189279807997 182.617202990005 3300.93138893575 11 14 7
49.7419238052581 181.628632922277 3334.77136635364 10 13 6
9.27745777978251 180.909898489102 3281.18292675297 9 12 5
-22.3539255007279 179.369973815909 3225.23753268308 10 13 6
8.72087811801014 178.407412699758 3244.62772200065 13 16 9
27.866923513117 177.486227619621 3251.85939882439 12 15 8
41.3890434526705 176.585933392495 3253.37868061438 13 16 9
33.5249146471739 175.80386428176 3233.73276103123 16 19 12
58.5266621394034 174.830617420708 3246.47646124359 14 17 10
85.789619109252 173.829047625958 3261.23057158592 10 13 6
82.9145364155806 173.019548783421 3246.5241012842 12 17 10
99.4912510708077 172.076160064417 3250.6894942926 11 16 9
63.9608790193069 171.521558393558 3204.73404440661 14 19 12
95.7606240776565 170.461395948593 3223.49621786695 17 22 15
160.490929216904 169.109326444272 3273.26965473208 22 25 18
126.178900307194 168.574768379836 3228.90461491339 26 29 22
-128.733779119933 192.333258983314 3421.90195438696 15 18 11
-142.618511067996 191.434479558498 3392.91824810967 15 18 11
-133.5849354759 190.575180253375 3390.38745071806 15 18 11
-113.966608511864 189.719427709276 3399.85619738262 16 19 12
-122.756836544742 188.849097557265 3377.0434350927 15 18 11
-142.940691597321 187.994880337125 3341.60882207783 15 18 11
-111.95385507968 187.126463904492 3363.72116732816 14 17 10
-103.552426880784 186.263071752949 3360.41504045415 13 16 9
-136.729314936354 185.461752891009 3311.0977637425 12 15 8
-141.215839217743 184.6370955805 3293.81798788556 11 14 7
-108.647179637928 183.734354276517 3317.206369913 11 14 7
-92.1659145341209 182.854656517756 3322.77765614445 10 13 6
-100.069101707593 182.043600938623 3301.84220130086 10 13 6
-57.6570342134395 181.065656766573 3335.22634944897 11 14 7
-45.7694550666146 180.179467637694 3335.51573335132 12 15 8
-42.7573972225215 179.327488169754 3326.2936600127 10 13 6
-15.7111923840398 178.364782015444 3342.55896176593 11 14 7
5.94309355644818 177.413699148974 3352.91020909097 11 14 7
3.48864921004344 176.58345967882 3337.83929081378 11 14 7
-9.42149771006395 175.821636046774 3311.9800873139 10 13 6
33.1936436722771 174.727184016678 3343.86571812544 10 13 6
24.4019266884905 173.946614463354 3322.37692558398 10 13 6
25.3138841258034 173.109629283852 3311.00488946264 10 13 6
38.8227957718934 172.183856506156 3312.53578445699 10 13 6
-20.1131075689793 171.815073336534 3240.54794456829 10 13 6
-20.8509469153886 171.021685728287 3227.95904236312 11 14 7
-17.3833678245563 170.197846422585 3219.66554642242 11 14 7
34.3409733879945 168.948537107089 3259.53698679751 11 14 7
55.7134285385628 167.946314468329 3268.80989302621 14 17 10
69.3171713195939 167.007867953414 3270.25867659337 16 19 12
70.0717653940823 166.192184615194 3259.02289491849 12 15 8
87.310028510315 165.210886071355 3263.93872213822 9 12 5
115.411872754406 164.10629821143 3279.28966715823 10 15 8
90.9124372174683 163.56565628856 3243.62339276601 13 18 11
96.6560981488867 162.703360682035 3237.32748220819 19 24 17
50.8236769282422 162.445528217636 3181.77203579449 22 27 20
122.696561208496 160.805200193116 3238.58985025015 27 30 23
136.50140408642 159.839801289534 3239.86450778702 23 26 19
156.206697138315 158.794331176353 3246.61258544766 21 24 17
-82.6625464717066 186.323546990875 3516.99169397507 15 23 12
-99.3898313929336 185.459951316761 3483.85456715624 7 13 3
-126.046447668005 184.635174852809 3439.47312204515 17 20 13
-147.02590804631 183.824914312789 3402.08096666637 16 19 12
-140.134276924521 182.117799122727 3384.20851001789 15 18 11
-125.820991679983 181.229016162816 3387.68882306369 15 18 11
-149.213967333684 180.484210092531 3348.41802585115 14 17 10
-110.335285442633 179.489990155151 3379.57143277366 14 17 10
-115.243614982513 178.679610083185 3361.33389730691 14 17 10
-128.913326404711 177.923866913989 3333.48615900463 13 16 9
-111.858532912323 177.012263490609 3339.88381518805 12 15 8
-115.590988252795 176.2167180911 3323.27353290152 11 14 7
-113.31281415283 175.390797683372 3313.36411324762 11 14 7
-79.2503906282942 174.35289133736 3338.10550950133 10 13 6
-98.6485872412906 173.676230641521 3304.6353092502 10 13 6
-65.0927913989165 172.62003762971 3328.49236003966 11 14 7
-53.2274006045421 171.714986608607 3328.80109761017 12 15 8
-31.7391589702094 170.725909015386 3339.29682322336 10 13 6
-10.1609034496044 169.724722476694 3349.71429351924 10 13 6
0.481391233674078 168.811349948174 3348.43634911944 11 14 7
0.779919644461113 167.992566423925 3336.27261516557 11 14 7
-6.58482603579458 167.253648533485 3316.19358265667 12 15 8
4.04578528697774 166.341928021381 3314.92575394027 12 15 8
16.0953645955142 165.412279784893 3315.07500809554 10 13 6
19.084614679894 164.577479744463 3305.87259173896 10 13 6
-12.3198491924335 164.132961857794 3261.63371458561 10 13 6
-8.0665471466923 163.301109968192 3253.98251711125 11 14 7
-15.1157614706463 162.606377050581 3234.95297678658 13 16 9
-10.2136431975723 161.773747555976 3228.06269287756 10 13 6
69.3172542045239 159.201731245949 3283.54274397382 12 15 8
79.3909371033212 158.27868903213 3281.43412212101 11 14 7
77.3146747573117 157.520339257717 3267.35853044841 11 14 7
86.6751402684964 156.606837479735 3264.54475704738 12 15 8
103.971275739057 155.576888773559 3269.41073947168 18 23 16
126.382342692407 154.464077750471 3279.10710549317 21 26 19
82.2662219631631 154.346541615362 3224.71000788521 24 29 22
126.430215601939 152.123143483481 3243.35021398472 22 25 18
178.949169165108 150.505043848512 3281.21206417189 13 16 9
198.039558679683 149.406777053313 3287.16986656964 18 21 14
-139.020866407754 177.790648700952 3452.08613069896 18 24 14
-128.635442329501 176.056615749101 3437.80258792613 16 19 12
-138.495719035761 175.289212952836 3413.26977105502 15 18 11
-122.874801032062 174.358897442648 3418.26381817514 13 16 9
-112.460958949031 173.459352802175 3417.18347673771 13 16 9
-124.466231730217 172.72952907763 3390.53977893611 13 16 9
-116.059484971775 171.848947291809 3387.22915366463 14 17 10
-119.596804495509 171.068328085995 3370.44964342955 14 17 10
-102.127962872085 169.302909688609 3364.58366756992 12 15 8
-87.0032462813683 168.355875242466 3368.6843222446 12 15 8
-94.0167435718053 167.624511805296 3348.30080117773 11 14 7
-109.207239718215 166.988648577077 3319.12356757785 11 14 7
-119.793480086252 166.319450061311 3295.21964865352 10 13 6
-53.1172571623593 164.799719647857 3355.21755395091 10 13 6
-48.0192134408108 163.946019474768 3348.15759095176 11 14 7
-35.4192095308226 163.004000778178 3349.15311335316 12 15 8
-28.9459677663495 162.13281406054 3343.54816734957 10 13 6
-6.6748657204605 161.061820590458 3354.6891513935 10 13 6
-22.2011724603899 160.471434127123 3325.80268221502 11 14 7
-32.3315516717333 159.824898395008 3302.82676605714 11 14 7
17.3161041577616 157.582343484023 3329.94776442392 12 15 8
28.7079634252185 156.635684543792 3329.34362202511 10 13 6
4.46759803350272 156.213233226866 3292.12877547568 10 13 6
1.08413200644453 155.496376932561 3276.53907808452 11 14 7
15.9292065267636 154.503837207998 3279.55882708363 11 14 7
-0.919753027914361 154.007986092746 3250.49487517838 13 16 9
11.1006586437132 153.060684426869 3250.66952436764 12 15 8
25.2816630540385 152.073881050065 3252.94154875703 11 14 7
48.757606005176 150.924959231162 3264.36201973062 9 12 5
65.9090778466829 149.87348740989 3269.35352679241 9 12 5
78.8273851926782 148.889249827793 3270.07343774397 13 16 9
78.8626958139602 148.131319077927 3258.13744978202 15 18 11
95.4153475070205 147.076787196793 3262.32441923513 19 24 17
66.5487016436566 146.858504178508 3222.50107785835 21 26 19
77.2942924550528 145.915554756087 3221.13379465039 21 26 19
101.130759614341 144.718389385331 3232.2420989533 19 24 17
111.233022227711 143.778347408626 3230.10913170631 18 21 14
127.925330120876 142.705208060367 3234.17517668776 17 20 13
-115.582937360589 167.333646632887 3454.33640915102 14 17 10
-103.167753078724 166.391180409951 3455.49212426736 14 17 10
-86.1249283183896 165.39297463144 3461.90071536649 14 17 10
-100.593449514659 164.747626415863 3432.09778158919 14 17 10
-126.412350444876 164.252881190855 3389.63464161093 15 18 11
-116.024416182746 163.340461438837 3388.577154357 14 17 10
-83.0347500031787 162.140314125205 3412.92582290198 14 17 10
-109.162807137307 161.687353148795 3370.73036895517 13 16 9
-98.3546274431482 159.989323221643 3357.40343626587 11 14 7
-84.5566037818899 159.023230473362 3360.00758514402 11 14 7
-86.2232462745571 158.275425065272 3345.57657738031 11 14 7
-107.554667114203 157.825212481053 3309.81072204966 10 13 6
-59.8538097083625 156.346549186762 3349.20084855283 10 13 6
-11.2215318122941 154.823607127948 3389.10754275004 11 14 7
-26.4953161398798 154.287281319558 3360.00185300558 12 15 8
-8.35457987040122 153.223052641728 3366.78284895074 11 14 7
-1.817950521394 152.343555866878 3361.12301649857 11 14 7
-50.3808463239594 152.39945707566 3297.34510403347 11 14 7
-24.6673396488499 151.207219456997 3312.12015330074 11 14 7
19.8677474059061 149.668992477471 3346.31435647537 10 13 6
32.2522820076103 147.922150831623 3334.26829388447 11 14 7
9.43105296950852 147.591943675301 3298.46935484685 11 14 7
-14.2645685684184 147.298447263909 3262.10478445985 11 14 7
-14.934072117414 146.579137849526 3249.45617313422 11 14 7
27.3716972376303 145.017289512815 3280.28971566968 12 15 8
24.6223909589185 144.334976664106 3265.47340625972 13 16 9
16.8538211735694 143.761188750614 3245.74331257163 10 13 6
34.6114657636956 142.668165602188 3251.5329580493 11 14 7
70.9830081960425 141.176151857393 3275.59884593181 14 17 10
72.4683009583038 140.410139381386 3265.0529959561 18 21 14
72.4889680322831 139.679261777451 3253.12952477789 17 20 13
71.0328043140458 138.985188665061 3239.83931569315 17 22 15
64.4791831616462 138.410152267844 3221.70302770131 16 21 14
59.2980814730644 137.812430258138 3205.02379650307 18 23 16
90.3379299949441 136.390278825431 3223.1236844313 21 26 19
138.984016585675 134.54285062942 3257.72715381352 25 28 21
142.61627374644 133.731216027514 3249.29084638354 27 30 23
-240.352761703916 162.725963579118 3348.12503720019 20 21 13
-129.929918977535 160.462725865138 3465.49271668027 16 19 10
-125.998277981897 159.61983805901 3456.79712504092 15 18 9
-97.3269209535466 158.421027967378 3476.94842242356 13 16 9
-102.499378228845 157.708009367592 3457.61592418219 13 16 9
-120.202496360156 157.194678977581 3423.99874096975 14 17 10
-163.706476486826 157.102010268187 3361.1307216986 17 20 13
-113.843887650504 155.555498725083 3405.26457291295 17 20 13
-107.386692658443 154.686115604948 3399.67352353645 14 17 10
-97.8020041670824 153.0044116196 3384.76040711379 13 16 9
-87.3477483973315 152.066789925653 3383.64559993452 12 15 8
-52.2522660428999 149.925658297871 3396.9117223795 11 14 7
-69.320601672572 149.48401989126 3365.3907230471 11 14 7
-78.418996889523 148.908831474105 3342.84314780676 10 13 6
-53.0217905724784 147.681974770005 3357.89257029619 10 13 6
-9.14161727968166 146.080437744961 3392.65482101958 11 14 7
-19.9436454184903 144.796062530265 3355.70836421341 12 15 8
-26.48310670609 144.18979738672 3336.2364293359 11 14 7
-24.8386750899225 143.421191384658 3325.55266480144 11 14 7
-14.9364703893924 142.48029522903 3323.59278496076 11 14 7
54.2528575981915 139.508215823303 3370.83518502214 10 13 6
76.206582104791 138.275888526232 3380.9290361625 12 15 8
22.0782952348033 138.753482038667 3312.70865847417 11 14 7
21.5594573931313 138.041617029069 3299.92941152446 11 14 7
12.5635736293548 137.53163586703 3278.61582425038 11 14 7
35.906532106889 136.269094260138 3290.15260941921 12 15 8
25.4088846134533 135.804811334523 3267.49352136715 12 15 8
40.3399051977371 134.73546023627 3270.43959107579 10 13 6
63.1423373000652 133.467605544594 3281.12132792699 13 16 9
59.6496120774987 132.843291045716 3265.62572973471 18 21 14
70.4040631769267 131.866693832739 3264.25098503515 19 22 15
69.7051118476724 131.179507924783 3251.62768899803 16 19 12
65.3673095239231 130.590804818358 3235.54074235763 19 24 17
66.0173028698683 129.87868444838 3224.39526631624 17 22 15
93.4027341896879 128.463936744499 3239.04558562746 18 23 16
121.63233981461 127.013953484788 3254.28834895002 23 28 21
135.432119735678 125.940892039708 3255.56809238954 29 32 25
205.455646686698 123.326993304441 3310.02502195013 25 28 21
-119.492747003105 150.863814950499 3465.77210288246 21 24 15
-110.343956046746 149.93383770397 3463.1419021881 15 18 11
-96.605158008439 148.914715665294 3465.79772767362 13 16 9
-196.860236740578 150.100178247817 3336.9774284164 14 17 10
-109.197547020083 146.908482124474 3411.88048887607 17 20 13
-96.7697221231085 145.915098366315 3413.02557786383 16 19 12
-118.814027113317 145.635119779539 3375.22934896036 14 17 10
-81.1230110078656 144.110900999123 3404.76906117091 13 16 9
-50.5839692941401 142.718776706167 3425.94965904148 12 15 8
-33.9629606146601 141.614341128005 3431.40096528669 11 14 7
-62.2955192586958 141.501485877357 3387.14393001569 10 13 6
-65.2331115667728 140.839966905415 3371.16741925831 11 14 7
-70.9325255507212 140.248229974793 3352.29086742933 10 13 6
-66.5357442131143 139.430281108772 3344.51522120347 11 14 7
-26.7862591407946 137.780552465628 3374.91811942086 11 14 7
-18.8970648494191 136.870232958312 3370.73269179204 10 13 6
-37.1704211075627 135.178733224531 3313.79743127868 12 15 8
-33.5178202654354 134.385854561587 3305.34305419702 12 15 8
-7.03110764546855 133.011535358386 3320.77237884462 12 15 8
43.187685425182 131.010432964273 3360.63034267637 12 15 8
15.1561838868286 130.330348343253 3306.8525889206 11 14 7
38.4440367348176 129.009371820321 3318.43751477902 11 14 7
54.0998449791248 127.885077936702 3322.07900187324 11 14 7
37.3879811369706 127.643841134756 3292.89457427901 10 13 6
41.7452737789947 126.832205878648 3285.15311341266 11 14 7
37.5825848733982 126.261230213394 3268.91427480411 13 16 9
49.7098785152215 125.234584294975 3268.99679970071 15 18 11
52.5999530296066 124.469590581031 3259.87989002873 18 21 14
72.6306612623029 123.209978479555 3267.67056717277 20 23 16
58.3164581364009 122.948383517375 3241.70149177547 19 22 15
97.1246952009857 120.447181796512 3255.72206765206 17 22 15
100.726146746597 119.662302863169 3247.31228717863 13 18 11
97.0566966930875 119.100920295177 3231.9691394363 16 21 14
-32.6132287116492 141.781211923654 3596.97319768894 32 33 27
-111.044525484945 142.004300618969 3477.03404975918 15 18 11
-124.004366081829 141.565236936321 3448.56898880563 14 17 10
-139.156285544382 140.474992186729 3404.80444767921 15 18 11
-114.330876637142 139.170465551035 3420.34997083982 17 20 13
-186.968823047512 140.215940141568 3324.49813660592 17 20 13
-129.149034414672 138.108596052065 3377.61922346384 15 18 11
-108.823864704281 136.900722781468 3387.80086673614 13 16 9
-86.4156943421186 135.630868685285 3400.14791375024 12 15 8
-59.903676460443 134.245266862303 3416.87863940169 12 15 8
-65.6163855433158 132.977332027067 3384.78412191976 11 14 7
-69.2331318395785 132.373102892669 3368.07262622417 10 13 6
-86.4277391103587 132.141280694358 3336.65971144764 9 12 5
-33.9487553337134 130.025919653086 3381.17636253796 11 14 7
-14.5055016070961 128.791942846875 3389.47572598802 12 15 8
-37.2657416491893 128.72742253561 3352.29894306586 11 14 7
-57.4671549293679 128.609603185707 3318.19835290637 11 14 7
-53.8170762736496 127.828109445212 3309.74608811975 12 15 8
-57.7531273040659 127.267409308774 3293.31106324554 12 15 8
-50.0182648981844 126.37283972839 3289.25929854935 12 15 8
-5.58624719429091 124.395394218464 3323.54599729502 11 14 7
-4.66970185629156 123.691131223112 3312.16944014503 11 14 7
-17.0177196845911 123.389822425509 3287.14298036744 10 13 6
25.6981438666966 121.425391625871 3318.94694913883 10 13 6
49.7144853389595 120.01339403136 3331.22431841229 10 13 6
52.7568594513834 119.241622548146 3321.97544912446 10 13 6
50.1413766994512 118.649340851039 3307.04256664951 9 12 5
32.6322461266746 118.533723165706 3277.22508390102 12 15 8
31.9915015453689 117.894070718557 3264.55102996523 13 16 9
27.044352949718 117.397519705694 3247.66836762143 16 19 12
43.4152315323382 116.214669788372 3252.01371786719 19 22 15
60.5579563004031 115.000808099344 3257.01385862232 20 23 16
77.7616323229924 113.77882784202 3261.96122334283 19 22 15
39.6643422415464 114.397126212867 3212.92933864462 19 24 17
48.9000029046474 113.447294343647 3210.22397351137 19 24 17
71.1670866292526 112.053417089826 3220.04727180166 16 21 14
108.026469748246 110.150951640704 3243.69299036309 16 21 14
134.149812097142 108.602132135125 3256.79187010794 16 19 12
-89.1534294212648 133.429763341611 3517.66696957385 10 13 6
-85.0836801364623 132.601176249057 3508.85158184705 6 11 4
-135.053238997271 133.235455221993 3437.02566978376 15 18 11
-113.55798723685 131.951914903623 3448.84048846659 16 19 12
-88.0237556467796 129.844447779952 3451.86655821662 16 19 12
-156.598540095851 131.093153934765 3360.43191477488 17 20 13
-96.8504434060278 128.021675258176 3402.62445821337 11 14 7
-70.0614877379051 125.186500355061 3393.98069555366 11 14 7
-58.8636378547611 124.169724127578 3393.54547793643 11 14 7
-56.393176880444 123.417609274576 3383.46891807502 9 12 5
-5.30563361818492 121.162529515709 3426.54564879764 9 12 5
-27.1320298890498 121.160559429135 3389.88232545741 11 14 7
-11.0684303319228 119.979326824515 3394.49399499935 12 15 8
-67.8956479465649 121.118037066509 3320.66871280105 12 15 8
-41.6803743839713 119.620758667248 3336.3341002151 13 16 9
-45.5247214416312 119.089064023185 3319.81908874228 13 16 9
-17.7861260041974 117.527003624493 3336.81141537824 13 16 9
-7.86030502818891 116.5422830332 3334.83135044616 12 15 8
15.2347261848766 115.115378540935 3346.58408816234 11 14 7
-14.3241648454779 115.454713489817 3303.38702904681 10 13 6
-17.6434114099719 114.922789102553 3287.74015646289 10 13 6
27.8547786301133 112.721187761434 3322.42747872913 9 12 5
21.0621061524039 112.306923811345 3303.17408243198 8 11 4
48.604937375905 110.701961382714 3319.0127865701 9 12 5
37.5289848992941 110.44428093666 3295.53033657258 10 13 6
44.7174336527678 109.548738854646 3290.62922917212 13 16 9
25.6945690376487 109.590640736201 3259.47589614092 14 17 10
22.8658573292186 109.063291067229 3244.72740610583 17 20 13
37.7983177129124 107.895843667452 3247.6725480422 19 22 15
49.9209011165513 106.826650411242 3247.75943117934 19 22 15
40.5737211960826 106.54672148645 3226.74883416724 19 22 15
62.7618302889128 105.103181976499 3236.64090442225 20 25 18
39.626738011302 105.348818127809 3202.43353132911 21 26 19
55.3586304579525 104.144255963418 3206.0095936508 20 25 18
111.015166394583 101.417290796546 3247.77610927826 21 26 19
-116.447329058138 126.116608805897 3500.34703622983 14 17 10
-98.8548867742867 124.891207915998 3507.60398716763 12 17 10
-101.121313715749 122.234368684526 3451.3577016959 17 20 13
-130.045733402754 122.495219566998 3404.9647102958 16 19 12
-137.448466967821 122.078965549684 3383.5932515101 16 19 12
-70.9091363567693 119.243371787141 3446.36485486704 14 17 10
-76.265278090557 118.753646596131 3427.19011560146 13 16 9
-71.054372910905 117.917860509992 3420.03221543608 12 15 8
-80.5290031339636 117.579151739288 3396.48594333305 12 15 8
-74.0417095420458 116.706314056943 3390.86882880382 12 15 8
-40.7040314942337 114.909956120291 3414.91972641314 12 15 8
-31.4415639679404 113.932862835357 3412.19130346266 10 13 6
-49.1781670276183 113.899500734845 3379.9236090197 9 12 5
-0.673989805388242 111.541847051374 3419.94674162757 11 14 7
-23.2623662743374 111.690919135519 3382.61961428496 12 15 8
-10.5870348971413 110.591205805222 3383.55086952807 12 15 8
-11.8678092537161 109.353455430218 3356.87829644914 13 16 9
-12.9174061578672 108.756197508282 3343.2350739279 13 16 9
19.0971013382466 106.937248918798 3364.46285927404 13 16 9
-32.9943257226692 107.62914481072 3285.21253167285 11 14 7
22.0965922616525 104.924208302507 3330.11566770841 10 13 6
10.4651847454651 104.742768784507 3305.79089564407 9 12 5
42.8310067275688 102.877159404415 3326.71448646044 8 11 4
25.4971187855522 102.92532536044 3296.74405330278 9 12 5
13.656220463198 102.772322859027 3272.60067017764 13 16 9
25.7202255712299 101.688935404593 3272.73841720791 15 18 11
29.316653962987 100.938134719757 3264.33245414174 16 19 12
27.2133269914971 100.416474945102 3250.27878659578 18 21 14
22.2102045865404 100.016123486933 3233.44401538894 20 23 16
37.8602056894608 98.7868152517329 3237.09121623696 19 22 15
65.7438918179851 97.054579042148 3252.63531391428 18 21 14
30.5149876024764 97.8973937972409 3206.4092002126 21 26 19
84.4057463439558 95.0867292420853 3247.0598835223 19 24 17
97.3323049693335 93.3530464552814 3235.86720482962 18 23 16
159.817472189921 89.5240983155558 3271.7222411481 15 18 11
-98.4061080177692 116.742015296521 3523.14789846304 16 19 12
-116.953322754467 116.72160394601 3487.61292376018 13 18 11
-105.185660148486 115.652965966781 3488.00711039908 10 15 8
-102.491608052862 114.902584231393 3477.73674484531 17 20 13
-133.299897876093 114.080818447046 3402.54637814203 15 18 11
-74.1769979320246 111.283512134846 3457.1890043033 15 18 11
-49.7455421292212 109.73676345458 3471.75397399995 13 16 9
-70.9380644180881 109.879937701102 3434.54062426915 12 15 8
-80.3358977762421 109.596821516113 3410.92711380869 11 14 7
-75.159668267379 108.771409152298 3403.79951658445 10 13 6
-65.9779418879722 107.794035600149 3401.14107670433 10 13 6
-55.4377593627913 106.762958909049 3399.95239930824 10 13 6
-34.9592727687829 104.717670868696 3396.77302853567 9 12 5
-16.221032177254 103.357658963559 3404.3610080498 11 14 7
-32.0531331474689 103.360830909393 3374.41247457698 12 15 8
-7.82135381027294 101.777732853541 3387.82748571642 11 14 7
31.1373361069123 98.3445791000199 3391.13697976762 13 16 9
28.1091595831109 97.8506638568706 3375.23789552969 13 16 9
20.8729888701584 97.5361753125355 3355.04467216232 12 15 8
23.5462038187868 96.2125451706716 3332.88578718939 10 13 6
62.1690515387612 93.9838032610142 3360.29883638782 8 11 4
75.7850549820351 92.798542825885 3361.73859255866 8 11 4
63.4701829277375 92.716557114179 3336.68229844112 10 13 6
24.9959133319249 93.7684870515219 3285.32750823799 15 18 11
30.7387952499347 92.9335436283138 3279.03209563626 16 19 12
15.2338632426989 93.0230652189036 3251.44627077247 17 20 13
35.8187365622618 91.5455230542576 3260.08130618082 18 21 14
52.2118762316852 90.2452027855217 3264.40812315328 20 23 16
46.5195893933972 89.9175026508512 3246.84694387806 19 22 15
84.4523582357435 87.6539122288467 3272.21149780652 18 21 14
90.238291324225 86.8138447588852 3265.87880441184 20 25 18
97.46006182348 85.9096758159112 3260.948556246 19 24 17
103.962760092461 85.0378776433553 3255.3180831934 17 22 15
119.883659029163 83.7373606936893 3258.73094858581 19 24 17
125.684843724041 82.8956809273629 3252.38504652337 22 25 18
109.621378920123 83.061154839842 3225.28251442491 21 24 17
-104.431406870236 108.781242982204 3531.06866481523 11 13 8
-137.056809599727 109.404058555196 3478.61764577775 18 20 15
-147.317881589166 109.178447067473 3453.10544089171 18 20 15
-123.330503880241 107.616450710498 3468.05540783985 9 11 6
-109.636291640722 106.451881240998 3470.75050442993 16 19 12
-108.287404042603 105.15765494101 3445.76948842015 15 18 11
-93.8832126946907 103.959686068346 3449.17269789814 13 16 9
-102.477413397728 103.69583368217 3426.1861016843 11 14 7
-76.8167514543428 102.032937432273 3442.33326413179 11 14 7
-77.6477744891202 100.848229660089 3415.2708472116 13 16 9
-77.794996713664 100.250837156087 3402.16876586426 12 15 8
-70.8340671252556 98.7592395542395 3384.23484918452 11 14 7
-48.203471912653 97.1962167316585 3396.39069681358 11 14 7
-24.1242850146466 95.561887467626 3409.93829728444 11 14 7
-47.3310209659026 95.969087297901 3371.8221907855 12 15 8
-47.6299653229808 95.3929059629978 3358.85147501511 12 15 8
-31.6227009601011 94.1043235690752 3363.51266792416 13 16 9
-21.0238092926307 93.049762538649 3362.27325738328 16 19 12
32.7714977513849 90.0721824745324 3406.97785185592 15 18 11
29.1145996366993 89.6397097201678 3390.29972868614 10 13 4
-9.76311767625626 90.7980878929149 3336.64740958981 12 15 6
21.6144612576379 88.8001957895298 3357.10514250129 8 11 2
22.6256754477427 88.1720921044704 3345.64603894012 12 15 6
-0.0456952235170505 88.6317423683303 3309.7120939736 14 17 10
50.3593800895334 85.7409090302852 3349.41436576871 9 12 5
57.6432685825132 84.8247963644659 3344.43035510053 10 13 4
91.596557600949 82.6663285544422 3366.62676616263 12 15 6
41.2552592653763 84.4417449685151 3303.0561712362 18 21 12
18.8137252402663 84.9326498544077 3268.24607692845 15 18 9
27.3506271066148 83.9718540332865 3264.82316133553 16 19 10
38.7389689002333 82.874478670333 3264.2230443039 16 19 12
52.2914979913378 81.6712518196088 3265.71793240014 15 18 11
70.8828455386219 80.2223659402995 3272.1105444292 18 20 15
77.3692944757793 79.3527710613587 3266.49414097916 20 22 17
84.5733071862851 78.4484930784437 3261.57960034656 17 19 14
95.3816977916309 77.368061555933 3260.1587771873 15 18 11
116.325929440301 75.7883911944923 3268.48300560809 19 22 15
134.454010062136 74.3407877705398 3273.95356303808 21 24 17
157.005545234077 72.6686840350596 3283.53211994901 22 25 16
-128.828680287157 100.980222418303 3503.30108653411 13 15 10
-122.240478828552 100.092275709455 3497.59660943661 13 15 10
-121.97744656978 98.2839381573226 3457.67968221724 18 21 14
-98.4568101209447 96.0612512002152 3458.48165575227 13 16 9
-87.3033641082066 94.9727977764215 3458.08507352277 12 15 8
-101.136967420672 95.0053696936017 3429.05070152647 11 14 7
-88.1166724524585 93.2530297600571 3417.77689907492 12 15 8
-72.9683635148217 91.9815287857065 3421.8592079657 12 15 8
-49.1015808639665 90.3038061726851 3435.59118802233 11 14 7
-86.8921947551531 90.9069896762108 3367.76667973066 11 14 7
-38.0777254703562 88.0551611745751 3408.84733419182 11 14 7
-48.3846082316886 87.9682547256009 3384.69751272126 11 14 7
-32.3981299850824 86.6438300770759 3389.37695396314 12 15 8
-47.5835863511271 86.8007574517916 3360.1902149016 12 15 8
-60.1771319553781 86.8449772672991 3334.05137847955 14 17 10
30.7506375117375 81.3370349905362 3406.13917078084 16 19 12
21.5956099086787 81.2139410230204 3383.63775128187 12 15 6
-6.26249144720736 82.0149704909924 3341.61040208636 12 15 6
19.2121734681119 79.6529316146384 3343.3664891737 13 16 7
9.05732401486592 79.6058415838315 3320.40758231813 9 12 5
15.5412888060202 78.7357128990973 3314.7933354258 16 19 12
50.0035568038539 76.4605968629758 3337.87261286693 7 10 1
34.8213517523086 76.6774292311343 3310.00624397335 18 21 12
30.7682245052097 76.3407016908258 3293.67092640355 16 19 8
48.5278017099384 74.8977803465443 3299.4611641637 16 19 10
38.0446374219283 74.8955484865027 3276.78684440733 17 20 11
45.9157067388247 73.9575730922041 3272.61762106906 17 20 11
61.624203467459 72.6140742363732 3276.21486161373 16 18 13
58.8248756068812 72.2272053605877 3261.43999322248 19 21 16
64.5623444730536 71.3997134045426 3255.14890850881 20 22 17
59.5254299220076 71.1371295747105 3238.34253343197 17 19 14
66.662636364093 70.2395428753087 3233.48585283385 15 18 11
110.629389989345 67.3954147008504 3264.21133067632 17 20 13
100.498521456237 67.4056176346841 3242.55484382038 20 23 16
125.129506211603 65.5705721332985 3254.3019055154 22 25 16
134.569202818668 64.5407310339296 3251.42021355735 20 23 14
-147.43640393296 93.1102008745572 3482.42592336607 10 12 7
-186.681517085345 93.8331698370122 3409.24468577937 19 21 16
-151.166084869627 91.5836581221232 3438.027601894 19 22 15
-173.953673747794 92.1184107355908 3398.22411814343 17 20 13
-115.44633251082 88.180608185465 3440.17410634668 12 15 8
-84.6643998384295 86.1187270724091 3462.47178280573 12 15 8
-130.070727661696 87.785759446294 3397.27109562632 11 14 7
-107.144921919657 86.1065130692204 3410.49540319477 12 15 8
-92.063037719043 84.8081157408186 3414.63545908178 11 14 7
-60.3207088960902 82.6738786288545 3437.42445541687 11 14 7
-37.0843831764001 80.9533455469157 3450.37989169806 11 14 7
-57.3496967908538 80.8695959822107 3401.77733383766 9 12 5
-46.1164723464855 79.752447796502 3401.31179071664 12 15 8
-44.973423607737 79.1496781146118 3389.73794173561 12 15 8
-53.6458153683155 78.5194075486216 3354.91151204626 13 16 9
-57.4006588685227 78.1824837049743 3338.3176625034 14 17 10
-53.0238134223371 77.4263460014787 3330.55889489334 12 15 8
6.12998192692071 73.7985461749767 3381.21034189878 13 16 9
27.8190584838014 72.1191584193725 3391.53615437988 11 14 7
4.81437158072229 72.7984668805842 3354.5664223097 16 19 10
14.8023577092107 71.7378450093772 3352.5332839605 13 16 7
13.720663627375 71.2670777136603 3338.91674604163 13 16 9
26.7588896125845 69.5177277099563 3327.62738275831 1 4 0
44.465526329077 68.0377549180526 3333.46374603684 9 12 5
46.8081600590993 67.3880054036015 3323.49731531282 30 33 24
30.1341581137229 67.7786564339096 3294.27597680283 6 9 0
53.5340653536389 65.9830341236782 3305.76685680854 17 20 11
59.3443335939572 65.1483132712878 3299.41272110399 19 22 13
39.6060906468918 65.7266294570025 3267.55269533691 18 21 14
46.7560951589561 64.824362602967 3262.68463700619 18 21 14
42.4910055570011 64.5582650999457 3246.53289265668 19 21 16
46.0363911578066 63.8600462849366 3238.17114499315 20 22 17
45.2578764937899 63.4062769925341 3225.61529681266 24 26 21
68.1918889741615 61.618204791504 3236.18635924302 23 26 19
78.2256385732394 60.5535985045702 3234.11326635518 17 20 13
118.684518034767 57.7579008934795 3261.26189560699 15 18 11
108.516315830276 57.836805581321 3239.6373219969 19 22 13
144.11974871974 55.3010950961943 3261.72951497913 17 20 11
-187.301609821092 85.417475973273 3409.83667634827 21 23 18
-142.14090427154 81.4770794129415 3423.65402447177 11 14 7
-90.5647160661078 77.1562530070304 3443.82360275787 10 13 6
-109.248058321321 77.1028873902228 3396.49621831258 11 14 7
-43.0325388881898 73.0066929255547 3458.23338830854 11 14 7
-54.3852382992327 73.0905933696221 3432.34206962977 10 13 6
-61.8400333526301 72.9710723645512 3411.01381157002 10 13 6
-70.7220757653078 72.936796370984 3388.27521045154 12 15 8
-51.4616044649578 71.3621966143601 3396.73552075853 12 15 8
-53.0289457683999 70.9323009811544 3382.21638502153 12 15 8
-74.262460862029 71.5977688474578 3346.35844162451 12 15 8
-59.7050664480521 70.2820998878094 3349.62962719782 13 16 9
-24.0013917077735 67.7792799358093 3375.60450644961 14 17 10
-10.6472146448384 66.5189248120761 3377.27168357098 11 14 7
0.00912583484602436 65.4078198333547 3375.98284648577 10 13 6
18.243665945382 63.8655420989543 3382.6853215271 12 15 8
30.3488221428401 62.6668264408429 3382.78814875865 19 22 15
51.4671967551443 60.9508338308433 3392.28558545702 9 12 5
61.5852793023981 59.8593819766619 3390.13988764447 9 12 5
74.9112856697058 58.0719199303613 3378.60134172682 1 3 0
47.3190427383607 59.1666473546673 3337.66492118062 8 11 4
40.5584405641202 59.0631333439745 3318.3813992185 12 15 8
27.3903726013138 59.3404741752893 3292.73869583274 31 34 25
74.75722596948 56.0730724601041 3328.46012409423 16 19 10
43.8521528841691 57.3999619722083 3285.10018910341 18 21 14
42.521239656673 56.9943470905063 3271.69955169974 18 21 14
37.5873635587554 56.8061516478039 3254.8033874533 17 20 13
43.2887790094076 55.9895036768802 3248.5434812615 17 19 14
48.2701108999439 55.2164114118544 3241.58446977303 18 20 15
95.5790488494426 51.9045884627788 3276.03280687539 23 25 20
105.701001922413 50.8146664604309 3273.8837444256 25 28 21
99.2438896943826 50.7251145856578 3255.66034721539 20 23 16
107.910548731127 49.7242820551245 3252.1252258577 17 20 13
101.347182300065 49.6492414497532 3233.99414446398 17 20 11
-178.846591165779 77.5090838194842 3447.55367912549 23 25 20
-128.54903426105 73.6808157037548 3480.73859571718 21 24 17
-129.117644197096 73.197992169315 3466.67742745129 14 17 10
-145.968177190625 73.6378903145516 3433.6386774944 11 14 7
-162.315261514861 74.0609739052483 3401.48725582327 8 11 4
-163.774038279149 73.6478006466112 3386.87391493647 10 13 6
-146.92400830504 72.1917571665335 3393.45257500646 10 13 6
-78.7187346159395 67.2753727917557 3445.53027206067 11 14 7
-87.3753786145817 67.273368017215 3422.59610091658 11 14 7
-82.1851830232534 66.4737721743821 3415.45623149497 11 14 7
-84.3288406775091 66.1030970849345 3400.11296523197 12 15 8
-91.8701183066313 66.0530279462645 3378.85921467936 13 16 9
