ply
format ascii 1.0
comment KinectMotionCapture
element vertex 801
property float x
property float y
property float z
property uchar red
property uchar green
property uchar blue
end_header
-64.5795629855115 242.044678035779 2987.78593823978 16 17 11
-47.9732779834867 241.431353266137 2976.17332985764 18 19 11
-23.8615143470462 240.80524615953 2952.49513344037 15 15 7
-35.5179993311858 240.270353174367 2985.54067396171 17 17 9
-19.6058691409133 239.670657441315 2974.72571204453 23 24 16
-0.0312467505141356 239.071777718831 2957.84148967515 25 28 21
19.9607610757611 238.48148455115 2940.04739048976 22 25 18
30.3019315704465 237.907796323443 2937.7654423748 21 24 17
37.2612457662174 236.767153413293 2955.69620815092 19 22 15
28.7911681473392 236.187601122882 2984.63768581471 19 22 15
49.5254460979551 235.036436889974 2980.09510442995 22 25 18
87.1107822189907 234.50769040635 2931.6628384289 26 29 22
98.8071944218472 233.951727018168 2926.69280209079 24 27 20
102.310282562784 233.379814421925 2935.66768410289 21 24 17
108.383811707723 232.812136102917 2940.28898946053 21 24 17
113.460157754167 232.240361506977 2946.66418976937 20 23 16
112.035363419362 231.643222676793 2964.4328513398 20 23 16
115.689759126107 231.059441817915 2973.4690866734 20 23 16
124.84425305246 230.497285288814 2972.86444771459 20 23 14
132.991428215674 229.931842984507 2974.00959370466 22 25 16
137.688164234692 229.348760009461 2981.31024368246 21 24 15
145.835126662668 228.783442903954 2982.45530258856 19 22 13
134.023543780511 228.094592810935 3019.75470182095 16 19 10
133.543332974951 227.464357546898 3036.82726130059 15 18 9
161.073121122651 227.026854746991 3002.66390800859 15 18 7
171.626958369221 226.478981273445 2999.38906334524 13 19 9
171.187964673014 225.845641103365 3016.4783348753 17 18 12
165.144031389415 225.157361392053 3044.24509183306 16 17 11
195.539907328996 224.784293594202 3003.68979458825 14 15 10
198.494932992378 224.173318177084 3014.60068235155 13 14 9
195.43415076104 223.498330592181 3037.10208923519 11 13 8
205.935874016071 222.954967085161 3033.80610980091 14 15 7
215.480627879117 222.404313772603 3032.28033176926 18 18 8
279.204020860972 221.843083047779 2941.56596893361 106 84 71
299.768678319498 221.459480390092 2917.52880156319 138 112 99
305.745960592934 220.900682828474 2922.11106992953 137 105 90
307.696858675788 220.286596767506 2934.77329062807 132 99 84
311.934559426349 219.699355349767 2942.96692013535 136 103 86
315.759937206012 219.103242103813 2952.07247837719 142 109 92
320.503443291461 218.517634202095 2959.39208436238 143 112 94
326.588464210183 217.950605004032 2964.01778051125 141 113 99
335.299734611277 217.425140838807 2963.23340536352 138 116 102
352.659060443091 217.046572112471 2944.37174704396 132 120 108
-55.3816649681569 237.003893660943 2902.00080330267 23 25 20
-62.7424720638807 236.430818348119 2927.07562063585 31 33 28
-74.4104517582416 235.84456435042 2959.03808818939 28 31 24
-81.4869390240684 235.248815528163 2984.22845369649 31 34 27
-79.0832535497057 234.654992379232 2994.91597770694 27 30 23
-69.5174474963875 234.069618265347 2994.4780521024 22 25 18
-31.6396026220735 233.54481113519 2949.40087262439 17 18 10
-37.4269312939688 232.935549414072 2972.95543823968 14 15 7
-40.9329964162219 232.32270761414 2993.11846589502 12 13 5
-22.8461054832434 231.771315458652 2978.8679360675 15 16 8
11.7183079559371 231.288035938032 2937.84341203689 21 24 17
13.8668792657526 230.090054057521 2963.53682162518 23 26 19
41.1256023552011 229.609943106115 2933.57952876646 17 20 13
23.0732822863147 228.908979773914 2978.06223443317 17 20 13
37.6368381779597 228.371338897991 2968.85864747435 23 26 19
30.3074065943778 227.707044697715 2996.10473345815 24 27 20
56.2141970472381 227.245793715553 2967.75778319597 25 28 21
75.251204679861 226.752822303504 2950.65508165718 23 26 19
99.2936479420525 226.306597861933 2924.78983816226 19 22 15
108.394879227509 225.758953929733 2924.16352353531 18 21 14
115.956078360098 225.200421241168 2926.15042497167 19 22 15
122.504614459165 224.633530528476 2929.8849859459 20 23 16
116.510982104477 223.952243189658 2955.51444010695 20 23 16
122.635607741499 223.374673477309 2960.15650904694 19 22 15
124.796619940607 222.756563183399 2971.82502582437 18 21 12
130.964228406552 222.175698044229 2976.4842659597 19 22 13
136.159352107299 221.583263802029 2982.90771509523 20 23 14
138.440106979942 220.955793544748 2994.6247857803 22 25 16
135.418077263425 220.260825254632 3016.06322658802 20 23 14
136.377330882905 219.605107615323 3030.48212652584 18 21 12
165.824239152888 219.308196126027 2992.77844616908 18 21 10
182.580801469161 218.864129514734 2977.98871942123 15 18 9
177.311456831999 218.12571973805 3003.91186552928 14 15 9
193.51001064996 217.68170101331 2989.97501286726 14 15 9
183.676237014679 216.861600401316 3024.83952626259 14 13 9
187.628225049161 216.235143395264 3033.99657809862 14 15 10
195.348802993397 215.664898743753 3036.04809966215 14 15 9
202.601379384189 215.087473761087 3038.98899327485 15 17 6
213.546560486358 214.572312863825 3034.79328764859 16 16 4
248.774919194418 214.483581600226 2983.24574667989 20 8 0
289.628305857561 214.525875728558 2919.948954615 123 101 88
296.976014365657 213.985669712451 2921.84927629619 151 125 112
302.965579603801 213.420102390559 2926.43631203445 125 93 80
306.721974486918 212.809775306413 2935.51430455291 121 87 75
311.40732548012 212.214635817309 2942.81017897282 134 101 86
313.900097987052 211.571511018217 2954.61321275573 129 98 80
318.208998659052 210.961958503498 2962.83583971969 125 96 78
322.987633152608 210.359602251841 2970.16979589681 109 86 70
329.53683242936 209.794452279906 2973.90461219265 106 87 72
-71.6074765553298 229.191585370897 2925.69898793838 25 27 22
-84.4790187400715 228.512694032358 2959.33246000403 27 29 24
-85.5112609401774 227.883528736658 2975.10268962264 31 34 27
-79.8356021595283 227.287409230794 2980.64166657692 33 36 29
-68.6430423152737 226.724654656409 2977.62554897086 28 31 24
-58.5794401508826 226.157307089424 2976.31023271146 26 29 22
-48.5395974077076 225.591907126924 2974.98502444158 22 25 16
-37.981202816199 225.032525591348 2972.79092038633 12 15 6
-32.8514704416367 224.432799713956 2979.18820553151 11 14 5
-22.3256811106991 223.876098568229 2976.98087952023 13 16 7
-5.94442414815344 223.373158171482 2965.27632219289 18 21 14
-1.89312219652438 222.764908783714 2973.39463937942 23 26 19
13.3176544150175 222.260767707914 2963.37378822349 23 26 19
22.6528297708071 221.70456769866 2962.84226074884 18 21 14
26.7206670490108 221.095135272178 2970.96728193926 17 20 13
30.8202450041017 220.483238337407 2979.10491615904 21 24 17
62.8688244134585 218.871560517442 2970.51566915818 20 23 16
80.3166372445101 218.426103747237 2956.0058353921 17 20 13
86.4511267681842 217.841528350938 2960.65195125122 16 19 12
94.1185252399455 217.276785931571 2962.68189911701 19 22 15
104.81018088693 216.754955353973 2959.46240152471 21 24 17
100.905827059496 216.024429475154 2981.62267320014 21 24 17
105.107508782196 215.404900901075 2989.80196358561 19 22 15
109.340648898229 214.782924769533 2997.99400980388 17 20 11
118.056246880027 214.229577149888 2998.29040635536 16 19 10
126.265860954293 213.669327449118 2999.46079406041 21 24 15
134.956019841677 213.118159705526 2999.7468739796 23 26 17
138.762485715828 212.483147376957 3008.84506976909 22 25 16
154.231801310361 212.054206836537 2996.77071293257 20 23 14
172.507613346843 211.685552522878 2979.35886639054 19 22 11
188.271205802158 211.280623456669 2966.32467002992 14 17 8
176.764961302493 210.352279661807 3003.74951391093 13 14 6
175.891987064625 209.617441918079 3021.74264725623 12 13 5
178.880263938159 208.953461553357 3032.66765718895 13 12 7
181.445873284849 208.275918330725 3044.50044297543 14 15 9
191.530580350001 207.756225581735 3042.11424536061 15 16 10
204.835089577602 207.311168467861 3033.47898569551 18 20 9
211.611679275492 206.72409865235 3037.30603691115 18 18 6
252.827784164136 206.940772814714 2974.15504236397 22 10 0
287.73444217439 207.045315020815 2922.47552487111 128 106 93
296.452006740528 206.540318648731 2921.693543046 154 126 114
301.538014292057 205.94633391299 2928.07282357672 120 88 75
305.747112952847 205.327697167351 2936.25511026816 121 89 76
310.433927814819 204.718394314521 2943.55168475262 137 105 90
313.371077209686 204.059361325645 2954.45595603106 126 94 79
316.795947678791 203.408856676255 2964.47882933729 119 90 74
321.578685962644 202.792170678873 2971.8142984991 112 91 74
328.132715411398 202.223645480319 2975.55109608072 111 94 78
-94.5672053682543 221.161886146878 2959.6190315042 34 36 31
-94.5157874041047 220.504641002705 2973.67036678368 26 28 23
-93.8423400838577 219.847883465051 2986.89474551098 30 33 26
-79.2879574248599 219.336065373327 2978.76605678887 29 32 25
-59.8453833642063 218.885171239937 2962.90605543763 33 36 29
-54.2055742609486 218.283151839833 2968.43081905721 30 33 26
-48.0039973336901 217.686461702602 2973.10418995801 22 28 18
-39.6202390545015 217.11609858521 2974.34516407698 14 20 10
-37.1871936899122 216.469470446472 2985.04523317332 12 18 8
-21.2661335482514 215.999225937848 2974.23290572531 11 17 7
-17.7323515941088 215.36507553751 2983.22068719089 14 17 10
-19.4879733464814 214.651973819151 3000.8562780467 20 23 16
12.2388522988379 214.423874426283 2964.07519853418 22 25 18
23.1599436037218 213.901898116579 2960.94885614829 20 23 16
33.5220849766846 213.3744888399 2958.6750482118 18 21 14
46.467785780864 212.891520002955 2952.05267042751 20 23 16
52.0792660678795 212.292335330879 2957.56594242327 22 25 18
69.6091216566241 211.894685056107 2943.08896482936 21 24 17
56.6573301867439 210.972973372814 2979.92846669576 17 20 13
57.7392471467328 210.284434310165 2993.31821556015 13 16 9
70.1007034733301 209.798298066136 2987.53811347028 15 18 11
92.0529653022149 209.499027963969 2965.14094622158 14 17 10
87.1030549454759 208.690665965167 2989.03634294264 18 21 14
92.3220530943982 208.073135859298 2995.4696488932 21 24 17
99.5616647622672 207.49489993217 2998.40529932802 21 24 17
106.305260848349 206.906192563374 3002.21900407579 19 22 13
117.507599170114 206.412764432016 2998.12751208718 18 21 12
128.178503485058 205.911715826497 2994.89971213215 18 21 12
136.85643141324 205.369332844312 2995.18077323637 20 23 14
142.597426781144 204.760716328555 3000.74655646322 20 23 14
151.747127159686 204.230962572272 3000.13947380007 19 22 13
171.965749486463 203.9705763813 2979.19794696157 17 20 9
178.620992074218 203.38946144163 2982.97607768072 15 18 7
178.604097260902 202.639306875822 2999.15807411461 15 16 8
179.138560217581 201.895328757995 3014.48445645106 15 15 7
181.632822705351 201.195507829257 3026.28852325788 15 14 9
188.873079509035 200.618169734859 3029.2244280983 16 17 11
197.981913286152 200.092261053892 3028.60102691917 17 18 12
202.89209644824 199.450468621917 3035.98854513734 14 16 5
228.611379598799 199.403254979894 3003.24704640423 26 26 14
263.774504969413 199.654850845443 2951.67025610514 53 41 27
283.555774087077 199.48026747839 2929.47218953991 126 103 89
293.657115842257 199.025903839584 2926.01316664664 123 95 81
297.399724467947 198.377482043413 2935.0858659545 120 90 79
302.97547673468 197.783337693179 2940.58437649671 133 104 90
309.907031547954 197.231398952494 2943.39509756425 135 106 92
313.286410922604 196.562134742809 2953.39969404042 125 98 81
317.590280746101 195.919424003105 2961.6205353797 120 94 77
320.169156122132 195.214042571787 2973.45890349367 108 89 72
328.037409037528 194.687966576069 2974.4908174523 117 101 85
-127.758869396985 213.467529718301 2994.78825022687 101 103 98
-95.6820730648749 213.2306265005 2960.30681161431 37 39 34
-83.9128474647224 212.711844624186 2956.44478322349 30 32 27
-72.7381103666269 212.187697792512 2953.42115667739 30 33 26
-63.2561612890707 211.640125803203 2952.94899144663 28 31 24
-54.3433814644108 211.085180803838 2953.32523763947 36 39 32
-47.6358786256512 210.494872243708 2957.12434062325 32 35 28
-46.9216465107201 209.801468561776 2970.36551059326 25 31 21
-32.0306557132104 209.35100069842 2961.29383896446 16 22 12
-37.2022399322738 208.545971482715 2984.02039087485 13 19 9
-18.8213973231768 207.445187742068 2983.91857901096 13 16 9
-6.19230030646123 206.964036232823 2978.24680496077 18 21 14
7.97849361103253 206.518497235812 2969.96230149259 21 24 17
31.5846104222561 206.271533580334 2946.07675567439 21 24 17
38.7535194443185 205.697763545362 2948.9837452577 19 22 15
52.7189154656496 205.2688564953 2940.61595156836 21 24 17
60.3776833207954 204.70897471869 2942.64236811618 22 25 18
61.8208320590701 204.010868321031 2955.09964154727 20 23 16
60.7450354909569 203.249523030159 2971.93204634204 17 20 13
67.9531336099579 202.672954469015 2974.85492452561 14 17 10
82.813815810681 202.278683082379 2964.6914898364 14 17 10
71.714277582015 201.260202801283 2999.04500776345 12 15 8
96.1503225714668 201.106357089761 2972.25810652979 17 20 13
90.7676996237743 200.213257656937 2997.05775141307 19 22 15
101.012194432258 199.711929021864 2994.73611153049 20 23 16
115.207277728035 199.318342998484 2985.38198350047 20 23 14
122.403597294384 198.743245614915 2988.30008148025 16 19 10
129.108660623176 198.154567017096 2992.09844159557 17 20 11
133.860635591159 197.510392928129 2999.42166326059 19 22 13
136.689473225257 196.80829472427 3010.28240629569 17 20 11
143.443587991681 196.215966919354 3014.10039742466 16 19 10
155.99118764107 195.795771904425 3007.3163554898 16 19 8
174.720992625704 195.569564052072 2989.00843963298 16 19 8
174.718767827345 194.776560848818 3005.19670063317 17 17 9
176.692146914896 194.037441130154 3017.86922867912 17 17 9
184.388379479947 193.476135743418 3019.91056798705 17 16 11
201.472955763528 193.222996218137 3004.1733964561 16 17 11
204.439283629907 192.510654985992 3015.08988595325 16 17 11
221.389224129602 192.268471751978 2999.29786107334 13 15 4
225.758746433014 191.60294795507 3007.54545755418 20 20 8
261.865081982136 192.052541012799 2954.19144933422 66 54 40
283.030152894149 192.002884711342 2929.31604575911 118 95 81
291.769432781963 191.517580605794 2928.54244982562 102 76 61
295.066302573433 190.832302940972 2938.5137601327 120 90 79
300.651375623257 190.228851781873 2944.01637236369 133 103 92
307.146191886927 189.658644306033 2947.72920769665 127 99 85
311.869600076355 189.01844460033 2955.04083275032 123 97 80
316.61900873107 188.376261704664 2962.36325746709 118 95 77
321.394452763969 187.732105738938 2969.6962386797 116 97 80
329.252857712763 187.212085220224 2970.72411936744 123 110 93
-100.16082054384 205.229037025494 2966.10621975855 33 35 30
-68.8363545723074 205.116904207102 2932.39803032143 32 34 29
-33.936768973325 204.383198184178 2906.6151989798 25 28 21
-46.0833061154704 203.403800226151 2939.46569007464 29 34 27
-43.8014538301796 202.718550360721 2950.1048349046 26 31 24
-49.1111606647736 201.860750487437 2972.775861932 23 29 19
-48.329729575004 201.128508721033 2986.04427744722 20 26 16
-28.5673243801263 200.827626912739 2969.23382826438 19 25 15
-20.7561767094602 200.257331155806 2971.32202125697 15 18 9
-1.4140148466244 199.20930350005 2969.4514245967 14 17 10
12.7339678037603 198.800764977473 2961.15740455428 17 20 13
14.1468899552599 198.074039108355 2973.6029136085 20 23 16
46.6168307593513 198.149788397705 2934.96253956476 19 22 15
41.1968990360219 197.245601648039 2958.66809705752 22 25 18
54.1125460712277 196.82452102517 2952.03308161893 20 23 16
62.3133625165655 196.279307136699 2953.19979325889 18 21 14
69.9899817091672 195.720402076192 2955.23343028375 17 20 13
77.6627214008872 195.161864157372 2957.26549374331 16 19 12
81.7597480672736 194.499473807317 2965.40273491721 13 16 9
87.4115861741056 193.87993591933 2970.93250178062 14 17 10
73.3760281698397 192.662683884699 3010.5718587874 15 18 11
89.213208324064 192.342718282134 2998.64562170915 16 19 12
111.968050520902 192.249396658967 2974.41423625527 17 20 13
129.591089983071 192.009611327548 2958.89472620951 18 21 12
134.730926819609 191.375722355223 2965.29636152682 18 21 12
135.458956859066 190.593475421782 2979.62259972992 18 21 12
135.763766469323 189.789452861657 2994.85645217106 17 20 11
133.215369172361 188.879537044625 3015.40922726953 14 17 8
124.949061184195 187.758588677507 3046.59518696371 13 16 7
147.24187501982 187.702879359104 3022.17618717639 15 18 7
166.019176481189 187.538490306656 3003.88703373745 15 17 6
169.39892770279 186.82326411524 3013.89187192456 16 17 9
173.769872403228 186.140247722606 3022.140176913 17 18 10
181.00635246039 185.56237945933 3025.07455659401 15 16 10
200.459237889496 185.455748754572 3004.90063101984 13 14 8
213.706621883321 185.121409812441 2996.24140253803 14 15 9
208.763631785555 184.069751283273 3022.29906163118 21 21 11
235.384599905887 184.281289990629 2987.76281397979 11 7 0
269.608442365176 184.831700058558 2937.96132325588 94 80 67
280.219115556326 184.430115019828 2933.62957409467 104 81 67
287.607697832615 183.896444044477 2935.5463957417 78 50 36
291.375340472257 183.206913333008 2944.62928551259 109 79 68
297.42712822754 182.613309037988 2949.24172722061 113 83 72
303.042718640402 181.9989966709 2954.75677804106 111 83 69
308.229699030714 181.363360158588 2961.17751469576 111 88 72
313.879706600705 180.74653020101 2966.70651986238 104 83 66
319.106235750586 180.107997360973 2973.14303425696 102 86 71
333.96522223367 179.924423305693 2959.74063429858 116 104 88
-80.550382523255 197.013585185978 2949.29423042477 27 32 25
-42.712160127002 197.199342545564 2905.27443034389 21 26 19
-21.1963958697468 196.995864396206 2885.93648389531 22 25 18
-26.8002769850759 196.097836874594 2908.48870675152 30 33 26
-41.0597938045545 194.957010112907 2944.80038070497 29 32 25
-45.2974592604429 194.066633716439 2965.7478431127 27 30 23
-47.798407874005 193.212694869781 2984.16178927052 25 28 21
-34.5255486662153 192.792130491505 2977.67114537478 22 25 18
-21.8450824632819 192.360580566178 2972.01979437832 17 20 13
-3.5627432446006 191.30404412921 2971.87802103233 13 16 9
7.41117307851691 190.833847968525 2968.77267464332 14 17 10
9.37285328698967 190.090929508933 2980.36142931933 17 20 13
20.8472915935898 189.639313546709 2976.37979176539 19 22 15
44.8369682755272 189.589607667838 2951.56898609609 20 23 16
46.2820421547971 188.829794303056 2964.02750672515 19 22 15
54.0002912602426 188.269705562217 2966.07800837928 18 21 14
65.3234343791416 187.830524754911 2962.03501821875 15 18 11
74.5556083135221 187.324894442079 2961.46114566596 14 17 10
78.6640561433154 186.64461532946 2969.60314678008 14 17 10
72.137198929999 185.587550153218 2996.09835840393 14 17 10
92.0297035982842 185.457039048014 2977.18167792749 14 17 10
102.745006570344 185.008468084364 2973.97145690851 15 18 11
114.927290460132 184.618039524795 2968.11808372797 18 21 14
128.553748840297 184.2875602798 2959.61231052883 18 21 14
133.695377960972 183.642102542482 2966.01450199086 16 19 12
136.394406110648 182.89982292602 2976.82299064791 17 20 13
144.532956859745 182.365579618334 2977.96440819381 16 19 12
140.469345136776 181.346042480616 3001.1411962436 14 17 10
134.582415740258 180.238643151505 3027.89589163392 12 15 8
152.001130431056 180.073075798543 3012.29334660776 9 12 3
161.632545344369 179.595200678308 3010.80210538362 13 16 5
169.329226061432 179.038367467114 3012.84384947381 15 18 9
169.895807332787 178.175116890763 3028.18414034143 16 19 10
174.787098724855 177.49216349699 3035.5643214044 15 18 11
175.944657507834 176.640341441172 3050.06500011848 12 14 9
193.063514471703 176.499418365373 3034.3406007959 12 13 7
214.726325319694 176.579672760811 3009.66574391307 22 17 11
250.568096757355 177.337982674887 2957.28108370923 62 49 40
270.92055631982 177.406337185811 2934.23338134268 88 70 60
277.406312909458 176.830311537767 2937.9428498044 80 54 41
284.352865063708 176.276004007837 2940.75966114401 84 56 42
289.943470769607 175.654926819184 2946.26438988226 109 77 62
296.899238901997 175.100120756978 2949.08493648499 106 77 61
301.172478861363 174.409281125095 2957.29374081279 107 79 65
306.810917210699 173.784737600349 2962.81812015051 104 82 68
311.580953771089 173.112870458164 2970.14912195891 93 74 60
317.256302534337 172.485619278878 2975.68846658547 85 73 61
-78.1567922016742 190.798611903479 2916.86486131019 24 29 22
-98.4641909757331 189.421879604641 2961.51843184556 25 30 23
-78.8657744553045 189.197615752056 2945.71981220838 23 28 21
-72.7218841003086 188.581070003835 2950.36997672416 17 22 15
-50.5143373406936 188.454214678331 2930.23273919483 20 23 16
-44.4204754981949 187.841809865653 2934.86235890601 29 32 25
-47.6396790677034 186.93407292165 2954.06470463015 28 31 24
-51.8539327104566 185.98354706494 2975.0223594585 27 30 23
-38.0269237444448 185.609436240265 2967.67692663212 26 29 22
-35.6186703848433 184.863653575795 2978.36770918524 24 27 20
-26.1642675414606 184.349876051291 2977.8838772997 20 21 15
-30.1261901263639 183.379365949828 2998.94385066396 14 17 10
-18.0867122141173 182.10603561266 3009.22249956506 13 16 9
-13.8952215489918 181.401513333482 3017.39830789251 14 17 10
20.8246392999938 181.804816522053 2975.35093799358 18 21 14
30.1657867729628 181.300574467276 2974.82143475981 20 23 16
41.5711001784913 180.876133866702 2970.81160304046 19 22 15
45.6820260070414 180.178405549228 2978.95473973897 18 21 14
51.3717893759431 179.538099881239 2984.49976246034 15 18 11
74.0129651274932 179.561673481974 2961.30027637611 15 18 11
70.970890904569 178.579515355063 2981.65371275567 14 17 10
83.7832237456462 178.226612913278 2974.97634935851 13 16 9
96.0356713145025 177.857397638946 2969.15122416449 13 16 9
111.257274432177 177.618027604935 2958.05394154861 14 17 10
117.889820160386 177.025289101796 2961.82271334674 17 20 13
117.05799500684 176.111605112388 2978.75505512765 17 20 13
124.731789426118 175.558191622432 2980.78750679717 16 19 12
133.387726291089 175.048739132579 2981.05941427127 16 19 12
143.991352890439 174.628420895978 2977.80376213081 16 19 12
144.314465741052 173.745179494743 2993.04562588174 15 18 11
151.990273269502 173.192032414653 2995.07889062561 14 17 10
155.316483224088 172.436051736122 3005.06235924027 12 15 6
156.762820945968 171.585715249092 3018.60114310079 12 15 6
164.960213493969 171.052406553587 3019.76637819082 11 17 7
169.346300284481 170.334394567443 3028.0210793615 12 18 8
166.200007073997 169.23969804403 3050.49104473377 12 17 11
169.278773250364 168.442884069437 3061.45369998781 12 14 9
186.434414257013 168.356431721516 3045.74378139074 12 13 8
216.508598156574 168.950565381784 3005.05064496408 19 14 8
249.111139788004 169.70979122181 2958.90686526126 61 47 38
267.633780752885 169.759160042878 2939.43391599195 75 55 46
274.592008112591 169.203486659545 2942.25546489248 75 48 37
281.096130284057 168.623082325812 2945.97214541109 86 58 44
288.511011473193 168.092341457507 2947.89959309252 110 78 63
294.571769023525 167.486424524532 2952.51601716011 108 79 63
297.959119837522 166.727266029171 2962.52426536332 101 73 59
301.83257280242 165.99056494528 2971.65035452515 91 69 56
305.742239702007 165.2510993074 2980.79112740758 90 72 60
311.447315046253 164.612967380164 2986.34259058967 104 94 84
-131.13178732805 181.250806523174 2995.8243898764 19 24 18
-113.048539509466 181.015610130952 2982.64931089644 28 33 26
-107.351913851284 180.364720449424 2988.19744956069 21 26 19
-53.8267695653558 180.552321121889 2934.34575095586 20 23 16
-71.9736711312138 179.059479602224 2976.63828995078 24 27 20
-66.2943257669082 178.410205582415 2982.17941969998 24 27 20
-57.3214895208039 177.881212398133 2982.57978560545 26 29 22
-34.227812397819 177.885249876452 2960.64272757476 30 33 26
-28.594687646005 177.239912235573 2966.16485586161 30 33 26
-18.6364853235756 176.760215772829 2964.80619958014 28 29 23
-13.5268114315001 176.09293849852 2971.19561798224 18 21 14
-21.7347265324512 174.892324008277 2999.16914273423 14 17 10
2.91886882459358 173.232339461668 3003.76923619864 16 19 12
40.0880444850988 173.901967786706 2957.3172599293 17 20 13
46.7557832210348 173.302406120592 2961.10033284509 17 20 13
33.7296101803075 171.84807211205 2997.91375527153 17 20 13
50.3079914950253 171.671013546351 2985.20773396144 15 18 11
59.0961514009438 171.157914692531 2985.53320524814 15 18 11
59.1859873376113 170.253486467764 3000.68077741676 15 18 11
61.3810005336779 169.43655694546 3012.36456795294 14 17 10
90.9410386908012 169.884373938917 2976.85892176188 12 15 8
98.6392724335121 169.331002192535 2978.90101119766 12 15 8
95.3170300239055 168.252194738705 3000.22080740534 15 18 11
105.055999635553 167.791591649651 2998.77298340062 16 19 12
110.309459305651 167.114276990015 3005.22095295455 16 19 12
115.091315398338 166.410865985788 3012.5567222753 15 18 11
127.259087509648 166.076102972939 3006.69705144862 16 19 12
138.401161013789 165.695606896046 3002.58030266737 16 19 12
144.648199924236 165.067218064761 3007.27206384456 15 18 11
146.558869642202 164.210159552639 3019.92009525415 13 16 9
160.539439069603 163.986745324289 3010.4778222201 11 14 5
167.758276423541 163.408892536945 3013.40505837804 11 14 5
173.076281195265 162.727383147465 3019.87919358205 11 14 5
172.26751336318 161.704597932322 3037.9005062103 9 14 7
169.193880980103 160.54332038515 3060.40013887717 13 15 10
192.433048392636 160.859134565048 3033.12507048327 14 15 10
208.986343584108 160.814460533927 3018.25001502726 18 13 7
230.06728062344 161.047323022722 2994.41721297011 24 15 8
258.361518750709 161.726683269565 2956.23942475089 36 19 9
270.860618820094 161.495013217851 2948.35525134131 85 63 50
279.202893138063 161.020326984739 2948.49989554967 98 75 61
287.07806845706 160.519191633811 2949.53468052383 107 79 67
292.243186760838 159.851220249041 2955.94655323728 97 69 57
295.191290309675 159.040945124589 2966.85640614935 98 71 60
297.295689057326 158.170381353685 2979.5827222126 100 80 69
299.456602714111 157.295459564663 2992.33195379546 89 73 60
314.873761721587 157.279001764761 2978.07573633218 68 58 48
-140.71569854495 172.856271409077 3009.26977671912 17 22 16
-129.326041574586 172.407869390224 3006.33259558431 24 29 22
-57.1265336941622 173.492976764501 2924.43222810221 19 24 17
-60.4641535155976 172.489161728907 2943.58735616916 20 23 16
-69.7699314103486 171.229220617605 2972.19562186329 21 24 17
-72.3367569045739 170.230468468788 2990.58373535684 22 25 18
-58.9675734580852 169.890952408099 2984.13173536651 25 28 21
-55.4414099205705 169.138458628165 2993.11732919964 31 34 27
-5.3255640591543 170.394750038093 2928.1673416459 31 32 26
-0.865290194292712 169.701150638137 2935.37308745418 30 31 25
-9.24893865203091 168.434401968718 2963.27570306533 22 25 18
-6.27642700171993 167.659828313799 2973.11635989426 16 19 12
-9.63691308788217 166.591579314655 2993.34152610761 13 16 9
32.3577743297181 166.694580088071 2954.24195824752 14 17 10
44.7817287619359 166.364925073774 2948.48597511355 16 19 12
44.6490947821092 165.438984320234 2963.54363384544 16 19 12
38.8835637150429 164.229991320857 2988.19063632631 16 19 12
46.6639321933997 163.671750622171 2990.26627566756 16 19 12
52.8998888802394 163.037051738336 2994.95359755926 15 18 11
50.9704358999932 161.988349274853 3013.60041451239 15 18 11
62.8632115039289 161.635093349642 3008.70834785934 14 17 10
69.6518117375853 161.023191408843 3012.54045027671 12 15 8
85.0055939003138 160.860263530242 3001.49610661068 12 15 8
100.279614418673 160.703828931562 2990.41967602818 15 18 11
99.0265224134523 159.668276365393 3008.26118171413 16 19 12
106.786469089077 159.112570647398 3010.32827597087 16 19 12
109.608863160441 158.284847906115 3021.18736225274 15 18 11
111.987132591667 157.426059240782 3032.9456692234 16 19 12
125.159632020282 157.171547306484 3025.33458081373 15 18 11
133.900697462853 156.671273098357 3025.64088667797 13 16 9
144.560766836063 156.284468661832 3022.40757656546 11 14 7
156.628545877205 155.985326664127 3016.50714925425 12 15 6
176.775829143758 156.174108799576 2995.53333316133 12 15 6
182.993589876389 155.542661832238 3000.21352021777 12 15 6
176.921475243587 154.159939342838 3027.97413043348 11 16 9
182.756790218868 153.492651829365 3033.57854771248 13 15 10
188.140214198176 152.794928649685 3040.07903636054 15 16 11
198.665634693116 152.419862747289 3036.79137612114 16 11 5
264.379251154068 153.568158616705 2959.81660957834 91 72 58
274.576444232759 153.219889590659 2956.39584926639 93 71 58
282.021830686521 152.69163348784 2958.33562947988 93 69 57
287.21135750545 152.010430578743 2964.75748531985 100 76 64
288.83956156529 151.080551626669 2978.37050848461 96 74 63
289.193632544696 150.052651373497 2994.70481158102 78 60 50
290.067161925028 149.050057708066 3010.17043974979 65 51 40
-19.5643575558357 168.278758632643 2852.29051964502 22 27 20
-77.1501940454813 164.827064196438 2954.15158940374 24 29 22
-72.0918906787544 164.140335016133 2960.52035568358 25 28 21
-69.7700165846709 163.325368288278 2971.17668827933 17 20 13
-61.3617548359835 162.787390233931 2972.42733820986 19 22 15
-58.427586369882 161.993010436323 2982.25236305329 22 25 18
-39.6753061279886 161.947008595419 2967.1888630135 30 33 26
-6.94832399040646 162.588665362545 2929.72733913338 30 31 25
-1.94501675410375 161.906816463473 2936.07380087775 28 29 23
-11.9413132410577 160.480513962066 2966.56161496474 29 32 25
7.59199489495832 160.511420823479 2949.65589113533 23 26 19
5.22230667191548 159.447360972751 2968.12431913036 19 22 15
-9.7488776156851 157.724687180699 3007.38893585766 13 16 9
40.7638700836839 159.375117898367 2939.35998192588 12 15 8
33.2403024497936 158.029107031194 2966.53263082237 14 17 10
38.8925050553319 157.36535825271 2972.06288037522 14 17 10
39.3730232732525 156.420904728437 2986.29013227398 15 18 11
46.1157760612545 155.808998382612 2990.10392864479 16 19 12
54.4062503698113 155.281787032841 2991.30680566514 16 19 12
60.1316615318075 154.612581790236 2996.86673820327 15 18 11
67.9083005135834 154.057221889017 2998.94084566207 15 18 11
76.6935266447268 153.560218555942 2999.26500708446 11 14 7
107.12199161654 154.318611140623 2961.95075317729 10 13 6
103.24247881902 153.098573729453 2984.12453594747 13 16 9
111.441638535417 152.579383683056 2985.29063676252 14 17 10
111.198717723199 151.554854007073 3001.3831965565 15 18 11
122.877783197241 151.243750036283 2996.40453790949 15 18 11
115.853905352799 149.789430832573 3024.85913675887 15 18 11
120.213028189341 149.022252309775 3033.10329308424 15 18 11
128.491250497148 148.4973512114 3034.30144907161 14 17 10
140.628018280834 148.219650083182 3028.42879229841 12 15 8
173.363698875588 148.23808736908 3000.68530193956 14 17 10
172.458533894561 147.128612829224 3018.6682411254 14 17 10
177.320098352158 146.391496339599 3026.03679650433 13 16 9
178.441800514604 145.398021352239 3040.52403081695 12 15 8
188.995254537588 145.039451798135 3037.24759611697 13 14 8
198.117196003697 144.587200273898 3036.6286866207 18 15 8
213.704284799236 144.590381523321 3023.51993181158 25 18 12
238.414218818955 145.253231650269 2992.52198895076 50 40 30
256.97690373215 145.504947635687 2973.06397668313 62 50 38
268.12451949397 145.238570047959 2967.86954156584 80 63 53
275.149853411685 144.676929872697 2970.71830666377 95 76 69
279.472856293703 143.914824781997 2978.94779981976 71 52 45
282.931151658453 143.083118663808 2988.98532286104 61 44 36
284.203426467478 142.079133770321 3003.5336026356 50 37 29
278.455683654506 140.525481705033 3032.50590967667 36 26 17
277.699927533539 139.336766004398 3051.62875222308 22 13 4
-45.9605710163529 158.512832407443 2905.33121309191 17 22 15
-81.5095825073289 155.794020708974 2974.03267808052 20 23 16
-67.0103077122439 155.5675985851 2965.87951335042 17 20 13
-56.9690849238611 155.120453439669 2964.55396751181 18 21 14
-44.2181443798884 154.817554675138 2958.93017593689 26 29 22
-29.3393571333376 154.633280244168 2949.85154550297 29 32 25
-21.571961835021 154.079594176283 2951.92189757251 30 33 26
-20.27814503921 153.177602057719 2964.32025295439 27 28 22
-11.4145769441723 152.680757992625 2964.6761332767 31 34 27
-1.49642748393464 152.244051141486 2963.3006767985 25 28 21
6.80282084588213 151.720368387755 2964.50733683876 21 24 17
17.7388095438522 151.346823898698 2961.38590122924 14 17 10
20.7423646934084 150.52505372658 2971.23922786165 11 14 7
37.9367233940611 150.517454085248 2957.70226161639 13 16 9
19.051334011299 148.414564870121 3004.01616313893 14 17 10
29.483644625117 148.009532019926 3001.76983865186 15 18 11
49.6999863468031 148.193779287081 2982.98163449889 16 19 12
66.1935742063442 148.170570152821 2970.24011478173 16 19 12
69.3006478625793 147.341106500318 2980.13541363987 15 18 11
83.1361808158895 147.169811882873 2971.7130866807 14 17 10
73.8329683087366 144.514420232023 3018.67399278737 9 12 5
97.6859079435735 144.986295960036 2992.72506166495 12 15 8
114.888969371398 145.051612365438 2978.11225826522 13 16 9
121.074150484994 144.409887286146 2982.77933196961 14 17 10
121.839526178529 143.407567249317 2997.12235925805 14 17 10
129.548691048903 142.860810993078 2999.16908171305 15 18 11
130.412409308208 141.850848899345 3013.55198513558 16 19 12
128.426132710413 140.635762723819 3033.25560666787 16 19 12
138.627515942572 140.251097622841 3030.91588416169 15 18 11
159.383855011783 140.61094809255 3009.1083084346 12 15 6
155.114181861038 139.21786338038 3033.28330320178 14 17 10
163.819925239601 138.736691605205 3033.57516262088 14 17 10
162.094378273077 137.501406160508 3053.38476206843 14 17 10
170.827436660545 137.018339260837 3053.68769550598 11 14 7
186.104460626397 137.022976680861 3041.5321947462 10 13 6
203.159994787499 137.174364031925 3025.78019806181 14 14 6
209.915897335633 136.561092500657 3029.59907179868 20 16 7
235.572296803336 137.396874828243 2996.82541903839 46 37 28
247.277674622069 137.182403104325 2990.77761625762 45 35 25
258.021750288854 136.900528795398 2986.4987162141 76 63 54
264.193560457253 136.262433443451 2991.160348605 63 48 41
267.672175323932 135.406671522625 3001.20628120533 53 38 33
268.054799213419 134.293198190734 3017.55305102025 41 26 19
-114.613730368329 148.06763538175 2995.21178225393 16 21 14
-93.841836915441 148.198440955385 2977.72798751135 16 21 14
-73.7439360182808 148.308367667284 2961.05026434907 7 10 3
-62.0399342981937 147.966066253257 2957.16074682325 10 13 6
-65.2096110038463 146.79067116527 2976.38491717352 9 12 5
-67.1885858784649 145.669878190964 2993.93342134486 8 11 4
-18.4509026032675 147.460587371529 2931.65779919585 9 12 5
-33.4954460253165 145.586834581481 2969.81505032264 11 14 7
-37.5446504029922 144.33211303039 2990.84158092504 15 16 10
-21.086608800527 144.28451581172 2979.16466177822 19 22 15
-11.6592108448546 143.82530353401 2978.66973944147 19 22 15
4.66273460190125 143.788862559311 2966.93763136242 19 22 15
14.5490246882927 143.368129489767 2965.54915417215 15 18 11
21.2506943610222 142.752603830345 2969.34634371355 13 16 9
6.98945202260837 140.816378544846 3007.82096420735 12 15 8
19.5435603614824 140.557243915422 3002.11714494442 12 15 8
24.779930608853 139.834394280079 3008.5582830281 13 16 9
46.0543397324116 140.152081537556 2988.03985515771 14 17 10
70.2785029616824 140.683672085177 2962.24077722125 14 17 10
73.3611932675415 139.833709297265 2972.12635881112 13 16 9
63.2490098078631 138.090641247301 3004.72752559229 13 16 9
68.0002787312175 137.332261076514 3012.0513270358 11 14 7
86.8910289888407 137.541638797552 2994.88408330528 10 13 6
76.5790304197129 135.739839759053 3028.48359967006 10 13 6
111.353878591942 137.077474623518 2983.21473011328 13 16 9
111.09971971288 135.970472129245 2999.30362204151 14 17 10
121.295177624395 135.601808736978 2996.96112189977 14 17 10
125.073206395014 134.772199248442 3006.04927870058 14 17 10
127.421113312179 133.832234212514 3017.79590739879 13 16 9
125.929932789609 132.599816307558 3036.62157028343 14 17 10
144.851256745126 132.883042729856 3018.38708050399 15 18 11
152.582551498448 132.337447249478 3020.44275439372 16 19 10
152.171013942887 131.169009144758 3037.54719861743 15 18 11
152.793987583391 130.067917329534 3052.91212512826 14 17 10
155.857300980824 129.146551257446 3063.86946773233 14 17 10
169.803868307819 129.078934552999 3054.41250381209 12 15 8
190.241534776744 129.541771677166 3032.47511919209 12 15 8
191.894280226703 128.508859494982 3046.09885995595 15 16 8
218.177883949759 129.478967028247 3012.49907424453 18 18 8
224.891216329826 128.866208528728 3016.30096495932 21 18 9
238.48813362768 128.827479932736 3006.70195402455 22 18 7
247.455184893717 128.409581924734 3006.02032741795 33 29 20
253.682195609362 127.761270022848 3010.7043875587 31 24 18
245.942220555878 125.906467569066 3043.1878262931 21 14 8
244.199102834122 124.546679528994 3064.07006330525 19 12 6
236.31644416845 122.62869438536 3097.57501750514 21 14 8
-194.353708717441 137.531440085878 3085.99862172471 9 14 8
-59.1645967597298 139.261205702855 2965.94310258431 8 11 4
-52.9703299554518 138.604509594784 2970.61371127036 7 10 3
-17.3568224296332 139.789009154724 2928.92250856183 7 10 3
-19.4069301451256 138.626933075384 2946.44226723711 8 11 4
-44.5708029856198 135.973632825912 3001.00682306319 9 10 4
-37.7460004244956 135.344501433876 3004.85371414146 13 16 9
-28.2423784283086 134.889576390055 3004.38962188358 14 17 10
12.0980043574879 136.473758879157 2953.82015771042 14 17 10
16.6524522828562 135.71590347527 2961.06452097277 13 16 9
3.84428580442164 133.783352905994 2996.8907720957 12 15 8
-9.81982200085407 131.763853721803 3034.52899118895 11 14 7
16.9573933663709 131.399136561145 3020.55927288912 12 15 8
43.4406057568235 132.150767717647 2991.35771033352 13 16 9
42.4788254906692 130.980135816849 3008.23938180353 13 16 9
62.5832622345246 131.310076604855 2989.40476379929 12 15 8
70.3397794748868 130.763155275259 2991.47066014522 13 16 9
77.0790294739638 130.142356231034 2995.28284843925 11 14 7
82.3118046804365 129.409101031704 3001.72286701418 10 13 6
64.9893980017615 126.983590887677 3047.59298918857 11 14 7
107.317756420202 129.033277514081 2989.19367706833 13 16 9
109.064879476724 128.035335224958 3001.77655745197 15 18 11
117.292454929985 127.529336445497 3002.95380638515 14 17 10
122.069768803086 126.75549752117 3010.2885276443 14 17 10
119.537604488818 125.400913825185 3030.85124582396 13 16 9
132.190400730405 125.240761980723 3024.10756896242 13 16 9
146.724547287648 125.241114765003 3013.80918838341 14 17 10
144.813674453928 123.914977631994 3033.54443932903 16 19 12
143.000153142303 122.581192710431 3053.31890795905 15 18 11
140.330800139693 121.160534737892 3074.90564560398 15 18 11
150.563779710496 120.806233644685 3072.57822885441 14 17 10
194.70488801329 123.335137417745 3006.27827440653 13 16 7
183.131032092655 121.150718919708 3044.76407174858 13 16 7
180.620125574435 119.718090346191 3066.41505398835 15 16 8
190.274337753658 119.333094388069 3064.93233921723 17 18 10
222.042910938661 120.909670018465 3020.60231258668 18 18 8
211.791759238691 117.531346354607 3074.73705590269 20 17 8
195.985516610028 114.83157778181 3123.38101449575 17 12 6
214.04394956875 113.930482742852 3123.1474048852 17 14 9
206.321836626302 111.905824772978 3156.71817146395 17 14 9
-169.51000173234 130.776545401564 3047.55889561805 5 10 4
-151.249678706755 130.836377067847 3034.45327690483 13 18 11
-56.9630616866341 131.542676482068 2961.49843774282 12 15 8
-41.3207775844391 130.439564979293 2965.68263294765 13 16 9
-42.7237299529122 129.258830079816 2982.38575353147 13 16 9
-38.6471350153512 128.444073198606 2990.51561971308 12 13 7
-36.1507484887948 127.514497668575 3001.24347986203 10 13 6
-29.3299697222009 126.882516940792 3005.08876333154 11 14 7
0.913014325743866 127.9159654581 2970.93400631783 11 14 7
-7.72453711887366 126.188295640616 2999.81637743185 11 14 7
-14.6282576413572 124.563202644288 3026.16356248965 10 13 6
-15.6234854049373 123.350334286823 3043.03175421877 10 13 6
-16.5367490848394 122.130966654664 3059.93343911499 10 13 6
-2.30050417515315 122.032562447846 3051.67280510359 10 13 6
10.3202637149857 121.822258824133 3045.99560569582 9 12 5
15.1739885304829 121.026749497214 3053.3614294609 9 12 5
88.6450189843464 124.391415048389 2959.01188741973 11 14 7
91.2348477108011 123.455796174339 2969.77762746147 11 14 7
64.110743294147 120.15065880741 3032.18441973353 11 14 7
73.467600412602 119.719750267063 3031.66072137606 12 15 8
100.283249458219 120.708285014876 3000.43409089308 14 17 10
113.488206017362 120.613553458039 2992.83493305432 14 17 10
118.230563784705 119.828247797943 3000.15533052165 14 17 10
123.880247029905 117.921160581684 3021.87739245349 13 16 9
131.155594706027 117.335946390474 3024.82756503866 13 16 9
137.463720529962 116.667375136777 3029.5443644469 12 15 8
136.558004674294 115.369096589063 3047.5285116704 13 16 9
127.114818108198 113.305580664433 3081.48178761341 13 16 9
135.484314647336 112.794419961798 3082.71653851654 13 16 9
159.015092492538 113.645476553467 3055.55548413292 13 16 9
202.651150061609 116.348460713059 2990.12878410287 13 16 7
193.838038118253 114.31568969862 3023.25787439661 13 16 7
170.737011819731 110.93151728387 3084.05775718048 10 13 4
186.473941155065 111.1194359641 3071.0080142603 10 13 4
208.11902315279 111.881003319858 3046.32081492488 14 17 8
206.20487296266 110.423522534461 3067.13454258455 14 17 8
187.051484546159 107.287474884307 3121.97874385326 15 18 9
216.870483247626 107.556066885834 3098.44696868882 15 16 10
207.198922580163 105.27146176315 3135.54587779936 12 13 7
217.800426023553 104.986450564515 3132.2883404176 13 14 8
-141.258111227372 124.495343959197 3004.02242236253 21 26 20
-96.6799406738714 125.321324293617 2964.8846004218 11 16 9
-94.2582890338797 123.283630135068 2989.6158777247 18 21 14
-91.8573845314643 122.335945630714 3000.30521513843 10 13 6
-52.9711739210359 122.870338079848 2968.57501399853 13 16 9
-44.9001906226068 121.213125101647 2984.80192867928 12 15 8
-34.3382869550792 120.860584330625 2982.60793485404 13 14 8
-26.4921968852507 120.309605364825 2984.70987213437 12 15 8
-15.4406064546866 120.001338159123 2981.6347480648 12 15 8
-8.68187827413891 119.371225001729 2985.45489353519 11 14 7
-2.44671619859305 118.699911020447 2990.1424284534 11 14 7
-2.52807738273697 117.535802384986 3005.22265242526 11 14 7
-9.88481005279085 115.789189048466 3032.46614530277 10 13 6
-19.492588102255 112.636276449978 3079.30750604846 9 12 5
-11.9616274043925 112.028135537556 3082.36134831667 8 11 4
9.98244286914196 112.596540228425 3061.03335299671 8 11 4
42.5424531015992 114.063068701729 3021.34009755706 9 12 5
51.9214464891216 113.640463675562 3020.82529908001 10 13 6
65.5765587779769 112.371946344126 3028.52138877605 11 14 7
109.729556328513 113.739712533818 2982.73394739075 14 17 10
121.642710003436 112.362362299228 2992.96249417057 14 17 10
124.914177199427 111.431091598082 3002.92512648001 14 17 10
131.163770954798 110.760965489863 3007.61849567956 14 17 10
127.686395278787 109.20495658553 3029.95764749857 14 17 10
139.821697581762 109.062854101493 3024.08336956184 13 16 9
132.151290389778 107.093625355158 3054.43822686466 12 15 8
126.076869282395 105.24651320483 3082.20142315216 12 15 8
135.879387073961 104.875450637201 3080.77890788986 12 15 8
163.679770459269 106.227025112993 3045.63274783444 12 15 8
211.123474890428 108.252056796865 2989.3047900156 15 18 9
204.71387448433 106.349401106084 3018.01176095035 12 15 6
191.489840604192 103.743759702209 3060.14835268852 10 13 4
185.413836560026 101.814738987011 3088.9903370441 13 16 7
188.207890610381 100.757483043121 3100.91875382094 11 17 7
181.466214940749 98.71560458257 3131.64994138744 13 19 9
218.570449718373 99.8231188562192 3093.79933155809 13 16 9
202.144552774259 96.7257101315433 3144.35302679191 13 16 9
310.365282372197 105.544078367885 2961.53782140372 16 19 12
-88.2642787021131 118.045534029809 2951.0849745162 18 23 16
-67.6049497621432 117.322287306936 2947.58761145242 17 20 13
-44.8787034605116 117.902027517116 2926.57597052781 18 21 14
-65.7577956887319 115.183526874894 2973.16611017834 17 20 13
-50.7794037995752 115.180587622017 2964.12617726201 15 18 11
-48.4091177734329 114.210402327301 2974.8032880211 14 17 10
-65.5272185598679 111.706344401013 3016.44123777698 14 17 10
-37.5870851487994 112.728861134777 2986.74845363017 16 17 11
-18.976432805095 113.037344476853 2971.62492255499 13 16 9
-19.7331743711673 111.802165344057 2987.51103662505 13 16 9
-4.96876121585377 111.817204949 2978.3845861844 12 15 8
-1.40446556554341 110.923936004446 2987.38668647769 12 15 8
-4.13378835333278 109.503070820964 3006.79127083797 11 14 7
3.20889466363861 108.90924903528 3009.76877226965 12 15 8
-8.77844134689387 106.682310921244 3044.85079507787 10 13 6
-17.4582880463638 104.70636788206 3074.79698835561 9 12 5
-24.9452536564425 102.806957809882 3103.06745991119 8 11 4
14.5710786088091 104.967971806562 3052.16022851111 8 11 4
33.2808306228931 105.356187292983 3035.99715247374 9 12 5
53.4102668740677 105.888910456863 3017.17111955808 10 13 6
40.43855168483 103.48336480616 3055.09260965178 10 13 6
54.929209188501 103.522111001746 3045.85513779435 11 14 7
85.423047365526 105.031267729353 3008.56166244811 13 16 9
110.688255634884 106.099503402827 2979.94334700536 14 17 10
125.330986360121 106.212793027921 2969.68807535757 13 16 9
125.058412211857 104.940808396766 2985.77050436661 14 17 10
133.721706776083 104.501346131505 2986.04486041427 14 17 10
131.598946411331 103.03382888255 3005.69539121983 15 18 11
131.521754932678 101.746642971208 3021.8573017381 15 18 11
143.151478417183 101.586129299869 3016.85726620852 14 17 10
135.93682503185 99.5808186126377 3046.31786312579 13 16 9
139.903943694444 98.6582649043587 3055.48328557842 13 16 9
156.30921134993 98.9759293271819 3041.62435653667 13 16 9
160.757867914488 98.1011885302251 3049.90557972802 12 15 6
164.294020552107 97.127706423168 3059.97595847836 12 15 6
197.443633579441 99.2013710498302 3014.04346380051 12 15 6
206.972592249357 98.8664981215875 3012.50965485038 12 15 6
209.512106975423 97.8014241051309 3024.33481248729 10 16 6
177.00631132746 93.0063802542241 3103.99423629237 12 17 10
193.160140499117 93.3456842398001 3090.03333756477 11 16 9
199.627280372691 92.6547561522188 3094.81469009584 12 17 10
195.204492246189 90.771904437941 3121.08927550591 12 19 11
176.009211022437 87.2339175667875 3176.99836940637 13 18 11
213.704624989524 89.977474993414 3119.95489037482 14 19 12
-66.4270690676696 108.430009634497 2958.92078116959 19 22 15
-59.7008279461109 107.795237457464 2962.72780817365 18 21 14
-74.8829833960221 105.366895948354 3000.83328756834 16 19 10
-77.3143402626921 103.957578052824 3019.2796205541 14 17 8
-55.2262967515544 104.576527723451 2999.08834400606 14 17 8
-34.3535416304237 105.115634630685 2980.56322725689 16 19 10
-32.4282095664752 104.067390380659 2992.1395791125 16 19 12
-26.1689837541101 103.381885885496 2996.8369648278 16 19 12
-16.7017875401598 102.97188974636 2996.35752625291 15 18 11
-9.37441747574086 102.378519031896 2999.32882415941 13 16 9
-7.32283027389413 101.32057070445 3010.95636938171 13 16 9
-10.471435019461 99.7919009832687 3031.2710719415 13 16 9
-5.67774090149431 98.9581741720899 3038.61262215326 10 13 6
9.02494241454121 99.0168394310822 3029.46084706669 10 13 6
42.9780821131514 98.3213765723505 3018.39911674109 9 12 5
51.3307013390982 97.824584218007 3019.6269252313 8 11 4
38.866256579851 95.3567674329352 3056.67546938939 9 12 5
66.494144228261 96.688689056502 3024.69629765004 10 13 6
115.647915180883 98.8659111786571 2970.13864547968 14 17 10
121.312236212724 98.1416353935774 2975.67426047585 13 16 9
128.477490408197 97.563574579792 2978.57980276866 15 18 11
121.36558873493 95.5553596969746 3007.00321699707 18 21 14
134.484340820951 95.5658249500212 2999.3681009871 19 22 15
139.746739845941 94.7856650404437 3005.82021233501 19 22 15
132.911256864469 92.755759239131 3034.35571094809 13 16 9
138.761667816374 92.0175618198887 3039.96677795901 13 16 9
132.635719304001 90.0198763674315 3067.71025246922 13 16 9
