ply
format ascii 1.0
comment KinectMotionCapture
element vertex 796
property float x
property float y
property float z
property uchar red
property uchar green
property uchar blue
end_header
395.560850780737 367.229605456986 3261.61336835592 151 151 151
403.549430509463 366.583471430419 3263.77371994084 153 153 153
410.038158090928 366.109960546945 3269.64123058897 174 173 171
422.109255246066 364.991784935786 3261.59073852336 179 178 174
431.907831717983 364.13440154195 3259.09124825795 144 144 136
-143.669586738173 404.3227545831 3328.90635793272 198 201 194
-75.863281772337 397.887304464219 3247.44209094915 47 48 42
-33.9974641292617 393.862224059096 3192.13822607492 51 50 45
-6.05288206279564 391.227844266682 3160.31734514916 18 19 13
29.3113351404568 388.011486219203 3131.50503325344 23 26 19
53.781262894474 385.715778538569 3104.74808564134 27 30 23
59.5376217099928 385.474313399492 3127.57926571276 23 26 19
93.4744364637292 382.214376748811 3083.08499606026 21 24 17
108.693330159588 380.843166599244 3071.99519545816 20 25 18
119.003547268056 379.967588195154 3069.70300278126 32 37 30
129.764892458087 379.045439561075 3066.51501352035 32 37 30
130.746608637004 379.287972773071 3098.19841632023 22 25 18
119.293513959595 380.628144055189 3136.70639360594 24 27 20
119.329674647944 380.801387401015 3153.98193810275 25 28 21
166.218997651545 376.19274991716 3082.37545365462 25 28 21
175.469682010152 375.421683846394 3081.81134499892 27 30 23
191.640865827627 373.941687074949 3067.87126284844 27 30 23
209.557207601162 372.280453573602 3050.32366673705 22 25 18
215.460802880709 371.849087410441 3055.95394200884 22 25 18
203.633691207398 373.239862386264 3096.46797240919 23 26 19
205.595685026282 373.216971629753 3110.20926996349 26 29 22
213.019167896972 372.632805578706 3113.21941349668 25 28 21
224.917958370072 371.586872057782 3107.25622438555 18 21 14
234.542416075751 370.774525504175 3105.76470143953 18 21 14
230.870897975546 371.336806888228 3131.2461291844 18 21 14
243.161349175601 370.248728629831 3124.36277480737 18 21 14
260.20706073995 368.665921461429 3107.54113760132 20 23 16
261.055461022075 368.762659784676 3124.06706668257 20 23 16
265.438490135939 368.493533370756 3133.39593553474 30 33 26
280.170505527581 367.14719275408 3121.0300047029 30 33 26
283.283520092744 367.010591046413 3133.08033080175 29 32 25
277.530542351834 367.801440804167 3164.19062108621 25 28 21
277.4227459721 368.005579110236 3183.56526049568 26 29 22
282.861002303687 367.63087880186 3191.16456732004 24 26 21
296.248692319935 366.422507492155 3181.48970731155 27 29 24
316.197517435632 364.522597058368 3157.21468698039 30 33 26
338.664933472325 363.764162176817 3267.73275861824 114 117 108
343.995140828187 363.407303877253 3276.36699008232 100 103 96
355.1926786202 362.424559468029 3271.1981979072 122 123 118
363.252108396789 361.776124284696 3273.38751084412 129 130 125
373.610830533929 360.880995496068 3270.03629755348 123 122 118
383.552676477503 360.029491592144 3267.59477151897 132 131 127
393.085239762465 359.22101095138 3266.06601186933 148 147 143
401.463132447585 358.536045614253 3267.30573693088 160 159 155
408.709356575753 357.972791471973 3271.32275928967 162 159 154
420.416673195006 356.927209813105 3264.20323295885 162 159 152
432.068206430528 355.885911212902 3257.0608306395 146 143 134
-140.153556138995 395.142830710064 3339.03079200336 113 116 109
-9.16572472438126 383.112452617475 3164.51304479662 28 29 23
81.9445182963567 374.94922821731 3069.84044475491 30 33 26
75.1445844245187 375.723218111326 3098.36908418608 29 32 25
92.4115993001118 374.201717205949 3083.79420272768 33 36 29
92.5820467443477 374.312314803374 3100.04578567653 29 34 27
109.254565726835 372.845589701557 3086.30858999317 33 38 31
127.273803539927 371.248212978665 3069.88097988693 31 36 29
138.49038508803 370.300777684696 3065.79869613045 20 25 18
114.956235332047 372.686176368404 3126.3794785135 36 39 32
110.670933606214 373.228917447473 3151.61228049281 37 40 33
130.505413502714 371.455503587111 3131.60549358169 32 35 28
134.768541004864 371.177816898109 3140.88588000381 29 32 25
172.109502509727 367.715099159412 3086.98260920764 25 28 21
192.002332279922 365.9285728903 3065.9207389928 23 26 19
210.378539269999 364.285888363226 3047.4801330892 23 26 19
203.456316400021 365.084709843483 3078.11694386658 28 31 24
196.23681624682 365.915028046384 3109.71195858122 32 35 28
203.667101022686 365.330106404766 3112.72486188488 29 32 25
201.644611853254 365.661073712203 3134.55997605245 25 28 21
215.844520838816 364.420271003753 3124.13541543819 27 30 23
229.078864681558 363.271748249055 3115.47733560932 28 31 24
235.609736614124 362.773562441892 3120.2830318664 32 35 28
246.551791877154 361.846181204024 3116.08944235434 33 36 29
246.51652423916 361.987411044538 3134.41511682402 30 33 26
257.442414983788 361.061076800726 3130.21471725029 29 32 25
265.733719702288 360.39113857594 3131.41926955511 30 33 26
284.333196598501 358.713232948484 3110.91171473703 30 33 26
285.707010775015 358.718526553006 3126.57226517091 28 31 24
279.930360652715 359.42566739405 3157.67360516632 25 28 21
283.602027539511 359.208898379242 3168.87166791567 25 28 21
294.455600393923 358.287585963147 3164.64220650211 31 33 28
298.176493865633 358.066694715938 3175.86048921949 24 26 21
304.846404891435 357.556275163927 3180.72257415056 34 37 30
370.721323955546 352.854997428664 3275.40029773942 133 132 128
379.534619479358 352.133305971809 3275.73752733512 143 142 138
388.711899695686 351.374675777034 3275.14360360079 138 137 133
398.245524253628 350.579719647032 3273.61542836751 144 143 139
405.509443753631 350.012291416843 3277.63964709566 152 149 142
415.007567787025 349.219878934399 3276.09707867091 149 146 139
-186.788774727692 390.308614304234 3417.28484187715 192 197 191
-10.2660091133806 374.789107264932 3165.20944426106 36 38 33
83.3452227888682 366.735333714898 3066.15434937874 24 26 21
56.4038690358355 369.237288732666 3130.74925066478 27 29 24
83.2601107853603 366.99459034936 3115.74669880399 27 32 26
97.565460470598 365.793198187077 3106.44359703209 34 39 33
109.397391874917 364.813579492775 3101.53164265196 26 31 25
139.835577067605 362.157333928178 3062.08959013295 22 27 21
123.889804366006 363.679244179377 3108.48718129833 35 38 31
136.109782814207 362.663371062571 3102.65355385059 38 41 34
150.162622223648 361.481387055128 3093.24806534531 36 39 32
147.293976651338 361.82695099932 3115.81953150098 34 37 30
155.711502050439 361.153585859848 3117.07495841525 34 37 30
182.178184515715 358.847455114731 3083.57439021131 31 34 27
198.307244918479 357.474499768745 3069.61644124329 36 39 32
188.236557799289 358.473547950926 3106.52911490592 43 46 39
199.764933831599 357.51690340994 3101.49407896465 45 48 41
205.813789398595 357.05669347667 3107.18338772742 37 40 33
206.023890179662 357.126626217069 3124.53014240386 35 38 31
209.450859790156 356.90519917149 3135.62916426319 34 37 30
225.837996911011 355.505930109733 3120.69710004054 32 35 28
240.353497118772 354.27562945427 3109.32143233412 24 27 20
242.902327442105 354.133891990027 3122.22242852108 23 26 19
248.571633760063 353.708394403371 3128.83660551045 25 28 21
257.308108973444 353.003317341824 3129.14260517315 26 29 22
272.086795195819 351.746492442936 3116.79489252587 23 26 19
282.479059564461 350.889167115726 3113.45697370761 21 24 17
286.850735074138 350.581682271102 3122.7815363122 21 24 17
284.883209002921 350.854537131944 3145.71841049597 22 25 18
281.760500929251 351.234490325527 3171.4231723107 20 23 16
288.003975693115 350.757590835884 3177.19140751218 19 21 16
299.27213822247 349.819918680189 3172.05086915835 18 20 15
301.367953096181 349.723557267288 3186.92571494229 25 28 21
366.291766742839 344.938455881082 3284.45565969124 96 91 85
373.603545234941 344.364839414569 3288.49956031851 96 89 83
383.575968577383 343.543752417094 3286.0701843047 133 124 119
394.271639503117 342.654816298961 3281.77628688687 131 122 115
401.932560039644 342.047945587991 3284.88273934688 128 121 113
409.593486753554 341.440984723445 3287.9891949914 127 120 110
-200.737051563968 382.234750003206 3439.7495504627 190 195 189
36.024590074851 362.559426914769 3116.07507779897 23 26 19
99.2038079200142 357.449246876746 3085.59249097649 22 25 18
90.7025229537159 358.207231056041 3117.74787650097 26 29 22
101.126329608308 357.370817759908 3115.50137856712 25 28 21
117.261849119521 356.052527322781 3102.62469587128 24 27 20
149.963473367954 353.336248982038 3058.70499368036 31 34 27
154.943316412995 352.957636523949 3066.11846463348 27 30 23
160.891098206273 352.497387118494 3071.76684963928 26 29 22
153.742974954439 353.143017526463 3102.31309886968 26 29 22
156.533781071096 352.949878673184 3114.23339358261 35 38 31
172.809780816597 351.617371058062 3100.33488995905 43 46 39
185.765806370318 350.564893475933 3092.64194394391 44 47 40
192.247634849543 350.059499408623 3097.42809471678 39 42 35
204.208070325159 349.09059007449 3091.48928140887 33 36 29
217.478098321303 348.010468771603 3082.84487415044 31 34 27
218.067390734679 348.003513512106 3099.26667825719 28 31 24
223.661833631406 347.572993243167 3105.85058164732 32 35 28
229.722847142182 347.10296572358 3111.54488749017 31 34 27
234.471032878107 346.744227167573 3119.94347676836 28 31 24
247.178100395162 345.710667086676 3112.14958601536 26 29 22
250.629317918804 345.461878778693 3123.25889030069 25 28 21
263.269362592473 344.433406689712 3115.43808113336 25 28 21
274.118096639794 343.556590349023 3111.20606602636 24 27 20
284.496589992639 342.719372346272 3107.86241901316 23 26 19
288.851745296378 342.393694413077 3117.18043060184 22 25 18
290.691745663252 342.281951730796 3131.95181548697 21 24 17
293.020930788855 342.128917593581 3145.84277265585 20 23 16
286.588668849813 342.721617050092 3178.8371437846 19 22 15
292.852462344721 342.234559762778 3184.61368288992 24 27 20
302.037560501943 341.498710453386 3184.02249468512 24 27 20
302.127069438503 341.53755426983 3203.47853173549 23 26 19
369.959605607183 336.322896845563 3295.71609026661 93 81 69
380.333106470788 335.484064416922 3292.37043406673 87 69 57
391.048108037024 334.615603904241 3288.08446551558 111 93 81
398.352468799855 334.039449771106 3292.125124765 128 112 99
406.405698259384 333.39893300804 3294.31186721793 134 122 110
6.68162928690386 356.620323344738 3133.36921496624 36 39 32
16.9837824847665 355.809202709535 3148.33548512383 28 31 24
54.0345714915274 352.893843248436 3149.33365042053 23 26 19
85.2859404998842 350.4358389034 3126.40249872028 30 33 26
102.953332015443 349.046312513628 3110.9099184576 30 33 26
128.173463845039 347.063310772744 3081.21741406101 29 32 25
134.640207723039 346.55376186892 3085.99748867805 33 36 29
146.800774218921 345.596762528888 3080.13961673036 33 36 29
151.846578136472 345.198719818085 3087.57994205029 39 42 35
151.296685015744 345.240250687596 3105.69826121913 38 41 34
159.687220804909 344.579260541929 3106.94266643213 33 36 29
173.166264896412 343.518407587157 3098.38274226367 34 37 30
186.580490615056 342.462585462397 3089.79653546213 29 32 25
200.846417272007 341.339790263461 3079.39806769793 30 33 26
215.949156728235 340.151204905631 3067.18078744959 30 33 26
219.180877972583 339.895149234065 3078.2012743284 30 33 26
231.023531092437 338.962545541585 3072.21449659076 32 35 28
230.714287993188 338.984500006034 3090.43014440863 32 35 28
224.69804655103 339.454651165205 3120.3572065203 31 34 27
233.015670152936 338.798700044244 3121.57230913645 28 31 24
236.036524659629 338.558746967063 3133.5861036546 27 30 23
250.4990947946 337.419950332144 3122.18831136052 25 28 21
258.347947669756 336.800594831333 3124.29214278323 25 28 21
269.223676312029 335.943405732898 3120.07090882767 22 25 18
271.449810739476 335.765502340565 3133.92032999984 22 25 18
269.886036911017 335.885154366541 3155.94277647705 21 24 17
281.191608965484 334.993953161266 3150.81703273823 21 24 17
297.103726724141 333.740909755904 3135.69152818466 21 24 17
295.681162649846 333.849151895386 3157.77149320304 16 19 12
288.934419288412 334.375348299439 3191.71784524636 25 28 21
294.40318979883 333.942138009446 3199.32995053563 19 22 15
304.437844149342 333.150312496616 3196.9255496228 18 21 14
302.13695843707 333.32699547634 3221.88579408895 23 26 19
372.046547728093 327.786852686646 3289.07360780277 68 52 37
380.884824425362 327.087749996472 3289.42078088223 116 94 80
389.707944571649 326.389743523245 3289.76180887236 123 100 86
398.141154457375 325.722251145565 3291.02379903695 133 114 100
-29.5579231141185 351.040560303798 3161.89378203083 25 30 24
-15.2288477286346 349.949134474043 3153.67826125575 21 26 20
-0.964149224163657 348.862715703749 3145.43663678468 33 36 29
47.8439570144633 345.251563108653 3076.75736694817 34 37 30
36.8537609322315 346.012133802293 3112.22048015903 34 37 30
36.4784718536526 345.996251032828 3129.33086507948 32 35 28
37.1731792716512 345.901718994918 3144.71746386734 29 32 25
73.8160789461773 343.183160563954 3095.92021019179 26 29 22
84.2489047115842 342.378334212101 3093.67712461171 23 26 19
77.6286097993963 342.817164960381 3122.28103900215 24 27 20
89.0593497055525 341.939312303843 3118.2846818063 30 33 26
105.74547227575 340.678727011469 3104.55143163583 32 35 28
123.294150692034 339.355830448415 3089.0102802429 33 36 29
127.401947966072 339.011953051314 3098.2282762617 37 40 33
140.54732391659 338.010180795136 3090.6118697771 34 37 30
150.805871704325 337.218669007954 3088.29811935562 27 30 23
146.97460845644 337.451579475643 3112.63829859175 26 29 22
156.784293696317 336.692452136385 3111.22136957721 30 33 26
173.060209516608 335.463759844944 3097.32204508108 33 36 29
180.941478429347 334.845028309683 3099.43873957212 35 38 31
188.818494258368 334.226564812193 3101.55396721454 36 39 32
207.635898449683 332.814585809478 3082.21169933564 31 34 27
218.164908530302 332.004175505044 3078.92853505943 29 32 25
228.208192451035 331.229115495573 3076.52775834716 29 32 25
213.110528036576 332.274844872798 3124.35116002459 28 31 24
221.453182000319 331.622202506242 3125.57611495122 27 30 23
234.219928155951 330.649501849448 3117.80618358562 26 29 22
244.722691139956 329.840812396667 3114.51237900204 25 28 21
252.99918858291 329.193170704879 3115.71076694407 24 27 20
259.959115854388 328.640617953348 3119.61178861671 24 27 20
263.459121139927 328.337722468069 3130.74125683945 23 26 19
267.866820212607 327.96894866762 3140.08086968351 23 26 19
261.179075731834 328.399923598263 3172.97302356576 22 25 18
275.939439886669 327.283955666079 3160.6168247855 21 24 17
288.92192299775 326.29656151772 3151.85528979013 21 24 17
290.064318609573 326.161829392183 3168.50200998408 18 21 14
281.669441935582 326.712600511444 3206.09660526218 21 24 17
309.61249188096 324.649328422241 3164.56073018046 16 19 12
309.641887451864 324.593437584943 3183.99314581706 16 19 12
286.781899402993 326.18046071496 3254.56273072025 28 31 24
371.841428315957 319.452418467601 3287.97492099931 82 66 51
381.817607558261 318.68051730228 3285.54669290759 128 105 91
390.631233147016 317.991508431223 3285.88380841916 133 107 94
399.804484213841 317.276972245659 3285.28791909012 136 114 101
436.208822872556 314.566023111488 3238.55163235684 151 142 127
-27.4788078460917 342.391425093989 3173.59001229952 16 21 15
9.53925467791028 339.799701813784 3126.02250617603 28 31 24
23.184667698517 338.7916638871 3118.6086086568 26 29 22
59.735453940724 336.23667809439 3070.85162721135 28 31 24
61.2250681372106 336.051785067162 3084.40288953037 29 32 25
62.2824343562385 335.895296374006 3098.85773054657 31 34 27
70.4674808468519 335.171148474422 3117.28162974157 29 32 25
83.8601289155363 334.182742302401 3109.76498345103 30 33 26
99.6135106836034 333.036312608826 3097.81108137137 35 38 31
113.35590012223 332.025863354302 3089.35740182521 31 34 27
128.470719939662 330.924049367965 3078.2234204963 29 32 25
134.763610366631 330.325938277958 3100.19599078495 24 27 20
149.293906923956 329.264421254631 3089.90384282531 25 28 21
162.811485398385 328.271435902835 3081.35900653804 25 28 21
168.316814940598 327.723713027006 3105.16993335214 24 27 20
178.527333379075 326.95187539246 3102.83684428865 32 35 28
187.791116076367 326.243363808146 3102.27730768515 33 36 29
198.404074914946 325.445320731695 3099.02829715366 31 34 27
212.611899961197 324.408853954957 3088.60565011229 26 29 22
217.721788146218 323.976981662332 3096.07217911791 26 29 22
217.923017068732 323.870093486298 3113.4166818959 23 26 19
232.480764636883 322.811507440582 3102.05681829699 23 26 19
241.635701150915 322.111233048729 3101.45340543454 23 26 19
253.417170473261 321.237619038917 3095.44140768429 23 26 19
255.502238255755 321.0044808423 3109.23413063433 23 26 19
273.778716789234 319.703202184174 3089.67174947714 23 26 19
270.258843942402 319.838578013849 3115.21781314035 24 27 20
270.313446768429 319.737136117038 3133.58171491094 24 27 20
270.883253779513 319.600627757158 3151.07567686325 23 26 19
272.386455698489 319.401726647975 3166.79016321925 21 24 17
289.19863082612 318.19869936872 3149.87083290702 20 23 16
291.595152816638 317.940500430304 3163.7898514168 25 28 21
308.271483967498 316.748082638451 3146.81543842207 22 25 18
311.951531266163 316.405465614168 3158.01810546106 19 22 15
372.784691329775 311.049660601205 3284.10504233636 92 74 60
381.99176704606 310.343598209197 3283.52252691309 130 107 93
390.800967631103 309.663181553058 3283.85778564529 138 112 99
399.219871101002 309.007825184802 3285.11389125565 138 116 102
407.628717942344 308.353185070201 3286.36566235267 142 123 109
415.287425937715 307.746321534431 3289.47121891602 148 132 119
-40.2442060095829 334.739314458787 3194.37258980293 18 23 17
6.93515323469174 331.673012390223 3129.34546903552 32 35 28
29.6281871988711 330.134969908661 3106.17881659902 29 32 25
50.1732476641985 328.732720728479 3086.45692540774 23 26 19
58.6627094709868 328.079785831174 3087.74132400906 23 26 19
71.5924590627985 327.152165996373 3081.11585802503 23 26 19
68.2372016585113 327.231875158642 3103.49205637159 22 25 18
71.844631028396 326.87991679977 3113.58658358616 20 23 16
97.8859222694253 325.144730480623 3083.1458743111 24 27 20
109.692628314251 324.288730619373 3078.2230265908 27 30 23
119.528176280828 323.554573023197 3076.81637994755 20 23 16
120.234853114759 323.380858638378 3092.20816802132 17 20 13
145.323314862084 321.712278563908 3062.46022533566 27 30 23
152.208553904361 321.160315675629 3066.33100180151 27 30 23
156.270277433145 320.780621443165 3075.53061436856 24 27 20
163.182800214693 320.226413045256 3079.41271207438 27 30 23
184.097745130256 318.8196785649 3056.60393682169 35 38 31
179.346333546091 318.975401162722 3082.73001308033 34 37 30
185.803084244165 318.448604502765 3087.50591503623 32 35 28
191.811933320073 317.94867859108 3093.17932648999 29 32 25
208.33427641036 316.812655028709 3078.30001087903 25 28 21
217.494180833415 316.122903649501 3077.69852972625 24 27 20
216.705153976208 316.033011365291 3096.79982963147 23 26 19
225.433218880335 315.368822481922 3097.10211409819 24 27 20
233.254452237348 314.759304506877 3099.19443078103 24 27 20
243.289976248699 314.017093563892 3096.79026314936 25 28 21
254.619589037033 313.197964319496 3091.67370704784 25 28 21
264.149667209556 312.48712682504 3090.14320108532 24 27 20
272.346631869749 311.856176200421 3091.30926025234 24 27 20
279.66698179525 311.277517406738 3094.27760424189 21 24 17
272.762989206021 311.543435180518 3127.08345188264 21 24 17
269.026718181706 311.618236941629 3153.62116473253 21 24 17
290.982397890511 310.170782758789 3125.83952911145 21 24 17
303.450122594247 309.286757106874 3117.94785394237 21 24 17
317.120393084338 308.333058461102 3107.3066702765 18 21 14
306.449057538192 308.811710677183 3149.37438804208 20 23 16
313.045895447894 308.272905642491 3154.207358566 20 23 16
371.432505414849 302.799280644567 3285.77770374005 109 91 79
382.166623384839 302.017411814499 3281.49881894423 147 124 110
391.349219562443 301.324212973236 3280.90629442666 150 124 111
399.38574847146 300.69609288652 3283.08618098137 150 127 113
407.417209051473 300.068322049922 3285.26401275829 149 127 113
414.333181013747 299.503214370614 3290.22614054343 150 132 118
-15.8567138241783 324.670603252955 3167.64118185976 22 25 18
3.94039631748755 323.376065866408 3149.77350795943 22 25 18
9.12872690908983 322.91051160972 3157.27205304081 23 26 19
65.0467368719159 319.580649058999 3075.28624978029 29 32 25
67.0629980581356 319.298349765096 3087.97242068388 23 26 19
69.6280447590112 318.983882599878 3099.80222664151 18 21 14
88.8880257358955 317.731598333786 3081.71675267392 12 15 8
91.4706407775712 317.41567201374 3093.5536829885 14 17 10
120.265217810909 315.634262001095 3057.75500393491 17 20 13
120.887076251139 315.428330959702 3073.1126938344 15 18 11
110.902001781291 315.634427975305 3125.17038472076 30 33 26
143.580417088282 313.646929357082 3081.23576144197 33 36 29
127.396583379631 314.364981068467 3128.6218645612 32 35 28
170.594317800692 311.804192556584 3064.13639669369 34 37 30
178.403322911193 311.198404311337 3066.22373397566 34 37 30
193.171246715535 310.21095507527 3054.94843005075 29 32 25
188.46901070577 310.290826100814 3081.09499208591 19 22 15
200.88741694571 309.432867363467 3074.26195878293 16 19 12
206.858610799762 308.927268477553 3079.92016690326 18 21 14
222.835458947232 307.877794910586 3065.89813636585 19 22 15
225.622348736581 307.545217284355 3077.81790229344 19 22 15
221.725723024523 307.572441932168 3103.21224114248 19 22 15
230.457758616345 306.915836376232 3103.51607583301 19 22 15
241.395150034784 306.141016281605 3099.31918436483 20 23 16
250.527103057473 305.463943993446 3098.70628978366 19 22 15
259.200694609973 304.811834352972 3098.98642681819 17 20 13
266.98710072685 304.207352960838 3101.06486124843 16 19 12
265.659580360081 304.087398173128 3122.10597309236 18 21 14
267.884162827621 303.776466470786 3135.95577420527 18 21 14
277.458587191462 303.075441845619 3134.44314932311 19 22 15
287.860592411972 302.331416253058 3131.10831572578 20 23 16
296.109535407264 301.701389033001 3132.29515632738 21 24 17
277.818863721009 302.461586003462 3190.69581468356 23 26 19
294.16125397084 301.40510149254 3174.66422641245 27 30 23
297.500543375857 301.028238975237 3186.80799070512 15 18 11
324.460567968976 299.424425924171 3147.02822932301 20 23 16
372.760764277985 294.404473741705 3280.98483876418 100 82 70
381.200837492201 293.758530279311 3282.24918728048 131 108 94
389.252799040084 293.131985762354 3284.43531045914 149 123 110
398.050614139976 292.46890958512 3284.76582785283 150 127 113
406.087483913371 291.843465302967 3286.94557491269 149 127 113
415.230221751801 291.164272047894 3286.3370631035 154 136 122
436.858145110027 289.880235530547 3254.10625001908 153 139 126
-16.9560654773619 316.312652094143 3168.33822128491 23 26 19
-14.7336478903657 315.983403032417 3181.10847655018 20 23 16
22.0327959094755 313.888374283649 3133.43532697564 22 25 18
51.0480684595962 312.196270237464 3098.80413720451 23 26 19
69.4573663056883 311.048864251862 3082.53104899152 20 23 16
71.5129954201272 310.732693163969 3095.23367365634 20 23 16
75.0946851460421 310.337824157539 3105.31784709557 18 21 14
99.1791613671487 308.90952798996 3078.398258141 20 23 16
106.615009564595 308.321808148825 3081.4134352443 30 33 26
123.694269800245 307.251438029569 3066.75911381165 31 34 27
122.449370012383 307.09816432213 3085.67605717865 30 33 26
127.353799656326 306.416772556422 3110.32376241734 28 31 24
175.039600721472 303.40213540234 3071.39424355649 36 39 32
187.039408119658 302.593259973033 3065.47015864821 40 43 36
196.680222687888 301.900910870401 3063.98460615874 35 38 31
198.94745696126 301.567664423809 3076.7727804559 30 33 26
204.46891423223 301.075034092496 3083.32760325968 29 32 25
217.279751529251 300.229904696468 3075.57429990348 30 33 26
219.189122267496 299.910864291765 3089.29653547819 29 32 25
220.261788310612 299.62996612548 3104.83732241825 30 33 26
223.192893036227 299.258067728202 3116.81577799434 31 34 27
237.278648811492 298.353987005951 3106.34270251824 30 33 26
245.106894344044 297.748738711713 3108.4380832449 29 32 25
256.882346304521 296.957306038651 3102.42302619524 28 31 24
263.806112385983 296.395530421649 3106.3094763646 29 32 25
259.452028357221 296.361599713107 3133.67667340418 25 28 21
256.961368079974 296.236268211887 3157.48356053514 26 29 22
276.462581774904 295.085735483296 3135.17949893996 25 28 21
294.543363628242 294.005509107671 3115.53620606496 24 27 20
273.504534850974 294.730891075634 3179.29752502577 24 27 20
267.973076977956 294.733872405299 3210.50347896599 27 30 23
282.281603976337 293.825857243093 3199.04156643468 28 31 24
298.590659039001 292.829613505543 3182.99576714685 20 23 16
319.789189682372 291.36209436224 3175.4068746213 35 38 29
374.474283612772 286.020607867982 3275.26881472866 105 91 78
380.996017494354 285.461830287138 3281.1503356926 122 100 86
388.289409207353 284.869996570815 3285.18667249828 138 115 101
396.714788672036 284.230621399946 3286.44502183346 146 123 109
403.637625797817 283.654012289803 3291.41027367901 143 120 106
413.534990210437 282.954180172865 3288.94958775641 147 125 112
421.561773236862 282.332215819414 3291.1254816134 151 133 121
-6.43904322721101 307.415723309373 3148.92860299581 25 28 21
4.77126719375431 306.646433221455 3145.92123795562 22 25 18
17.4475871033251 305.811448509122 3140.27126607999 22 25 18
50.9687150318545 304.031538232042 3097.75508586217 23 26 19
59.4807169888001 303.391836266704 3099.04851050886 18 21 14
69.9535292434215 302.664055786143 3096.82103118877 17 20 13
78.9274972043221 302.004537746005 3097.22284466038 18 21 14
82.5264113781161 301.585806038218 3107.31443025605 21 24 17
102.166685329179 300.451265301694 3088.30297639038 28 31 24
101.249651602226 299.970688818435 3123.53855955628 29 32 25
85.4075195882498 300.402522544514 3169.98637658599 24 27 20
114.910344582802 298.571490279105 3149.57918115997 32 35 28
148.805253300739 296.828852183482 3102.89856982719 35 38 31
168.871152058675 295.694034086695 3081.90183425122 23 26 19
185.08459030206 294.72985250071 3067.97495088047 28 31 24
191.499605980359 294.18873987589 3072.73432035969 26 29 22
198.385244502366 293.627147537083 3076.60533156067 24 27 20
206.647896422572 293.006891019262 3077.79764874975 25 28 21
220.35469801525 292.157106343371 3068.24953399935 25 28 21
215.010671568934 292.110285417195 3096.29507342946 24 27 20
216.550272882686 291.77035475969 3110.94655846511 25 28 21
219.050367080253 291.387945548961 3123.8293887391 25 28 21
235.380963918164 290.43110008066 3108.87107830552 25 28 21
241.891718464772 289.882252614454 3113.66901317687 24 27 20
254.123549052789 289.09873433486 3106.75987247355 23 26 19
267.173799944972 288.283984306222 3098.02446757812 24 27 20
287.105734087814 287.193052023894 3074.81528452107 21 24 17
291.343443982775 286.454732628722 3102.43015280125 21 24 17
297.820351408369 285.908434178246 3107.21436389182 20 23 16
292.858995003731 285.81430678374 3136.49401042901 20 23 16
288.466937671361 285.691879874605 3164.92531126699 19 22 15
289.663854595395 285.345237120887 3181.59597020601 21 24 17
296.350951654972 284.782201869566 3186.46566967981 17 20 13
303.876507274629 284.186347275744 3189.51723034314 16 19 12
292.891897139805 284.3003023868 3233.61848603475 21 24 17
378.107348495825 277.601680028236 3264.9357117002 116 104 90
380.029874541843 277.197212383225 3281.90060293794 111 92 77
386.947224640838 276.615577826545 3286.86367121667 132 109 95
393.874858436415 276.033111509792 3291.83065236938 141 118 102
399.692733475367 275.488092513684 3299.58495509282 140 117 101
404.794552486342 274.966155718774 3309.20677312466 143 121 107
410.300028717981 274.429024412678 3317.91333613724 146 128 114
-11.0704139006661 299.25266722069 3155.74624710431 29 32 25
-2.8549612678932 298.621939886587 3157.9985983716 32 35 28
26.3651343424365 297.149164232158 3123.44867755958 35 38 31
38.9460926420135 296.348707873813 3117.75983272698 27 30 23
44.0506266503948 295.846976161752 3125.22472337969 14 17 10
23.5654773606522 296.354824936791 3178.42327620444 16 19 12
77.3731918759304 293.932201186222 3098.81257704912 14 17 10
93.3503060404586 292.706553642112 3103.13301414143 25 28 21
95.5429404436667 292.318036018278 3115.89165964576 26 29 22
110.602468359992 291.125884153475 3121.99819218079 24 27 20
116.234273186943 290.601876597219 3128.59793176039 29 32 25
172.512052732099 287.553653731944 3073.72766607823 16 19 12
184.0585561635 286.815422025018 3068.69831428291 31 34 27
194.63596909762 286.114809546592 3065.43417296873 22 25 18
204.719158162573 285.433771538358 3063.04858367944 22 25 18
213.401338426957 284.805005819636 3063.33202128211 25 28 21
219.79591483858 284.259612471463 3068.08314749351 26 29 22
211.733817984842 284.233310394456 3101.50110999814 26 29 22
213.286085049973 283.856266817137 3116.15800461277 23 26 19
222.05789077997 283.220361946695 3116.47778504543 23 26 19
226.370105705793 282.742055716985 3125.77982448621 23 26 19
235.58054196945 282.090948986032 3125.19825317587 21 24 17
253.120817699675 281.151709356298 3107.49291806645 22 25 18
281.467887487081 279.845509955749 3067.19395472682 24 27 20
273.953719505283 279.775742329117 3100.83409921363 23 26 19
288.636310302461 278.945444620754 3088.44424524848 23 26 19
292.500894863887 278.482969785057 3098.64347323966 22 25 18
287.871283051104 278.302056749302 3126.97929048401 22 25 18
294.838552837998 277.730732582769 3130.88342737143 21 24 17
300.546417762101 277.200465427175 3137.5140105925 21 24 17
284.898174069529 277.364127274637 3190.51572761557 24 27 20
297.918919644807 276.235086793439 3201.19084840246 19 22 15
278.727728735401 276.483736958235 3263.5460028528 19 22 15
311.81038443414 275.076152674016 3210.06087031348 20 23 14
377.538956240774 268.969539084309 3286.34896642488 110 93 77
386.361402928106 268.329285785156 3286.68928398293 129 110 95
393.288665168866 267.741328022505 3291.65615631939 144 123 106
397.985174001612 267.212673517657 3302.19298341487 143 122 105
401.609569110859 266.710245513801 3315.53194488641 143 121 107
403.816120317823 266.241855852444 3332.61232041458 137 118 104
-38.4495678670633 291.843240122062 3201.89772995748 23 28 22
13.1509796651164 289.697326094516 3128.9436957995 27 30 23
22.7807374124274 289.023745872118 3128.53233236183 31 34 27
25.4213735598874 288.591359144321 3140.39363774994 24 27 20
35.0486865793636 287.917975808845 3139.98102574037 16 19 12
48.5993601775074 287.112338171298 3132.52723475999 17 20 13
86.7408020859017 285.139842270401 3097.27754468678 18 21 14
68.0301204419922 285.416801482421 3147.95963533507 24 27 20
104.620930096363 283.857299490631 3098.05369730353 26 29 22
106.337626256286 283.453461630842 3111.69830581916 23 26 19
115.758186520854 282.796443707629 3111.20211426252 28 31 24
139.412635715025 281.681426464088 3084.10603583715 34 37 30
150.136700094003 280.988104162562 3080.90121739829 28 31 24
164.116718242827 280.193091354594 3071.46305371685 19 22 15
162.599027071631 279.889228094216 3091.34975257968 14 17 10
184.427296517803 278.851914515009 3066.75035957368 30 33 26
192.226418314377 278.256383351485 3068.83361742585 26 29 22
200.481140224956 277.647071701486 3070.02289807756 25 28 21
206.439861302419 277.108048771879 3075.676309404 24 27 20
211.505051454605 276.595172462286 3083.1253544806 23 26 19
221.119467154269 275.945103580614 3081.62879280339 23 26 19
222.6134604789 275.536568420462 3096.26233149023 21 24 17
210.756914792077 275.516049924807 3137.85394962984 22 25 18
229.804063917601 274.587447564701 3117.52197461688 21 24 17
234.12846120987 274.088606874004 3126.82884503074 20 23 16
244.204426022961 273.424291051465 3124.44020394335 21 24 17
260.370104032514 272.590031887087 3109.41418987176 23 26 19
284.257360088885 271.545838966715 3078.09608944267 22 25 18
279.870416169643 271.290691116753 3105.45191573717 22 25 18
276.909705598518 270.989522446549 3130.14862376963 22 25 18
285.785640468769 269.97382718652 3148.85446863295 21 24 17
277.19929837273 269.805824620676 3186.37698902433 20 23 16
288.515718456885 269.110190554993 3181.25415523041 22 25 18
291.450795375421 268.632114987869 3194.31383205672 20 23 16
287.608177167533 267.909707685962 3242.39223453878 21 24 17
289.545350213156 267.443712994579 3258.28471445791 22 25 16
383.124421869235 260.096733240498 3292.99322520572 123 106 90
390.069075095257 259.501878256942 3297.96719130817 139 118 101
395.529172503153 258.935340917769 3306.65560364566 138 117 100
398.792951464769 258.408868082504 3320.92780181261 135 113 99
406.172105146296 257.801905860084 3324.99897770277 130 111 97
8.98586066937845 281.925910220866 3118.68493696163 26 29 22
2.50523283691528 281.736824471822 3146.27135285736 22 25 18
24.2003851378674 280.719611667539 3124.8543337325 19 22 15
17.8638954219881 280.519111729688 3152.4991966487 20 23 16
30.5004335941532 279.768264728059 3146.83247968803 19 22 15
65.7657553350741 278.378045615647 3100.70406765657 21 24 17
44.8351739165516 278.581571545574 3154.80312576362 17 20 13
57.8672205276931 277.824488259748 3148.21778649871 16 19 12
89.776116048891 276.549783169426 3107.202868977 22 25 18
119.501749262778 275.347774367367 3069.6189027697 28 31 24
123.056517718823 274.865162577197 3079.69284104353 29 32 25
101.327965940489 275.056680506931 3136.705836496 29 32 25
123.161209263135 274.078789672167 3113.18681511259 34 37 30
159.972227180272 272.71669007543 3061.21066807959 16 19 12
163.554045874304 272.231964099654 3071.29557482842 14 17 10
169.048089326945 271.696041507671 3077.83988334112 16 19 12
184.797285585669 270.899317892653 3064.80257053163 23 26 19
190.278253666492 270.364453463873 3071.34131967161 28 31 24
197.160613069655 269.793789970503 3075.21132916399 26 29 22
200.846109853683 269.300885266044 3085.33827643076 22 25 18
213.218693637517 268.59618167821 3078.48552830711 22 25 18
221.916434540467 267.982026588494 3078.7751555577 23 26 19
215.300881829553 267.728504749627 3109.54385416256 19 22 15
222.266220207915 267.151305281647 3113.44751079606 19 22 15
222.564173353193 266.726209777881 3130.83333122604 18 21 14
233.118302313927 266.065314409126 3127.55946135084 17 20 13
241.438546138758 265.456026228383 3128.77527118435 19 22 15
252.810524800238 264.780511171903 3123.67478016886 21 24 17
264.572336984254 264.099197302198 3117.65336579967 21 24 17
270.23300868341 263.55018915972 3124.2649828693 21 24 17
269.898907829087 263.125052130656 3143.55302015952 21 24 17
281.189964960011 262.455987096437 3138.4197156992 20 23 16
287.765207522994 261.884702300778 3143.24393138114 20 23 16
281.688741172115 261.563455736092 3175.31048094555 22 25 18
276.614296455515 261.212983876559 3205.62508998957 23 26 19
277.113688857751 260.746928337117 3224.17184758592 21 24 17
308.370407635499 259.699810590907 3175.3389718062 18 21 14
366.829436785686 252.509093984162 3309.10952759502 113 97 81
377.232221519075 251.860429840287 3305.77428680316 110 93 75
387.223144854693 251.219331218941 3303.35103704292 119 98 81
391.949559832639 250.644236440506 3313.9003249297 115 96 79
398.944585101584 250.039891523201 3318.8947582472 113 94 79
403.368179126143 249.463732537279 3330.40025228138 120 102 88
12.4913742658534 274.009186218918 3095.34991335067 12 17 11
-0.700601032302295 273.912598495908 3134.24378578232 22 25 18
16.0109994149196 273.088450801815 3121.59635148946 24 27 20
27.6250330723165 272.389945160209 3117.67310646226 23 26 19
30.7296522288927 271.892615046774 3128.64395939912 27 30 23
36.3597268884861 271.334338751293 3135.2432581939 23 26 19
49.4091524856721 270.60563725313 3128.66474043131 21 24 17
58.9695814821087 269.958607744631 3128.224847799 20 23 16
30.4360394642316 270.159242007771 3196.50801650102 15 18 11
49.3822602671099 269.297309263481 3179.37135264325 22 25 18
111.690580061241 267.504337451757 3082.69881777315 26 29 22
109.995586861191 267.109108209602 3102.51442082766 27 30 23
141.608089565063 265.576907363302 3077.56485598178 35 38 31
155.154819852739 264.864638204496 3069.02969530531 12 15 8
168.166368824261 264.166967415507 3061.3565409906 14 17 10
161.466580966939 263.862212820837 3091.01271356733 15 18 11
178.187851875188 263.093289848429 3076.21115990061 24 27 20
189.71774208778 262.429581421532 3071.17451666435 28 31 24
197.060263512329 261.847186872135 3074.15186605307 24 27 20
203.945848608545 261.273176734837 3078.0232069724 20 23 16
220.852686454151 260.517480584735 3062.21762242059 20 23 16
223.167529251961 260.027342170815 3075.02651949749 19 22 15
226.439423266363 259.517061610402 3086.06494177559 19 22 15
220.805115422112 259.1558070883 3115.07413978494 19 22 15
230.006759501493 258.537536130912 3114.4890169217 19 22 15
234.763329180977 257.993158048805 3122.89240789634 20 23 16
242.631313519674 257.39710489862 3125.00355166133 22 25 18
240.432663625409 256.958512462329 3147.85223802027 23 26 19
254.004621417324 256.272378254978 3138.24828554265 22 25 18
258.425555202734 255.72683096298 3147.59459692316 21 24 17
271.480277772741 255.053890102064 3138.85992770363 22 25 18
269.939999215943 254.591036127594 3160.89630248685 19 22 15
286.348756649336 253.875056193467 3144.88900488713 18 21 14
279.004300071445 253.482435511601 3179.67937682924 22 25 18
327.288296497054 251.381532160156 3132.35415758584 17 20 13
330.535725804575 250.845615870284 3144.46193395893 25 28 19
373.609396151487 243.534229440267 3313.00152036274 110 93 75
383.621684288584 242.907947728162 3310.58706597794 113 94 77
389.863115588503 242.30212302747 3317.43425915668 118 99 82
395.753351314041 241.696314247112 3325.21806375381 116 99 83
403.144706048931 241.082917552491 3329.29448576229 122 108 95
-17.0725458301955 266.392687152499 3144.93411642488 5 10 4
-2.80313885183525 265.658101740075 3136.69173158066 20 23 16
8.38092351686037 264.984551049139 3133.6730132112 23 26 19
11.515447854781 264.459576396754 3144.65592685601 26 29 22
20.1794822004164 263.83284754726 3146.01106723554 31 34 27
30.8184506586173 263.171984119776 3143.85035617416 26 29 22
43.8951991819421 262.470884508556 3137.28269205635 21 24 17
52.0090513470235 261.857258942598 3139.49351915953 20 23 16
42.0507437436264 261.544111785961 3174.30376706292 15 18 11
56.5658075998081 260.820865561464 3165.08195285983 21 24 17
92.2753820955491 259.76390727523 3116.97301608737 25 28 21
109.424355130567 259.015544020558 3102.34448014992 26 29 22
114.51786544732 258.457879907313 3109.80558856675 30 33 26
139.140808325109 257.606715337091 3080.94177293979 27 30 23
156.012174108021 256.880469672891 3066.20066814396 13 16 9
182.901033368925 255.542993027727 3049.04684526205 12 15 8
188.333796647122 254.989183353976 3055.56622021815 24 27 20
187.768502967741 254.513049598898 3073.68197033989 28 31 24
202.025867710178 253.841171954349 3063.27661808492 25 28 21
208.880943785785 253.266490990225 3067.13535397571 21 24 17
210.732253567463 252.751866082174 3080.83556355694 20 23 16
211.739539734794 252.242966868074 3096.35160683346 19 22 15
204.261878987485 251.82525737752 3128.93036200241 19 22 15
221.582552898852 251.124911450064 3112.21310906388 20 23 16
237.011340861146 250.452163314337 3099.04538272739 22 25 18
244.82296318411 249.863022705225 3101.13365351563 23 26 19
242.505148598598 249.373009117449 3123.93448069216 27 30 23
250.366374620196 248.779987258389 3126.04312231254 28 31 24
256.482667301826 248.20290527721 3131.76062174435 23 26 19
273.063691341707 247.010160494341 3134.16771199344 21 24 17
273.216767098095 246.477425499858 3152.57475384121 18 21 14
278.131779181204 245.903883848491 3161.04226084989 18 21 14
294.061821275523 245.25289184496 3145.91945034757 23 26 19
294.353510986918 244.709249636795 3164.38295590567 24 27 20
317.599552085549 243.478195103907 3152.22673837561 17 20 13
374.155901703619 235.170147745428 3310.04976962463 120 101 84
384.538644180872 234.561634380191 3306.7058523065 114 95 78
389.272074971762 233.941910084285 3317.2583191259 117 100 84
396.276442209107 233.325833689439 3322.25662386173 116 98 84
401.075808330328 232.70095831302 3332.83582647386 128 114 101
-1.88839802295626 257.849964478581 3117.7011972843 8 13 7
-14.0182126709882 257.509334935145 3154.86910730845 19 22 15
-1.26870269326274 256.830445745185 3149.24758641231 22 25 18
14.4385774099811 256.117217189516 3138.35054269147 24 27 20
17.6002694726625 255.564847951866 3149.34492122594 28 31 24
23.2892960711517 254.978895611215 3155.96829902073 24 27 20
47.7559312531501 254.171686953128 3129.19873585271 20 23 16
49.4634872203585 253.634640342199 3142.84065325497 19 22 15
52.6983985741865 253.076574685527 3153.8647209399 15 18 11
92.4298012229656 252.126663356338 3098.75240295626 20 23 16
118.774907249619 251.337532029759 3067.34872715691 24 27 20
144.56407414127 250.057628478164 3052.98589188037 30 33 26
149.045165663475 249.501033523607 3061.27783629793 22 25 18
146.457432449929 249.004533223877 3082.890616355 14 17 10
168.930324472889 248.289162155772 3057.470720865 13 16 9
151.438223218808 247.906915174247 3107.57213732834 14 17 10
185.913755516082 247.107352348802 3058.96159460973 26 29 22
195.082747488592 246.512844041041 3058.36307102493 26 29 22
206.535892141488 245.904077380985 3053.29493761069 24 27 20
207.865011528324 245.364093343488 3067.8627163528 18 21 14
204.249025607134 244.849239298053 3092.29598493372 18 21 14
197.584115147065 244.342622495354 3123.04661732585 20 23 16
198.28583948276 243.785737357421 3139.51836986791 20 23 16
216.537235712363 243.138583907254 3121.01968311593 22 25 18
235.558706576384 242.497143327804 3100.67513454847 26 29 22
251.348417527447 241.878437283183 3086.57432560988 27 30 23
253.830354275977 241.314019397768 3099.4511836373 28 31 24
250.238464302592 240.76411354561 3124.97328232362 28 31 24
262.881738031438 240.161467627023 3117.15029570506 21 24 17
267.241533641601 239.58171919494 3126.47211190612 20 23 16
279.38231693924 238.985633767302 3119.52468610891 21 24 17
282.057844830673 238.406048006778 3132.48004278933 18 21 14
290.317378856262 237.817501291988 3133.67085721327 17 20 13
303.44656233265 236.642376469653 3143.31142490277 23 26 19
297.917291451454 236.046186692358 3174.52254866761 18 21 14
300.846773937419 235.446661781612 3187.58088090065 15 18 11
297.232275566233 234.83217968845 3215.25218859025 17 20 13
377.360360983632 226.845520883026 3300.6212205864 115 98 82
383.949189565361 226.223433487156 3306.53038759106 113 94 79
389.429945159318 225.589151972484 3315.22767776437 117 100 84
395.684979163584 224.960257553219 3322.08055344407 113 97 82
404.54569441815 224.358357174389 3322.43633219622 133 121 107
-23.8442646111658 249.787039755753 3154.18582291894 19 24 18
-29.2921557958863 249.278175337645 3180.03493690138 19 22 15
-15.459743359018 248.612597769815 3172.69390114058 20 23 16
13.0246744372644 247.28883066934 3156.18600471088 23 26 19
19.2293467579057 246.686595147812 3161.93947909048 20 23 16
34.8322457000563 246.025276806909 3150.99977871045 19 22 15
39.056725972836 245.435693838088 3160.26713845804 19 22 15
62.8665917579343 244.737610953491 3134.30963500582 15 18 11
83.5937039743246 244.067381456341 3113.57684140145 19 22 15
103.701675918939 243.41019722563 3093.67232877013 24 27 20
105.877393795521 242.838809531841 3106.42551099774 24 27 20
128.689771110897 242.183992250646 3081.14261172052 27 30 23
146.104440097097 241.559993730695 3065.54190340045 17 20 13
143.998889739751 241.003189199971 3086.27130760557 15 18 11
128.336416256282 240.474043793989 3132.79915106354 13 16 9
179.299002412346 239.211191492475 3070.36871337614 27 30 23
192.208886787099 238.619621473513 3062.65384879683 24 27 20
200.450194168226 238.037130921528 3063.83723747727 22 25 18
205.932294923517 237.456775869029 3070.37679003566 16 19 12
210.068093711717 236.874859503077 3079.60792794001 17 20 13
200.641840727216 236.284817473777 3115.71476515337 20 23 16
195.911536438769 235.683635332928 3142.93393288174 21 24 17
232.105966622581 235.12421869834 3088.54417620478 22 25 18
256.994214177794 233.979605159027 3073.81553959901 24 27 20
260.760172222376 233.391161853471 3083.97604644424 23 26 19
259.31068640842 232.782882919515 3104.97147670508 22 25 18
263.625270408845 232.187152920901 3114.27510818102 17 20 13
271.4400148031 231.602890946781 3116.36486332168 19 22 15
279.250417241599 231.019023223727 3118.45260022029 21 24 17
289.195883895245 230.446512203841 3116.01068272223 19 22 15
282.096066564637 229.780793707747 3149.82311200245 17 20 13
287.432057709569 229.176557459901 3157.38249496928 21 24 17
286.06880513631 228.525625171404 3179.49222913016 24 27 20
282.306059635815 227.848278314144 3207.10373187676 23 26 19
301.934335213396 227.339036913343 3183.76719055588 16 19 12
320.177824290957 226.831301936532 3163.10662921313 22 25 16
382.228230895628 217.866716756738 3309.13360688808 105 87 73
387.715393859988 217.215406977721 3317.83362042995 107 89 75
394.72135480593 216.588203835458 3322.83291201139 106 90 77
-46.8339525219525 241.497569362442 3192.41119505272 51 56 50
-28.8720721379103 240.84781041436 3178.11105215806 20 23 16
-15.5466773612989 240.216043795578 3171.64353762454 21 24 17
-0.770843796737974 239.585911747426 3162.52660145208 18 21 14
4.95319631741098 238.974141663944 3169.16435166319 22 25 18
18.6426380366893 238.352555302245 3161.76509462861 18 21 14
26.8389561670486 237.739137926053 3164.00956726644 16 19 12
47.8089429523458 237.12329720464 3143.37495683181 18 21 14
52.9985007639591 236.515247832833 3150.87507888002 16 19 12
70.860388395366 235.912832211859 3135.45528263408 17 20 13
86.1980059802712 235.316340026975 3124.40768034404 23 26 19
93.2734592660667 234.714371424651 3128.35585224154 22 25 18
109.451960703423 234.129057419896 3115.49101686208 21 24 17
134.58949431693 233.571880790597 3085.75451889286 13 16 9
123.063645026805 232.929274562072 3124.2480672634 14 17 10
133.416489214686 232.339702479818 3121.97096613954 9 12 5
161.549311554178 231.817321365338 3085.89480419468 21 24 17
171.74728689274 231.240176164012 3083.55490357663 18 21 14
179.134215076326 230.652779221777 3086.5502708648 17 20 13
190.67171584094 230.086145713014 3081.51597328581 20 23 16
200.789000408224 229.515580290578 3079.1433516722 18 21 14
208.140739973966 228.931150604888 3082.12444884688 17 20 13
198.261428903541 228.235981735179 3119.12745102157 19 22 15
221.494025520047 227.752893751679 3090.77671224948 18 21 14
217.645874245067 227.084903720248 3116.19594759301 18 21 14
237.110406627836 226.589764483904 3094.95087443337 17 20 13
251.562220074899 226.06458491053 3083.54407578237 17 20 13
258.880903729407 225.483121631328 3086.51176636782 18 21 14
244.725477923054 224.699679678689 3133.65173027056 18 21 14
250.426958442105 224.091053119974 3140.2803224341 18 21 14
269.578313541329 223.621088725434 3118.90825518877 18 21 14
273.520563732266 222.996600003561 3129.14015746516 20 23 16
287.77882608985 222.487154872918 3117.65487208409 19 22 15
282.805278514661 221.753357924772 3146.93443102337 20 23 16
275.441178396573 220.975912043599 3181.71976630508 27 30 23
282.552563335218 220.372475230136 3185.68249780334 28 31 24
300.531002426513 219.217867500686 3185.41842079868 15 18 11
292.359134400572 218.388080333945 3223.1135177301 18 21 14
311.464205377829 217.961271280488 3200.643575122 27 30 21
379.374029148974 209.466882133921 3314.51499255643 90 74 61
386.374483962614 208.834548582631 3319.51209363094 85 71 58
396.735677884494 208.285693722703 3316.15925648648 103 89 78
-24.396395034026 232.439879194405 3169.19809887724 20 23 16
-8.06860571580659 231.849426093189 3157.4725562013 22 25 18
1.15033823932387 231.240235360065 3157.97317725318 21 24 17
9.35686094874288 230.628157697894 3160.22177149823 24 27 20
2.65901612268293 229.94964820126 3188.80275561144 19 22 15
42.065983611981 229.48517429799 3135.71301292966 15 18 11
45.261417378303 228.854518734426 3146.72164663031 17 20 13
53.3945810092138 228.24851095899 3148.9404922952 16 19 12
63.9568422241099 227.65801970514 3146.7481896116 16 19 12
