ply
format ascii 1.0
comment KinectMotionCapture
element vertex 771
property float x
property float y
property float z
property uchar red
property uchar green
property uchar blue
end_header
349.921806620562 1066.27337665547 3627.3136583932 19 20 12
356.318616100916 1067.07833773913 3636.37094324003 19 21 10
332.637534077014 1063.46889420207 3645.15102377517 15 16 8
346.113757710421 1059.37164490802 3635.53416453625 18 19 11
365.806780801375 1050.88802993307 3609.0476009466 19 19 11
265.430890167076 1063.41364658744 3637.36003765917 19 25 15
340.854803329659 1048.2646449824 3621.62137787441 15 18 9
354.623290183621 1043.96885382663 3611.04529346977 20 19 14
328.821850207871 1066.93944673374 3706.15527691506 20 15 12
256.582034194108 1059.4882682928 3657.54253149487 16 22 12
266.344901656833 1058.0859092463 3658.26939532781 18 20 9
287.481788480935 1049.24573462966 3630.2122710639 22 19 10
325.293109787718 1044.14576493133 3634.77161091701 13 19 9
332.053560024666 1044.66343484807 3642.89950077977 14 17 8
325.717544666531 1059.28746792431 3712.50853692594 19 14 10
225.90158761576 1050.07340814759 3632.24487110066 22 23 15
243.892524416707 1053.03585613996 3662.16333399791 18 21 12
281.634730310012 1033.81763741726 3593.43760370533 13 19 7
285.672808919838 1035.99846993485 3608.00253246075 15 17 6
297.858376756241 1032.95484303402 3602.17059944709 21 18 9
306.707892276814 1032.04771533298 3604.68177333284 19 19 9
288.032042617851 1054.13235369344 3703.76238134092 16 18 7
340.63555758137 1029.36076597191 3618.43921141409 15 18 7
332.757051056018 1044.75691758558 3691.7335983742 23 14 9
332.734151881952 1049.95829721612 3718.65690579184 30 21 14
233.104501831412 1040.62491955822 3637.39077060695 20 21 15
237.576650321029 1042.53571541271 3651.05468984775 19 20 14
270.256524650878 1026.80713351305 3595.35689249859 17 20 11
292.919174013863 1017.2113978151 3563.60803306954 13 19 7
291.320138486421 1022.88705512746 3592.04745264232 16 18 7
298.316497427337 1023.15708865713 3599.19367191726 21 18 9
309.350792267728 1020.84728881769 3596.12671605726 18 18 8
298.22387286995 1032.8210473156 3649.79075985508 16 18 7
332.103229040238 1035.4727076221 3691.53924224447 27 16 10
335.89924875852 1038.04417874659 3708.1610756458 38 28 19
345.286226301393 1036.88584702921 3709.81270279134 57 47 37
350.210492119895 1038.75024210496 3723.66003284638 31 21 11
362.329377161325 1035.73096693377 3717.80091586115 15 7 0
182.404655663807 1052.55081762242 3708.47748925134 19 20 12
167.49423519321 1066.30397287062 3769.2271124806 18 19 11
263.599573846176 1021.41934017066 3609.96459462914 13 16 7
279.22319849294 1016.33537655437 3595.83038395562 14 17 6
287.711483688137 1015.66645219425 3599.27230086435 17 19 8
292.520159406605 1017.31487973095 3611.99565813703 17 17 9
304.006339018619 1024.3126734229 3658.66963674528 14 17 6
309.040032406985 1025.94034420234 3671.48425941168 17 19 6
325.494541672221 1020.17740691396 3654.45493282256 18 19 5
340.779385389348 1015.11425230334 3640.18313719344 19 9 0
334.601712673771 1024.11312194686 3682.92691819017 31 17 6
342.545884281914 1023.88585140954 3688.30279602683 140 120 111
346.702639326856 1026.18723797207 3703.99392763467 122 102 91
349.55423141536 1029.40190626765 3723.46517536546 104 86 76
353.852171005007 1031.69055286465 3739.21356816243 43 29 18
369.019539184149 1026.63239632734 3724.89442686131 133 121 109
188.41795335474 1034.53383020384 3667.89338235721 20 22 11
202.46325963601 1039.84086668932 3708.06443450345 16 17 9
225.284317778144 1030.64145782659 3677.45551776282 18 19 13
259.942255901487 1014.10557611257 3617.17044562328 17 20 11
272.237695482614 1015.73847861706 3636.1619399681 17 19 8
300.021348066184 1007.74412553783 3616.1841882262 16 17 9
302.271624940936 1015.7650830257 3661.26873334526 17 20 9
309.45987242868 1015.99528041716 3668.49320610935 15 17 4
325.661965129677 1015.30892796814 3678.29494565373 31 19 5
338.505313533297 1011.88983995998 3670.57457294579 26 10 0
342.241744603326 1014.38981765037 3687.17282122561 143 119 109
349.84819127559 1014.38316163703 3693.4893497962 133 109 97
348.212088632749 1020.50621178659 3725.14705169711 133 111 100
353.534326524234 1022.07838397377 3738.07892465638 59 43 30
193.187443498597 1021.96714596451 3654.81542431235 25 27 16
234.710743922159 1001.92376189435 3580.07445829924 17 18 10
230.548448099707 1008.76816618972 3613.94053643652 20 21 13
232.186699666769 1016.73598850693 3658.77793681354 14 15 9
249.514912738311 1010.83257288002 3641.02436613412 18 21 10
264.859902253717 1006.0714327129 3627.8534420696 18 21 10
293.094687097649 993.386161589161 3582.20071044188 18 20 9
317.746285851088 982.758817250248 3544.79161855348 18 18 10
284.640986252992 1012.40247581015 3678.97008795849 16 17 9
301.25712479972 1006.74807842533 3662.00538121948 17 20 9
329.953472138586 1002.89434556907 3665.02230272745 28 15 0
336.803381858062 1003.33540817118 3673.18699476456 50 32 18
341.241685701994 1005.34716610948 3687.915253426 139 112 101
346.431634565004 1006.90417536035 3700.79367842414 138 111 100
348.24134744119 1010.70030190186 3723.07535099204 134 110 98
350.15189938095 1014.48765665006 3745.39817629796 70 52 40
356.557508640983 1015.35451484629 3755.53736309352 128 114 101
226.342910625546 993.030127320901 3574.59617681537 22 24 13
222.858688623063 999.342588244295 3606.58296071926 18 20 9
232.752287053391 1002.26731987712 3631.06553816938 15 16 8
231.523517469455 1007.426876185 3658.57997956559 15 16 8
248.104641271029 1002.03427694306 3642.67766216221 17 20 9
244.405086621468 1008.74948571556 3676.73208019463 17 20 9
278.350840391188 992.839100840307 3617.23297392147 17 19 8
310.847150757112 977.626156715787 3560.37813628436 18 18 10
289.942582069282 994.842853294411 3638.09435130736 18 18 10
298.88495843681 993.941220264609 3640.6430822452 17 18 10
298.076463967648 999.062517546346 3668.32798005609 16 19 8
312.453398228404 994.811642687998 3656.91910310669 19 20 6
322.589034600591 997.895758050315 3682.57728006591 39 22 6
331.240961719845 997.208010589196 3686.08559710635 75 54 37
337.106283609117 998.296055354806 3697.08315697603 134 106 92
344.394922328015 998.492654989108 3704.34853210146 145 117 105
347.241398942419 1001.56874913521 3723.81875896724 134 106 94
348.470042008231 1005.74448084814 3748.01989946147 84 66 52
343.722064761377 1013.89349981516 3789.19137939199 135 122 106
225.177488090463 1001.44250806061 3672.23902808677 16 17 9
220.350733752938 1008.7329634461 3709.06937238159 15 16 8
240.002902675265 1001.61968549549 3685.79256210368 16 20 6
246.885364389405 1002.0367692193 3693.97061596658 16 18 7
292.952651374713 983.435314685477 3628.61072000032 16 17 9
311.326222950182 976.803585427895 3606.97043820474 16 17 9
306.449759985347 984.285505492145 3644.85801272125 16 19 8
304.62933603122 989.990490918953 3675.36544490001 25 23 10
316.631434383528 991.913427077901 3696.39384259318 71 54 36
326.375086280884 990.563938116892 3697.11252543876 84 61 43
333.663902298704 990.750367180636 3704.37779221488 118 89 75
340.626831795131 991.153608993996 3712.5882746051 134 106 92
344.523753867072 993.5247806776 3729.25273809753 136 108 94
347.127718386717 996.764635941933 3749.70234041001 101 84 68
352.191148054614 998.466592458455 3763.60724816346 130 117 100
205.370487758763 1007.59862204002 3744.01037088874 15 17 6
240.08454670836 991.810157798552 3683.74235645416 15 19 5
303.660796338018 967.501191018289 3599.62178099459 16 17 11
306.315432399821 970.31666867066 3617.93750023594 16 17 9
295.320114020173 981.395678416408 3671.66135308035 13 16 5
299.667930262839 983.319496324307 3686.35389774 23 21 6
309.420637273556 981.978913896182 3687.07617942785 33 26 8
314.559286264964 983.460365770862 3699.93440617509 116 98 78
322.909446596931 982.985607262747 3704.39773372272 121 96 76
330.56707617129 982.942856132924 3710.73525947954 102 73 55
338.585870246707 982.681931871743 3716.14186373804 121 94 77
343.865520295001 984.149223691829 3729.05728814538 131 105 90
349.536699777795 985.395762709456 3741.05384792787 129 112 96
361.686020857111 982.536966028037 3735.20583789594 132 119 102
241.669074632983 972.566718239745 3628.42764154879 21 21 11
240.477985240662 977.509709201531 3655.95898089438 16 18 5
239.792795332584 982.22563573691 3682.61781107981 16 18 5
263.902216493842 976.968617101076 3672.99955925479 20 17 8
282.487344794989 970.468311559367 3651.44393912532 20 17 8
290.742190398143 970.001881747902 3655.8686112841 20 18 6
292.855970153172 973.188393267957 3676.12040280967 24 22 9
299.368924090357 973.790064852322 3685.22599737811 25 18 0
309.120353625434 972.457772962275 3685.94769898509 66 55 37
316.378832510348 972.626336067392 3693.20107511629 122 101 82
323.657517051999 972.792526640833 3700.4623931316 135 110 90
329.56077985239 973.812170362757 3711.47583346912 126 97 79
337.582377455463 973.545405029676 3716.88361712988 129 102 85
343.894822187618 974.344804796186 3726.98559358349 123 97 80
352.29024015293 973.860722104744 3731.46731630156 123 106 90
365.094320777432 970.604765836194 3723.72980785345 130 119 101
233.171732727421 963.586034309334 3622.89732552892 27 26 8
214.830773120394 978.077778819186 3691.9623943884 28 25 8
238.378110056859 973.284580093759 3684.27065929428 21 17 5
248.231991420548 971.956724118937 3685.03380929907 18 12 0
261.763897170562 968.501132076754 3676.51343991173 32 20 6
275.963575746363 964.624754062769 3666.10902017505 31 15 0
284.623609347357 963.939950906461 3669.62059715559 51 30 9
290.751577821357 964.7400983253 3679.64787480993 84 62 41
299.78851633793 963.840363575772 3682.23462167816 122 98 74
309.890249395195 962.304985761821 3682.02088989638 128 102 79
319.617531789539 960.982019241217 3682.73274381309 132 105 84
326.165056189376 961.562356090694 3691.85275465539 133 106 85
330.997458302371 963.195702033969 3705.66464103519 132 105 84
336.578378460691 964.40186471304 3717.62521872372 122 97 77
345.300798717962 963.706320496921 3721.16213703448 121 98 80
349.583667436085 965.748090304397 3736.90629900092 112 99 82
358.338459688244 965.048427137126 3740.45635572399 126 117 100
185.890873861944 980.116111158479 3735.25245755651 30 27 12
202.011873695135 975.409022217976 3721.31677397113 28 22 6
230.481151048454 963.755088884038 3676.82997758618 23 16 0
242.206536437035 961.383717450999 3672.96424072754 25 16 1
256.123685742057 957.752936392314 3663.52237347267 41 28 11
269.600570852092 954.337090985141 3654.97942534866 43 26 8
276.773131416958 954.494175164246 3662.19784354028 40 22 2
282.872526315307 955.278289512514 3672.21393070877 84 60 36
289.369390289877 955.849255659486 3681.31324330398 109 83 60
299.490332062909 954.32389276282 3681.10721308503 132 104 80
310.304708823025 952.381155768732 3679.02723985674 136 108 84
320.025655772916 951.0670000718 3679.73646181315 141 111 87
326.565110028197 951.63159765155 3688.85332441037 137 109 85
329.642131424392 954.278217632824 3707.34134438152 133 106 85
333.146644403664 956.709359734016 3724.92527779152 118 96 75
339.136354959938 957.67696362859 3735.97411466173 115 94 75
344.824593626973 958.848621058666 3747.97840639584 109 96 79
351.236419018493 959.600455749578 3758.12098190589 122 113 96
233.58764218625 952.309604469955 3667.38567441601 51 34 18
243.041366155603 951.208629913999 3669.06389196594 96 75 56
254.346166107333 949.069757960259 3666.10516612567 162 140 119
267.833814799961 945.688626555749 3657.56631297745 162 137 115
276.849665031139 944.798268294831 3660.14470750339 149 123 100
284.03731968509 944.942500257513 3667.36933460123 147 117 91
289.796798175352 945.911727250583 3678.32493983352 151 121 95
299.192402838682 944.81104808494 3679.97988027505 151 120 92
308.934926257 943.504029788062 3680.69778429139 148 117 88
317.953098952734 942.609841180362 3683.27714819979 146 115 86
324.854244154736 942.951327692997 3691.46308265449 147 116 88
327.936471379887 945.553898671191 3709.95354430839 134 109 87
326.242537595377 951.027580109595 3741.59275282684 113 92 73
329.177343370872 953.8182390152 3761.10090706657 106 89 71
341.086399790707 951.266602176764 3756.23235275529 103 92 74
213.601148477747 945.366671809991 3664.74020794285 107 99 86
229.538535771053 940.777602580742 3650.72928638138 138 128 116
236.69790823033 940.916782604162 3657.94250051094 181 162 147
244.627580581805 940.643437694601 3663.31285693229 185 162 144
254.801933332987 939.13936754212 3663.12829104746 166 141 121
267.54534534398 936.203366270867 3656.44260127855 164 137 116
277.294276686258 934.906958641297 3657.16301939202 162 135 114
286.298339905392 934.019506854641 3659.73661940986 149 121 97
292.761330841 934.560279842487 3668.82244590707 151 121 97
301.413195891817 933.874749014736 3672.33072101497 152 122 96
308.278756808504 934.206914840769 3680.50257551902 151 121 93
315.878977410154 934.12937944064 3686.81712044407 149 119 91
321.381175403057 935.2695695972 3698.74632413831 146 116 88
327.278474197372 936.202352950024 3709.75800806987 127 105 84
320.372693045699 944.637736755585 3755.44793583596 106 87 70
330.923822519762 942.920359121127 3754.33847562419 102 87 68
211.020472903403 937.02629234964 3669.1530836266 144 134 124
225.073858040337 933.501520086121 3659.76557377881 150 137 128
239.434278682369 929.779008191855 3649.42481387816 159 141 127
248.091692355689 929.097341636541 3652.93530629393 168 146 132
257.86704798346 927.808404636799 3653.66636678838 170 147 131
269.477671294113 925.510080604069 3649.75386712318 169 146 128
281.04792833418 923.214242816036 3645.82474736888 164 141 123
289.657484881792 922.533498638161 3649.31585578154 157 132 112
297.542004313051 922.254699504351 3654.66822867291 160 135 115
304.716742742989 922.376761667383 3661.88779412404 147 122 100
307.622465391117 924.908135825966 3680.30732997548 145 121 97
313.448312738286 925.826136715882 3691.29019576845 146 122 98
319.314450259106 926.740342315858 3702.2896607616 143 119 95
323.471776250079 928.652421662268 3717.98397438402 138 116 93
365.771445646756 912.862676606674 3657.55064802377 100 88 72
202.777878618834 927.739866076798 3662.64942241704 235 228 220
214.181778716026 925.653337139751 3659.73042477901 234 225 218
230.115256167406 921.168234856095 3645.71687488254 232 221 215
241.796115486345 918.888376149379 3641.83267331823 235 224 218
252.685969110827 917.010254842147 3639.78277036924 235 224 218
263.545555786222 915.133754439225 3637.7206002606 234 223 217
275.485681928199 912.661255799169 3632.86376878757 232 221 215
285.173811378573 911.386044041687 3633.55940798608 228 217 211
292.655461753081 911.304333563091 3639.82597631068 225 216 207
300.877687476694 910.823392198154 3644.23755090455 229 218 212
308.38459360926 910.738246126719 3650.51437114783 220 210 201
311.615129888503 913.030297171929 3667.9884276019 232 224 213
317.052058362617 914.127299643 3679.89153148046 173 165 154
322.534502842059 915.219924290915 3691.81284042383 127 119 108
182.904893015037 924.404070399383 3683.75815319843 227 224 219
202.109721281714 918.375855030826 3662.44986688753 232 227 223
217.346868245276 914.33292422792 3650.30889967523 230 223 217
232.498140378089 910.296020037561 3638.1331166712 234 225 220
243.782987850411 908.23650300502 3635.16545349791 227 219 217
256.159041981378 905.588326505818 3629.40764963151 225 220 217
268.111508112378 903.14007029295 3624.55588800832 223 218 215
280.389028518403 900.498325585727 3618.75813978232 222 216 216
291.144229086422 898.645039524129 3616.65352851868 216 212 211
296.387935484763 899.735592116702 3628.47844703359 213 212 210
305.668877638173 898.666478675412 3630.08646494963 215 211 210
312.056851818261 899.163396192628 3639.14250733213 216 212 209
318.475129697804 899.657195491301 3648.21084310347 204 201 196
325.634287984445 899.757239135914 3655.42426715912 232 229 224
333.166294887523 899.659822887804 3661.71134353146 212 209 204
338.962281727019 900.535178164403 3672.68244225818 76 69 59
159.531200199371 918.885084560766 3688.36167745997 225 225 223
169.138239021321 917.803524938653 3690.10182394953 232 232 230
187.27972119819 912.427330666858 3671.59473584169 219 219 219
203.370782575948 908.035009021026 3657.6442873106 218 217 215
218.982493397376 903.844335699729 3644.57729005996 226 222 221
231.076243043177 901.411730742901 3639.78235727392 223 219 218
243.124606770646 898.981884761877 3634.96902713824 225 223 226
256.630416812071 895.77816456718 3626.43618266311 224 223 228
270.816841813856 892.190837872089 3616.02420571785 223 224 229
283.815499494975 889.190197011383 3608.36328769613 220 223 228
293.072060591906 888.129943849448 3609.96162396288 215 220 226
300.124989561853 888.230214517638 3617.13203479871 214 219 225
309.376584802552 887.16892557869 3618.72811104975 211 216 222
318.257419330062 886.300801146743 3621.25167014577 208 213 217
326.775144838985 885.625180630243 3624.70555798436 204 209 213
336.00375730541 884.563620409828 3626.29233072888 206 210 213
344.869122113491 883.694629451159 3628.80963281295 200 204 207
353.729276197033 882.825393791299 3631.32482696627 217 216 212
364.323637327579 880.995849539774 3629.15491299543 229 226 221
367.635090704391 883.195895709837 3646.66217235537 218 215 210
155.970259090486 907.20309983691 3670.82501556449 233 233 231
165.938618313799 905.937302144142 3671.63430368672 228 230 229
176.283379584262 904.479153704187 3671.51812970557 205 207 206
192.048082831785 900.326989438759 3658.51278611811 226 227 229
206.949876071136 896.565940540767 3647.31270810998 221 221 221
219.853294638185 893.770946610158 3640.69073506681 226 224 225
230.415406971868 892.131005518924 3639.58513478933 222 220 221
241.330783317175 890.300715364055 3637.54520326241 225 225 225
255.599105972443 886.748564014999 3627.16611947831 225 225 227
271.285216227273 882.436624978655 3613.05109982319 224 225 229
285.391794534615 878.895739566424 3602.60618427724 221 224 229
296.107460970464 877.078516938664 3600.48554979862 217 222 228
302.769171904764 877.360547132741 3608.57498967435 216 221 227
311.272448154489 876.687506030431 3612.02300755882 223 228 234
321.218574904494 875.252447035802 3611.74551149441 214 217 224
331.502651491811 873.628317480939 3610.52721666243 213 216 221
342.472595370863 871.625724470867 3607.43187700927 216 217 222
350.228742511617 871.332528054792 3612.73238199557 219 220 224
359.04669356815 870.469445538489 3615.23044180257 213 213 211
368.555568121344 869.227384835103 3615.85325068499 206 205 201
381.50445356226 866.094986859405 3607.09437077483 225 224 220
392.329236700899 864.100606977067 3603.94019431122 216 215 211
401.756425898269 862.863105216031 3604.52989481523 184 183 181
134.106344538787 900.855821919893 3671.7306267956 233 229 228
146.107696011782 898.643582836399 3667.97567769956 227 227 227
156.483497449743 897.195283605348 3667.87225423494 219 219 219
171.565371177805 893.465875314677 3656.74484971594 227 228 232
182.26230327003 891.831691134926 3655.6937933694 209 213 216
198.376933727231 887.541990782718 3641.75210995046 225 228 233
210.146952719744 885.344493171898 3637.90338423277 222 226 229
221.109333098044 883.528112925907 3635.88237887306 221 225 228
230.898000564154 882.281040495941 3636.61851191468 227 228 232
244.079351802985 879.333765629737 3629.03141794929 226 225 223
259.080774681226 875.446463269668 3616.79357087422 229 225 222
273.996132241126 871.565376528459 3604.52108667428 228 227 225
287.341319447531 868.443901787425 3595.92258375109 227 225 226
298.409619984951 866.4560517544 3592.86695626555 224 223 228
307.246576987351 865.598218132241 3595.37267166044 222 223 227
314.624662563365 865.491118728769 3601.59749977169 233 232 237
325.627118655779 863.506512816317 3598.51518774649 222 220 225
334.443795595969 862.648199195851 3601.01243829932 208 206 209
344.322816820892 861.228200350946 3600.70765753056 226 222 223
353.121476996517 860.370053452838 3603.19786918568 217 211 213
363.668928236627 858.577640625448 3601.00868028589 213 213 213
373.141030370822 857.346802210178 3601.61651521404 211 213 212
382.597743515226 856.116465722494 3602.21811544458 214 214 214
391.35259694955 855.259099625767 3604.69058414169 223 221 224
400.442869786808 854.215553375003 3606.22120760775 195 193 194
408.508220893277 853.729401527666 3610.56956149917 209 208 206
414.229147899013 854.541124270603 3621.51075134729 221 217 216
119.363134193878 894.527469539483 3679.83470715054 231 227 226
135.435581967816 890.45302083554 3666.95337808262 218 216 217
151.816500934604 886.196977853948 3653.11925788427 229 229 229
162.946347632106 884.387294783691 3651.16600769008 223 223 225
174.04613740348 882.57921597802 3649.20057549918 225 226 230
183.941377263774 881.334639043817 3649.97984003433 231 232 236
198.87814136293 877.658924031636 3638.79353189897 216 219 224
212.188533954597 874.736220566685 3631.25824239366 222 226 229
222.751107627069 873.124158364429 3630.15261759462 220 224 227
234.051233449975 871.140536615389 3627.19082247842 225 226 230
246.831406866975 868.413887747717 3620.51843030867 225 224 222
261.813861624494 864.574648366374 3608.27279609794 228 224 221
275.215270078325 861.484943639552 3599.69681595217 227 226 224
287.437195377466 858.956754792073 3593.87569693812 226 224 225
299.239853880118 856.61732980945 3588.96219712808 224 224 226
308.067489663823 855.762864838498 3591.46411289398 223 223 225
316.162819330087 855.278288482811 3595.8243357239 219 218 223
327.15204917877 853.313858813741 3592.73651555573 222 220 223
336.671463233605 852.090210990481 3593.36345224321 225 220 224
346.175585234426 850.866997638663 3593.984193993 220 216 217
354.250343024964 850.381361229508 3598.33609545085 223 217 219
364.786903609649 848.606309452694 3596.14236540967 213 213 215
374.595974558688 847.200819052452 3595.80915229886 212 213 215
383.000903191647 846.530787759264 3599.21732711531 212 212 214
391.405607322379 845.860176491939 3602.62541542843 201 199 202
399.469132682417 845.372196683679 3606.97304394348 216 214 215
408.214208965204 844.51704525278 3609.44127992797 205 203 204
417.289592380801 843.478857576209 3610.96609138251 204 203 201
426.354593644526 842.440840334911 3612.48644065879 215 211 208
435.409077762466 841.402939034129 3614.00253073832 229 228 223
444.781158978463 840.18312803211 3614.57004154582 147 147 139
119.085457142545 884.842299770439 3678.71688047935 226 226 228
137.168614859692 879.890184072335 3661.26177095367 225 225 227
152.340798680837 876.242268642642 3650.170314659 225 225 227
165.448508882904 873.52469844561 3643.63047100326 225 225 227
174.952990469217 872.473441175173 3645.32886310986 224 224 226
184.839299167854 871.237701390143 3646.10444449763 224 224 226
198.991408407442 867.974757400532 3636.75492275388 223 224 228
211.912989568395 865.269184157836 3630.1396258321 223 224 226
223.242836482233 863.302819638143 3627.18947654378 224 225 227
236.445094096203 860.420060544769 3619.61035840986 225 225 227
249.58685594419 857.541382518285 3612.00645780821 226 226 226
264.926891480946 853.566685182844 3598.82782411706 227 225 226
277.184202941583 851.063667972203 3593.02084191539 225 225 225
289.019543390051 848.746938951734 3588.12040276487 225 225 227
299.333768586704 847.164057334072 3586.91400224347 223 223 225
308.523493669822 846.130200428511 3588.48507700448 222 222 224
316.975458027916 845.461105118995 3591.91228915888 221 221 223
328.317881671608 843.334252803378 3587.88964040987 221 221 223
338.902142279572 841.57377310667 3585.71511331838 221 219 222
347.318470321517 840.905588360401 3589.12788967859 218 216 219
355.734686619461 840.236814706371 3592.5406252582 217 215 218
366.257725380318 838.479267252601 3590.34154487473 212 212 214
376.053062640351 837.08574961147 3590.00242311357 215 214 219
384.097248423801 836.597927191252 3594.34221997787 212 211 216
393.177088233697 835.566804093625 3595.86852502082 210 210 212
402.246475192164 834.535965756929 3597.39085284629 211 211 211
411.644001773186 833.324844102696 3597.9683432127 210 210 210
419.346147254808 833.015069690968 3603.24685173927 212 212 210
428.391797219311 831.984139380422 3604.75956932089 202 201 199
434.779666849024 832.391107560296 3613.81599393659 199 200 195
442.510987392283 832.077043637755 3619.10660497915 221 222 216
448.948566838719 832.478693137687 3628.18345428877 157 158 152
107.933734812746 876.764823743232 3678.57834184192 224 224 224
122.853527468074 873.332854166445 3668.46212270843 224 224 226
138.099873781665 869.723536401928 3657.40040172268 225 225 227
152.866203261705 866.302236436282 3647.22170833555 224 224 226
165.175257394298 863.979418198558 3642.51311866013 223 223 225
175.466948249897 862.569643554065 3642.37534740969 223 223 225
185.346866720359 861.34253960481 3643.14827598199 223 223 225
198.715961051503 858.481471595048 3635.63654444245 224 224 226
212.411431169965 855.44289016163 3627.17924028439 224 224 226
225.657037077712 852.590116919599 3619.61718905693 224 224 226
237.696797030943 850.284569579975 3614.7994331641 224 224 226
250.070342148369 847.800916371682 3609.03936637417 222 222 224
264.27679812856 844.417692229289 3598.63395278869 222 222 224
276.536642146964 841.941732271699 3592.82779091515 222 222 224
288.374329491503 839.649385289284 3587.92811719705 221 221 223
299.059193070717 837.900063360607 3585.79423896429 219 219 221
307.880845818338 837.051631591946 3588.29368651116 218 218 220
317.061512062278 836.023220127324 3589.86079491075 218 218 220
329.12396106612 833.559671497208 3583.97461511735 218 218 220
339.340829217696 831.995556460787 3582.72891039791 217 217 219
348.106663316405 831.148922364508 3585.20548651619 215 215 217
355.451635943839 831.017248311135 3591.41709369789 215 215 217
365.973984095149 829.276139639191 3589.21735186347 218 217 222
375.768070142061 827.893714518265 3588.87789664324 212 211 216
384.502779626925 827.046970580414 3591.3421286846 214 213 218
393.576017521612 826.021929717712 3592.86571455709 217 217 219
402.638776945221 824.997056093531 3594.38531372967 214 214 214
412.368663120757 823.617152449637 3594.0195880969 216 216 216
420.396965703964 823.125387904664 3598.35298384598 198 198 198
428.763678116364 822.455216277555 3601.74568624869 203 203 201
435.143319063096 822.846571886638 3610.79915469442 201 201 199
441.881584447226 823.057978624168 3618.92012623202 202 203 198
450.601001003381 822.20736534766 3621.37819560324 205 206 201
91.0222120438766 871.191710242222 3691.19331849649 226 225 221
110.508599775199 865.81146560823 3671.07293032346 221 221 221
124.197535943068 862.962004174702 3663.69035528038 223 223 225
139.03278565291 859.576847955945 3653.53929324713 225 225 227
150.994692579256 857.454887547765 3649.76768904536 223 223 225
164.107906915211 854.796956251788 3643.2296219279 222 222 224
175.192780319744 853.039015870059 3641.25777016997 223 223 225
185.463391385293 851.64107327529 3641.11137417791 223 223 225
197.661815561859 849.349555632363 3636.35775396572 223 223 225
210.588869110379 846.703564029822 3629.74422116238 223 223 225
224.614006624316 843.525704194975 3620.34238732363 223 223 225
237.422485711152 840.887672398321 3613.68078422618 223 223 225
252.451946051795 837.184704485379 3601.45314934304 221 221 223
266.264782352942 834.021567300134 3591.96550187755 221 221 223
278.883853403874 831.396514973632 3585.2268531985 220 220 222
290.703616986117 829.130156035542 3580.31972529352 220 220 222
301.000638345929 827.576069262819 3579.10639802973 218 218 220
309.805352238907 826.731609676384 3581.59895704609 217 217 219
317.512413067826 826.417620160326 3586.87948771136 218 218 220
328.846376340783 824.335248613372 3582.85333349252 217 217 219
339.062364347745 822.784897450661 3581.60691085579 216 216 218
348.896249356506 821.412230770779 3581.28349598742 215 215 217
355.877043167121 821.449234949861 3588.42517935013 215 215 217
367.096629200068 819.373354924835 3584.35266539175 211 210 215
377.577512154912 817.65143190602 3582.13598917051 216 215 220
386.641831703136 816.633254565776 3583.65591204396 210 209 214
395.007823509087 815.965770179487 3587.04830230966 215 215 217
403.373560585144 815.297767990045 3590.44059336184 216 216 216
412.755632654713 814.104483110381 3591.01194833452 200 200 200
420.776814573926 813.610538435515 3595.34222027535 210 210 210
428.135022226985 813.464545501058 3601.55929475855 198 198 196
435.176752330422 813.490923529907 3608.72573133859 189 189 187
441.909578317675 813.689251821434 3616.84459963392 203 204 199
450.624705395764 812.84172809296 3619.30090880787 196 197 192
461.276555097591 810.951968854977 3616.07591982276 100 102 91
71.124232094032 866.771392344236 3710.14227611335 226 225 221
89.104949865112 862.163343191571 3693.72188959078 225 224 222
109.012019250863 856.675518095925 3672.69383973164 223 223 225
124.733556283071 852.97133740805 3660.74643099889 224 224 226
140.369469064151 849.273103703667 3648.7643085359 223 223 225
153.520499096667 846.642901257746 3642.24134254941 222 222 224
166.616288545146 844.01618419219 3635.69572639633 220 220 222
176.103371896111 842.982499261204 3637.38719811349 220 220 222
187.14980422258 841.243325609063 3635.39963958822 221 221 223
200.50459647407 838.448731420546 3627.88135615779 220 220 222
212.249975607061 836.362277367137 3624.02181225534 220 220 222
225.87848558282 833.399417309364 3615.53682246167 220 220 222
239.059240148986 830.616639189063 3607.94798284071 220 220 222
254.07739568363 826.961072742653 3595.71541143137 220 220 222
266.747100759896 824.362728280072 3588.99731889931 220 220 222
278.986688911975 821.943068290824 3583.18252883033 219 219 221
290.059751327107 820.051085922557 3580.12784551809 218 218 220
301.097316716762 818.161252965984 3577.05903064588 216 216 218
311.732537933223 816.448023651943 3574.90477899934 216 216 218
319.786383111312 815.955849369827 3579.24851987015 216 216 218
330.378499549954 814.244600540075 3577.07680039239 215 215 217
338.424737027754 813.751719341505 3581.41720909084 215 215 217
348.973654359732 812.042757350053 3579.22798126669 215 215 217
355.949141870389 812.069416824868 3586.36785178266 216 216 218
367.517589490263 809.842396412825 3581.35866964658 210 209 214
376.595752360385 808.829279230717 3582.88415922854 207 206 211
386.356901758884 807.470803687395 3582.53118666103 223 223 225
394.032614858385 807.148712009025 3587.79934349109 222 222 224
402.401475494132 806.480522121906 3591.19290067319 195 195 195
412.126391329869 805.123064236663 3590.8252496788 193 193 193
420.147954163617 804.626279905822 3595.15569737305 197 197 197
427.506168724152 804.472156874124 3601.37283627695 200 200 198
434.547734604696 804.487788215549 3608.53928782127 207 207 205
441.280201543381 804.672516002394 3616.65811382849 198 198 196
449.016789211247 804.341177914467 3621.95098842602 206 207 202
456.115266913385 804.350327627547 3629.14053229338 196 197 189
67.9550459047249 858.191679324325 3715.39749023773 209 209 207
90.8780333320995 851.54161655463 3688.04720225219 216 216 216
110.368153304499 846.303104242315 3667.92725094481 225 225 227
124.460450822613 843.344565349437 3659.63001269378 223 223 225
140.097718706113 839.692730090771 3647.64808721461 221 221 223
154.449226771142 836.569650491497 3638.37798328458 220 220 222
167.93503061517 833.799520553995 3630.91281731561 219 219 221
177.015554447764 832.945946786856 3633.51686168239 218 218 220
187.661089627719 831.397423654417 3632.44460302873 219 219 221
199.451485672237 829.329884224091 3628.60288556115 219 219 221
210.42671115578 827.61135054447 3626.58659666996 219 219 221
224.065932309814 824.683148865154 3618.10568105557 218 218 220
238.786521261416 821.240896134569 3606.82981832481 218 218 220
253.806020810155 817.631669236281 3594.59743985614 219 219 221
266.098667076955 815.235840544242 3588.80395200784 219 219 221
277.966064321517 813.015560950063 3583.91576136699 218 218 220
289.787959901581 810.798288606449 3579.00912462984 217 217 219
301.194581630088 808.75582940875 3575.01208678107 215 215 217
311.092257460852 807.402562541602 3574.71409609355 215 215 217
319.511160304421 806.736026857811 3578.12790247328 215 215 217
329.378313106045 805.383917560923 3577.8178016796 214 214 216
339.225144618539 804.032820520657 3577.49946526704 213 213 215
350.479629988633 801.999186891935 3573.44076158729 214 214 216
358.503255579282 801.504032415814 3577.77203212337 216 216 218
367.939553325115 800.326123089233 3578.36496891982 206 206 208
376.661619637335 799.489287485564 3580.82400672753 206 206 208
385.725345542917 798.48215598142 3582.34360551484 226 226 228
394.089989971125 797.814957673652 3585.73544806843 216 216 218
402.454354049789 797.147124040323 3589.12718192606 193 193 193
411.836291351353 795.970353456407 3589.69809993172 206 206 206
419.518918316506 795.640421320884 3594.96911556561 202 202 202
426.542956876641 795.647219605483 3602.12853737401 194 194 192
433.586852430801 795.65172734443 3609.29601650057 196 196 194
441.3088789581 795.316880372363 3614.58302199165 199 199 197
449.040677132764 794.980487535626 3619.87373844433 195 195 193
455.809754577185 795.147484853266 3628.00777940507 213 214 208
42.0819128219438 855.976211702651 3747.01503858507 221 222 217
66.8481082596581 848.714793768983 3716.0999393661 221 221 221
89.7808613567614 842.157028675566 3688.75290583994 225 225 227
109.279168796411 836.988881695638 3668.63573623011 222 222 224
123.377116283833 834.065402171317 3660.34051987125 220 220 222
139.423580685016 830.28770826787 3647.44642099897 217 217 219
154.578847815502 826.859495219229 3636.34644997173 217 217 219
168.062599857288 824.122350336555 3628.87994599828 216 216 218
177.138725243244 823.271690008547 3631.48244460859 215 215 217
186.995492900517 822.078938454727 3632.24573919857 216 216 218
200.34852975782 819.350117503625 3624.72624647823 216 216 218
213.64095387194 816.625376059353 3617.18243839184 216 216 218
226.872913966397 813.904772942871 3609.61386025756 217 217 219
240.426795480687 811.018182031163 3601.0980758283 217 217 219
251.635017781974 809.15571510163 3598.09815130566 218 218 220
265.07271503542 806.27695440078 3589.53526534 218 218 220
276.195070203338 804.420035265124 3586.50053177157 219 219 221
288.771711975496 801.887829356675 3579.74400002707 218 218 220
299.443231067273 800.205193433577 3577.60447047053 215 215 217
310.451860386934 798.3553173863 3574.52337949919 215 215 217
319.965668578241 797.182619097956 3575.14791745514 212 212 214
329.102095554058 796.178992920208 3576.69692582222 211 211 213
339.307536836825 794.670543537279 3575.44591528738 210 210 212
349.13029509891 793.331635265196 3575.11773939844 213 213 215
358.578025047536 792.16160727372 3575.71524527459 212 212 214
366.601807649362 791.663207034378 3580.04686121193 200 200 202
375.679365788516 790.661076790775 3581.5720226646 213 213 215
384.746587336504 789.659167734888 3583.09299722807 201 201 201
393.80337324806 788.65754207602 3584.61000155463 201 201 201
402.849814121409 787.656024135878 3586.12255920535 208 208 208
411.206882536614 786.988230539366 3589.51133879698 202 202 202
418.552803656211 786.819479931132 3595.72361104663 203 203 203
425.913548104858 786.648837585089 3601.94189949623 203 203 203
432.957264145472 786.642480295857 3609.10938829298 203 203 203
441.008799007194 786.136322119424 3613.45229972713 199 199 199
447.431011407185 786.457540379253 3622.52327944865 197 197 195
456.15300345076 785.617303421892 3624.98231296685 196 197 191
18.504560040254 852.540800176102 3773.09801566875 203 204 199
35.1450582946553 848.769128677088 3760.44413402776 226 226 224
63.2621134670728 840.24964704068 3722.26433039692 221 221 221
91.5573629583732 831.578075434179 3683.07902104266 215 215 217
111.454153090154 826.312355876952 3662.04512568685 221 221 223
125.53748353436 823.425421886398 3653.74371398538 219 219 221
140.361441191505 820.204946837354 3643.58683164148 216 216 218
153.908393945797 817.496204108155 3636.14595913551 216 216 218
166.599155683118 815.128848680745 3630.51344960608 215 215 217
175.681208851882 814.280354268108 3633.11807469014 214 214 216
183.972709945724 813.768155431174 3637.55819254114 216 216 218
197.343851526083 811.070537828901 3630.04579378225 216 216 218
210.654465990161 808.377237467782 3622.50885529852 216 216 218
226.215999164787 804.682257848641 3609.41778425043 216 216 218
239.772984347558 801.831047596338 3600.90298829884 216 216 218
250.602970782265 800.154691489017 3598.82731622289 217 217 219
264.046294663351 797.311051782143 3590.26644223142 217 217 219
275.54821099977 795.306113752747 3586.30770409522 217 217 219
287.75490011661 792.970415568245 3580.47895703196 216 216 218
298.430771833486 791.303759084842 3578.34081147619 213 213 215
307.606193302783 790.303798146075 3579.90558065638 212 212 214
317.866372758372 788.805950572027 3578.67691008833 211 211 213
327.013894291232 787.806944794773 3580.23037554171 210 210 212
339.030587626532 785.483191262587 3574.32460999299 209 209 211
348.852154126269 784.155316438405 3573.99586793737 211 211 213
358.653344147463 782.8285180195 3573.65886743085 211 211 213
366.320213544829 782.492606832077 3578.92329103002 202 202 204
376.445515284522 781.00185880049 3577.63995561609 218 218 220
385.503566439825 780.006235475184 3579.15716950829 205 205 205
394.206457513197 779.175163193043 3581.60839971299 198 198 198
402.219683192306 778.672404251933 3585.93551703821 201 201 201
410.577313575724 778.004625907835 3589.32452405118 205 205 205
417.923219426147 777.82762740717 3595.53685263523 204 204 204
425.953199301692 777.321688003293 3599.87077772314 204 204 204
433.323700524553 777.141545335314 3606.09308863147 203 203 203
441.368001905019 776.633270329419 3610.43308732521 198 198 198
447.782054439627 776.938875980139 3619.50088151427 196 196 194
455.523775714455 776.59033408128 3624.79596507315 197 198 193
463.275154654367 776.240489038794 3630.09496882979 197 198 192
26.9995076532903 839.008333061046 3752.90455254992 212 214 211
40.6774457169967 836.46065919703 3746.59430235469 215 217 216
67.1128919166926 828.73747429761 3712.04308123148 227 227 229
94.1576955412846 820.696403482038 3675.58337782188 219 218 223
113.223638037735 815.838865612244 3656.36760051536 219 219 221
128.917706078036 812.322466040162 3644.40764645239 216 216 218
143.719821593884 809.144668133421 3634.24159689885 211 211 213
155.641789136846 807.134784106944 3630.45297201479 211 211 213
165.533088764999 805.956811047902 3631.2301363386 213 213 215
176.20064900566 804.448027526496 3630.16649426083 214 214 216
187.236350444463 802.775099118883 3628.17408875415 214 214 216
200.585064595121 800.112075480241 3620.65234707477 214 214 216
215.037211090708 796.958059740241 3610.34441727765 214 214 216
229.028099463281 793.974131739408 3600.92750347989 214 214 216
241.416609901568 791.653976019877 3595.17225677615 213 213 215
251.09197308119 790.488627993213 3595.86189426479 214 214 216
262.641492063997 788.502394310001 3591.92228832962 214 214 216
274.525971301382 786.354584828448 3587.04046476316 214 214 216
287.110452159821 783.882006741489 3580.28691227318 212 212 214
297.788052016545 782.23159199296 3578.14934332109 208 208 210
306.964432498515 781.23705447487 3579.71445969069 207 207 209
316.495827128284 780.079287135992 3580.34574787212 209 209 211
326.011995145712 778.922188188145 3580.97086583969 207 207 209
336.953352711423 777.114099964553 3577.86247749717 205 205 207
346.071193494792 776.121744202877 3579.40413224624 207 207 209
356.599050587572 774.479546950602 3577.20587122166 207 207 209
366.038795064908 773.326052076382 3577.80001852043 204 204 204
376.513120711554 771.686900498194 3575.58005990653 221 221 221
384.872110517843 771.020867508755 3578.96960411089 201 201 201
393.575771397773 770.192603489216 3581.42112471896 196 196 196
401.931719621134 769.525615956637 3584.80944464309 188 188 188
410.28738481128 768.858053087221 3588.19765432996 207 207 207
417.630747066026 768.673186337002 3594.40901266929 206 206 206
425.323812498344 768.325575734286 3599.68413153613 205 205 205
432.69428888236 768.137245708165 3605.90649444533 203 203 203
440.40925462038 767.786758825352 3611.19075961903 197 197 197
446.498001571141 768.236139163663 3621.20481547483 194 194 194
453.92035494676 768.041905737649 3627.44822775721 191 191 189
459.424621152483 768.805103481827 3639.3811263559 201 202 197
21.4019033915125 828.276009595732 3739.93061714424 136 139 132
35.5031094380696 825.593776080046 3732.71369971735 211 213 210
52.456315658894 821.763900336511 3719.10832157588 227 229 228
77.5840384654123 814.653816389375 3687.25964701797 219 220 224
99.2271215165994 808.871573626995 3662.62098139342 218 219 224
114.995472294054 805.396452117949 3650.69079100892 216 216 218
129.054594265787 802.582390353263 3642.37902511654 214 214 216
142.241564205628 800.099916458683 3635.86949120221 209 209 211
153.36908446356 798.437945129469 3633.91417943436 210 210 212
162.873273423302 797.430342184325 3635.61237939719 213 213 215
173.950885232535 795.771069709798 3633.63683959485 213 213 215
185.784964047713 793.788000022578 3629.81216871455 212 212 214
198.750875770614 791.319752470542 3623.21302205975 213 213 215
211.661308979224 788.855242840079 3616.59138421445 213 213 215
226.444541218531 785.583768741317 3605.33959085238 212 212 214
237.698881481641 783.775571015676 3602.35792782055 211 211 213
249.298585317922 781.807842509192 3598.43824388688 213 213 215
262.369967256882 779.196434914869 3590.80407834734 213 213 215
275.380760468878 776.589115752559 3583.14509264501 212 212 214
286.838948229033 774.630686464253 3579.16803936742 211 211 213
297.145236711111 773.15787828778 3577.95784822629 207 207 209
305.954591521344 772.329429662324 3580.45216495851 206 206 208
315.124316103423 771.340201566928 3582.01454615733 207 207 209
325.009511839771 770.030478645458 3581.71142954315 206 206 208
336.315679670269 768.080985253902 3577.67275673949 203 203 205
346.507804430347 766.614113697802 3576.41629651675 205 205 207
355.964037914272 765.468159293703 3577.01706294297 204 204 206
365.404923521552 764.322823112076 3577.61161043652 205 205 205
375.180577876223 763.018730367721 3577.26409861639 216 216 216
382.849962973274 762.670604869473 3582.52963338572 193 193 193
391.219412663484 762.003205178112 3585.92342308233 200 200 200
400.273702763285 761.017797253269 3587.43929394636 192 192 192
410.337774044588 759.556832444955 3586.1306837776 206 206 206
418.013554206955 759.20586359569 3591.39908664202 205 205 205
426.034128328954 758.695289542789 3595.72923853621 205 205 205
432.397121208161 758.973492910285 3604.77682396029 203 203 203
440.769582722115 758.302268031609 3608.17186211692 198 198 198
447.50469137348 758.418277692782 3616.29253582612 195 195 195
454.264686439129 758.531543974633 3624.42304943599 193 193 191
460.727158510961 758.799474748043 3633.51099114508 195 196 191
465.620601720906 759.849052964451 3647.35201743356 109 110 104
23.0635195383952 814.831195703768 3711.57542411056 147 152 145
24.068759437005 817.213803581063 3732.46327720197 210 212 207
40.6651902006379 813.593569321061 3719.79040509264 211 213 212
64.663252718234 807.066877157387 3690.71659877904 211 213 212
87.6521170617586 800.877131371343 3663.38949481371 221 222 226
103.890780255559 797.282911097322 3650.57156796665 222 223 228
114.726434730258 795.791176045013 3649.57585683269 207 206 211
126.755550571232 793.817694712882 3645.83033961422 210 210 212
137.937534375036 792.168384752192 3643.8969837812 208 208 210
150.693700526798 789.878338477415 3638.29037005432 209 209 211
161.407115731625 788.393663478793 3637.24485436466 212 212 214
172.887450763755 786.590036425824 3634.35466037207 212 212 214
185.119586257919 784.468301954833 3629.6134027238 211 211 213
196.133714588591 782.829122735219 3627.61200660856 212 212 214
212.166448652994 779.116348815317 3613.63304820085 212 212 214
225.402402178893 776.526578076187 3606.06509530496 211 211 213
235.894554959245 775.055781528502 3604.93014405613 210 210 212
247.503959439039 773.10910273572 3601.01422829333 211 211 213
261.34233560592 770.211978119529 3591.5349054361 211 211 213
276.23701361671 766.843914339291 3579.25015965879 210 210 212
286.567652834197 765.383289473914 3578.04947838549 209 209 211
296.872926608122 763.924190642295 3576.83877248311 206 206 208
305.680585438545 763.098571724735 3579.33212385013 205 205 207
315.214268682406 761.957181043714 3579.96421454463 205 205 207
324.369612936634 760.973928725092 3581.5209851822 203 203 205
334.95684517099 759.361159446309 3579.34654167652 200 200 202
344.081728943195 758.379190122604 3580.89071212904 201 201 203
353.907164833174 757.083287829372 3580.5632944191 200 200 202
364.065071564727 755.631680285114 3579.29286386156 202 202 202
373.49676993862 754.49469344387 3579.88362822356 209 209 209
381.521730795362 753.984070718712 3584.21555664455 188 188 188
389.551534662333 753.472556194057 3588.54945272573 200 200 200
399.299907906818 752.179800512701 3588.19080904517 197 197 197
408.687530376929 751.043974454694 3588.76371858703 204 204 204
416.708743982382 750.531371711356 3593.09440200702 203 203 203
425.069897417516 749.862298048727 3596.48484529688 203 203 203
433.430652858621 749.192688045443 3599.87513150708 202 202 202
442.121185914134 748.367531808343 3602.3210559692 197 197 197
449.495831158034 748.161476645366 3608.54524117199 195 195 195
455.585074964884 748.572142480219 3618.55979164669 196 196 194
461.38670691451 749.133878089027 3629.53581041671 189 190 185
468.188343424808 749.229080499887 3637.68332127224 114 115 109
19.1519745537712 809.064465718072 3741.32312864839 213 215 210
36.6156560744189 805.172503715055 3726.84584357259 198 200 199
59.3922546705068 799.219440575298 3700.50980886078 223 225 224
88.2107882587611 790.89519061383 3660.45467556326 212 213 217
103.211814425614 787.82644589158 3650.36833693216 216 217 222
112.822489090652 786.823736354508 3652.10961511328 203 202 207
123.236136590064 785.504484061925 3652.02053711066 203 203 205
135.245124862645 783.553763553659 3648.26644063471 204 204 206
150.02254457772 780.500218741187 3638.08970734806 206 206 208
161.136158527632 778.871329397665 3636.12851426201 209 209 211
170.635102768037 777.874369109347 3637.82425278009 209 209 211
180.517864962624 776.72020580693 3638.59777988596 210 210 212
193.123413956297 774.466780177721 3632.92990476245 211 211 213
208.398505689255 771.118191096575 3620.79903819796 211 211 213
222.429618977165 768.246025596689 3611.39756405466 209 209 211
233.705517884053 766.474496078077 3608.42435203022 208 208 210
246.851008140247 763.923454356504 3600.81947764081 206 206 208
262.206349141125 760.439860380104 3587.64331859426 206 206 208
275.967117759521 757.586518935173 3578.13198389846 206 206 208
284.803216757967 756.76264634132 3580.63709447827 206 206 208
294.005197363365 755.782997210513 3582.21246330688 203 203 205
302.460451518287 755.114268905639 3585.64100469496 202 202 204
313.110199020947 753.514145307612 3583.49203455503 199 199 201
323.003196708785 752.225657831677 3583.19165871039 197 197 199
333.597117854145 750.628851393401 3581.02005973004 193 193 195
342.728001671081 749.6518762108 3582.56662170401 194 194 196
352.559826320995 748.366466550999 3582.24171122648 193 193 195
361.665096732692 747.39029526038 3583.77789642053 187 187 187
370.75997568444 746.414493530915 3585.31012861132 197 197 197
378.800495715278 745.899948156932 3589.64838656447 186 186 186
387.536786814224 745.077437672633 3592.11307530722 179 179 179
397.982567870769 743.488219070763 3589.88118071231 195 195 195
407.716779423758 742.207105987766 3589.5167148153 194 194 194
417.430460964108 740.926997224082 3589.14367162236 196 196 196
425.78201473469 740.258773789037 3592.53022163144 197 197 197
433.800317268948 739.742605901889 3596.8597534021 196 196 196
441.493063991229 739.377655592121 3602.13487465575 195 195 195
448.539961180556 739.315603931135 3609.30407362527 193 193 195
454.630846125027 739.707065750981 3619.31969137274 187 187 187
459.46602001977 740.701902865984 3633.1375397502 200 200 198
