ply
format ascii 1.0
comment KinectMotionCapture
element vertex 802
property float x
property float y
property float z
property uchar red
property uchar green
property uchar blue
end_header
46.3269346607362 273.583144248797 3021.66328869102 27 28 22
40.4509712232546 273.324311956431 3047.33718407039 22 23 17
47.8592200700259 272.736424142073 3050.34118766498 22 25 18
53.2555553426881 272.196651636091 3056.84570678136 23 26 19
54.1662775572711 271.761852230171 3071.24328219659 20 23 16
46.6737388404723 271.519803994057 3100.57800025973 17 20 13
96.7560911446927 269.525712156182 3044.27006802078 23 26 19
171.823235800711 267.417431776343 2925.79387688604 24 27 20
172.558689572697 266.188067015114 2971.41426113477 28 31 24
165.739445310954 265.92058537424 2999.94297599594 23 26 19
182.490981028187 265.149178649595 2985.15369516251 22 25 18
182.024717769009 264.740135399723 3002.23022532988 26 29 22
185.897151053606 264.237803801926 3011.35412517355 27 30 23
191.687713500531 263.694828354989 3016.93948021874 32 35 28
194.219208061025 263.215278378624 3028.75695243473 31 34 27
206.109624171959 262.55082414733 3022.78748109457 28 31 24
214.710536676635 261.952212355654 3023.03778539753 24 27 20
225.138380703522 261.320189604942 3019.71256479916 23 26 19
212.643408294343 261.112846416042 3061.04710455423 19 22 15
210.837556628353 260.698705583783 3081.896773288 17 20 13
237.653887944874 259.770172675105 3046.36946010174 22 25 18
240.844589586184 259.266325024272 3057.37521662903 20 23 16
239.157868847653 258.842790503997 3078.2731918344 21 24 17
241.579234332767 258.344263677268 3091.12502554938 24 27 20
249.367801572783 257.754484104965 3093.2042235673 24 27 20
252.751886872609 257.235380219403 3104.28813818182 20 23 16
245.682575270236 256.876545664288 3137.03178477565 19 22 15
254.8745707608 256.259118536644 3136.44274887104 17 20 13
275.289868886244 255.47612617809 3112.34813422801 19 22 15
260.303332862315 255.215799309383 3162.38430406848 22 25 18
285.923969758496 253.880881133834 3145.79577567116 14 17 10
289.561144414785 253.341836789158 3156.982572746 14 17 10
345.843695702267 249.15884693625 3169.01383252829 133 114 100
354.0864405713 248.561232154991 3170.19791787495 140 117 103
359.922619696738 247.987301128183 3176.88104279547 143 117 100
365.77949960178 247.411756913416 3183.57230431623 142 116 99
372.445699339853 246.827780826828 3188.43344411162 132 109 95
381.473123363318 246.223741704664 3187.77767290644 131 109 96
390.091179625688 245.624325508151 3188.03492469281 140 126 113
-2.34822861514727 268.35220773506 3040.83463104972 26 28 23
-20.3351570260615 268.277713269179 3086.41787301647 24 25 19
-0.912331208854367 267.440476690273 3069.47399596813 25 26 20
11.2052885126073 266.754043012958 3064.67549250465 26 27 21
25.8341747569524 266.021537881573 3055.49983436154 33 34 28
31.7484173813614 265.459768860489 3061.13515185953 39 40 34
43.7511500368317 264.782514248248 3056.29031908727 20 23 16
39.0943864255044 264.416236852073 3080.30080074503 21 24 17
44.0785332956659 263.867041259383 3087.71756448671 20 23 16
49.5877357208019 263.306848554729 3094.26793749445 17 20 13
70.9877744506253 262.466108314711 3072.73009135782 19 22 15
115.436756207957 261.236382635104 3009.81996373766 21 24 17
133.98288307976 260.468980739077 2992.52058815869 24 27 20
142.158823039205 259.88110388927 2993.67780808561 26 29 22
125.549838429347 259.697443122742 3039.81979720306 32 35 28
153.171957462241 258.332161969242 3021.88426862425 23 26 19
185.77174625616 257.368862810101 2977.90978964714 25 28 21
184.806309267799 256.924357129309 2995.86354206735 29 32 25
192.444907144367 256.348631646278 2997.88165479791 28 31 24
192.078840458413 255.887255979397 3014.99915051462 31 34 27
193.199011715864 255.399880840533 3029.48192887576 31 34 27
197.179389801659 254.869405360783 3038.64974812898 29 32 25
217.865086990067 254.116347120595 3015.74319740516 23 26 19
223.669041510061 253.563772002132 3021.33404756892 22 25 18
219.871911405606 253.129664108945 3045.69336011732 20 23 16
224.850491433971 252.581363301439 3053.10760587534 18 21 14
245.253542263849 251.850842438716 3030.08644281272 23 26 19
254.701868102778 251.254294023786 3028.52222685498 23 26 19
243.973673694624 250.880072871998 3067.33670576032 24 27 20
244.581222275569 250.372335462257 3083.76995467894 25 28 21
253.235189867741 249.777628283378 3084.04171101571 24 27 20
247.787805289882 249.321487363545 3113.12705492014 21 24 17
242.488132966912 248.853647404662 3142.27255237399 20 23 16
273.862773144979 247.528652791111 3113.98842645012 18 21 14
283.905277267855 246.395234795104 3129.93081760307 18 21 14
269.631625485999 245.965614677116 3179.17810428476 14 17 10
282.232735469309 245.333680900973 3171.3382678578 16 17 12
313.250354604311 244.588463608732 3123.48510214396 25 27 22
344.871748812323 241.132255911793 3169.75994562156 127 108 94
351.508647850736 240.544903110964 3174.609504592 131 108 94
357.356818237498 239.958900691842 3181.29731896074 134 108 91
361.240077011124 239.375664561339 3192.58408871602 135 109 92
368.325768062259 238.783439058198 3196.53633196226 135 112 98
376.20072946923 238.189885635255 3198.65053897214 127 105 92
385.239253814489 237.595938772261 3197.99918571217 135 119 106
-21.6844641166256 260.595046475362 3071.90424586756 26 28 23
3.4739953919114 259.732568021756 3045.41495918004 23 24 18
0.580843688901211 259.293288444194 3065.82457836329 23 24 18
7.55207283023274 258.705579409841 3069.7306997847 23 24 18
20.1536133183782 258.038368733123 3064.04917856875 29 30 24
28.1274697720397 257.437941872607 3066.20322235586 32 33 27
28.5040160367631 256.939589113051 3081.46406079385 19 22 15
27.4416805886393 256.455279419951 3099.37862419 20 23 16
45.5108119600081 255.721593634437 3084.0434772342 20 23 16
62.4776142447681 255.008631335973 3070.41997868867 18 21 14
70.9158491565207 254.404882271118 3071.68326306728 18 21 14
106.492198536251 253.484057118052 3024.59841790546 20 23 16
103.479377033677 253.021117892472 3046.03857111028 24 27 20
116.243630647925 251.873058133907 3055.53091890711 33 36 29
129.894619523344 251.223117801948 3047.03749935997 29 32 25
157.909059581719 250.435133996059 3011.99422660611 22 25 18
178.052484851203 249.737551653225 2991.02556683856 23 26 19
194.729210062304 249.081369826641 2976.20512238696 29 32 25
191.425194412939 248.608340147586 2998.60651499397 29 32 25
195.766761994628 248.062905699468 3006.84162533461 30 33 26
196.861585730413 247.541392935103 3021.31439941739 29 32 25
199.886223375781 247.000338054837 3032.25319982782 27 30 23
210.832104607081 246.398397960619 3028.0586926681 20 23 16
223.58118842526 245.786974758298 3020.27861433582 21 24 17
217.944273717676 245.298891029692 3048.20891003205 23 26 19
226.574316349155 244.713872690002 3048.47090588268 22 25 18
236.549342329083 244.122342017392 3046.04084368401 27 30 23
251.000269052461 243.509589722818 3034.63434978223 27 30 23
257.754713679219 242.939950702733 3038.4523024945 25 28 21
254.714404175075 242.41295633424 3062.03968503576 23 26 19
257.106731365097 241.855602744167 3074.8804644678 22 25 18
272.327665207851 241.248691767574 3061.62782321403 20 23 16
233.599220836635 240.815571998102 3159.23331922104 20 23 16
299.269138398801 239.511292921623 3059.60267755538 14 17 10
316.70420516955 238.361561049057 3059.11855598332 19 22 15
289.466941189006 237.818198587849 3135.48438924433 14 17 10
277.856921376006 237.236945989314 3179.33794769175 19 20 15
287.481975818279 236.640302792253 3177.84503138752 24 26 21
341.065177339664 233.091437600856 3176.91087579081 126 104 91
349.733791799896 232.504194548899 3177.18850596482 121 95 82
356.388442878661 231.90985723956 3182.04504832498 119 91 77
358.683349021774 231.294207537017 3197.00444081954 122 95 78
365.386675765236 230.696084920157 3201.88097753024 113 91 77
373.27702606822 230.103987244426 3204.00140436112 102 83 69
378.824563225641 229.497504987464 3211.64645783643 132 118 107
-5.39751377616082 251.762780783748 3059.14557310096 20 23 16
5.95303858894058 250.605778528652 3071.30227269847 22 23 17
20.0959285540609 249.951634939101 3063.00805228326 25 26 20
22.977839921428 249.39612449404 3073.88917340236 25 26 20
20.3360664620149 248.881460202051 3094.40114525422 18 21 14
18.3004301303893 248.354838956487 3114.07982022943 19 22 15
44.438125920784 247.61633497705 3084.74965526413 19 22 15
74.8795561752495 246.861630203484 3047.45211977369 19 22 15
84.2450447448937 246.261616581889 3046.93294077364 18 21 14
111.761238958604 245.015085120045 3030.03268926432 24 27 20
118.599315191421 243.891716453703 3050.07185199941 32 35 28
155.936800166885 243.168428958537 2998.30428295999 27 30 23
147.254530914772 242.663587180167 3030.3959611036 21 24 17
171.763649219291 242.018726140669 3001.48449498739 20 23 16
165.147271624741 241.494587694395 3030.09703728946 29 32 25
183.776108669626 240.882738762005 3011.75116328217 28 31 24
197.57437827275 240.292835442272 3002.23811345248 28 31 24
201.464872725203 239.730193430786 3011.36978327178 28 31 24
205.857694142352 239.163863982452 3019.62606153288 26 29 22
209.355135484614 238.596348981304 3029.67743200696 20 23 16
219.346232274842 238.019593064102 3027.25376477712 20 23 16
220.59935375476 237.449527300266 3041.79100051547 24 27 20
220.551744281004 236.874282244985 3059.03830040412 23 26 19
225.118890736242 236.294324414938 3067.36526493969 26 29 22
245.042540157409 235.72476892775 3045.2278409334 24 27 20
247.345033667288 235.143895381074 3058.03216839198 22 25 18
254.160854448001 234.566374950161 3061.87503161387 20 23 16
264.527570346975 233.996284246585 3058.52459124079 19 22 15
266.047474322978 233.405350798081 3073.17000349642 18 21 14
250.987348934344 232.756587598048 3122.10051362167 18 21 14
266.674003301085 232.198249561139 3107.95726300133 16 19 12
283.996984057031 231.654699133522 3090.16094747732 15 18 11
298.621133046961 231.108478402371 3077.74527761168 22 25 18
269.759749885914 229.711470006987 3176.11650127683 15 18 11
339.281145977276 225.026923495357 3179.4863425844 133 109 97
347.957900454307 224.44717628312 3179.76721177722 125 99 86
354.619710060872 223.846647259372 3184.62669950616 121 92 78
356.12467974817 223.185480351905 3201.42447083774 122 93 77
361.260529052527 222.561571118952 3209.98203227458 107 85 72
366.819542497494 221.940281673348 3217.63184465201 101 83 71
383.710061039234 221.468069293093 3198.58107936958 137 125 113
-9.08245510143879 243.68242399271 3064.18817663424 20 23 16
-5.72737388324818 243.102890181316 3074.18199760019 20 23 16
21.5739290718566 241.865328087329 3059.35228644146 25 26 20
35.1357481713974 241.25369237831 3051.9012804875 15 16 10
29.8938214032105 240.695426197623 3076.75535431405 16 19 12
20.7468456129531 240.135944810051 3108.65929022021 17 20 13
68.4430754718415 239.460147718973 3041.66545381985 19 22 15
77.8105061166399 238.870458050452 3041.14724012609 19 22 15
84.180013599918 238.285372722804 3045.88825973353 17 20 13
91.5487485305848 237.698823172876 3048.87625427927 16 19 12
103.341671253717 237.111261899892 3043.94553387162 23 26 19
112.156598717396 236.526711553502 3044.28264196254 26 29 22
120.551554819315 235.351645005255 3061.71588454512 21 24 17
157.28925010577 234.80728552787 3010.78291682028 17 20 13
172.652507002336 234.247846836535 2998.66660670743 18 21 14
170.309129943999 233.654472422317 3019.29999375303 21 24 17
171.857953060037 233.063441227255 3032.87805053488 18 21 14
189.960438395594 232.520172235479 3015.39734876911 20 23 16
203.729443039811 231.970795661266 3005.87214258284 25 28 21
203.910629853098 231.371736052194 3022.13345283444 27 30 23
206.023213520895 230.775041821296 3034.86100705752 22 25 18
210.036697048388 230.183138718367 3044.04269607459 21 24 17
221.42309118233 229.628565090919 3038.94738230544 23 26 19
225.468822309322 229.034211679303 3048.14214672016 21 24 17
234.992565522492 228.471978858388 3046.60794939448 20 23 16
229.610835488386 227.80896369645 3074.64289349286 18 21 14
232.891611346048 227.197663001803 3085.68567767156 18 21 14
247.365352013408 226.670673513777 3074.2880281422 18 21 14
258.212254415268 226.120372339946 3070.05279651895 18 21 14
257.999373083252 225.475279636678 3088.31251657056 18 21 14
256.120305398405 224.806854256352 3110.2135334336 18 21 14
266.984627686404 224.255344793888 3105.98536415755 17 20 13
273.910215087614 223.666335284608 3109.87301541842 19 22 15
285.578962186918 223.128931621796 3103.81257162792 24 27 20
272.366548877781 222.309760532488 3150.25581729531 20 23 16
251.737777371309 221.37894182532 3213.11691095125 15 18 11
255.135044247232 220.720053760768 3225.28628758863 12 14 9
268.255297917511 220.184396400515 3216.57711087663 22 24 19
307.224430503928 220.009454286588 3151.44023611005 91 96 89
337.090819650374 216.939386190492 3182.97628607324 139 112 103
346.18095486317 216.373874099105 3182.34561416071 121 93 82
353.250109787498 215.774298659411 3186.29121775667 118 89 75
357.143234096933 215.115613076645 3197.5825538839 123 95 81
362.267710367244 214.475990887303 3206.13562955962 111 93 81
367.030310728786 213.826246008288 3215.62106910976 111 97 86
379.239733306753 213.324743209987 3207.62165259123 135 125 115
8.95726840974942 236.179496280549 3017.60493768118 29 31 26
-11.4680961913767 234.963781281551 3082.70816507758 19 22 15
5.84020239085614 234.378607261684 3069.22196736745 19 20 14
6.16307633874702 233.767422095888 3084.46167227627 23 24 18
34.570685712761 233.217617559072 3051.7334019506 15 16 10
52.1296378394551 232.654424691535 3037.26946010685 16 19 12
54.9650091571074 232.052191592729 3048.13209163394 16 19 12
61.8611767036195 231.460874521382 3052.00759126784 19 22 15
79.2470591789056 230.91163274235 3037.47346900078 20 23 16
74.6787416005534 230.272439733708 3061.52208768427 17 20 13
90.9878178557118 229.725503468592 3048.70957300573 16 19 12
95.4078345675953 229.12267428099 3056.97713910741 23 26 19
103.772277809098 228.540033178095 3058.210385768 25 28 21
152.887402588588 226.968464682324 3017.69103561677 15 18 11
146.24078831263 226.286269885871 3046.29279055097 16 19 12
148.794662935332 225.665278047038 3058.12039638662 17 20 13
175.570275528875 225.246217712782 3024.73060832753 10 13 6
185.640722507562 224.695244908002 3022.33887399885 14 17 10
193.337413565182 224.124453157552 3024.38072807778 22 25 18
199.631136312392 223.540119287469 3029.09105728571 27 30 23
196.659984865236 222.858067783595 3051.62880858256 23 26 19
203.026423480145 222.268060757796 3056.36888015858 21 24 17
212.156416728789 221.708728746949 3055.75404241301 23 26 19
228.566139767316 221.23819362881 3040.82408351859 20 23 16
219.470264022754 220.459262569253 3075.98705449731 17 20 13
223.640472125773 219.8355376546 3085.23244138728 17 20 13
231.435666844576 219.25742358853 3087.31423440314 17 20 13
241.456993230942 218.710988845323 3084.90257709674 19 22 15
249.231030633231 218.134696738035 3086.97578985482 19 22 15
248.621999383949 217.432306180787 3106.15435405211 19 22 15
255.558590603374 216.839290350225 3110.04649104797 19 22 15
267.732150107095 216.330613933892 3103.11141634178 17 20 13
285.917879185583 215.92807660758 3083.50573638434 21 24 17
274.249046477831 215.020584114588 3126.25888934612 25 28 21
277.366588708806 214.356017389506 3138.31505049574 20 23 16
252.434293640758 213.168199756494 3210.22447899256 15 18 11
258.361374663971 212.530749057858 3216.94463368386 10 12 7
263.888534442144 211.88343855154 3224.58200319597 14 16 11
335.304516135026 208.839597402468 3185.55110026064 136 109 100
343.597149759354 208.264961964929 3186.75521103434 115 87 76
350.278269338179 207.651655990976 3191.62287130683 113 85 73
356.969937116665 207.037601909048 3196.49455091468 123 95 83
362.090635609383 206.381665005385 3205.04622065605 105 89 76
368.420405256633 205.754817071871 3210.85053261384 108 96 84
391.156097490668 205.575663595863 3177.98080723064 132 124 113
-10.7418622638489 227.458348272264 3064.71807662427 22 25 18
-11.007195778356 226.810362646928 3080.7989647989 23 26 19
6.10262907750259 225.623681080988 3083.42011680105 23 26 19
43.9639239436536 224.610381046437 3050.20760024188 14 17 10
57.9335713029054 224.075878925904 3041.84232827104 12 15 8
58.7885168324587 223.428048084404 3056.21893482117 16 19 12
60.2096648215722 222.779710700488 3069.74598843891 17 20 13
81.0712593005989 222.319979325886 3049.06605023321 15 18 11
84.4950607583019 221.690398816088 3059.08833210502 16 19 12
97.3052579188198 221.159485903947 3052.41119603019 23 26 19
128.164827277334 220.838908838031 3013.12205524933 25 28 21
169.491706766569 220.664541685472 2954.33436634122 20 23 16
141.704000054878 219.670769357526 3020.77044102044 16 19 12
138.848642462773 218.962644515472 3042.27646591566 15 18 11
163.892870807105 218.6156170923 3012.50059642914 14 17 10
165.395373069547 217.96137382468 3026.06037735524 12 15 8
179.286543456769 217.478443154483 3016.5841315725 11 14 7
187.159226396366 216.227963606288 3034.88554642521 14 17 10
192.549787640671 215.620620558812 3041.38823984463 20 23 16
195.177570893383 214.966162312328 3053.24628165467 19 22 15
196.011195631333 214.276542285477 3068.6933804611 19 22 15
202.882673609484 213.68507795074 3072.55888457961 18 21 14
215.693221181075 213.199636847369 3064.80273757643 18 21 14
221.635973807306 212.593218625448 3070.45019422784 18 21 14
225.338112534287 211.942639529308 3080.58533205507 21 24 17
233.120857733308 211.367971785546 3082.66180099968 23 26 19
242.684276183596 210.829694882579 3081.14374354415 25 28 21
246.898556551562 210.183110747687 3090.40714824916 24 27 20
248.501968011478 209.477340259724 3105.0872425279 21 24 17
260.260960185772 208.987102768174 3099.06323804986 21 24 17
277.639408796737 208.628315467525 3081.28798061393 22 25 18
283.195340196758 208.008793246154 3087.85772355468 23 26 19
270.237402048596 206.948982632785 3133.32702025362 23 26 19
259.232545285388 205.911865546785 3175.27118675524 18 21 14
272.300680423083 205.451373866291 3166.54033788264 14 17 10
259.897589711431 204.347724960657 3212.23436344037 13 16 9
331.894527500331 200.674730328308 3191.78447890211 104 79 72
339.802039817325 200.091636620188 3193.91178626347 99 72 63
346.503078030928 199.471138990449 3198.78730873456 110 83 72
353.214492904295 198.849903487588 3203.66729546123 108 84 72
357.958762020463 198.162812532092 3213.14559589285 83 73 61
365.096712879458 197.552320742044 3217.11913721917 98 92 80
-21.7072277364803 219.227778585433 3081.91836939573 21 26 19
-7.44118721628495 218.704553594044 3073.67301944203 24 27 20
-7.65263227015667 218.010552351215 3089.7760754591 25 28 21
-15.4703874455973 217.21316636266 3118.98332498691 21 24 17
-5.80544278205331 216.631018677552 3118.58551544907 18 21 14
-8.83875666723744 215.878208595967 3140.01956857517 16 19 12
45.2611179843319 215.918196780443 3062.66637057905 14 17 10
48.1825418389112 215.25867618967 3073.56427839333 15 18 11
60.6431458440513 214.737890022845 3067.82458313428 16 19 12
77.0309365555324 214.282670033306 3055.0435014246 15 18 11
88.8781154104075 213.763606233832 3050.13422974881 17 20 13
96.2528162554286 213.1752502614 3053.12465354327 22 25 18
123.697806837635 212.927228762863 3020.0043382435 24 27 20
130.4840845851 212.33859393401 3023.83558117082 18 21 14
128.072567190857 211.58415291274 3044.44259951728 14 17 10
128.654727870332 210.875063460204 3059.78802987778 13 16 9
159.509085189645 210.734127197406 3019.41635178084 13 16 9
165.79768500532 210.138148908909 3024.1249522381 11 14 7
173.04613708348 209.560370734635 3027.06417862288 10 13 6
175.814995729898 208.156940116435 3055.16791169918 11 14 7
193.397385157485 207.796691989466 3038.55430490019 18 21 14
201.585848138064 207.238939971618 3039.71610974524 16 19 12
191.760810822734 206.271719412694 3075.66408368722 16 19 12
195.89755049761 205.611235007126 3084.89619807425 16 19 12
213.768162785808 205.275662743734 3067.32003826688 17 20 13
222.442146883673 204.726859940261 3067.59955120259 19 22 15
228.844128993327 204.122645786411 3072.35412177443 22 25 18
227.624475932411 203.321654995216 3092.36526225148 23 26 19
242.127613431011 202.923602714954 3080.97828075576 24 27 20
252.999035054132 202.436561771299 3076.75275452305 23 26 19
255.003295990584 201.710095472578 3090.51624141859 21 24 17
257.946704610001 201.003486675173 3102.50221576784 22 25 18
262.686800482433 200.343034064149 3110.89981642779 23 26 19
270.494330393285 199.769363649252 3112.98657019401 23 26 19
273.553951212902 199.05380162548 3125.01966590426 22 25 18
271.091826943715 198.163380270547 3148.84390623558 17 20 13
259.797664266385 196.983523604135 3191.75082488911 14 17 10
275.839236594195 196.652872927095 3176.67074408964 15 16 10
292.622162031106 196.357838250841 3159.73268844809 14 17 10
324.227447458066 193.186924022995 3187.65807980343 88 74 65
328.481977846831 192.471775829048 3198.01710929748 91 68 60
335.197349767053 191.844413590789 3202.89874464342 91 67 57
341.923299006805 191.21632335348 3207.78441096272 97 75 62
347.066622808108 190.525261239727 3216.34550777104 96 77 63
351.449203989702 189.800336008143 3226.75671545934 69 61 50
18.7996686821452 211.74098365575 3013.14405638023 22 27 20
-10.8005462611218 209.791558232796 3093.95810302525 17 22 15
-12.9749635612881 209.012047001639 3113.58250340494 22 25 18
-18.6213074326089 208.158866679031 3139.35387511876 20 23 16
25.0799043095808 208.228681420392 3080.44687757246 18 21 14
44.1912180951294 207.855483447126 3063.37335421947 16 19 12
42.5925555011621 207.080415426726 3082.15177455955 16 19 12
62.0772800171294 206.727701528216 3064.15047916335 15 18 11
86.4147058739617 206.488946960304 3037.32403409978 16 19 12
77.4340111510765 205.551496560355 3069.29816093622 20 23 16
79.4498829793429 204.839070129162 3081.98769166452 20 23 16
118.248664648437 204.949939626662 3028.64733789923 19 22 15
129.444381676862 204.457275192377 3024.55315920716 15 18 11
113.946623277043 203.338605632006 3068.99428955662 13 16 9
136.77310252995 203.120695417682 3043.71378841772 11 14 7
144.09265872234 202.53668603668 3046.68185158634 11 14 7
149.028151367104 201.892447533073 3054.07963597561 11 14 7
147.821568145517 201.086965863998 3073.01703700785 10 13 6
149.909677628723 199.568085813029 3103.00414537751 12 15 8
183.974758466586 199.706658967156 3055.29911109422 18 21 14
211.250848693137 199.685469616081 3019.9510736223 13 16 9
203.210215332718 198.674107789333 3052.30638488454 12 15 8
186.151518459599 197.38027692708 3102.59019327389 13 16 9
211.842237848254 197.335513138696 3069.83711070638 16 19 12
220.069972719333 196.780143670054 3071.01505562962 20 23 16
225.578290493913 196.141223075154 3077.56566718455 18 21 14
224.819319539711 195.30098776632 3096.68456668136 18 21 14
239.338091626889 194.945430478087 3085.30359341952 16 19 12
257.77339431205 194.728387303546 3065.79755805528 17 20 13
254.004383079115 193.777903462059 3091.25072064166 18 21 14
249.045666499335 192.772140749434 3119.45953782904 18 21 14
252.523099688381 192.045345565309 3130.5830798137 21 24 17
259.95260312236 191.454269113258 3133.59571340934 21 24 17
273.854234569135 191.098419711725 3123.0436746243 19 22 15
279.960324963541 190.462827596674 3128.75748671304 17 20 13
280.113314144332 189.600931143583 3147.16698846108 16 19 12
279.415872346398 187.807277610294 3186.81692541226 20 21 15
318.753282287318 184.88190240201 3198.45104824059 62 49 40
324.254700814915 184.19537460781 3206.07829255875 84 66 56
330.588926397087 183.542716491163 3211.88460432723 93 75 65
337.339766004992 182.907035282979 3216.78040611806 79 65 52
343.70254981007 182.252338712244 3222.59829635995 88 76 62
350.872578834738 181.633516677342 3226.58514627622 44 40 28
-18.3695296811144 203.75295267426 3058.57268681099 27 32 26
-6.72631622668374 203.245053203648 3054.65981173444 23 28 21
-7.25316018546618 201.698247881593 3086.82478004513 15 20 13
-12.5272039531314 200.796164851192 3111.66845596372 22 25 18
6.30054568758287 200.455282497593 3095.55868269373 20 23 16
39.2301832751809 200.46928571881 3054.9472883581 18 21 14
38.0711131797513 199.661958730073 3072.82513296273 17 20 13
53.5820153488664 199.268870489617 3061.84615062889 18 21 14
86.012709008036 199.323016808158 3021.03243315155 16 19 12
79.8878695230683 198.383563193729 3047.68952744688 17 20 13
64.9918439486921 197.192559324987 3090.2172271493 22 25 18
83.3154945028294 196.892557270794 3073.90303786273 19 22 15
107.407484374223 196.76671013068 3046.97661892347 17 20 13
123.043827892441 196.417017383902 3034.96928983531 14 17 10
125.020632134233 195.677280526055 3047.64295215318 13 16 9
126.089593058066 194.90433626008 3062.10716034854 12 15 8
137.300293824412 194.432330799838 3058.01863465005 13 16 9
143.69922598903 193.81573058571 3062.77206420367 13 16 9
145.36247185744 193.048498229179 3076.39804273205 11 14 7
146.143277864908 192.246066154231 3091.82461069262 8 11 4
155.918929746698 191.730357315938 3090.39205676621 10 13 6
167.538559068724 191.279050142971 3085.39039554364 15 18 11
185.153082268446 191.036695434458 3068.78864865522 12 15 8
204.043241040751 190.851227050863 3049.46628474896 11 14 7
208.103512043302 190.157619937563 3058.66794579901 11 14 7
200.776161324915 189.051269360795 3090.23371477739 13 16 9
214.515693452807 188.695615975801 3080.69510700874 17 20 13
225.473715533473 188.244842298347 3076.50436979284 15 18 11
208.531428218939 186.743108954462 3127.91569557673 14 17 10
222.695109615523 186.406801863852 3117.4696108377 14 17 10
251.000914027919 186.633628556256 3078.22112766311 15 18 11
254.330565222105 185.893346235283 3089.28493599202 17 20 13
244.529802365541 184.615157093346 3127.40296906112 16 19 12
250.648397104819 183.969749835319 3133.12191846677 22 25 18
259.822078237675 183.450686470462 3132.52446441119 21 24 17
280.198184027621 183.412124727508 3108.40833848757 17 20 13
279.826698127004 182.492055805726 3127.68499028576 15 18 11
241.198587403733 178.918354136329 3248.0114298026 13 16 9
270.834387493283 179.304194567315 3203.90569202076 19 20 14
318.805418258706 175.808700038943 3216.88195469766 93 76 66
324.765629916351 175.124668668717 3223.61613404387 86 69 59
331.950109130536 174.50162124505 3227.60860954043 73 61 47
340.73449251569 173.962430448526 3227.9327495104 98 91 75
-44.8068908768444 195.769941039197 3085.69000979688 26 31 25
-40.3757191521787 195.080419465338 3093.962749589 20 25 19
-21.3421937016784 194.782711102258 3077.93596624202 22 27 20
-11.2219471341313 194.251037774418 3076.64331449984 22 27 20
5.57380845196565 193.909698309799 3064.02629447279 22 25 18
-4.38595236583672 192.81182017939 3096.68402851344 19 22 15
22.0571135756633 192.75735329667 3067.47232094797 17 20 13
32.0664153314105 192.234895823055 3066.13467858246 16 19 12
39.0204626853958 191.622677903002 3070.03377176381 17 20 13
65.0834619517782 191.598898335575 3040.66794528802 21 24 17
76.4557039943357 191.134799210389 3036.64476658194 19 22 15
73.3568290258306 190.212833520889 3058.053813869 20 23 16
112.945698538232 190.667201014474 3003.95194931922 24 27 20
113.220849546403 189.030126493405 3035.36351579266 15 18 11
123.952196506634 188.562060155315 3032.15993864065 13 16 9
118.15903801156 187.521832109675 3058.95209206577 14 17 10
124.565563684851 186.898538527579 3063.7083896847 13 16 9
127.143543252083 186.135912317027 3075.54708621839 9 12 5
148.870089960979 186.069999798082 3051.97769435711 9 12 5
176.144218947177 186.228850378688 3017.70656350919 10 13 6
190.925738000481 185.938740529086 3006.43147856199 7 10 3
179.019064636426 182.883930277104 3079.3135506615 14 17 10
193.322054165642 182.576807909394 3068.92364958792 13 16 9
201.114194352787 182.010730420416 3071.00411461154 13 16 9
211.645172250104 181.559906325977 3067.71927875151 13 16 9
213.95834001953 180.763886013348 3080.52955889612 15 18 11
215.423861397896 179.924397073459 3095.15483600544 13 16 9
212.910103214085 178.902037331944 3117.88036204349 12 15 8
216.320091264445 178.130095250913 3128.9766809431 15 18 11
238.889414885941 178.220781916663 3101.43210394068 18 21 14
249.354407009929 177.775910536612 3098.12050578774 19 22 15
245.283797313083 176.655822368578 3124.53190421356 17 20 13
256.199884174547 176.230815008484 3120.32373519577 17 20 13
282.230424260713 175.602227132437 3102.81701176663 17 20 13
296.864832219926 175.381350699032 3090.40302966401 16 19 12
247.402538766735 171.933681557097 3213.89425860658 15 18 11
241.380682330044 168.583074035831 3285.92461186711 14 15 7
306.973403216301 168.029714095941 3221.86026304872 75 65 55
314.977304404153 167.449347360061 3224.0265769125 85 68 58
322.572623688021 166.846127406723 3227.1064402175 68 51 41
329.76692772978 166.219439799463 3231.10292130886 89 79 67
-47.2271220842715 186.665837882908 3104.19891463138 23 25 20
-29.200381899896 186.391680364895 3089.92218605472 22 25 18
17.2190553973091 187.061504057785 3027.7957411073 20 23 16
2.94553640450546 185.747012562702 3067.33948644134 18 21 14
-1.88086341949267 184.729093320487 3091.28648009039 19 22 15
-1.47991137911996 183.877687523469 3106.55961907356 20 21 15
34.5491780761284 184.268421950017 3060.72695204578 16 19 12
40.4769057718111 183.618141623738 3066.36865767186 19 22 15
49.94122310249 183.094248106988 3065.88917399512 19 22 15
64.3903837109969 182.756313168607 3056.63749825207 18 21 14
91.7137305051119 182.90854700393 3024.54396178643 21 24 17
132.209428161056 183.5855900316 2968.64996143203 18 20 15
109.724800001407 180.999381031664 3040.48222423153 13 15 10
118.033928606565 180.451593272107 3041.69281020823 14 16 11
114.689275578402 179.433120785272 3064.08188333575 11 13 8
120.145090409499 178.763039695463 3070.61147300823 11 13 8
139.546203539103 178.672840885181 3051.49526879026 13 16 9
154.045777986296 178.390247813858 3041.18503486085 7 10 3
170.370841140938 178.195574501338 3027.29751496429 6 9 2
203.139776495472 178.731654968667 2982.30160642768 9 12 5
199.445316510448 177.683363783507 3005.62807935328 13 16 9
169.221865134508 175.425223321167 3079.71875863672 16 19 12
173.345803983753 174.687102693823 3088.94627852138 13 16 9
182.592711745357 174.182324548986 3088.37862235837 12 15 8
190.052178862758 172.652862972145 3108.67271716812 11 14 7
210.217568033985 172.678012318821 3086.62840694993 12 15 8
226.171360159644 172.514046772271 3072.59032928296 15 18 11
223.140142817647 171.413753572567 3096.18573862522 16 19 12
229.17066006096 170.757810131354 3101.86910593705 20 23 16
239.219317300536 170.306674951413 3099.46779235512 20 23 16
248.796109327065 169.834937785268 3097.95464541296 15 18 11
235.928134904219 168.177695982781 3142.38583078363 14 17 10
237.717653888657 167.277045258827 3157.14275582191 16 19 12
263.908114585197 167.69786488055 3121.3518043236 17 20 13
281.673150270294 167.682199520003 3102.65140711924 15 18 11
294.592741896138 167.411267795191 3093.85923444298 15 18 11
269.877094917843 165.007651818612 3164.7865322692 15 18 11
268.884230015622 163.921196217886 3185.97046955665 11 14 7
299.030235526991 159.368848689162 3238.12986756641 50 47 40
311.552952376784 159.072490312221 3230.25574674407 57 53 44
322.398648369844 158.676628675249 3226.01911327139 73 69 60
-18.8369788777647 178.608610444429 3071.52073382349 21 24 17
11.4784926906957 178.874894135459 3036.32233325103 18 21 14
10.1147668956774 177.941895582313 3054.11826676646 17 20 13
-17.3343129873842 175.974090243057 3116.38334215827 18 21 14
-11.756443704513 175.281601283944 3122.96277788717 19 20 14
18.7417373158383 175.594937964255 3086.75893306082 16 19 12
42.946554187371 175.677342000766 3060.95542663223 19 22 15
37.8068836418743 174.557152395213 3085.85516250654 19 22 15
36.298890734688 173.575009497865 3104.67186393268 18 21 14
63.2706900073832 173.803665118918 3073.51421724894 21 24 17
130.677880766024 175.817056472703 2970.24634837657 17 19 14
108.245956420415 173.938227049911 3025.91143777608 14 16 11
89.0613730517995 172.16698401096 3076.41691655572 12 14 9
95.5226225898644 171.527214796797 3081.19575358783 13 15 10
117.042290108199 171.580526078198 3058.62075949143 11 13 8
125.862024575416 171.058395091841 3058.9590835558 11 13 8
133.706986076872 170.491935923672 3061.06093844905 12 15 8
148.714992710839 170.270766452915 3049.87703417221 10 13 6
165.068876594601 170.125665497184 3036.0008078401 7 10 3
176.600271235821 169.754363444069 3030.96255737575 8 11 4
170.689395925141 168.513673485539 3058.78763291135 13 16 9
168.195121383472 167.428272116794 3080.44246020671 16 19 12
174.180670669519 166.766454250328 3086.10766483721 13 16 9
181.107657105177 166.151889636395 3089.99581903141 12 15 8
191.260993183353 165.707803048684 3087.63709297106 10 13 6
193.149254712882 164.823258686024 3101.35481071574 11 14 7
207.384398379818 164.603810426325 3090.93703201305 13 16 9
217.472162499138 164.165365244741 3088.55145634343 16 19 12
231.129844033963 163.931138702403 3078.97878746616 17 20 13
238.006358793912 163.321394786149 3082.84646949623 19 22 15
247.113021017817 162.839406788475 3082.22185616376 19 22 15
249.122803566374 161.945974272518 3095.9888442794 15 18 11
243.277666759425 160.579345694078 3125.99910773746 14 17 10
261.197840425629 160.616860876647 3107.361378937 17 20 13
271.171851478286 160.188459275098 3104.92966932757 18 21 14
260.370582673343 158.484346422904 3145.88251465634 17 20 13
283.726223777748 158.883056717736 3115.41729564985 14 17 10
231.796180769034 153.434212762672 3263.81771463688 16 19 12
287.252564385463 155.91665295775 3164.33847280943 22 25 18
-43.1442168178311 170.391585871991 3095.18655537845 20 22 17
-5.67077919782744 170.139349079605 3063.96910302478 17 20 13
-20.9907819080761 167.587325617942 3121.43979645465 17 20 13
6.05726054656563 167.852011375978 3091.39181236741 18 19 13
19.1898586254873 167.503187536267 3084.84383395882 18 21 14
40.8666898701344 167.558247163683 3063.41152646167 21 24 17
66.4295703284881 167.814265231917 3034.91989277106 21 24 17
37.2302306959076 165.479621034344 3101.87363607718 20 23 16
51.2480669497855 165.188340686665 3093.52603189424 21 24 17
83.1017261528004 163.852028719135 3085.93458402567 11 13 8
80.3162112706843 162.730772069427 3107.4720191667 12 14 9
94.633406276901 162.480144228514 3098.16650694713 11 13 8
138.91598804015 162.838242481877 3050.28131278746 8 11 4
146.726639907768 162.27699725398 3052.36923643237 9 12 5
150.254289512542 161.482872483392 3062.43455565857 10 13 6
153.823280536894 160.685534143761 3072.51689531772 11 14 7
162.137893969043 160.148333050588 3073.72962181803 13 16 9
166.700415663287 159.399717229138 3082.05599220218 14 17 10
196.422383718056 160.092554863355 3042.2983060651 14 17 10
205.076082450681 159.592582352524 3042.56923547958 14 17 10
201.288196117731 158.361055535167 3066.93833498374 15 18 11
193.503255088787 156.873792341006 3099.4007814653 16 19 12
202.273653294422 156.364902718225 3099.71902926035 17 20 13
214.19841988293 156.051566933216 3093.76080480353 19 22 15
227.423759549974 155.826197906092 3085.09182476746 19 22 15
240.584026415847 155.606178747371 3076.39645666386 17 20 13
242.552594237223 154.682581811534 3090.14698586602 16 19 12
250.335578068704 154.125486337647 3092.22367546476 16 19 12
249.754277887762 153.022448200944 3111.41676180148 16 19 12
263.263825434754 152.839012189907 3101.78347231523 18 21 14
268.004487408048 152.078038571057 3110.18206410726 19 22 15
276.667769370214 151.579040305891 3110.45686631909 13 16 9
276.719388469331 150.489978666075 3128.82704588816 12 15 8
255.860655251827 145.6433202272 3230.46463332578 15 18 11
-24.9063324472534 161.128413460298 3095.08898664227 17 20 13
-20.9441668468406 160.341884150999 3104.25137260718 17 20 13
3.44339130170845 159.586669755326 3094.7116140324 19 20 14
36.9288477965433 160.307712436312 3053.24084230514 19 22 15
36.7622701237993 159.318239837177 3069.36430439984 23 26 19
76.5980503299919 158.460540026731 3047.73891669723 21 24 17
72.5703951075729 157.246728625814 3070.93173582576 19 22 15
62.2465948584388 155.669435959644 3105.60358022007 12 14 9
57.9958964411254 154.406932743996 3129.78552517703 11 13 8
66.5636691645624 153.853627009469 3131.10087615277 12 14 9
67.8358637208241 152.883377140237 3145.64886773127 11 13 8
85.6051949306875 152.861767840845 3130.18719369124 11 13 8
150.953965317645 154.637258831929 3043.34990461506 10 13 6
162.540612671883 154.310154765423 3038.33369057476 11 14 7
139.071785101042 151.850688127553 3098.97764420694 12 15 8
159.697915035925 152.068321152721 3077.11842569168 12 15 8
202.38977745669 152.655640924529 3029.66648845351 13 16 9
203.137615232881 151.66190718342 3045.08115782487 16 19 12
197.971268660724 150.274153683951 3072.12973711282 19 22 15
193.400522184936 148.905621904317 3098.34051682877 19 22 15
196.704048467382 148.04145369062 3109.39468638697 18 21 14
215.451399380938 148.210235207502 3090.011815471 20 23 16
222.814671501905 147.622030038158 3092.99761071287 19 22 15
223.909629482738 146.601431792982 3108.55328745234 16 19 12
217.06181120849 145.015604880563 3140.3168500259 15 18 11
233.398524545263 145.044264816409 3125.35354625716 17 20 13
245.672881438666 144.797646750053 3118.45755459689 17 20 13
247.826150656393 143.826474222184 3132.28348592475 18 21 14
262.224312953272 143.743838658293 3120.85160993953 18 21 14
277.839802305162 143.764074156985 3106.67515967831 12 15 8
268.416772948492 141.918339101692 3144.9504362134 12 15 8
260.902301405373 140.186998580448 3179.68186020336 15 18 11
255.265745066826 138.572469521783 3210.85752080594 12 15 6
-48.6911560638212 152.704051795891 3117.8890934774 19 22 15
-12.7404882358169 152.599695025914 3089.29064317083 17 20 13
21.6158588476161 151.440000970734 3078.39568740968 19 22 15
34.1741831279414 151.127271812618 3072.69398138354 23 26 19
49.2014296890329 150.964462018502 3062.59649023664 22 25 18
97.4808016485504 151.751365703039 3009.85295461945 19 22 15
87.8830706603451 150.155399894935 3042.6613045731 17 20 13
38.9746831362363 146.147439256919 3145.88189765532 14 16 11
53.494329079762 145.956425737747 3136.65790452818 9 11 6
63.5479661914746 145.497696300563 3135.33773019361 10 12 7
66.7740995617379 144.612810782049 3146.36046371399 8 10 5
177.625614954384 143.169998287676 3075.81369186104 10 13 6
195.176898340477 143.293910828056 3059.18356341342 11 14 7
196.955485731693 142.31793282774 3072.85782514374 15 18 11
192.382111930939 140.877758330629 3099.06808410666 16 19 12
203.431334999951 140.549784879281 3094.91308550716 18 21 14
216.706120525815 140.391280727112 3086.26361893211 17 20 13
220.905489795916 139.569624395582 3095.52231323858 17 20 13
226.037067229416 138.812475190302 3103.00034680438 16 19 12
238.321979305625 138.594684747588 3096.10841035745 16 19 12
232.392420394926 136.98615090687 3126.08632547869 18 21 14
224.85417776932 135.228635064675 3159.72951498385 19 22 15
232.375776743466 134.628334276279 3162.77950733033 21 24 17
253.392648867603 135.1019385423 3137.84013294166 14 17 10
256.076543778197 134.124901712463 3150.80188993972 12 15 8
230.851275585567 130.865711262459 3222.60839613162 15 18 11
246.216134794997 130.888980053725 3209.40950987666 16 19 12
-76.9086422497969 142.806552788664 3163.72025767707 19 22 15
-17.95815603489 144.147898972471 3096.95215365976 17 20 13
-0.619833509112766 144.129162339571 3083.47356176451 18 21 14
8.95250876797671 143.648782666301 3083.03748680152 19 20 14
25.6304496325168 143.610982533016 3070.37072090809 19 22 15
27.533996868464 142.661310263586 3083.01631323558 22 25 18
21.4327799750591 141.196787264142 3109.68695203395 22 25 18
71.1157721277436 143.28480764769 3039.16110285236 20 23 16
38.8914014485267 137.911860633854 3144.83179278635 13 15 10
118.264707438783 136.605208223847 3101.45741530905 9 12 5
128.475632528354 135.063521400428 3116.39228534331 10 13 6
167.285109465846 134.483617724095 3094.34924908648 9 12 5
182.113366515951 134.452251889746 3083.09112681455 8 11 4
189.027063865467 133.826503046202 3086.97424235171 11 14 7
194.113671078959 133.058262071937 3094.43389463951 14 17 10
198.770620179632 132.252304202353 3102.7989326498 17 20 13
210.257527584688 131.983403935543 3097.74189344053 16 19 12
220.347575057269 131.609776887892 3095.35675098071 16 19 12
219.203577529574 130.329582005168 3115.40215608449 16 19 12
222.613067195607 129.407479066041 3126.49966859673 17 20 13
234.488025461516 129.180438554631 3120.52062300769 18 21 14
221.200431889846 126.850256235923 3165.86581640171 19 22 15
217.350592705835 125.28177332524 3192.37000195674 22 25 18
213.197818398783 123.665538908248 3219.83070130969 13 16 9
225.202403611867 123.428885833906 3213.90421361542 11 14 7
227.257012295853 122.327485808939 3228.76999322324 16 19 12
227.238661823443 121.031041086183 3248.19247988483 17 20 13
251.983222369672 121.942180473757 3215.04880158144 11 14 5
257.498275667484 121.142230709157 3222.68242622925 17 20 11
-2.51216205911886 136.992053519103 3069.81499925629 14 17 10
14.885459739282 134.839060193527 3087.66434549862 15 18 11
23.9291274966369 134.336808976985 3088.09318788524 15 18 11
42.5356478849652 134.493859796202 3071.89006625783 14 17 10
44.9838387411037 133.545112586314 3083.67736578018 13 16 9
115.523642160511 129.529857959121 3088.53328810584 8 11 4
121.530757237997 128.822433399961 3094.20757025908 9 12 5
124.22054313634 127.855815309889 3106.0928253618 12 15 8
151.899756182301 127.662520223131 3088.17153041022 12 15 8
174.308113722733 128.267551182061 3062.71549707724 13 16 9
167.657089905622 126.549486577126 3092.40238360012 12 15 8
171.8211056405 125.690655971211 3101.64704528107 10 13 6
188.469451185762 125.857411143099 3086.80887246537 9 12 5
174.756265548602 123.505332243415 3130.90310446867 10 13 6
187.267273152358 123.328707823345 3124.10214324806 11 14 7
206.524939195244 123.737070459325 3103.84527121592 14 17 10
213.47726416779 123.105870177499 3107.74406812488 15 18 11
224.470938985073 122.826292921647 3103.56621160114 16 19 12
216.25388272654 120.860099597186 3138.01520135543 16 19 12
229.493437522106 120.776058256947 3129.35090569903 16 19 12
255.890764479695 121.888625853807 3093.63846962574 16 19 12
232.550847506524 118.508937739812 3159.73589121871 15 18 11
219.151805837524 115.983512939239 3206.11650532104 12 15 8
234.152281864213 116.059246936657 3193.84823613728 11 14 7
231.842191249477 114.521345323947 3217.7389415439 14 17 10
238.728952652316 111.127535785598 3261.55086285009 12 18 8
6.9894179043184 131.812772234573 3021.9147300448 13 16 9
26.0323693986164 127.547615990434 3067.4185296614 13 16 9
31.4710674278484 126.797617949048 3073.94179461056 13 16 9
36.9312888730928 126.046079032036 3080.47378591807 12 15 8
34.3856570538961 124.691800195914 3101.03104888947 11 14 7
58.8938103870154 120.616115989256 3140.1149971062 7 9 4
116.232207630607 122.784524249752 3069.45147633019 7 9 4
112.826582462313 120.098988069985 3109.09045735832 10 13 6
126.03834704027 119.972439280813 3101.49429720417 12 15 8
139.664441216836 119.890694838505 3092.98649119958 12 15 8
140.970521139185 118.77405854421 3107.54931229236 12 15 8
160.627506474127 119.220527629019 3087.453832981 13 16 9
156.839360200668 117.656903321322 3111.82508721897 13 16 9
174.970308514752 117.992680760037 3094.34924697961 12 15 8
183.299852251907 117.480660086138 3095.56808502066 10 13 6
188.868166285411 116.723441392915 3102.14388530385 10 13 6
211.86250636652 116.281644000367 3092.03738974474 14 17 10
230.05890883287 116.690892257459 3073.50868639654 13 16 9
232.883484931327 115.687592387773 3085.44879513591 14 17 10
225.946935768782 113.75551327608 3117.17931292415 14 17 10
212.077590121159 111.1347717963 3163.36996951952 15 18 11
251.807957641486 113.630356919681 3100.67894503897 16 19 12
219.881231346977 107.869989624608 3203.23666118923 12 15 8
248.311019934118 109.327232026099 3162.94998674456 11 14 7
276.928824451047 110.847323320486 3121.66015409929 14 17 10
-72.2944237642771 114.348175840221 3201.40746984579 10 13 6
-42.9210112539407 115.372086412808 3167.97950990473 12 13 7
8.65819805812973 118.1596082215 3096.05825009704 12 15 8
20.7695963164996 117.910182449401 3091.25391520637 12 15 8
30.8191477999449 117.504056324716 3089.93143068449 12 15 8
24.7840101022085 115.810296579438 3116.63081926045 11 14 7
56.8384024283926 117.184166319631 3076.73354503433 10 13 6
50.8866619534125 115.484013799038 3103.46649178493 9 12 5
36.6693477189624 113.077417788753 3145.19914539598 11 13 8
40.8716166773182 112.174340828792 3154.45963091188 9 11 6
55.3847593546433 112.13621183713 3145.23184583521 9 11 6
71.7751327400571 112.269962911952 3132.44734559183 10 12 7
83.5746080741209 110.756664652125 3144.78851155117 7 10 3
100.283160496841 110.94605086809 3131.05335268062 8 11 4
109.747492315315 110.508166543348 3130.57322294365 10 13 6
184.154149627356 110.902656989471 3075.46494537246 13 16 9
206.273369418664 111.706785853195 3049.89033310188 14 17 10
209.875897430792 110.773609283947 3059.98728126694 15 18 11
224.493733485456 105.658071290112 3118.80991428656 11 14 7
198.640495191018 101.690933020765 3189.28871773346 13 16 9
205.372044179316 100.991693526371 3194.17744786986 16 19 12
212.553119237196 100.337144809014 3198.16878381883 14 17 10
235.438803501502 101.323427567515 3169.66644525913 12 15 8
252.078058458162 101.683029584929 3153.74432185848 12 15 8
285.851749810618 103.890894695078 3101.59038879081 14 17 10
273.248879216987 99.7517820636531 3165.56755744531 17 22 16
-65.6710738571296 110.180351939578 3140.46649781172 15 18 11
-24.5030422718793 109.781341927344 3119.37705252688 12 15 8
-42.9923397539909 107.01203885872 3166.93493101092 14 15 9
23.2465054774507 110.022329599184 3085.84322266909 12 15 8
36.8139091177517 109.930464179698 3078.39053813909 12 15 8
16.6823538772556 106.960108682092 3129.60074902049 12 15 8
79.7562468971076 111.145291625251 3035.35075006525 11 14 7
67.2189430343544 108.815729427189 3073.44781152548 10 13 6
23.2371141419843 103.676480888601 3167.88285509616 12 14 9
41.7707127999416 104.020231064874 3151.64905007216 10 12 7
62.1521096275828 104.549242241438 3131.84625420444 10 12 7
78.5078773181824 104.734861487007 3119.04709198684 10 12 7
100.101995285385 105.416976857922 3096.49747618708 9 11 6
139.861011620519 107.808280948302 3040.29220514434 6 9 2
175.696322561764 106.095392010588 3039.7103094263 10 13 6
162.326212913708 103.501090225573 3081.78741294136 11 14 7
206.342360559105 105.218599801154 3031.62642123763 13 16 9
203.416493904178 103.620100922892 3054.18945444784 15 18 11
211.161789004128 103.082233554445 3056.25048117538 15 18 11
198.94498366053 99.1470718668474 3114.98812108317 12 15 8
228.50296925311 100.859410291318 3074.07750392541 11 14 7
230.876851132271 99.7533649909549 3086.91497391511 11 14 7
229.289626274601 98.2154069424154 3107.86168132552 12 15 8
233.131098730249 97.2420542622079 3118.05542370331 15 18 11
211.857366820111 93.5344230228371 3179.5976167917 16 19 12
210.221397632654 91.9178147093779 3201.60399225867 14 17 10
225.270790784027 92.129035664291 3189.35475954508 12 15 8
253.246755179008 93.8030447817934 3149.96175723189 12 15 8
269.342649868483 94.1806587507393 3134.89830271954 14 17 10
295.625727978533 95.7408221384287 3098.05715007186 17 20 13
252.215744261993 87.8151486688671 3228.34834827565 19 24 18
256.927733810521 86.8574607894689 3237.81562998953 13 18 12
-26.1545975808379 100.141520241134 3137.12244125342 15 16 10
-0.123956550762028 101.147333772582 3108.81451726499 12 15 8
26.2333986394214 102.213241554257 3079.55961388796 13 16 9
2.43012794364539 98.7832757333894 3136.83882832659 13 16 9
35.1957721502829 100.454316412868 3096.14847433862 12 15 8
60.7136703035811 101.502158339816 3067.63262582184 11 14 7
79.0897217078785 101.918306702659 3051.33422504398 11 14 7
56.296306296906 98.4938478763349 3107.94347286059 11 13 8
49.5618539409461 96.5353705184311 3136.51907942474 10 12 7
66.9671996787173 96.8577623865553 3121.98623094958 10 12 7
78.427243307343 96.6244983010673 3117.99711004463 10 12 7
70.4514009903503 90.3707702096566 3201.12597436081 10 13 6
167.402390741364 96.1026958598508 3070.95207262923 11 14 7
161.686777038548 94.1503383653685 3098.86160245483 10 13 6
172.829776362174 93.9443599896493 3094.74390573475 12 15 8
