ply
format ascii 1.0
comment KinectMotionCapture
element vertex 790
property float x
property float y
property float z
property uchar red
property uchar green
property uchar blue
end_header
-122.611954815898 28.2318718016539 2716.68698900388 12 15 8
-129.982438141504 25.8872240707001 2738.53489210577 11 14 7
-112.804471658403 26.6555342836333 2727.14302386919 10 13 6
-107.876901528392 25.8653703180032 2732.38083305013 10 13 6
-87.7888237785449 27.0357744141099 2716.77015980546 8 11 4
-67.2069141997784 28.2938050568236 2700.27970602054 8 11 4
-75.5759082344405 25.7746548999306 2723.88225816565 10 13 6
-46.7269161765238 28.1489448790974 2695.62628375457 11 14 7
-58.5730912268796 25.1459909337907 2724.29798031217 11 14 7
-56.6183828653932 23.9588134138912 2733.72966321241 12 15 8
-45.7615948945811 23.9639788582051 2730.57328927053 13 16 9
-21.410109003493 25.8101709502015 2708.05248071482 14 17 10
-7.75074930216646 26.2264394703465 2700.63317702686 14 17 10
1.1838331329963 26.0049379201354 2699.93691538865 15 18 11
17.648041771597 26.8320937952653 2688.25586284116 16 19 12
4.54190678927247 23.5481214302748 2719.6562222328 16 19 12
3.12050199523717 21.8691680068562 2734.19777440725 14 17 10
-3.96062553846854 19.3728162685168 2757.24279364131 13 16 9
21.03454000587 21.4230580124046 2732.82344349741 11 14 5
24.8501833060197 20.4683038971016 2739.76990520401 12 15 6
28.6919590132291 19.5114739461961 2746.72722069823 13 16 7
46.0738982112228 20.5203148104228 2733.2585001278 13 16 7
53.2712605770243 20.057490213914 2735.09736118918 14 17 8
60.464868866186 19.5951477881408 2736.93444137022 14 17 8
67.6544022052204 19.1332423512625 2738.77012554705 17 20 11
72.075120455126 18.2576843293036 2744.88216939338 16 19 10
81.4713684105188 18.1276973503877 2743.29333106041 15 18 9
50.2936197467589 11.841051419221 2805.16049583716 15 18 9
53.8282400920607 10.78225862986 2813.07302729153 15 18 9
47.6214189170603 8.21553137954573 2836.47258041414 15 18 9
84.2296129268643 12.2628203570686 2791.92548118168 12 15 8
75.3783776371073 9.27245949946417 2819.65209592848 11 14 7
59.7145805999084 5.1748362605929 2858.65428012114 24 27 20
58.117971587035 3.25608619107715 2875.28458445302 28 31 24
-203.043598670036 22.1227947392046 2728.40131097506 12 18 8
-205.0810860165 20.4561291828993 2742.69332254243 17 23 13
-229.134131603355 16.0138114567401 2785.85354347517 16 22 12
-232.199312894148 14.1693611279486 2801.88867010602 12 18 8
-144.55860602546 22.4233505544826 2710.00258843522 12 15 8
-142.167485949781 21.3092802924779 2718.53135184909 12 15 8
-133.55558287204 20.993860316593 2718.78395964059 12 15 8
-133.581902469681 19.554280044279 2730.65213313127 12 15 8
-121.282160556258 19.721665059542 2725.92089794238 11 14 7
-116.96942237745 18.842407995163 2731.98924945931 10 13 6
-98.0323924010345 19.9052693533659 2718.07095654309 8 11 4
-93.737945535662 19.0274315874153 2724.13189127867 8 11 4
-89.4226568113143 18.1479072580196 2730.2015347458 9 12 5
-71.8652124921666 19.0620943886741 2717.88340055061 9 12 5
-71.7519425595989 17.610922128563 2729.80792349242 11 14 7
-62.6435823810099 17.3854856623576 2729.18205305912 12 15 8
-66.0159737052706 15.4347729472376 2746.1724061034 13 16 9
-55.1203046002442 15.4555080562223 2743.03165684398 14 17 10
-51.907832716352 14.4046941994928 2750.8136921865 16 19 12
-18.1982325181329 17.6596139043854 2714.80902373259 16 19 12
-14.4707220718714 16.6975504873776 2721.72011369901 15 18 11
-3.46681961179507 15.2679606956184 2730.50184168402 13 16 9
8.38599463441625 15.472339018994 2725.58936824426 13 16 9
-26.2441787223098 8.88575105066319 2789.2976258148 12 15 8
33.6714951325352 16.1445335308303 2713.16567914924 12 15 6
35.1551681488023 14.8433064152567 2723.48605855116 13 16 7
32.1587394296654 12.8623232648119 2740.62912286356 15 18 9
41.6408987244139 12.7379984228993 2739.0747692803 16 19 10
63.4353002383532 14.483978535927 2718.7560565808 16 19 10
73.3721977594017 14.4534804968549 2716.30630396437 15 18 9
76.0557482211377 13.3161817473673 2724.95364643903 16 19 10
70.4776867010895 10.8929076302492 2746.44907627675 15 18 9
61.30187599737 6.27718531065177 2787.00306193115 15 18 9
54.4150745064116 3.56892685544538 2811.20743397069 16 19 10
60.1471751572169 2.83680653091245 2815.6917437713 25 28 21
86.1734139774442 3.71340621801691 2801.40855153536 19 22 15
69.3776312897609 -0.668772652714811 2842.11217588472 20 22 17
-211.92627658045 12.1822440588258 2750.77332020113 7 13 3
-247.325484686132 6.13069111802916 2808.7718476774 14 20 10
-223.288330785901 7.76524938699086 2789.3617968785 16 22 12
-174.963723837988 12.6192204865778 2737.6848146959 15 18 11
-162.520367331014 12.7992218780571 2733.01188963812 14 17 10
-145.772790605912 13.5615843850584 2722.52487008428 12 15 8
-151.377619006028 11.3464372637004 2741.85001114232 12 15 8
-143.325177524283 10.9509570346732 2742.95551186854 12 15 8
-128.531438239392 11.4725409270945 2734.91590404616 11 14 7
-95.4670514142866 14.5045867783462 2701.88836424037 10 13 6
-98.5283777695767 12.6151483934321 2717.92539270455 8 11 4
-107.570085575621 9.87976894952577 2742.33627213021 8 11 4
-102.596530017414 9.06853691065829 2747.59286017605 9 12 5
-91.5956748513278 9.09928958872239 2744.49462407841 9 12 5
-63.8674849631078 11.5000197059229 2717.94226067315 12 15 8
-58.3702816802092 10.779426391401 2722.33137481915 12 15 8
-54.6426903282662 9.80313526590382 2729.24234815931 14 17 10
-69.8040866702685 6.09952451414242 2763.05066638956 15 18 11
-52.4065008126309 7.07584165610545 2750.66733570532 17 20 13
-1.69241816294075 12.9373337144167 2690.24015363099 17 20 13
-25.4658128670238 7.93546347632765 2736.75452614066 15 18 11
-25.1540892844921 6.43760408426855 2748.75975543756 14 17 10
-5.11594124971437 7.86582981743661 2732.0478464167 12 15 8
-18.601393597063 4.29220087981327 2764.37588377766 12 15 8
0.780104939919424 5.64083346670469 2748.47751345687 12 15 8
9.77413176518116 5.43584276536113 2747.80519528409 13 16 7
44.3305784845562 9.14857149880693 2708.90325727311 15 18 9
46.9478676671125 7.99667684015995 2717.52388165746 16 19 10
28.190510902248 3.51927191718227 2758.51306569313 17 20 11
65.7538087659117 7.78770804475187 2714.35100502128 17 20 11
73.4453099595929 7.42282152370277 2715.3103889121 16 19 10
76.6807374757237 6.3542884919246 2723.10185313428 16 19 10
63.8995904938586 2.72366865220103 2755.71523350568 15 18 9
57.9061183966239 0.140298423756846 2778.12248816685 14 17 8
129.729777493152 6.94444060069893 2704.65757304585 11 14 7
84.0584282406398 -3.8784176032802 2803.8461771533 26 29 22
61.9042115838835 -9.27868845943258 2853.17703668456 15 17 12
-207.236300307219 6.86468250744557 2732.2139232351 11 17 7
-237.792357472473 1.32334917149055 2783.53804689636 26 32 22
-198.597290795128 5.06095152034058 2744.35644847896 5 11 1
-194.886536140847 2.56999722636417 2763.14000397681 16 19 12
-173.629232336475 3.96045121809957 2746.92200880441 15 18 11
-156.83614448996 4.76242608654437 2736.45311613087 13 16 9
-154.922924551843 2.00916386240091 2757.74753241407 13 16 9
-124.735016492044 4.71257064331274 2728.95211563745 13 16 9
-102.073152570595 6.39679597470738 2710.06390855966 9 12 5
-89.2824073341025 6.70866407718165 2704.45157385799 9 12 5
-109.889472627388 2.25921230611006 2744.69161211479 9 12 5
-104.305220356791 1.52559521291795 2749.11607049697 10 13 6
-94.5005990282486 1.40046961500337 2747.69228558019 11 14 7
-67.9535965977238 3.72072702145865 2722.82015120149 14 17 10
-41.5712164458562 6.05453523937108 2697.88125971497 15 18 11
-37.3236912723374 5.15787940038201 2703.92333882522 16 19 12
-41.3330260426943 3.02910978891005 2721.73621296547 17 20 13
-33.4754192732936 2.65471479067037 2722.76266667428 16 19 12
-30.3170876040206 1.57465596802453 2730.52300269566 15 18 11
-2.0266447347812 4.29784766019514 2702.0382310884 13 16 9
-23.9067237989044 -0.592945165711928 2746.08167011748 13 16 9
0.757880519751675 1.60950848613065 2722.60587526319 10 13 6
13.7435249857081 2.04221587919029 2715.99272980887 9 12 5
18.0697263130061 1.13947611625823 2722.06671045186 12 15 8
31.5559120038376 1.66773680159835 2714.57644096169 14 17 8
38.7275294510443 1.21373651439827 2716.40481120175 15 18 9
51.5566747866523 1.65970979371663 2709.72819980455 15 18 9
67.713510035398 2.65124922108095 2697.92119073626 16 19 10
66.9522790483597 0.938752437528251 2711.65148872239 17 20 11
66.8161006654173 -0.688569367790937 2724.55541234088 17 20 11
76.1948962309071 -0.777452406286488 2722.959196102 15 18 9
67.8355764693042 -3.77589459617564 2748.72717170815 15 18 9
69.5320579277274 -5.14399024967577 2759.13447981511 15 18 9
117.836533995608 -2.01651065815986 2722.56677603033 19 22 15
71.9141820898501 -11.4810290321248 2808.69672846601 18 21 14
76.0195232246408 -12.5003150573176 2815.76123313788 18 21 14
91.9417813980357 -11.4879244500115 2803.85934465106 18 20 15
-242.75508989266 -5.34541121002163 2777.26372922251 32 38 28
-207.872099451624 -2.08864008367898 2743.89201765952 15 21 11
-157.009007589496 1.94133508065342 2700.8012671874 9 15 5
-165.320227755777 -0.718182531993738 2723.34946736687 18 21 14
-183.495673885219 -4.79438946625674 2759.17666676194 16 19 12
-138.069923692296 0.101280841730889 2710.64138893869 12 15 8
-144.955174553744 -2.39727179942034 2731.60786042096 11 14 7
-133.849341551614 -2.33750614237496 2728.55190919623 13 16 9
-137.514822454686 -4.40478433579688 2745.4244758774 14 17 10
-103.178843296349 -0.964269188474726 2710.75108244163 9 12 5
-90.9927442483631 -0.714953616626657 2705.97321304896 8 11 4
-90.981244374619 -2.24928115852802 2717.85716030805 8 11 4
-101.182022102694 -5.31098135966832 2743.95908745522 9 12 5
-88.9855707151457 -5.06254576038298 2739.18541632157 10 13 6
-85.8182942155061 -6.16025979030385 2746.94950786317 15 18 11
-37.2872302268428 -0.405859397317021 2691.03380386753 16 19 12
-12.8653664622338 1.76146849124043 2668.53879946674 17 20 13
-40.6420510442145 -4.03227289341373 2719.91163369795 17 20 13
-25.1328190960738 -3.22065689173928 2710.00165191711 15 18 11
-14.3895504798108 -3.13103019200953 2706.79867459813 15 18 11
-13.6072111140872 -4.58943179759752 2717.91534567467 12 15 8
2.92460478434875 -3.58328281805567 2706.26031010962 11 14 7
-0.889547058973372 -5.77757889305805 2724.15270910938 9 12 5
16.13793527639 -4.67274070019699 2711.61855197189 9 12 5
25.6154540297018 -4.75722117881222 2710.06227468337 13 16 9
42.4968341564509 -3.640150044674 2697.46886907252 15 18 9
30.8462161642609 -7.1392838303814 2727.30257157783 15 18 9
34.6487604690229 -8.14924944952244 2734.24414808198 16 19 10
51.4451962492593 -7.02494565112061 2721.6165515109 16 19 10
64.7844383887211 -6.45168783828767 2714.06644455004 17 20 11
72.4764611699491 -6.80645374627242 2715.02596291648 17 20 11
44.5583819894677 -13.144880979305 2770.66116584513 15 18 9
70.1137182989104 -10.5122746959768 2744.30607997802 15 18 9
31.5558003612622 -18.7605141058385 2817.22546952423 14 17 8
84.0386221796765 -13.1896480991871 2761.83238732334 17 20 11
69.7891489368569 -19.1192853506159 2811.13089512841 15 20 13
87.9056168705463 -17.6842616188067 2795.79873341155 24 29 23
74.8223787021864 -21.7599983862265 2830.45104657631 18 23 17
-192.964061024413 -5.84711900872004 2712.19555072017 65 71 61
-218.527917781315 -10.9868055140317 2756.90721427354 4 10 0
-185.711590087097 -7.86604755801185 2725.93618095322 21 27 17
-165.056438228211 -6.44282691287379 2710.5531957243 26 34 23
-184.623742871476 -10.7982132572695 2747.97657384129 19 22 15
-154.663372546271 -8.01078296161065 2720.16745713974 16 19 12
-165.923318649568 -11.2039019247226 2746.92033876425 14 17 10
-131.264767176531 -9.23081290438388 2724.25633652446 12 15 8
-116.518963708236 -8.599776885444 2716.19649021167 13 16 9
-116.518798310487 -10.1635726782553 2728.07607158291 10 13 6
-115.244259220383 -11.548331002874 2738.31266450751 8 11 4
-122.417537568033 -14.2261036843812 2760.2429395066 7 10 3
-108.327550141353 -13.6832449395312 2752.99703441975 8 11 4
-91.8900094184267 -12.7654689722557 2742.38330548961 10 13 6
-74.3336786493194 -11.655761063138 2730.06349565824 15 18 11
-18.6797908013452 -4.59208973394756 2664.07512212522 17 20 13
-31.0753085199662 -9.68218633933513 2705.4869403209 17 20 13
-15.6060076489257 -8.82654970703359 2695.56045706498 15 18 11
-21.9163937474298 -11.433328463583 2716.76076477518 15 18 11
-22.858156389131 -13.2037315946362 2730.41840568542 12 15 8
-21.9887636235283 -14.6970353820709 2741.57058861694 12 15 8
6.14899381848599 -11.7593149377078 2713.02236969057 11 14 7
9.30922026353498 -12.8729088332747 2720.78372707997 12 15 8
18.2413375060289 -13.0412181418289 2720.08580689345 16 19 12
29.4404602315417 -12.8278753330425 2715.98765580161 16 19 10
10.4417184988297 -17.6566480623145 2756.88176804312 16 19 10
9.23258249137748 -19.5465420375269 2771.51086521992 17 20 11
35.7310137034414 -16.7573007130133 2744.45763641478 17 20 11
58.123976111816 -14.6242396898899 2723.2995346771 17 20 11
44.6031078234534 -18.6251430251532 2756.69527914087 17 20 11
52.966209887461 -18.8878844423833 2756.84674987238 15 18 9
67.9961805573992 -19.6994521188936 2759.70174850623 14 17 8
58.2111615296617 -23.1551223171397 2788.13261588281 15 18 9
77.5366335957937 -21.4788800814826 2771.13026950497 17 20 11
89.6770627692496 -21.0575357246123 2765.25379662839 16 21 14
94.1894593784078 -21.9966065638314 2771.40344180385 16 21 14
86.8688562827296 -25.0863194667362 2796.51387010571 20 25 19
65.2001784599334 -30.8297108714057 2844.96485626727 19 24 18
-173.355780541761 -11.8287118308098 2697.52362928552 15 23 12
-168.518702830914 -12.6623963868158 2702.72512860014 16 24 13
-186.955923341029 -16.9364347472636 2738.44783690807 30 38 27
-139.361954049112 -11.4463237426088 2687.54901108214 19 22 15
-135.179849520931 -12.3711514918231 2693.56481537117 20 23 16
-160.829844184481 -17.7889275229699 2739.32251828153 19 22 15
-159.58298709794 -19.1961801847683 2749.5480734596 17 20 13
-120.657758936789 -14.87455977795 2709.17372726774 10 13 6
-117.628596114867 -15.9943576168252 2716.88206494725 8 11 4
-119.46366656234 -17.8718407154661 2731.25763162498 9 12 5
-120.618350997276 -19.6607320167027 2744.82920214226 9 12 5
-123.527591529394 -21.7394859090448 2760.92924404059 8 11 4
-111.850481768929 -21.5445858837441 2757.02476631004 8 11 4
-85.767523732196 -19.0611279293667 2733.04231476587 8 11 4
-50.2544049646809 -15.0376436376904 2695.60417920237 11 14 7
-44.2272666024657 -15.6805297925618 2699.12846317167 17 20 13
-26.9014739743734 -14.5028176471706 2686.7145373973 18 21 14
-25.0528881186038 -15.8151270934002 2696.10420051138 14 17 10
-33.1813170535467 -18.7671368435591 2719.80743672175 14 17 10
-26.513176077188 -19.3179468576002 2722.5114948342 15 18 11
-37.3728401619804 -22.7690232406603 2750.50721120744 12 15 8
-25.9730206819295 -22.551048168271 2746.49028570085 12 15 8
-3.60607608380747 -20.485078030648 2726.40096620983 14 17 10
12.8587516468159 -19.3808736667342 2714.71780714976 16 19 12
10.8630656732276 -21.3897782610019 2730.10840324593 16 19 12
16.9482670868553 -22.0369603481229 2733.65597186956 16 19 10
27.5932573133268 -21.901170977807 2730.41285242513 17 20 11
30.2702551210341 -23.1362523737756 2739.05828294232 18 21 12
43.7030765622048 -22.5058857846691 2731.5458899365 18 21 12
44.7198776940012 -24.0383953559855 2742.75805464214 17 20 11
51.3796595464657 -24.5875567866127 2745.45871570863 16 19 10
37.4449501101866 -28.7980556370159 2779.76729563866 15 18 9
79.6397000221714 -24.7441707333503 2740.71878504303 14 17 8
61.5572005563525 -29.7710355478315 2781.98537878252 15 18 9
68.2979953709204 -30.3261372747803 2784.71888645026 16 19 10
83.7447796519788 -29.2812675600676 2773.70304390771 19 24 17
62.8294825843638 -34.9431090112081 2820.30057696919 20 25 18
52.413389701438 -38.7182743577916 2850.63622220437 13 18 12
-124.495583602012 -14.7954178516012 2655.83282727358 9 17 6
-151.37799310993 -23.6503632068927 2725.93171759334 17 20 13
-139.639322502997 -23.4387912470307 2722.05203904544 15 18 11
-145.219023039242 -25.9316464758954 2741.38945914959 9 12 5
-110.748402584925 -22.1339012677266 2706.76761608933 8 11 4
-127.918587231518 -26.4752770430377 2741.92504051349 9 12 5
-119.289577152751 -26.7453971263511 2742.18423144789 9 12 5
-114.924348623668 -27.6971071001946 2748.27438510972 9 12 5
-108.119872822013 -28.2596153084507 2751.03373289787 8 11 4
-101.314519814865 -28.8222527921567 2753.79343684019 7 10 3
-69.3272792631738 -25.2625500791782 2721.40483400091 9 12 5
-59.0431582456266 -25.2264703993377 2719.09516508162 17 20 13
-30.9523928557101 -22.23095065478 2691.60628944615 18 21 14
-33.8262937944529 -24.3567686409566 2707.72099682891 16 19 12
-35.4397707026577 -26.2913500723488 2722.18671795332 14 17 10
-34.6339888735618 -27.8350265317635 2733.31352707764 15 18 11
-19.1650627025031 -26.8980103508087 2723.38653250009 12 15 8
-9.59004187455359 -26.9507879823106 2721.86923558654 12 15 8
9.23214460143673 -25.4045729126216 2706.82197151643 16 19 12
15.8340231319587 -25.9500135250703 2709.49915973459 17 20 13
20.1392477765481 -26.896371742584 2715.5649776831 14 17 10
34.7600736976201 -26.0366023976896 2706.37398696566 16 19 10
29.951943208804 -28.5928292790995 2726.02429066515 16 19 10
39.4176753127806 -28.6360814163526 2724.46267131953 18 21 12
36.4431219358887 -30.9005170674672 2741.61648406943 18 21 12
52.6582390972314 -29.7289821274169 2729.831965845 16 19 10
56.4834148959514 -30.7827090355099 2736.78329460619 15 18 9
38.6186884577011 -35.8040861007655 2777.05895613881 14 17 8
52.0179316650218 -35.1378780201277 2769.5324386483 14 17 8
55.9771874260806 -36.2022876084314 2776.5381364098 13 16 7
53.9207929272949 -38.3940407315843 2792.98434613886 15 18 9
43.7448242715133 -42.1300419436585 2822.33785375199 16 19 10
50.0532181460367 -42.7972085310791 2825.97594290163 2 7 0
50.9503961038205 -44.4940661802637 2838.21998411369 17 22 15
38.963605727498 -48.6704927630108 2871.15913092311 24 29 23
-189.11378725986 -30.3378171813322 2727.96566692338 23 29 19
-137.577190128264 -23.9159104242214 2672.18301438183 19 22 13
-149.127614407675 -27.3239188208747 2698.81965502394 17 20 13
-151.784726232231 -29.3609084070485 2713.94265734739 14 17 10
-144.409069283038 -29.8201951108554 2715.85368180839 11 14 7
-145.094773453889 -31.5689556476113 2728.53576956766 9 12 5
-129.052904201167 -30.6385379824534 2718.84080560684 8 11 4
-157.96453893693 -36.974815034889 2769.75796159332 8 11 4
-122.837581387012 -34.6134789259324 2746.2018627109 11 13 8
-111.173382878267 -34.3744519823011 2742.29156560928 9 11 6
-108.015071568767 -35.5386440565056 2750.05253109424 8 10 5
-115.063630839687 -38.4167147720198 2772.03482216996 8 10 5
-103.404316562722 -38.177336161882 2768.12280203845 6 9 2
-48.7840870689691 -30.6569564083363 2703.87006210953 17 20 13
-39.7627269952105 -30.8012879877334 2703.20835119614 18 21 14
-21.2852752955193 -29.3201055835694 2689.10080752643 12 15 8
-24.7256975958423 -31.5937186882889 2706.06606280656 12 15 8
-24.5568053774203 -33.2629728911177 2718.01501704675 13 16 9
-4.4530037042716 -31.4647640637308 2701.32688634876 14 17 10
12.043472921218 -30.2709820961456 2689.65586272858 14 17 10
20.3403029270164 -30.5056737331896 2689.78054498927 17 20 13
22.274876018467 -31.8692339053607 2699.20515496694 18 21 14
17.9298382643684 -34.3686098783957 2717.96372258183 15 18 11
30.2723175670936 -33.8843093428244 2712.16858118297 18 21 14
32.3130897950759 -35.256432913789 2721.63625534819 18 21 14
31.5596878289035 -37.1496852616381 2735.37109332739 17 20 13
44.4220949802341 -36.557624309986 2728.70684209941 16 19 12
51.6099080447172 -37.000857446911 2730.54143099175 14 17 10
67.1864583805066 -35.8806748883207 2719.57781618275 13 16 9
53.162246790061 -40.2872018479605 2753.85164316317 13 16 9
53.1877929623557 -42.0937480427621 2766.82214915579 13 16 9
61.55415826038 -42.3329625249825 2766.97502004646 14 17 10
43.787976076618 -49.4371827302075 2821.3319036044 18 21 14
39.205019947204 -52.2160937351561 2842.15387483787 19 22 15
39.0641819368789 -54.1584761381161 2856.13710802303 16 17 11
20.6508129761209 -59.705289001407 2899.43154962183 24 25 20
-167.67605807335 -35.8744441923533 2710.79442195435 16 19 10
-119.501169232729 -29.746857230827 2659.04716630793 16 19 12
-134.156076862316 -33.7438529344585 2689.82584313049 12 15 8
-151.752528083674 -38.2637512369378 2724.81202838526 11 14 7
-150.553013229861 -39.7420030788644 2735.01895318255 9 12 5
-144.98522186399 -40.5091301713104 2739.43674343093 8 11 4
-125.262420633671 -38.9232648977574 2724.75383136776 8 11 4
-133.204682144087 -41.9437717834447 2747.45415649791 9 11 6
-140.415803068955 -44.8716083994941 2769.37100472158 11 13 8
-125.642765113394 -44.1021666123098 2761.32113638208 9 11 6
-123.032605133178 -45.3909515858989 2769.93991179408 8 10 5
-118.579343540529 -46.372625579847 2776.06619376642 8 10 5
-82.309443361706 -41.8655642816496 2737.85200011895 8 11 4
-65.9988728115859 -40.7636606943472 2727.18546622665 12 15 8
-34.89527464214 -37.0549105067926 2695.51650401374 19 22 15
-19.3987145909789 -36.0388778707734 2685.60009927563 16 19 12
-11.0549366178898 -36.2697519043521 2685.74350427331 16 19 12
-13.297852398739 -38.3828054770766 2701.03478818985 16 19 12
-4.93705223712038 -38.6150281467476 2701.18509557357 15 18 11
24.3737843863692 -35.0642749377612 2670.94932797691 15 18 11
34.9352576805793 -34.8654998125429 2667.67191570241 18 21 14
28.720571358354 -37.7223071417914 2688.91260949709 19 22 15
14.5701949303187 -42.0677384530121 2722.05608199527 16 19 12
25.7823651805886 -41.7693517871922 2717.96256914468 18 21 14
29.5484551186282 -42.8467557800741 2724.88989669804 17 20 13
31.6388001316181 -44.2451386982297 2734.37809879856 16 19 12
39.417972711534 -44.5818174964959 2735.37250918023 16 19 12
58.4327505348183 -42.7833364394765 2719.32224650723 14 17 10
50.4716169078605 -46.1078517517972 2744.17510826521 13 16 9
35.9561142244205 -50.7286629011638 2779.33070454228 13 16 9
23.2970935424441 -55.0432085437021 2811.99897418648 13 16 9
29.036640394901 -55.823285964296 2816.48640517664 14 17 10
46.8794674748299 -54.2336015169135 2802.12108407069 17 20 13
42.1905963079299 -57.0618348991687 2822.90054490472 18 21 14
30.5286175286412 -61.3048966872484 2854.89315979247 19 22 15
24.4600028051956 -64.4782426396138 2878.35326973427 20 19 14
-216.626574123989 -47.7777360331372 2750.40374864021 15 18 11
-181.891448372353 -43.7889424124492 2716.96636195271 24 27 20
-159.980236609511 -41.8585216284197 2699.93022854363 7 10 3
-153.880751678234 -42.5191492490395 2703.48368237602 11 14 7
-142.148979848695 -42.2421736404876 2699.60071482011 9 12 5
-148.514128019045 -44.9909489093394 2719.70086067962 8 11 4
-158.494296742644 -48.3765132721488 2744.81550028461 8 11 4
-149.190883359588 -48.5227778674941 2744.26800541314 9 12 5
-111.609610203095 -43.8343713530959 2705.5045947193 10 13 6
-121.451886929571 -47.231548065566 2730.67515383717 10 12 7
-138.479640680793 -51.9058635826726 2765.89277111603 10 12 7
-138.297204926276 -53.6371271372669 2777.84742182564 10 12 7
-121.720695053549 -52.5138578050568 2767.2886601643 9 11 6
-88.3502070461082 -48.4130012708768 2733.29789189888 9 11 6
-73.8028688274579 -47.5896925027121 2725.15623103507 8 11 4
-59.9175090347652 -46.8675875876698 2717.82637225583 11 14 7
-40.1406029339564 -45.0732691009699 2702.0847214836 15 18 11
-11.5847399729905 -41.6657780207477 2673.70222979156 21 24 17
0.854802655636089 -41.135907123007 2667.94604323599 20 23 16
4.43195953740538 -42.2121804717484 2674.79686456107 17 20 13
18.5656432340602 -41.3545145644022 2666.48745748903 17 20 13
26.809802380126 -41.569157218699 2666.59040449874 19 22 15
38.5200640799102 -41.1346444120784 2661.61846818446 20 23 16
31.1284507320557 -44.2666294101934 2684.54284906157 20 23 16
19.8337667049324 -48.1673280236909 2713.44464509405 17 20 13
17.2829060081108 -50.4518911516386 2729.69135243105 16 19 12
25.6427499305929 -50.6756992939409 2729.84120886048 16 19 12
27.7466215847151 -52.0974503888472 2739.33506492674 15 18 11
46.2747719528418 -50.3549120460577 2724.16700241261 15 18 11
51.2003751907473 -51.2301011249364 2729.40465968002 15 18 11
38.225493802676 -55.6150243757478 2761.94557300124 15 18 11
23.7557825601018 -60.3439765968394 2797.12027236217 14 17 10
33.8923759632264 -60.2460863184629 2794.75040204766 14 17 10
58.9130365672903 -57.1684934319804 2769.25452226159 15 18 11
61.2256788629977 -58.6065758171576 2778.83303187088 17 20 13
4.42390613274024 -76.049706926485 2909.16842709065 22 23 15
-175.197457478222 -48.2554714493855 2695.97524408263 23 25 20
-148.214174321105 -45.4096988293783 2672.35458156601 14 16 11
-158.58306061358 -48.8367949121167 2697.31214697557 19 21 16
-163.792982524709 -51.4212723185324 2715.7211741576 10 13 6
-193.296065439092 -58.1851030798385 2766.40209769997 10 13 6
-147.14190080413 -52.006339119079 2717.07295886275 9 12 5
-129.218733358626 -50.6333300736979 2704.89968285646 9 12 5
-131.156047971033 -52.6954904901685 2719.23525139863 10 13 6
-122.561501360896 -52.9312286510498 2719.48022771271 11 14 7
-120.722482041108 -54.3537843813773 2728.86685304081 11 13 8
-129.217860050253 -57.6192684009936 2752.42389021568 10 12 7
-137.58704649652 -60.8952638524588 2776.03235836224 10 12 7
-111.932796792308 -58.0990356741444 2752.95276327653 9 11 6
-99.091959574539 -57.5754043106217 2747.35910535602 9 11 6
-76.6959219369308 -55.3031716144368 2728.35881016037 7 10 3
-59.2116052359233 -53.8941080609048 2716.00757330795 9 12 5
-28.7210341949182 -50.0697765627107 2685.16859004134 13 16 9
-7.32153571930794 -47.8736703120988 2666.84418834785 20 23 16
6.87046976129735 -46.9855963341682 2658.55816486878 20 23 16
11.5943416171866 -47.8534103725545 2663.71408662551 18 21 14
-2.39285362052266 -52.2516197191613 2695.84522193331 17 20 13
11.1842228199228 -51.4712514038111 2688.38984255775 18 21 14
11.9375581883983 -53.121298642443 2699.49622274259 20 23 16
21.9851034374841 -53.0010505634214 2697.09012799424 20 23 16
19.9248512168573 -55.2117546746345 2712.45611125894 17 20 13
19.6590612201837 -57.0946916997776 2725.30949354535 16 19 12
25.7262197376822 -57.7557469643613 2728.84986188285 15 18 11
30.0965786306631 -58.752426491923 2734.9424336497 14 17 10
35.6181719792661 -59.5268677308773 2739.34183131339 14 17 10
31.0242858951311 -62.3209414945819 2759.08068387168 15 18 11
11.9700772309612 -68.0447619779222 2801.03793030628 16 19 12
42.7714939297299 -63.7686634147878 2767.08470032018 15 18 11
41.7200102581132 -65.903128608018 2781.77948359596 15 18 11
50.685438441439 -66.0095840790796 2781.09483916512 15 18 11
98.1327711410833 -58.1904578699042 2720.40894294945 16 19 12
80.6041328809488 -63.7222957612334 2760.82481058895 17 20 13
7.71065207669808 -80.8609166627446 2888.95796870959 18 21 14
8.78545335826053 -82.6942930074688 2901.2747058972 12 13 5
0.737802905823148 -86.4706037581754 2928.25383560402 13 14 8
-184.589684208183 -57.081366625592 2707.3436386968 18 20 15
-167.061451382593 -55.7876447175564 2696.08986557427 13 15 10
-154.662229570748 -55.3610616810867 2691.39694444237 0 2 0
-179.36282103243 -61.3895733970696 2735.3858096914 11 14 7
-203.812062352919 -67.4390153073764 2779.47660348017 10 13 6
-198.103867158514 -68.2350252484851 2783.95171839642 9 12 5
-139.018786543881 -59.5641511331241 2717.18255487612 11 14 7
-129.796490205271 -59.6824396920346 2716.60200423631 13 16 9
-133.519383017775 -62.1198757475896 2733.45413093706 14 17 10
-130.413020695542 -63.3465724674203 2741.19453641265 12 14 9
-143.148906646495 -67.4599696625939 2770.5934775459 10 12 7
-135.051530512299 -67.8083198447782 2771.7168147622 9 11 6
-129.385333376969 -68.6013012388979 2776.17490200579 10 12 7
-119.487200655071 -68.6143431398342 2774.78812962698 9 11 6
-97.6041475160867 -66.3903513990393 2756.65956165902 8 11 4
-63.2883872885872 -61.8047208071252 2720.89023668831 9 12 5
-28.6071148410072 -57.0878823050682 2684.18884514039 11 14 7
1.68840118947355 -53.1382284871244 2653.26993557047 16 19 12
5.21480832709309 -54.2384018827149 2660.10064706545 18 21 14
-2.40305402259033 -57.4838440563575 2682.93402406972 17 20 13
-4.63090002446531 -59.7222465448434 2698.23235974379 16 19 12
1.37818287570357 -60.3820181608209 2701.74920394485 16 19 12
5.07164456813913 -61.4958155203444 2708.64765791356 18 21 14
-5.07725427018757 -65.3388207396652 2735.85506345218 18 21 14
11.9618367661791 -63.8436133277742 2723.32290492992 14 17 10
27.7658862508365 -62.5689657418774 2712.44997488803 15 18 11
31.5136138145367 -63.687002708567 2719.3704328593 13 16 9
36.9911003654801 -64.4636526524543 2723.75173150739 13 16 9
26.0860905827263 -68.5666079265257 2752.81309416245 13 16 9
15.9007861327896 -72.5675232048076 2781.08602161155 16 19 12
52.3694218279016 -67.0286905145784 2738.62898422309 17 20 13
70.724521632809 -65.1571335978051 2723.38987683415 18 21 14
68.431403995586 -67.5504663051424 2739.74176695692 17 20 13
50.1911665636645 -73.3060276223102 2780.95001703033 16 19 12
66.8409560249035 -71.7772513496492 2768.25972138417 15 18 11
47.8798354405157 -81.8300458807038 2838.3385405079 12 15 6
31.0009177243042 -87.5358112594368 2879.0187937236 11 14 7
-193.986866479225 -65.9828446101664 2718.71059974452 9 14 10
-182.752776150304 -65.7638051774735 2715.70537175254 16 21 17
-159.568861225736 -63.4143874340231 2697.02349745672 12 17 11
-159.13142809084 -65.0930852710615 2708.00218822504 13 15 10
-187.426920700294 -71.94630221607 2757.01511777761 12 15 8
-190.511931001896 -74.3188575759982 2773.04621867439 12 15 8
-161.238510442572 -70.8320983303504 2746.03246829151 12 15 8
-134.617631373027 -67.7825886848829 2722.26352665173 14 17 10
-124.164796428622 -67.6637858080681 2720.02154178895 15 18 11
-130.910877218168 -70.7187970967118 2741.04883728048 12 14 9
-131.438877007169 -72.6466536683987 2753.79639315431 10 12 7
-136.771219548141 -75.490385769061 2773.23662631241 9 11 6
-135.34005318165 -77.0879826517509 2783.53824977176 10 12 7
-131.45006215551 -78.2322892737427 2790.51625110313 9 11 6
-122.128238277682 -78.3485104919308 2789.97598279019 7 10 3
-78.1334273046179 -71.8115570631876 2740.84863009159 7 10 3
-36.2359137465953 -65.5935010099297 2694.11119531414 10 13 6
-11.2410097801665 -62.573691320062 2670.76319834188 14 17 10
-4.11905263889323 -63.0003194680513 2672.57099677538 15 18 11
-13.4681304728106 -66.6610360841783 2697.943503424 16 19 12
-7.4552425692771 -67.3241876327325 2701.46191386297 15 18 11
0.312890005722988 -67.639936869628 2702.45169558436 15 18 11
4.00783890859513 -68.7679592182967 2709.3508595356 17 20 13
10.6192086545602 -69.3162738536032 2712.03191246408 17 20 13
35.8785420095309 -67.9607623990609 2699.59219189516 14 17 10
28.7479042802861 -71.3121197718397 2722.62390273736 13 16 9
16.0591754167951 -75.8452474756886 2754.20273517145 13 16 9
30.1199318026775 -74.875103330784 2745.86294779266 13 16 9
40.7385100528639 -74.6051460900579 2742.60811736994 16 19 12
49.0811586362738 -74.8034124443114 2742.75081792841 17 20 13
59.083554532583 -74.6463517535626 2740.32616349687 19 22 15
52.949802281907 -77.9152086618151 2762.68181551816 18 21 14
50.2502275727037 -80.4830355774449 2779.94926480897 16 19 12
63.0478709794522 -79.7358951619404 2773.25761573877 15 18 11
46.2895103932994 -89.5123186860738 2839.91073219031 11 14 5
40.7537706936547 -92.829660865781 2862.50888276938 19 22 15
-173.499494142931 -69.5885196727739 2691.42988094836 10 15 11
-181.349811668632 -72.7785222859039 2713.08991013568 8 13 9
-160.692296314149 -70.8169306843643 2697.70354393778 13 18 12
-150.827790358926 -70.7997271421548 2696.30318429329 13 15 10
-142.865295397869 -71.1260035942268 2697.37174176365 13 16 9
-162.342325386559 -76.5257526911973 2734.83984466132 14 17 10
-146.216384727537 -75.3578947164196 2725.17686365898 14 17 10
-151.808946051259 -78.2348385511862 2744.51198780817 15 18 11
-132.049056523295 -76.3664808232931 2729.84195131863 15 18 11
-128.954851064748 -77.6256591070902 2737.57768076749 12 14 9
-128.884111127882 -79.4692094836351 2749.48795773397 11 13 8
-128.757514382816 -81.3175194729368 2761.42114403017 9 11 6
-120.092752723972 -81.5356275126536 2761.69441628939 9 11 6
-126.525837516217 -84.6772399637857 2782.8488408333 9 11 6
-123.234206753992 -85.9529864139486 2790.66463197357 7 10 3
-30.1649153937358 -71.4585184528733 2684.74609358797 10 13 6
-28.3308290238409 -72.9474179595794 2694.13096724073 14 17 10
-8.73192278130053 -70.8988816869481 2678.31557590978 14 17 10
7.81613111573765 -69.432362958065 2666.66336829178 14 17 10
-6.76613088027733 -74.2364008643746 2699.63544949084 15 18 11
16.7451793701832 -71.3429477663099 2677.84532995063 16 19 12
14.5588888164256 -73.6674325173754 2693.16114361184 17 20 13
21.1224337834859 -74.2120776372935 2695.82280481164 17 20 13
27.6870317258224 -74.7567165183151 2698.4848923064 16 19 12
26.5517873918533 -78.8384623485097 2725.02843982235 15 18 11
29.7732275052376 -80.107685893509 2732.81550459691 16 19 12
20.5810532479249 -84.0219617613861 2759.33227044744 16 19 12
34.0568728183417 -83.1349105964164 2751.83508425441 16 19 12
36.2605929781414 -84.6534894541254 2761.37010220251 16 19 12
43.5287772534643 -85.0886244345779 2763.2371714479 17 20 13
40.7920177612415 -87.7004349241778 2780.49015549309 16 19 12
44.7790517312125 -88.8652819388123 2787.50760451669 15 18 11
56.6680015583267 -90.350086960011 2795.56929229434 18 21 14
44.8957090570128 -95.0511351949842 2827.52045612208 14 17 10
57.7311483137066 -94.2767425658363 2820.84390375987 25 28 21
53.7570193007666 -97.2857972058118 2840.83532106965 15 17 12
-181.987587324461 -76.5520205093234 2690.20376700021 41 45 44
-182.897709353438 -78.5132284995644 2702.79659984964 6 11 7
-167.273026896002 -77.4322592535497 2694.01038690932 17 22 18
-165.6023999014 -78.9287711596729 2703.32913471696 13 18 12
-158.862329447782 -79.4878503837971 2706.06237924441 18 21 14
-154.62608192613 -80.5184730173496 2712.10116477152 16 19 12
-144.756595648288 -80.4885079001894 2710.70246766863 15 18 11
-153.544122775909 -84.0040874723856 2734.14336861423 14 17 10
-159.112732906861 -86.9379528178477 2753.48862188151 13 16 9
-145.481883883358 -86.2016768529069 2747.13415699594 12 15 8
-144.176801894591 -87.8384800392377 2757.38502695555 12 14 9
-118.994648566142 -84.8349615568312 2735.19177755202 11 13 8
-100.047644585467 -83.0119705202927 2721.27176146385 9 11 6
-110.290011053681 -86.9166260101813 2747.36323899554 9 11 6
-97.456792610201 -86.2841908654967 2741.76541435766 9 11 6
-78.6627873425532 -84.4485699308195 2727.78335444144 8 11 4
-63.559455967414 -83.3254880383439 2718.78573093263 10 13 6
-34.7478158414929 -81.3029600819315 2702.38496050574 14 17 10
-17.4836405792049 -79.6799113089714 2689.94296799204 14 17 10
3.221865483783 -77.3236963405322 2672.41516824173 16 19 12
17.9481228626326 -76.169125627312 2663.2646314619 16 19 12
7.51703784029467 -80.2278673954175 2690.35967426107 17 20 13
6.52745835479518 -82.3533778084916 2704.00064608582 19 22 15
6.76112439119536 -84.2407407596509 2715.97722276512 18 21 14
7.05088019472977 -86.1327024521587 2727.97680187821 18 21 14
21.7318151782144 -84.9740274196574 2718.80762604486 20 23 16
39.197635303774 -83.1974083988528 2705.36730594621 21 24 17
46.9068236258636 -83.4975186782151 2706.33310301743 20 23 16
42.7241489907064 -86.3762157747734 2725.16028546162 20 23 16
40.3280481765107 -88.8937634975694 2741.4714199403 19 22 15
41.3783816665079 -90.6783455635141 2752.69907230142 18 21 14
25.7310951347589 -96.1709089904954 2789.56064123395 17 20 13
16.3997481713478 -100.319680084737 2817.10164259334 16 19 12
42.0713337205454 -96.6762347053521 2790.78596333649 15 18 11
49.9486138667189 -96.9893093422343 2791.82017509134 17 20 13
34.7913186435136 -102.52171005594 2828.88043999515 18 21 14
52.5792718808495 -100.600613110645 2814.49038884203 13 18 12
53.4285506229486 -102.537078671189 2826.71659493651 12 17 13
54.3341754327846 -104.478043727093 2838.96590648682 24 29 25
-193.978829809661 -85.9944304581953 2704.84000132998 9 13 12
-184.66508316933 -86.0768061069164 2704.29620606051 6 11 7
-172.83547464638 -85.6779819114659 2700.45167108422 14 19 13
-167.358526011996 -86.4774291224556 2704.83318195732 10 15 9
-165.014747443736 -87.8795456511507 2713.34496044182 17 20 13
-157.625046096356 -88.320398280702 2715.26153165506 16 19 12
-153.98226405996 -89.485497755194 2722.13959741896 15 18 11
-150.935162719356 -90.773910588683 2729.85647633351 14 17 10
-152.188514871795 -92.9131630392942 2743.39075263177 12 15 8
-163.852221578484 -97.121441851563 2771.06665722177 12 15 8
-135.471181694263 -93.4390157057511 2744.76917048285 12 14 9
-110.321175917088 -90.3511167484426 2722.56226518217 10 12 7
-99.3213885402573 -90.0569902128886 2719.46134321562 8 10 5
-104.1178851844 -92.937655813152 2738.04000839018 8 10 5
-100.97003165692 -94.2348879190044 2745.79774800034 8 10 5
-82.7610050627428 -92.4688472487087 2732.65816989917 8 11 4
-71.2321583592541 -92.0462295600476 2728.69193546759 10 13 6
-57.9539096841086 -91.2512031494216 2722.19425988228 12 15 8
-46.5111974822598 -90.8214324170737 2718.19309598203 12 15 8
-19.7375479943627 -87.1782131301961 2692.32389356018 13 16 9
8.04362299178663 -83.2734784805561 2664.70277373904 15 18 11
9.26872167410364 -84.9286567439478 2674.92114107505 15 18 11
5.87083987752268 -87.5803222790738 2691.90674346519 17 20 13
-3.25172615620595 -91.4821536662335 2717.37253349745 18 21 14
-8.18733932197158 -94.5236448976083 2736.97489853411 18 21 14
-1.4998606305785 -95.0790953599098 2739.68682152395 17 20 13
5.76215726465024 -95.5096824286094 2741.55161680027 20 23 16
31.294095085747 -91.9353593542417 2716.25898446411 20 23 16
46.9958281448644 -90.4781189857856 2705.34324322161 20 23 16
47.3353339585461 -92.4042037962691 2717.36296717935 20 23 16
42.0960219146027 -95.5924051372754 2737.9222868541 19 22 15
39.7682647025459 -98.159542135506 2754.26146904713 18 21 14
24.1186104365503 -103.761607119893 2791.12290929277 19 22 15
60.9469344062969 -99.570605587913 2760.68964181927 18 21 14
47.8009518713955 -104.689852802113 2794.24565161506 20 23 16
18.78061868994 -115.736400335232 2866.73220516308 23 25 20
28.4752777427457 -115.676898171713 2865.26275509698 21 25 24
-188.084606394324 -92.1117959449957 2696.48404555458 8 14 10
-190.888353947206 -94.5076900301725 2711.55039650693 12 19 12
-177.132645193639 -93.721321148505 2705.24610675237 8 15 8
-168.483382109776 -93.9133941825328 2705.51290640994 11 18 10
-171.799114395399 -96.4426046368207 2721.45177701002 13 16 9
-166.889987599689 -97.3761149805628 2726.6832051418 13 16 9
-150.733789206461 -96.0885072173486 2717.03182483785 13 16 9
-151.431293166532 -98.1342569750437 2729.71138604324 13 16 9
-150.211257105018 -99.8135477525784 2739.92814355272 13 16 9
-149.561715981551 -101.620831820143 2750.99368999411 13 16 9
-128.601465054862 -99.3302562268531 2734.64859753601 10 12 7
-118.150053707587 -99.1469616984407 2732.40554743969 9 11 6
-124.168663340075 -102.328898389483 2752.64954477442 7 9 4
-134.325804350526 -106.394313847423 2778.77649078141 7 9 4
-110.523656959618 -103.463436393868 2758.18291084604 7 9 4
-98.2872894614972 -102.902694890927 2753.42303426965 6 9 2
-74.1178390967419 -99.8270327897106 2731.89800991263 10 13 6
-62.0203635841958 -99.254719262104 2727.08180924077 11 14 7
-45.8102157619662 -97.7969026761675 2716.37191717265 10 13 6
-27.9056200222689 -95.9539656351109 2703.10875154453 11 14 7
-3.61831893053211 -92.7126846963896 2680.55138062436 11 14 7
2.92961978414419 -93.2571095559291 2683.20672129342 12 15 8
-2.78137098882714 -96.4645785326684 2703.57520763004 14 17 10
2.07732088087309 -97.394511444473 2708.78618790101 16 19 12
5.79449090506157 -98.5801197969344 2715.69452828677 16 19 12
-3.14022183462837 -102.571530102846 2741.23731499957 16 19 12
6.995691280822 -102.361804614403 2738.86632156099 13 16 9
18.2450337799245 -101.893843789668 2734.78631693862 13 16 9
42.5358350831924 -98.4769278187875 2711.15022382027 15 18 11
25.9043696724934 -104.282951683687 2748.69448977313 15 18 11
43.8656683251428 -102.26846979461 2734.37391712031 15 18 11
39.8413253783321 -105.264588386353 2753.26609696828 15 18 11
59.3514465075617 -107.058400818674 2762.25801178607 17 20 13
29.6701931021026 -116.162104626007 2821.51576778332 19 22 15
11.842827299013 -122.568820547562 2862.89612223371 21 24 17
4.04937734610944 -128.930504030486 2902.94424174598 13 17 20
-208.796969199714 -101.483703068451 2710.82530720902 3 9 7
-208.392806847866 -103.296861415373 2721.79154604658 27 33 29
-185.654527529095 -100.734150143116 2704.00668570876 16 23 16
-180.163403598371 -101.545923041561 2708.39377225789 9 16 8
-174.661862045529 -102.358735939011 2712.785341938 8 15 7
-169.778708632538 -103.298407674451 2718.00630033248 14 17 10
-154.227057275732 -102.097808723523 2709.18961085546 13 16 9
-146.234403265224 -102.4057323129 2710.27024040194 13 16 9
-145.710925717702 -104.229987621967 2721.28487323036 13 16 9
-146.993919778981 -106.438264266386 2734.80767091394 13 16 9
-146.361189685006 -108.271773210962 2745.8666094658 13 16 9
-130.938825635516 -107.060871292898 2736.9974943787 11 13 8
-114.974280835027 -105.717067354291 2727.26783171223 10 12 7
-132.40221326411 -113.350940066197 2775.29257873831 7 9 4
-121.290498871248 -113.028535864447 2772.23701811853 8 10 5
-95.1738691162094 -109.501454642656 2748.26028963511 6 9 2
-71.6133110634118 -106.474265570002 2727.56816186949 11 14 7
-58.9301389729877 -105.748258489587 2721.90887527465 11 14 7
-45.7023654414648 -104.889402563053 2715.39053607688 10 13 6
-35.486539315007 -104.670616086231 2713.05183017147 11 14 7
-19.4097452251538 -103.158149258245 2702.28752988628 13 16 9
-9.86414580497263 -103.061641752107 2700.75744613871 12 15 8
-4.43057817020165 -103.869786516666 2705.12145827695 13 16 9
5.08438843714631 -103.7706075118 2703.57869404432 16 19 12
12.2591757291486 -104.189172606518 2705.40807914302 16 19 12
11.9361973245218 -106.299325237692 2718.23977125331 16 19 12
26.9023954428225 -107.009182376313 2721.06817789387 14 17 10
17.0237981151595 -111.352116194206 2748.38907315156 14 17 10
14.0889193252434 -114.135144522526 2765.56288065225 14 17 10
19.6986583480998 -114.957247015962 2769.99832913538 14 17 10
34.862721497384 -113.546077193703 2759.94404649449 13 16 9
45.4815321785904 -113.181542685444 2756.68859331155 13 16 9
56.0661521292403 -112.814030317224 2753.41927397225 12 15 8
40.1955488381007 -120.930613893416 2804.23584765605 17 20 13
27.7972079192776 -126.131251120656 2837.0163810254 19 22 15
-225.983023729708 -112.165619763543 2731.99883083083 4 9 5
-206.973990131214 -110.309402754732 2719.18274362236 15 20 16
-188.6962943767 -108.573421644592 2707.15000516524 15 18 11
-173.045769902532 -107.342399519671 2698.37311811482 8 13 6
-163.783485806566 -107.388717672486 2697.8082127191 14 17 8
-143.212272780533 -105.12066078417 2682.38458039544 17 20 13
-139.048683026203 -106.189845445221 2688.39398236951 16 19 12
-129.245459572339 -106.100747706054 2686.96826493522 15 18 11
-156.153828556335 -113.627713977338 2734.39006435655 15 18 11
-144.393550622609 -113.15908317666 2730.51718602652 14 17 10
-138.223856609037 -113.853099107107 2734.09932009408 14 17 10
-136.962716623914 -115.585679069473 2744.33312420903 11 13 8
-136.87928698567 -117.581976464112 2756.24969692661 10 12 7
-117.243071077179 -115.417821543528 2741.52734380111 8 10 5
-129.870051935241 -120.15472855209 2770.97484864413 8 10 5
-116.956786886784 -119.420744898387 2765.40892182702 9 11 6
-86.0404560186081 -114.758998519815 2734.73597832686 10 13 6
-76.8966552229251 -114.796557111903 2734.12303348572 12 15 8
-57.6276735723655 -112.601991835115 2719.25175930413 13 16 9
-46.7821958534362 -112.238553456462 2716.08783308354 13 16 9
-41.2964987123574 -113.056865730476 2720.47302915716 11 14 7
-29.3186905423151 -112.425935227154 2715.60793172394 10 13 6
-10.9316286497394 -110.33878429866 2701.45919678437 10 13 6
-3.15936628728708 -110.623842347517 2702.4506752232 9 12 5
5.18562991848603 -110.775579675188 2702.59397364002 14 17 10
5.98741421365934 -112.650846228021 2713.72167755364 16 19 12
11.4535596323011 -113.467245385125 2718.09868554566 16 19 12
18.653041779346 -113.885196634504 2719.93806476375 14 17 10
23.5620049768059 -114.835909534256 2725.16955704644 16 19 12
37.5925777249051 -113.651736704506 2716.81592624709 17 20 13
10.7649793123161 -122.089631364408 2769.67188886051 16 19 12
9.61806818712718 -124.525488806434 2784.33031870631 13 16 9
29.3199517896241 -122.004245687494 2767.47397382115 12 15 8
42.1985861959413 -121.085478915031 2760.81381655289 13 16 9
45.0057322481834 -122.583933843482 2769.51393947343 14 17 10
48.4029834594288 -123.950479649551 2777.37318382089 13 16 9
52.3830241731089 -125.184471537408 2784.38832542376 16 19 12
-217.704959872253 -119.782124287539 2732.17160971349 11 13 10
-181.546518069936 -114.344344539255 2697.14191442227 27 30 23
-158.943575034692 -111.634352320177 2679.30114103095 7 10 3
-147.841843949184 -111.27215325265 2676.24123660639 17 20 11
-148.10612792541 -113.269086381789 2688.01702735927 18 21 14
-140.79045187514 -113.693702971969 2689.90350318849 17 20 13
-147.218272653897 -117.013993542478 2709.98260528227 16 19 12
-140.47825637278 -117.574622653289 2712.71583962338 14 17 10
-128.781607377101 -117.07904270945 2708.81699411917 14 17 10
-131.932120205137 -119.754404796418 2724.82386869868 14 17 10
-141.760656723363 -123.893624801513 2750.00561561555 13 15 10
-131.87013632577 -123.798855151975 2748.6149438783 11 13 8
-136.63101846385 -126.891170237769 2767.20963335989 8 10 5
-124.301065424395 -126.265095824809 2762.48715370169 8 10 5
-107.179913560724 -124.56898802691 2751.0655064013 9 11 6
-97.3666546075023 -124.468012847763 2749.64376224196 7 10 3
-68.9953228262479 -120.219757356895 2722.25899055868 12 15 8
-64.6804688389941 -121.313569045337 2728.32982501704 14 17 10
-59.7502702612966 -122.274990575979 2733.56999652351 15 18 11
-35.8635891214782 -118.938747317649 2711.92850577299 12 15 8
-21.5516890907479 -117.743269351458 2703.68869671091 11 14 7
5.01991391277978 -113.712384381454 2677.73474869626 11 14 7
-1.88666028973894 -117.360681484472 2699.78036662806 10 13 6
-0.530804432791188 -119.126045485327 2710.05251179719 13 16 9
17.671580527417 -116.968940166526 2695.82847223857 15 18 11
20.200420668145 -118.464563456276 2704.41588960073 14 17 10
22.1909819023047 -120.099016856049 2713.86547930478 11 14 7
25.3662892459683 -121.464745662305 2721.63485395727 12 15 8
13.7716835383805 -126.374753815997 2751.50167225701 12 15 8
8.57321295454794 -129.797350552657 2772.07956222986 12 15 8
26.6154860899441 -127.626364352021 2757.79058931243 12 15 8
60.7236423719326 -123.670223765589 2731.6520233053 16 19 12
35.0520487129431 -132.181657441442 2783.89753610367 17 20 13
39.0449963487922 -133.430844270875 2790.9182760281 17 20 13
56.3042319381151 -131.377467826904 2777.39195633938 17 20 13
-197.734680935409 -122.952693966727 2705.75729084666 15 17 14
-178.21577788496 -120.849383101818 2692.06670789936 20 23 16
-166.413086510667 -120.339992460736 2688.21043629643 15 18 11
-160.340220037995 -121.031094540744 2691.75360071783 25 28 19
-158.039974016731 -122.526330361332 2700.24845900077 20 23 16
-160.721482724217 -125.097752584234 2715.365376826 18 21 14
-142.087589101823 -123.107947545741 2702.3961283069 17 20 13
-123.548631763542 -121.110417081011 2689.38863942768 15 18 11
-123.694409469653 -123.147912477398 2701.21271998216 15 18 11
-136.127730650792 -127.889650908143 2729.65986473622 15 18 11
-129.965159005281 -128.589115459017 2733.23941353293 14 16 11
-132.978993453401 -131.319899290501 2749.30204830357 13 15 10
-137.740698246334 -134.464298434575 2767.89654225444 9 11 6
-110.228280754964 -130.419095256316 2742.32341484415 8 10 5
-94.3734459826673 -128.943998411059 2732.54833619872 8 10 5
-103.279903239721 -133.047937564553 2757.02435092464 5 8 1
-73.6804137123801 -128.431228763386 2727.97644256449 12 15 8
-61.5863898615128 -127.761206719607 2723.15810373531 15 18 11
-32.8884198072961 -123.255679491184 2694.82482738566 17 20 13
-25.0978801754855 -123.531868822139 2695.82338171258 16 19 12
-13.1896706696455 -122.846377854792 2690.929690719 15 18 11
