ply
format ascii 1.0
comment KinectMotionCapture
element vertex 753
property float x
property float y
property float z
property uchar red
property uchar green
property uchar blue
end_header
-72.7622414409126 752.768074825483 3453.12920892689 185 185 187
-61.5579735618534 753.116048593259 3452.67958498794 190 190 192
-50.9882399592811 753.28392600546 3451.45720984558 193 193 195
-43.0541074987305 752.746338125391 3447.23073289286 198 199 201
-32.4431564854759 752.907369427628 3445.97299301492 199 200 202
-21.1384241820638 753.239335969721 3445.43608116261 187 188 190
-7.79117799671081 754.090317900161 3447.09558400801 180 181 183
2.9037974384738 754.238177035199 3445.76510249934 188 189 191
14.9739698552387 754.729991147019 3445.88698124322 193 194 196
22.3350127289801 754.000842602484 3440.83520208064 194 195 197
31.7383284781263 753.790839478557 3437.97973014933 197 198 200
43.2025327283427 754.097437091424 3437.30476261987 197 198 200
59.4804363359525 755.609619486741 3441.7132337419 196 197 199
75.8156222302704 757.113428842055 3446.07211050456 194 195 197
102.523670794779 761.193602739726 3461.27425008204 191 192 194
152.112501803165 770.934113929256 3500.27887785629 186 186 188
174.975057316981 773.940944353673 3510.88080351961 147 147 149
194.46252389671 776.077028323476 3517.79706266365 127 127 129
204.976470216915 775.976792278393 3515.30151687395 159 159 161
215.5107311614 775.873183881067 3512.78870103495 163 163 165
-310.781467303029 755.305492217257 3556.1909801356 145 151 139
-306.779122517033 753.736642155937 3547.43849572038 207 213 203
-304.602350156994 751.626769409958 3536.30202377036 186 191 187
-298.821533021357 750.603712538707 3529.97495033178 195 197 196
-293.044240669083 749.580591379813 3523.65093236622 195 194 199
-285.442227881769 749.097529693392 3519.71164662826 191 190 195
-277.2198653637 748.792559818798 3516.55710382601 172 171 176
-268.984667595608 748.485442198485 3513.39145016865 205 203 206
-260.736654528556 748.176059746949 3510.2147037072 211 209 212
-245.681438638608 749.833021135889 3515.68198405164 179 177 180
-224.990712180931 753.090055424077 3528.16469069613 202 200 203
-201.717898870253 757.047709241616 3543.69854433517 162 160 163
-187.067710022505 758.495724515548 3548.19465376669 123 121 124
-177.370590002931 758.51317932951 3546.40663356537 105 103 106
-172.676184610833 757.106415733866 3538.37684140763 161 159 162
-169.253579261864 755.346024457677 3528.80513383356 149 147 150
-167.11547211479 753.233491529068 3517.70187613862 160 158 161
-162.469109363758 751.831423520142 3509.71400935008 173 171 174
-156.56270431675 750.783286818934 3503.27793135959 161 159 162
-151.93641941943 749.382583032334 3495.30714241552 169 167 170
-146.041624781412 748.334894281984 3488.88144019394 180 178 181
-139.508406840085 747.462781265165 3483.22451668449 177 177 179
-131.686168769575 746.940861233412 3479.09492109357 163 163 165
-124.502042838068 746.24210364293 3474.19596975704 166 166 168
-117.313639022698 745.542111195476 3469.2933186267 176 176 178
-110.120798030324 744.841004407939 3464.38714436936 188 188 190
-102.271329709271 744.312999593531 3460.23367125821 167 167 169
-93.104200054551 744.131270723728 3457.58272708668 176 176 178
-81.2936366230468 744.641959586515 3457.92981147362 181 181 183
-71.4265491430663 744.627040413808 3455.99436863635 184 184 186
-61.5387211656038 744.608691535871 3454.04128700183 189 189 191
-52.956097251228 744.241071578097 3450.57489867205 192 192 194
-42.3663936181979 744.38927412015 3449.33565779297 196 197 199
-31.0851462612187 744.705838702241 3448.81920099297 201 202 204
-19.1062084863636 745.190057312152 3449.02020529944 173 174 176
-8.43651790311206 745.32557153325 3447.71171907614 182 183 185
2.93080794937506 745.628627436777 3447.1207424866 191 192 194
12.3012285658803 745.413412676429 3444.29381572069 188 189 191
21.010753141713 745.024331124274 3440.71757709791 192 193 195
31.0911050651246 744.974545227802 3438.5978317519 197 198 200
47.323768236283 746.455211705231 3443.04571861028 195 196 198
62.2470620632392 747.587310016666 3445.98421993022 196 197 199
79.9611723469393 749.391596298634 3451.79282351882 194 195 197
114.928279638007 755.426590980427 3475.70394974591 190 191 193
159.7174576589 763.808772475122 3509.61395416583 191 191 193
182.60059712824 766.750070119196 3520.19846362906 123 123 125
197.253840905954 767.652709199313 3522.04893755011 140 140 142
207.777709851574 767.53756489509 3519.54520358303 154 154 156
214.832812215415 766.578041469326 3513.43651050731 159 159 159
-306.027528990479 748.466232220065 3564.0248683715 137 143 133
-309.819156421845 744.585975888158 3544.83933992254 210 215 208
-307.045749809904 742.67407479849 3534.50772163146 186 190 189
-300.665394501366 741.832189697074 3528.98309378279 191 192 194
-293.677158071701 741.16738069626 3524.25402244381 195 194 199
-286.684380873089 740.501339124716 3519.52070793141 195 194 199
-277.241622226757 740.542569089147 3517.95299781163 178 177 182
-267.164619190645 740.757160607015 3517.15738725364 172 170 173
-257.062326092807 740.968009153818 3516.3401966575 200 198 201
-240.142786632806 743.113786104289 3524.15853134356 176 174 175
-218.196672647009 746.657691698212 3538.19812681689 171 169 172
-194.282873638279 750.714498532848 3554.49871795669 154 152 155
-182.102554339012 751.421973435786 3555.84730733597 129 127 130
-174.264633715382 750.89776175239 3551.70413396252 97 95 98
-170.184552614572 749.322357622038 3542.88463067243 153 151 154
-167.380154109354 747.399276125179 3532.52622304277 149 147 150
-165.231844211637 745.304495062293 3521.41432273743 171 169 172
-159.308668103623 744.257393516399 3514.9637019577 178 176 179
-153.389145177782 743.210207285149 3508.51656358388 161 159 162
-148.111544224095 741.989391448884 3501.30335079617 171 169 172
-142.201725737235 740.942374291834 3494.86462251283 188 186 189
-135.011629880763 740.241076023556 3489.9605132914 166 166 168
-128.461315494077 739.366121627059 3484.28879009045 152 152 154
-121.910790201665 738.490420193509 3478.61688893075 167 167 169
-114.063482560581 737.9583568674 3474.4656303707 181 181 183
-106.858227005991 737.252741345143 3469.54840966991 167 167 169
-97.6914058178657 737.060835678437 3466.89811431621 163 163 165
-89.8171140236728 736.523379459875 3462.72318705396 176 176 178
-79.3084249080351 736.668419099062 3461.55418486482 179 179 181
-70.7506639935826 736.297260569313 3458.1093691208 184 184 186
-63.5017930849955 735.582717106667 3453.15440327825 188 188 190
-51.6100573256528 736.058699559231 3453.43135758935 191 191 193
-39.6856060921427 736.529595224766 3453.6796736727 201 202 204
-27.0614240775489 737.165197458395 3454.64401701884 190 191 193
-16.4067818860714 737.286928319824 3453.34866309411 178 179 181
-6.39853219713782 737.235631629323 3451.29110562355 194 195 197
4.97608598065913 737.518601775606 3450.69393866976 194 195 197
13.6794646724723 737.122862127476 3447.12307005019 192 193 195
21.718048171425 736.556595442327 3442.80624746741 195 196 198
33.8390932060939 736.996583946866 3442.88436891599 195 196 198
49.3986289940751 738.270296866278 3446.59375966477 195 196 198
67.7441285439082 740.205951992728 3453.1775250801 196 197 199
87.5298139445593 742.466112518791 3461.15776410561 191 192 194
127.325200709766 749.555154996557 3490.14098934923 186 187 189
164.559915389848 755.950335659466 3516.05446285908 179 179 181
187.455425176451 758.827146780102 3526.62866839797 133 133 135
200.736560971848 759.365592560403 3527.0242358646 152 152 154
209.881151963009 758.903726933942 3523.07138118399 141 141 141
214.154694868224 757.281129191425 3514.0845034099 175 175 175
-325.624121897432 737.137973433965 3553.29297584326 114 122 107
-315.648329745226 737.353042413537 3552.58540081521 132 138 128
-311.054954495177 735.982641445043 3544.64293948233 208 213 206
-306.473328196982 734.613463408621 3536.71065346371 182 186 185
-300.693394652043 733.59561585646 3530.38431210843 187 188 190
-294.917164457709 732.577705867779 3524.06086547198 190 189 195
-287.926122037572 731.909045582029 3519.32938703662 187 186 192
-277.263898602365 732.285499671807 3519.34907243467 179 178 183
-265.346025658265 733.005801421436 3520.92505038522 177 175 178
-254.621185991096 733.372924596057 3520.89052450888 188 186 189
-238.311672163062 735.29768056635 3527.91576168665 184 182 183
-212.646212858873 739.812303257577 3546.66525735667 160 158 161
-188.716992823259 743.790461102404 3562.95330769843 155 153 156
-178.387992897541 743.952431332766 3561.93962336555 106 104 107
-173.037573807965 742.730814090653 3554.66361718802 119 117 120
-168.95011839462 741.165316133738 3545.83765812394 152 150 153
-165.508377975795 739.42939426159 3536.24889142183 151 149 152
-162.718416388811 737.523887297141 3525.90288290473 172 170 173
-158.051652137337 736.135218856884 3517.89693106005 171 169 172
-153.396885304505 734.74762715158 3509.90137083208 167 165 168
-146.840724770052 733.873442485993 3504.22457557685 181 179 182
-141.563924777889 732.657607493132 3497.01234024814 178 176 179
-135.01134832528 731.782707777829 3491.33865607901 153 153 155
-130.390445181575 730.397281099846 3483.37243269819 162 162 164
-123.197613163343 729.691721747369 3478.46597955894 185 185 187
-115.352317203694 729.154479695813 3474.31649815377 184 184 186
-105.54838730581 729.122973744185 3472.43590374582 171 171 173
-95.7236141371212 729.088203905202 3470.53758038877 171 171 173
-86.5325222432043 728.881389551763 3467.86602983778 178 178 180
-76.6685020798032 728.84013653726 3465.93373171084 182 182 184
-70.0756713959274 727.955144602408 3460.22522315038 184 184 186
-62.822437468447 727.237258801515 3455.26649738096 188 188 190
-52.9152769258205 727.18831733883 3453.29654224518 195 195 197
-37.6713917876375 728.473997460683 3457.2794412103 197 198 200
-23.7071373842062 729.418003756318 3459.72713443972 177 178 180
-13.0410610647069 729.521763758604 3458.42167108401 181 182 184
-5.03290069948426 728.955941146374 3454.13121444718 186 187 189
3.6560822159224 728.554654427744 3450.57285910963 186 187 189
13.0320026277859 728.316840548972 3447.74131191625 192 193 195
22.4242278080089 728.076232020688 3444.89565090345 192 193 195
36.5851118460272 728.989985077475 3447.17311420256 196 197 199
54.8765490673944 730.887227710385 3453.80398629513 194 195 197
75.9695996772911 733.43346559438 3463.29575285688 191 192 194
104.684385731577 737.776548891077 3480.72697539031 188 189 191
143.149876007792 744.400112856595 3508.21904877883 183 184 186
172.844916294528 748.866448951002 3526.12311192507 149 149 149
191.615743670656 750.695598103199 3532.33892058649 142 142 144
200.057081527772 750.064252482927 3527.67343803777 139 139 141
209.896856071334 749.75744307456 3524.44029888815 158 158 158
-316.117730036194 731.670758113823 3567.58588439518 123 131 118
-317.481310201111 728.572209119449 3551.58417362347 165 170 163
-312.290341019023 727.383353780699 3544.44615611417 197 202 196
-308.312578547959 725.849523984797 3535.71475114271 184 188 187
-299.51238225992 725.697111029087 3533.38196685434 187 188 190
-294.336151382696 724.508661282865 3526.25640542253 203 202 208
-287.341012320936 723.836582506244 3521.52108291968 187 186 192
-277.286594928309 724.021659786239 3520.74555491658 190 189 194
-265.981050118677 724.545744081408 3521.53027029304 189 187 190
-253.412170051542 725.407049374283 3523.86434413549 178 176 179
-235.248274555048 727.799959375208 3533.24907103275 205 203 204
-205.242402883147 733.422953290257 3557.49316565944 187 185 188
-183.776593679984 736.640492990505 3570.6275970264 188 186 189
-176.545838333014 735.933441813136 3565.68859955491 103 101 104
-173.687622713707 734.036888485037 3555.28337479484 131 129 132
-168.344355103216 732.820943154187 3548.01321479432 147 145 148
-164.267583422189 731.267124527011 3539.19644002271 152 150 153
-161.469820426894 729.376855973819 3528.84357099932 172 170 173
-159.329812779147 727.320681730969 3517.73861637929 169 167 170
-155.31157045747 725.772828983569 3508.9725324482 171 169 172
-148.121537218599 725.067227343736 3504.06850538565 184 182 185
-141.566734784953 724.192506941576 3498.39289071679 166 164 167
-136.295153031683 722.982083507601 3491.18482764341 151 151 153
-131.675118590754 721.604940535281 3483.21961903274 169 169 171
-125.129880628478 720.729831382127 3477.55229675412 188 188 190
-115.993000327135 720.521035429169 3474.92774617984 179 179 181
-104.239825564751 720.975412396401 3475.32462077875 171 171 173
-94.4094525346952 720.926174482306 3473.42153757407 174 174 176
-85.8665480483229 720.541685830222 3469.9896848098 177 177 179
-77.9674191013968 719.989206951285 3465.79332764172 180 180 182
-68.7436364004674 719.76589307078 3463.09354971058 180 180 182
-60.1635235184741 719.374596922678 3459.62949120513 189 189 191
-51.5710506295934 718.981097258225 3456.15473411628 197 197 199
-36.9874062750233 720.066172997404 3459.38792654993 189 190 192
-22.354463629795 721.144070685737 3462.57843689701 170 171 173
-11.0144372725776 721.394629824487 3462.01146194164 184 185 187
-5.00959104417031 720.331139884609 3455.49016093017 185 186 188
0.991214834562104 719.267557513635 3448.97267794679 191 192 194
11.7098761438466 719.346112502652 3447.62211613225 192 193 195
23.1296330521236 719.583478874564 3446.98612133185 192 193 195
41.3649330448251 721.442528557709 3453.6658970696 196 197 199
56.2662383132473 722.4799137555 3456.62407040693 194 195 197
81.4585850293823 725.940691948402 3470.49709970022 190 191 193
116.349737251892 731.650695021652 3494.47648038197 186 187 189
158.278016470474 738.952098965904 3525.57945757902 181 182 184
185.258422314909 742.677897956215 3540.54783167045 131 131 131
199.91923183354 743.490108092215 3542.39233407371 136 136 136
205.615109793884 742.207115611345 3534.81730398858 127 127 127
214.082744724171 741.566277596694 3530.12877481942 183 183 183
-316.159557173231 723.376519519682 3568.99946073594 120 128 115
-316.321369996783 720.653785370202 3554.60022146708 184 189 182
-310.523121882375 719.63963964298 3548.25798222821 196 201 195
-305.933384191797 718.285298954761 3540.31856962786 188 192 191
-298.332533846408 717.780976763477 3536.38074470155 186 187 191
-294.362652200881 716.257849963903 3527.65610096917 204 203 209
-288.582506649898 715.244106006415 3521.32954926924 204 203 209
-279.752463985316 715.075075301219 3518.97068822409 187 186 191
-270.905466196903 714.903282134501 3516.59714946449 184 182 185
-255.893263161699 716.413019214593 3522.10298012625 182 180 183
-235.271404987588 719.427716348185 3534.64694773834 196 194 195
-202.176289096069 725.786790992021 3562.82533341018 192 190 193
-184.428475244143 727.931842648841 3571.2490384808 179 177 180
-175.951539631796 727.556537555571 3567.87430380119 123 121 124
-173.087600306174 725.675442559825 3557.46401792874 136 134 137
-168.366498888445 724.297482188959 3549.41090072039 155 153 156
-164.286445427675 722.753941224279 3540.5912149128 161 159 162
-160.853669212621 721.045838232033 3531.01035305413 165 163 166
-158.707709963205 719.007906280595 3519.90012175651 164 162 165
-155.954895581877 717.13878234044 3509.58607429488 180 178 181
-150.03949949128 716.099375906309 3503.14214687138 181 179 182
-144.127788295807 715.060068716166 3496.70172814868 161 159 162
-138.86138502097 713.855814514128 3489.49842898476 171 171 173
-132.315927164582 712.981154836875 3483.8309132034 185 185 187
-123.83354243715 712.598745772045 3480.45118610094 177 177 179
-113.39545401125 712.706342554192 3479.34361869796 166 166 168
-104.23206197552 712.482478080932 3476.69618709492 175 175 177
-95.7038253783789 712.09235923185 3473.27708400129 177 177 179
-87.1631296490234 711.699903744716 3469.84719727142 180 180 182
-79.2658618342621 711.142248062432 3465.65280227214 179 179 181
-70.7023877367181 710.745647026941 3462.20319957505 186 186 188
-58.1665019362334 711.321037294422 3463.24446259877 198 198 200
-48.2419467276238 711.242385285313 3461.25962340581 198 198 200
-33.6479233986267 712.293245650228 3464.48404172574 163 164 166
-21.6693875656988 712.690623555122 3464.68595713965 163 164 166
-10.9943609789811 712.760442672271 3463.37327171626 182 183 185
-6.32725791184008 711.377357903336 3455.36699002553 184 185 187
-1.00029163845461 710.156002354383 3448.11099403817 190 191 193
9.71350964204909 710.218743153601 3446.76474706161 190 191 193
25.8634423229216 711.559001367389 3451.28556477153 192 193 195
42.7490366828129 713.050758709488 3456.49072170231 195 196 198
56.9739194251064 713.895146189152 3458.71284900184 193 194 196
80.1178120945885 716.804254791478 3470.39513926458 189 190 192
119.791654474105 723.516910124503 3499.48583488137 184 185 187
167.216407357559 731.948888953365 3536.40452814654 179 180 182
191.465277049892 734.958285471054 3548.45170610955 124 124 124
203.381691993298 735.105051230845 3547.38582703216 130 130 130
209.090602190443 733.825850896123 3539.79916135292 146 146 146
216.875904401401 733.020223472056 3534.38015695799 176 176 176
-326.932482053926 712.048645887115 3555.91281895889 112 120 107
-318.751818806062 711.710335761559 3552.79463445864 189 194 187
-310.55825087907 711.369898483249 3549.66527879315 197 202 196
-306.567734855759 709.855872479631 3540.92300704331 191 195 194
-301.384412309055 708.677486743157 3533.79123379163 188 189 193
-296.815073531689 707.332929832582 3525.86943826346 196 195 201
-287.998209620336 707.155126217489 3523.52237207896 213 212 218
-277.943597885169 707.307038075332 3522.74657503211 215 214 219
-268.476160606472 707.289070732849 3521.15785865461 211 209 212
-252.84160181267 708.925015336247 3527.44671425427 213 211 214
-228.511878781493 712.868318639045 3544.71080547142 194 192 193
-199.731442639031 717.951340979315 3567.37369089146 171 169 172
-183.218058020824 719.716322865829 3574.22326126738 174 172 175
-175.980865017865 719.002603507235 3569.27841174518 116 114 117
-170.613640220155 717.794772509027 3561.98775012113 145 143 146
-167.762044531646 715.931089912703 3551.58805008987 152 150 153
-165.563639456006 713.906306585543 3540.43227690611 164 162 165
-162.762610573785 712.048206230917 3530.0763687704 163 161 164
-159.985895811489 710.192841320018 3519.74151683064 164 162 165
-155.963163815089 708.666122621667 3510.97140458792 181 179 182
-149.407788460861 707.791804152801 3505.29529074366 176 174 177
-142.212924481778 707.079263901854 3500.38712166731 167 165 168
-135.013535854141 706.365567587814 3495.47535391957 179 179 181
-127.166643759043 705.81263775319 3491.32427523081 186 186 188
-118.665785329676 705.419618484447 3487.92892057409 167 167 169
-110.799844190662 704.863037588911 3483.76167056607 162 162 164
-104.224621359984 703.982662661697 3478.06839344656 177 177 179
-95.6944920269742 703.583904850977 3474.64770583141 175 175 177
-87.1519156621194 703.182991690294 3471.21624389308 179 179 181
-79.25270421324 702.619542531273 3467.01988630529 179 179 181
-70.0296440623447 702.374377675743 3464.32087622909 190 190 192
-56.8312542785212 703.084402350097 3466.11031167481 200 200 202
-42.9297648872553 703.947810567444 3468.6129278739 191 191 193
-29.647078986438 704.645434948331 3470.32938119924 158 159 161
-20.3191475785389 704.383661646016 3467.53958305819 170 171 173
-10.9748087981965 704.119199648686 3464.73558148051 178 179 181
-6.30460774184938 702.743842188215 3456.72656457803 183 184 186
1.04183345115239 702.001748417336 3451.68752510238 186 187 189
12.4372429260453 702.204785179065 3451.07285555439 187 188 190
27.9187656100106 703.34827173758 3454.85070693462 192 193 195
42.7751503016189 704.326707764238 3457.84788102978 189 190 192
56.3200574203098 704.984167637545 3459.33731806716 189 190 192
78.7771136101179 707.671558240237 3470.29277454811 187 188 190
122.546785640753 715.192705412252 3503.76874010726 179 180 182
169.284111785493 723.307489599313 3539.96204539322 170 171 173
193.536556139849 726.248052393154 3552.00625559956 129 129 129
206.15100362495 726.530289429025 3551.6580651555 151 151 151
215.33434384374 726.031323745379 3547.67155002292 175 175 175
225.919355018149 725.840034406095 3545.11531531015 181 181 181
-320.416125967296 705.609272614404 3566.18697872667 110 113 106
-315.799078724168 704.268261780238 3558.2238095777 192 194 191
-309.39358815285 703.423111447344 3552.67741725209 198 200 197
-304.793708659968 702.083514327471 3544.72911884845 194 194 196
-301.413735882651 700.416208425564 3535.1937592611 198 197 202
-295.629081162501 699.407404428622 3528.86295177826 192 191 196
-286.806494453718 699.2177212309 3526.51100241951 194 193 198
-276.746586739545 699.352271515513 3525.73072766072 156 155 160
-267.885954330168 699.156506467051 3523.34584213627 145 143 146
-251.63574870979 700.914060314261 3530.4232518305 147 145 148
-223.606439449037 705.754191680695 3552.41547898532 198 196 197
-196.669980803149 710.249780662072 3572.71031443631 170 168 171
-182.008824727174 711.483056559076 3577.19862520627 133 131 134
-174.765296578446 710.765609500585 3572.24830894111 142 140 143
-168.766474469727 709.723823365644 3565.73240412236 145 143 146
-167.785235329788 707.390971879122 3552.98675143788 165 163 166
-164.954077802983 705.545784037789 3542.60496156239 167 165 168
-160.885744964252 704.024849299549 3533.79497243747 164 164 166
-154.934676901766 702.987188656569 3527.32043103379 172 172 174
-151.527276168867 701.308381591317 3517.76105766643 179 179 181
-146.228955546235 700.111716436902 3510.53004541271 166 166 168
-139.660560700316 699.234985865527 3504.84266273751 182 182 184
-132.450839861747 698.517091193246 3499.9216513838 188 188 190
-123.950377304233 698.116399921014 3496.52668955821 187 187 189
-115.43737744153 697.713511198487 3493.1208754391 162 162 164
-108.206459525061 696.9910551278 3488.18152137402 170 170 172
-104.217807679609 695.475693192281 3479.44087403102 177 177 179
-95.6858017445565 695.068538137376 3476.01861431178 172 172 174
-86.4879484861789 694.816916656908 3473.34149379447 177 177 179
-77.9289982487117 694.404935248645 3469.89591175472 178 178 180
-68.7001337097826 694.147999594899 3467.19194708184 192 192 194
-53.5183237969652 695.301007546794 3471.22950859502 201 201 203
-37.6212848447128 696.602950902675 3475.96976667092 184 184 186
-24.985487995866 697.114409701833 3476.92453196243 159 160 162
-17.6386228406806 696.371210827322 3471.88513218461 178 179 181
-9.62007293922795 695.78267730971 3467.58550221767 177 178 180
-3.60284572552905 694.725806492325 3461.05374278199 184 185 187
5.76975973914129 694.445410828131 3458.22534470352 186 187 189
17.18065959848 694.627257787604 3457.59738639297 189 190 192
31.3244959147463 695.423773888117 3459.89038526369 192 193 195
44.8351764443196 696.059133875323 3461.40963092394 187 188 190
63.8279071750421 697.921968448322 3468.75615056143 187 188 190
91.0809336139597 701.621264113107 3484.81166719869 187 188 190
133.510784503238 708.683479437745 3516.80504053313 177 178 180
172.036144054931 714.795996761314 3544.24853466358 166 167 169
192.164292476082 716.749053338598 3551.93393872077 141 141 141
203.394653474793 716.704320313266 3550.14066730198 171 171 171
216.034195750766 716.960758170714 3549.77057796712 178 178 178
229.400873581494 717.364378248308 3550.09287675087 182 182 180
-319.266245111857 697.638844993886 3569.21208235592 99 102 95
-314.044336262635 696.467389731511 3562.04682005923 195 197 194
-310.029597444522 694.972109775614 3553.28343206761 203 205 202
-307.234452033623 693.154566174973 3542.93236053919 200 200 202
-302.651468807617 691.824670386185 3534.99864387252 197 196 201
-295.050195946563 691.302744645768 3531.06056680813 178 177 182
-284.399981316678 691.584788503179 3531.09127245006 181 180 185
-274.940576407167 691.54077445621 3529.50968679896 211 210 215
-266.684433843768 691.172327378906 3526.32627695106 184 182 185
-253.501877704037 692.084025427791 3529.45139000885 171 169 172
-223.018425987614 697.469841791547 3554.60634663308 147 145 146
-195.465875136148 702.034931207372 3575.69000333187 179 177 180
-178.319404461484 703.869939590827 3583.31366236529 132 130 133
-172.928420994858 702.670107690882 3576.00235641454 139 137 140
-167.545356968066 701.47075119844 3568.69759593346 146 144 147
-168.435325196047 698.685284156981 3553.60662076547 165 163 166
-164.345480800729 697.172912880501 3544.77824682262 164 162 165
-160.902281074379 695.504098791909 3535.18809593897 167 167 169
-154.31590269444 694.626503391296 3529.48513189253 174 174 176
-149.633437144619 693.275634566904 3521.46532622575 175 175 177
-142.415833369303 692.554971531726 3516.53750038647 166 166 168
-135.832640383928 691.67615824329 3510.83730512795 184 184 186
-126.685594167535 691.423713593965 3508.20422623432 187 187 189
-119.450605738204 690.699084668234 3503.26167370243 180 180 182
-112.211434215681 689.973361169765 3498.31518711333 161 161 163
-108.850417439973 688.310891522055 3488.79591052205 166 166 168
-101.614840999964 687.584566481401 3483.85285933105 166 166 168
-95.0262892482252 686.701677894185 3478.14804584513 168 168 170
-84.5183236551295 686.748639339026 3476.97999079529 174 174 176
-74.6406836248772 686.637012392956 3475.03634386502 184 184 186
-61.4557601897054 687.294743444697 3476.83778994313 195 195 197
-47.5703229569171 688.100554777412 3479.35437684136 178 178 180
-34.3010498086311 688.745758545473 3481.08279516831 163 163 165
-22.9810499369441 688.923819846428 3480.53396318843 173 173 175
-14.2948462637045 688.483540000934 3476.97795388356 178 178 180
-7.59907251358749 687.581600429944 3471.18033068845 181 181 183
-0.233565924123269 686.832058370319 3466.12481481348 181 181 183
9.15100648191913 686.539061987538 3463.28612620975 189 189 191
22.5946726800257 687.157336525169 3464.86356631402 191 191 193
35.4034975045732 687.617339138374 3465.66901098978 184 184 186
49.6048640793036 688.375423635333 3467.91207984249 180 180 182
69.2909583235517 690.338725997327 3475.98056175131 186 186 188
99.9669231430338 694.710359036061 3495.68155776846 189 189 191
148.572273284481 702.986272343496 3534.22483351955 168 168 170
178.216697542828 707.009260622232 3552.17564030186 169 169 171
196.985677411586 708.607258413572 3558.39454813089 171 170 175
206.851233875309 708.243857880754 3555.13942957625 160 160 162
220.194362484843 708.626814671215 3555.48227321508 166 166 166
230.796810859914 708.405988715813 3552.91111645173 169 169 167
-312.16223625838 691.251063457486 3580.2998289041 106 109 102
-311.095964755338 688.962993649357 3567.48018542769 197 199 196
-310.665597404786 686.519699522174 3553.8894479229 194 196 193
-307.868890526821 684.718114902764 3543.53691960026 193 193 195
-302.681133293686 683.555083858837 3536.4015186605 186 185 190
-293.260628262077 683.503231134981 3534.85338421378 150 149 154
-283.818845342589 683.448175765577 3533.28714372288 137 136 141
-276.795664943917 682.757289190641 3528.5276386604 158 157 162
-268.543915646312 682.38098981087 3525.348087497 222 220 223
-251.683293777979 684.208770792943 3533.21954879933 221 219 222
-222.431332070853 689.172987502929 3556.79777679923 215 213 214
-193.644941646658 693.95943016903 3579.45742327295 184 182 185
-177.733536245515 695.433528184309 3585.50737473682 135 133 136
-172.337794310883 694.238333183687 3578.19159889074 137 135 138
-167.574054240818 692.887418280085 3570.10134997447 153 151 154
-168.459009285446 690.134056038367 3555.00613717321 168 166 169
-164.366055119726 688.632053221603 3546.17468517986 164 162 165
-159.658460766102 687.287074873554 3538.13337681799 176 176 178
-150.535619108558 687.029026735335 3535.52131319629 177 177 179
-143.934125492488 686.148736995141 3529.80526569077 169 169 171
-139.242118726813 684.804158841512 3521.77714954555 168 168 170
-133.92354801397 683.614925029241 3514.52822214263 187 187 189
-125.409339411645 683.196422891623 3511.12146154076 186 186 188
-117.525259841579 682.621888747695 3506.93860664007 171 171 173
-111.567349230029 681.58520076899 3500.45781273743 163 163 165
-107.553828545111 680.088827251325 3491.69548763194 163 163 165
-99.0141060332093 679.664673328595 3488.26664983127 167 167 169
-93.065794262388 678.627623424265 3481.79449344705 167 167 169
-83.2033814466184 678.504820052523 3479.86380140158 178 178 180
-72.0100653142524 678.682882231447 3479.42445525363 193 193 195
-57.502089369541 679.615707108981 3482.72421880735 190 190 192
-42.9447290664582 680.541342344799 3485.98122575163 167 167 169
-31.6443679993839 680.703311807795 3485.44920419228 159 159 161
-20.315217100964 680.860895068237 3484.89225787397 180 180 182
-13.6148620272043 679.958877499015 3479.09066438642 182 182 184
-8.24944466793864 678.755489689583 3471.80122502942 182 182 184
-2.22273109685922 677.702731085567 3465.26121677957 183 183 185
9.84363236335728 677.999072912129 3465.38797906113 190 190 192
25.3106243793244 679.038487870659 3469.17909908018 190 190 192
39.4795655867162 679.771385315101 3471.450435377 177 177 179
54.3713849187175 680.646798294218 3474.41788010041 177 177 179
75.4299882183993 682.85392862395 3483.94170080952 185 185 187
109.529109533628 687.870493935974 3507.28848025685 184 184 186
160.205226420663 696.421683828979 3548.00526236671 167 167 169
183.021195951556 698.870698010033 3558.65086492625 166 166 168
199.739917993171 699.977454731205 3562.68020554781 155 154 159
208.23530603189 699.307068223497 3557.96781323696 158 158 160
219.507010285 699.223530614322 3556.13895958818 164 164 164
227.332255130674 698.401902006089 3550.68512365125 176 176 174
-252.800435978267 701.246836368704 3676.99999512045 101 107 93
-307.444743680176 684.162217629465 3588.16723880323 123 126 119
-311.136905265909 680.639299174044 3568.89286865942 201 203 200
-311.900871006515 677.9090482209 3553.69264031772 185 187 184
-310.909114267164 675.654219320137 3540.93736606349 180 180 182
-304.521836699899 674.809815004128 3535.40675476894 195 194 199
-295.71168424255 674.588846754603 3533.06546983793 198 197 202
-285.061561514811 674.832186578607 3533.09650593786 207 206 211
-277.430517658094 674.294034754187 3529.13273042685 183 182 187
-264.8967876812 674.995446676817 3531.498306229 192 190 193
-244.342107092957 677.704309226591 3544.10248088515 206 204 207
-213.83882633084 682.873811265242 3569.24165268495 197 195 196
-191.207596073332 686.015061497215 3584.01330334823 167 165 168
-178.388443269471 686.676627771379 3586.13175112764 137 135 138
-170.503905365462 686.101830047615 3581.9481851676 139 137 140
-168.227186240736 684.143693324446 3570.72410251087 155 153 156
-167.230945300569 681.882324052296 3557.96529953322 168 166 169
-165.643293812638 679.778286265313 3546.01582562313 166 164 167
-160.306584531399 678.594237445229 3538.75145878497 179 179 181
-152.448763946838 678.020283019352 3534.59104422145 180 180 182
-145.850986468404 677.140403907771 3528.87821496512 167 167 169
-141.162082260365 675.804328213448 3520.85273282197 177 177 179
-135.846680521405 674.620963067014 3513.60682956637 187 187 189
-125.415401243177 674.64860831877 3512.50536647149 176 176 178
-117.529266099057 674.068257876696 3508.32076762063 162 162 164
-110.923965790113 673.18464083335 3502.60144227858 173 173 175
-106.258493009025 671.84899586389 3494.59626620429 169 169 171
-97.0641243328632 671.565924327856 3491.92236969679 173 173 175
-91.7577068441577 670.380445421451 3484.68426711104 172 172 174
-81.8897131637728 670.243146589832 3482.74883186054 196 196 198
-68.7265343260921 670.849579090899 3484.56945717879 199 199 201
-52.894257822178 672.046370548069 3489.36652858345 162 162 164
-40.9585636863499 672.34175284307 3489.60623737025 158 158 160
-32.2951466346004 671.889322872425 3486.07037229524 168 168 170
-21.6300327558945 671.879600674054 3484.76679400189 185 185 187
-13.6010632582524 671.273853984348 3480.45824453818 184 184 186
-7.56543644496954 670.223218703064 3473.91049710175 182 182 184
-0.195516086771264 669.46755050994 3468.85087983942 186 186 188
12.5491865133762 669.888249679555 3469.71215623921 190 190 192
29.371137145096 671.184807573189 3474.97405588698 185 185 187
46.2544468106723 672.472451151411 3480.18251570673 171 171 173
59.134400486347 672.873169212231 3480.92669461589 173 173 175
82.2443894990115 675.459453716835 3492.640146792 180 180 182
125.901264921794 682.405732928679 3526.2176023843 182 182 184
167.045049868474 688.739266078421 3556.68353991989 166 166 168
187.136839346592 690.542054098621 3564.40143132391 163 163 165
201.804128274489 691.174032558527 3566.24148569601 156 155 160
213.067237717058 691.075932305404 3564.42017584476 170 170 172
220.203289422888 690.107423666921 3558.24137928904 170 170 170
225.257176690337 688.706055829161 3549.89997630386 198 198 196
-309.872310618138 675.16789587211 3586.35948362612 182 185 178
-312.372462386743 672.000240123156 3568.69649087337 188 190 187
-312.536541308997 669.45650374269 3554.29837131655 184 186 183
-309.738769247836 667.687174092342 3543.94471074834 182 182 184
-303.948296021614 666.688238500669 3537.60911172247 177 176 181
-295.134518697243 666.455643256887 3535.26476033213 158 157 162
-285.696280950623 666.373196054632 3533.7014545569 168 167 172
-274.408339885195 666.745713668268 3534.50240988709 177 176 181
-258.806357422531 668.180344121893 3540.82048957176 129 127 130
-230.256690654211 672.801940646411 3563.68638115406 143 141 144
-200.32726807352 677.707044171258 3588.00138890365 163 161 162
-183.213064358217 679.406833271733 3595.65389109489 150 148 151
-176.564345652625 678.523686998412 3589.89693041721 140 138 141
-171.158821768328 677.337894272582 3582.57261527678 142 140 143
-168.880299888024 675.398528629111 3571.34684846992 158 156 159
-167.2559981346 673.311884891246 3559.36581125633 166 164 167
-164.408286395401 671.52954174096 3548.96895050191 166 164 167
-157.804647034981 670.649801436536 3543.25103964228 180 180 182
-150.568612839482 669.9192903497 3538.30730331098 179 179 181
-143.327974313444 669.187552582706 3533.35989970265 171 171 173
-139.900244628818 667.559725682824 3523.78257614938 182 182 184
-134.577872981369 666.380781700649 3516.53060317431 183 183 185
-127.342670792891 665.648196816189 3511.58760141165 169 169 171
-118.176023669379 665.35948639767 3508.93776871036 164 164 166
-110.925955388515 664.623821522993 3503.9819019295 174 174 176
-103.02500990152 664.034799241518 3499.78452261585 173 173 175
-97.7098711267463 662.854052360541 3492.53851480149 177 177 179
-92.4026433118534 661.673884024823 3485.29967546428 180 180 182
-81.8824968467302 661.669940930704 3484.12170819033 203 203 205
-65.4454876128114 662.982235848844 3489.71683289498 194 194 196
-49.6034255278799 664.139360120344 3494.50536431634 156 156 158
-40.9505004556059 663.680677690451 3490.97863353316 163 163 165
-32.946022575949 663.073879830212 3486.69163415956 176 176 178
-20.9559601086062 663.338943969914 3486.8844164216 183 183 185
-11.5927016578414 663.017819129553 3484.06469917498 183 183 185
-4.2142736055899 662.258849290233 3478.99772938316 184 184 186
1.83013802902332 661.209216789052 3472.44236132827 188 188 190
16.5949483989327 662.037753628849 3475.5198775301 187 187 189
32.0822829217584 663.00331420234 3479.29384454551 181 181 183
48.9734752112025 664.248956271044 3484.49605989549 167 167 169
61.8621815362577 664.623860185979 3485.23250433229 172 172 174
90.4130400545937 668.290567431074 3502.8101916871 180 180 182
142.263158427871 676.80390482186 3545.15619153919 183 183 185
173.196942096093 680.852936432952 3564.63613267108 166 166 168
189.192792350629 681.746301481754 3567.96981865223 160 160 162
201.116284669911 681.778360337487 3566.89854866237 149 148 153
213.068223177261 681.805929554198 3565.80265243181 166 166 168
220.206796223383 680.837231078437 3559.62167176998 187 187 187
225.263762375176 679.443772780537 3551.27754895105 198 198 196
-308.670830381219 669.626728803134 3603.88093867944 94 102 87
-313.488453743154 665.88453224833 3582.93694589467 194 197 190
-313.010598526595 663.51670725519 3569.30455990761 191 193 190
-311.375025004349 661.456602202629 3557.31358107548 181 183 180
-307.367545551133 660.004677089143 3548.55588858304 172 172 174
-300.963171815861 659.157581146237 3543.01047686697 187 186 191
-292.137407622905 658.912284924694 3540.65613384226 148 147 152
-283.901908648097 658.51392010091 3537.49081040236 148 147 152
-274.435068405872 658.413368048483 3535.90283113597 194 193 198
-256.999580349121 660.256127858525 3544.59951457124 204 202 205
-223.541560203751 665.974474912762 3573.79077088466 142 140 143
-196.056744123087 670.176433829213 3594.93548883868 164 162 163
-182.016609169888 671.083152936565 3598.64091616213 144 142 145
-175.361356395455 670.19897699489 3592.8782988444 148 146 149
-171.813728562435 668.572400163057 3583.19704715575 150 148 151
-170.157036713716 666.503672057987 3571.18782018856 168 166 169
-167.281441391984 664.734461683925 3560.76670663018 170 168 171
-163.174487508182 663.263024062745 3551.92323802757 169 167 170
-156.564302871731 662.382252580677 3546.199660824 176 176 178
-151.849415531834 661.060014745431 3538.15156849685 172 172 174
-147.146509754102 659.738761680464 3530.11385463896 178 178 180
-141.183585490416 658.711541465464 3523.6289693853 188 188 190
-134.586465785701 657.830493327658 3517.91671782041 172 172 174
-127.349012240375 657.094670827155 3512.97178570569 165 165 167
-119.464935505979 656.503518652464 3508.78904094802 178 178 180
-112.860897914474 655.619892002669 3503.07081011082 173 173 175
-104.317841161679 655.171035153138 3499.63924247929 178 178 180
-99.6522281628831 653.851031534249 3491.63384351694 187 187 189
-91.7469873466241 653.254761232436 3487.43247274153 200 200 202
-77.9612873994928 653.955212368264 3490.0365037798 189 189 191
-60.8578941087923 655.368793789539 3496.37696951542 169 169 171
-47.6279248860316 655.910866762775 3498.14012225751 165 165 167
-41.6014956799611 654.869143313422 3491.59997345611 177 177 179
-32.2756244104894 654.543202186018 3488.81269223304 185 185 187
-21.6081211737258 654.500198617953 3487.50694314844 183 183 185
-10.9158045163329 654.453366553371 3486.18002770186 185 185 187
-2.19934442114234 653.975647685882 3482.59835218717 189 189 191
8.53604778778161 653.92193662059 3481.23414618785 191 191 193
23.9925405837025 654.856617285603 3485.03504493914 182 182 184
36.8104458116294 655.21766279494 3485.83326054739 174 174 176
51.0152030995403 655.855518316022 3488.07416963387 168 168 170
64.5879703322749 656.345796863088 3489.54054264815 178 178 180
99.2554724588577 661.190329281176 3513.71906166561 185 185 187
151.121834406148 669.520884628239 3556.05248257328 185 185 187
175.928240549411 672.210210597027 3568.94144307823 160 160 162
189.190976823829 672.507696980644 3569.35451949395 151 151 153
199.740922559188 672.24148134866 3566.82916278185 159 158 163
211.000321038356 672.111130866953 3565.01096282541 176 176 178
219.518264611813 671.421020726187 3560.27946414434 200 200 200
226.656909150751 670.451833533006 3554.09842468402 200 200 198
-315.242012737224 659.569238823678 3596.40803615186 96 102 88
-315.913031222363 656.925230566611 3581.12637271524 203 205 200
-314.24537894281 654.882963302857 3569.10747448178 184 186 183
-311.412387666128 653.14182802197 3558.72310545332 174 176 173
-305.598938756162 652.14533773113 3552.36757673089 164 164 166
-298.583164937677 651.445028417663 3547.61455227727 168 167 172
-289.142689873144 651.33508384418 3546.04980103468 194 193 198
-282.71626746866 650.484000508752 3540.48530478288 153 152 157
-272.634892863551 650.516099054264 3539.68708778791 173 172 177
-255.805597959313 652.161725373297 3547.58719717566 210 208 211
-221.736864709304 657.906550425204 3577.57221578347 193 191 194
-194.865584326227 661.868587890772 3597.92700100475 152 150 151
-183.290479951407 662.156859410912 3598.47960748951 141 139 142
-176.017634167242 661.418725917161 3593.50401462452 156 154 157
-174.332707904573 659.368503039857 3581.47019596156 166 164 167
-172.680336670274 657.322043338906 3569.46425401354 171 169 172
-169.18369853114 655.7148418298 3559.82738688565 171 169 172
-163.197102557727 654.689112577561 3553.32165933599 172 170 173
-157.214063551066 653.663375511747 3546.81933030074 171 171 173
-152.498189098939 652.348999544527 3538.77033146283 170 170 172
-147.794300858263 651.035698802971 3530.73171453774 188 188 190
-141.195045784336 650.154752351883 3525.01761151267 186 186 188
-133.319736913132 649.560199666442 3520.84248821258 168 168 170
-125.436087081424 648.963992461989 3516.6598307107 175 175 177
-118.185708478627 648.223127838732 3511.70404417 179 179 181
-114.15126754544 646.767990985197 3502.92300400591 174 174 176
-106.902520110583 646.02641779813 3497.96863584861 179 179 181
-100.297702632262 645.141548282536 3492.24973710927 201 201 203
-87.1909589090256 645.674315450744 3494.11975412293 201 201 203
-70.7818747148439 646.908746224152 3499.73958702487 172 172 174
-58.8908616357053 647.145460972848 3500.01871816956 161 161 163
-48.9360706959454 646.954223329005 3498.00840213932 174 174 176
-43.5692799777399 645.774776948157 3490.71793281455 184 184 186
-31.6062799374865 646.000157980583 3490.93442820242 191 191 193
-22.26038741916 645.659940333406 3488.12957084267 184 184 186
-11.5688593441092 645.596775714266 3486.80344472412 188 188 190
-3.51915607236331 644.971341129159 3482.47736764404 194 194 196
10.556703723883 645.598139481756 3484.83006847043 192 192 194
27.3607730425436 646.774578371534 3490.10824486911 179 179 181
39.5167263620144 646.970680354819 3490.15769044322 174 174 176
48.3312920553116 646.469419093559 3486.49113583558 171 171 173
64.6038973365037 647.486307805357 3490.90740872296 179 179 181
106.734350378722 653.736753096399 3523.16554122321 186 186 188
157.931546819148 661.747302963231 3564.7574491871 200 200 202
179.340583587081 663.676258923964 3573.97933918993 132 132 134
189.188589372676 663.26210293319 3570.7397613355 139 139 141
199.052905120915 662.845293562521 3567.486379757 186 185 190
208.933175206321 662.425624709386 3564.21887299768 194 194 196
220.903414995498 662.412042797896 3563.10738104866 194 194 194
-321.216601885686 649.711313011589 3589.74001253834 124 130 116
-316.552718844665 648.420347617318 3581.73592482415 182 184 181
-314.286641637367 646.545688112486 3570.52052496532 178 180 177
-311.450026770747 644.820234103626 3560.13291362619 172 174 171
-306.234653004345 643.680223075097 3552.9734272741 176 176 178
-298.616127626246 643.122385516101 3549.02031402968 161 160 165
-290.383870642231 642.707988598899 3545.85790442811 177 176 181
-282.138682192774 642.291520807759 3542.68430007993 195 194 199
-272.053958035489 642.306601991251 3541.88360569347 164 163 168
-250.947310204917 644.9155591927 3555.33327876171 164 162 165
-221.159617963783 649.527443371114 3579.7730293597 199 197 200
-197.980829206852 652.536624250908 3595.39420807456 136 134 135
-187.649479326759 652.517114593667 3594.37997845879 152 150 153
-180.388796817438 651.777654781021 3589.41493653589 165 163 166
-174.98696783105 650.608251684973 3582.09403320392 175 173 176
-173.332617332481 648.583264113841 3570.08623661648 176 174 177
-169.20935320703 647.131787851302 3561.22850199106 173 171 174
-164.474766273619 645.82405443022 3553.16324132915 181 179 182
-159.122739592739 644.659210130023 3545.88515839153 170 170 172
-153.778414352765 643.494946101934 3538.61406232224 172 172 174
-149.709088733546 642.048607860444 3529.80304484446 189 189 191
-142.478012502416 641.309032967261 3524.86366449278 181 181 183
-135.242551242164 640.568448332377 3519.92049002189 172 172 174
-126.723214511572 640.107664635726 3516.50955867248 179 179 181
-119.474867413853 639.364236751461 3511.5552340074 188 188 190
-114.797373345245 638.060000080741 3503.53943512457 192 192 194
-107.548435722103 637.315556687574 3498.58492072325 199 199 201
-96.4078032909978 637.406243424296 3498.19180362792 200 200 202
-80.0384842619422 638.605396665082 3503.84633102711 193 193 195
-66.8674306829118 639.101566228727 3505.66084553055 157 157 159
-57.579550320388 638.760439981965 3502.90659079205 168 168 170
-48.9313853998525 638.27814470936 3499.38413881529 187 187 189
-41.5872837601272 637.51771921346 3494.34693039175 190 190 192
-32.2582481999332 637.169381467517 3491.55673618198 193 193 195
-26.2242285252494 636.131029685616 3485.01030211295 190 190 192
-16.8725746466052 635.778538002371 3482.20053071118 192 192 194
-6.17159986960569 635.697093508841 3480.86633525054 194 194 196
13.244232302053 637.387839712738 3489.17082918283 190 190 192
31.3969712719113 638.794848361629 3495.92509276386 177 177 179
41.5483477993899 638.559140445017 3493.74467710703 172 172 174
47.6723920772319 637.50546100358 3487.12031480216 173 173 175
62.589304734217 638.213316686972 3490.06709601428 191 191 193
113.529421728908 646.081292395467 3531.88243234565 193 193 195
162.694269590653 653.507739010507 3571.26953674908 206 206 208
182.067533158103 654.973506206535 3578.28912341822 140 140 142
191.925456092937 654.547175261207 3575.04102890809 167 167 169
201.112586255756 653.983972547088 3571.0519606652 202 201 206
211.689705724727 653.686228120695 3568.50294029596 198 198 200
222.978218435077 653.51880203915 3566.66006175251 188 188 188
-278.137131425727 654.315711108995 3664.85702786503 107 118 104
-320.080372183444 641.629419175635 3592.77767041661 144 150 138
-317.192321148553 639.914165625373 3582.34541140235 186 188 185
-313.135426181799 638.488665013581 3573.54503298953 182 184 181
-309.094272112337 637.064894992098 3564.75828656392 165 167 164
-304.468481118764 635.785676933394 3556.78713847343 187 187 189
-299.251858088592 634.65029630465 3549.62622382158 184 183 188
-291.624436971592 634.085114664165 3545.66576342318 156 155 160
-280.955145447139 634.229067000787 3545.68082927138 152 151 156
-267.213068276418 635.078101938642 3549.64496778333 204 203 208
-244.870992306045 637.902479326242 3564.66929220473 180 178 181
-215.068223133537 642.408108935961 3589.09634810377 178 176 179
-196.175801522777 644.353463975598 3599.17611178346 162 160 161
-186.453932260299 644.175590705132 3597.36790625456 155 153 156
-181.662684780019 642.870317542512 3589.25351991751 168 166 169
-175.641209404897 641.846560590392 3582.71786386895 177 175 178
-173.984884291345 639.843135604462 3570.70821608563 176 174 177
-169.235362776087 638.541924700143 3562.62996881874 174 172 175
-165.124889334583 637.102411513701 3553.78324281783 183 181 184
-160.401274714079 635.803671465129 3545.72743397664 171 171 173
-155.058386395937 634.64490862196 3538.45723217848 177 177 179
-147.823220500101 633.902499546636 3533.51464104581 186 186 188
-139.312923402504 633.435627118073 3530.11158412638 175 175 177
-134.614682625458 632.138298016592 3522.07775856438 178 178 180
-128.649571299638 631.117528207235 3515.59062039373 185 185 187
-122.046658399412 630.234382395258 3509.87336125104 189 189 191
-116.730641076834 629.076176368621 3502.62676141527 190 190 192
-106.25739169704 629.014141398184 3501.48981796768 203 203 205
-91.8731004552837 629.768252192677 3504.89762605812 194 194 196
-76.1395352047871 630.788078876009 3509.78140079039 166 166 168
-66.2149368206184 630.574497507532 3507.79739852123 164 164 166
-59.5390318901012 629.678407667603 3502.01695843985 178 178 180
-50.2392921683512 629.32401424582 3499.25219522721 193 193 195
-42.8968905619849 628.561115071965 3494.21679182603 192 192 194
-34.2303264689381 628.067089541465 3490.67846863746 194 194 196
-28.1999806928921 627.031905209976 3484.13488283044 196 196 198
-17.5244424909193 626.938016462942 3482.82281480275 198 198 200
-6.15808879654534 626.974470279698 3482.23440840576 190 190 192
14.59302795045 628.881202216851 3492.02700086447 181 181 183
30.0676303878809 629.706696928012 3495.81291086621 176 176 178
41.5612097417926 629.724430089388 3495.11435472734 179 179 181
47.6877517801766 628.673086951695 3488.48749687148 191 191 193
65.9871756994166 630.012132948564 3495.11506373403 187 187 189
109.463149040233 636.244467849299 3528.85394004014 190 190 192
164.050649664982 644.562102591756 3574.1219794601 207 207 209
