ply
format ascii 1.0
comment KinectMotionCapture
element vertex 761
property float x
property float y
property float z
property uchar red
property uchar green
property uchar blue
end_header
-27.7143814391774 806.131913289675 3364.17921701363 239 241 240
-10.4410846429828 802.186301316413 3350.70406130489 238 240 239
6.26341168685252 798.421987385236 3338.07629349023 237 238 240
24.2919363430456 794.141318914968 3322.75159032441 236 237 239
42.6839992523611 789.694169488633 3306.49679218967 235 236 238
58.6348428328902 786.124375300926 3294.64095221705 236 237 239
71.2546801149483 783.776566917113 3288.97957771601 225 225 227
81.9801854995301 782.126122597875 3286.86140559749 222 222 224
93.5935357757176 780.130886458147 3282.94771273774 217 217 219
102.430703576654 779.176793300309 3284.37517773455 217 217 219
111.258453121425 778.22317192682 3285.7990829966 220 220 222
119.174895180317 777.615095413288 3289.00900345355 220 220 222
130.231936482191 775.798708537598 3285.94751753919 221 221 223
141.254346807342 773.984557312411 3282.87199284164 223 223 225
152.68570577791 772.000397954936 3278.88427180379 224 224 226
165.400085519316 769.503002629982 3272.18350256075 225 225 227
178.498043786147 766.837579311744 3264.56024978633 225 225 227
192.843592842385 763.661607524845 3254.20958308729 226 226 228
203.21376312085 762.033188689522 3251.94737135016 224 224 226
213.985025162722 760.235378793974 3248.77003462606 219 219 221
224.293240114761 758.610762705139 3246.48270879164 219 219 221
234.145960398774 757.158622506587 3245.08845721066 222 222 224
243.550630757775 755.878572167672 3244.59055435949 220 220 220
251.67352627567 755.110667363889 3246.80646967338 214 214 214
261.464666572234 753.661762189497 3245.38726027039 211 211 211
269.152735216434 753.06424748462 3248.50463389122 209 209 209
278.080645758068 751.956773767189 3248.89119442141 204 204 204
286.583202626063 751.019591727938 3250.18330686279 202 202 202
295.484177928968 749.913116293034 3250.5589539386 204 204 204
303.153821950302 749.314939284846 3253.66887258001 190 190 190
310.017953803171 749.054104500217 3258.60770436589 193 193 193
317.292911580177 748.623161798186 3262.63561511779 143 143 143
324.971240343738 748.022652871323 3265.74906782521 217 217 217
333.045354407073 747.253118943272 3267.94498699491 206 206 206
341.114610492838 746.483426504782 3270.13919763186 210 210 210
348.398468412039 746.049482695181 3274.17047750941 190 190 190
355.687537202273 745.614702191345 3278.20413080026 180 180 180
363.752526007028 744.843619748523 3280.39636695461 189 189 189
371.429843423625 744.239873375081 3283.50943471377 192 192 192
377.966747322463 744.137102632132 3289.39364150289 199 197 198
383.763629321018 744.366689243932 3297.13357299341 200 198 199
389.961126388035 744.426808424921 3303.95792983888 200 198 199
398.787099769344 743.318444582227 3304.30322348068 199 197 198
407.597925347631 742.210712998598 3304.64237909182 198 196 197
414.555909651937 741.934755816977 3309.61958292173 196 194 195
417.509140444184 743.483511556597 3324.82912080772 205 204 202
421.615588284408 744.52908174397 3337.27272047317 202 203 198
-32.2511757512136 796.350635558657 3352.70639553032 238 240 239
-24.0517223542263 795.725576212611 3356.03103400179 235 236 238
-7.75008239637853 792.177000075718 3344.31732540094 236 237 239
9.88874236838244 788.119210948544 3329.91221151042 233 234 236
28.3705380926456 783.725510765529 3313.6930832006 233 234 236
43.4594030244846 780.539424754861 3303.64345650575 232 233 235
58.473499616414 777.358580488415 3293.56325968132 229 230 232
71.5570605612343 774.866934536839 3287.01192571792 218 218 220
82.740454589022 773.062205808748 3284.0015107631 216 216 218
92.0540309792626 771.94193001151 3284.54432170415 210 210 212
99.9842996655917 771.333535129537 3287.75984287791 210 210 212
110.63828373896 769.703402454907 3285.61255832957 215 215 217
120.811544447549 768.245024680243 3284.3481385787 218 218 220
132.306422863776 766.278691741475 3280.38625822233 219 219 221
141.084494129929 765.332598265025 3281.78973481474 221 221 223
152.515250813844 763.37017993692 3277.80186235076 222 222 224
166.112013826842 760.564266692966 3269.30282882234 223 223 225
181.398280734798 757.086662147399 3257.17746490922 223 223 225
195.291033327881 754.121633029521 3247.72041615346 222 222 224
203.910817788795 753.185355093324 3249.0599863653 221 221 223
212.521241326793 752.249196570397 3250.39550827399 217 217 219
222.836135654516 750.640310387094 3248.11076764315 216 216 218
232.695249265418 749.201317082744 3246.71926225169 215 215 217
242.953169527372 747.595779213882 3244.41142784524 213 213 213
250.655834865834 746.998064457921 3247.53471308067 207 207 207
259.614181395678 745.897384874015 3247.93354542956 205 205 205
267.310323696413 745.299081068207 3251.05419399798 203 203 203
275.83352765861 744.366181032554 3252.35463384537 198 198 198
285.168767012409 743.099676881836 3251.82825896826 197 197 197
294.484098279381 741.834146836525 3251.29407329069 190 190 190
302.968125091234 740.902647114135 3252.57863997298 194 194 194
309.426673305161 740.802712409403 3258.43084237649 180 180 180
316.301310946375 740.535032358557 3263.37423699357 193 193 193
323.186423585344 740.265954520297 3268.32188345801 177 177 177
332.059923233313 739.167035779283 3268.68634855777 218 218 218
340.918547834533 738.06878746347 3269.04478577466 194 194 194
347.419118157549 737.962828087203 3274.91430552487 184 184 184
353.159212782111 738.185382482347 3282.63104028501 182 182 182
360.081123698518 737.91063948481 3287.59362905209 182 182 182
369.31086444782 736.646391214337 3287.02477866373 189 189 189
377.379438600519 735.87660877784 3289.21845664642 192 190 191
383.931605971285 735.763871539564 3295.1089190507 194 192 193
390.87436369733 735.485265172571 3300.07997782686 195 193 196
398.945697232851 734.713614858548 3302.27504444869 194 192 195
405.901346192497 734.432826923247 3307.25108210332 194 192 195
412.131685050493 734.477731353011 3314.08885168136 197 197 197
415.825915184321 735.66347140651 3327.44355023336 185 185 185
420.663901648807 736.355000090762 3338.02815473889 192 192 190
425.902452888251 736.879839503669 3347.69740040475 201 202 197
-36.7383725701529 786.613488297836 3341.25332122427 235 237 236
-29.0442830739923 786.160038497674 3345.45110604272 236 237 239
-18.9475180377969 784.858515273996 3345.23333296376 233 234 236
-3.14929655476792 781.527481925754 3334.39321023766 234 235 237
15.4145954543881 777.187830600051 3318.20691245738 230 231 233
28.6796971368704 774.713512738606 3311.72895171257 231 232 234
41.4211254636152 772.411483371475 3306.11646157314 230 231 235
55.5128806809348 769.607478781638 3297.81783242047 225 226 230
68.611745307098 767.144543701473 3291.27221996229 215 215 217
79.3480627885843 765.525581631652 3289.15818695847 213 213 215
89.5957824860432 764.076392662833 3287.92410270351 207 207 209
98.9061762336727 762.963990473504 3288.46556533527 207 207 209
110.472147132972 761.01476981765 3284.53234011607 212 212 214
120.644289666611 759.569960145062 3283.26736478156 218 218 220
133.485483846195 757.124057047646 3276.61755151063 219 219 221
142.700616897459 756.017050245043 3277.12040286457 221 221 223
155.008522994974 753.743778965969 3271.33216466203 222 222 224
167.266557882218 751.473831240332 3265.52370876752 223 223 225
179.474771279836 749.207322681063 3259.69505443626 223 223 225
190.760590838762 747.27626841785 3255.64800299779 220 220 222
200.705276815371 745.845678505454 3254.2910815566 219 219 221
211.487793592322 744.085024407743 3251.11802016433 216 216 218
223.52158601873 741.830003627096 3245.21865694114 214 214 216
232.522296958645 740.735591542928 3245.63459483412 211 211 213
242.779326200154 739.146443143997 3243.32627543207 209 209 209
251.322161248445 738.218837551924 3244.6343664104 204 204 204
261.111045515647 736.797273943239 3243.21429354201 201 201 201
267.130886462058 736.857988974509 3249.96671416429 199 199 199
275.652513550161 735.9305094707 3251.26621723381 195 195 195
284.164412158524 735.003227449158 3252.56203704037 193 193 193
293.075110448492 733.912240780162 3252.94150348425 185 185 185
300.34743779444 733.476909136313 3256.96812523365 193 193 193
306.415120995021 733.531263343037 3263.7399650596 184 184 184
314.10677183583 732.930057589581 3266.85881706364 185 185 185
321.400389546149 732.491449669372 3270.89434119083 127 127 127
330.678424079696 731.236979650239 3270.34471327113 182 182 182
339.543184084187 730.146374787898 3270.70557673413 193 193 193
346.830112203031 729.70668291671 3274.73840050909 179 179 179
351.79334565858 730.240184498997 3284.29610629448 183 183 183
359.106146637032 729.797402101809 3288.33917200611 181 181 181
367.956620326996 728.705657625486 3288.69425967935 182 182 182
376.411420100316 727.776383842424 3289.96697566843 190 186 187
383.344157605845 727.493615356165 3294.93375164935 192 188 189
389.911561487053 727.370824094518 3300.83045941571 191 189 192
396.867195464072 727.085190067967 3305.80678496257 190 188 191
403.833107765834 726.798149361956 3310.78702556614 190 188 191
410.441202991831 726.670460470453 3316.70024609292 191 191 191
415.968363150747 727.022805631378 3325.40884678517 193 193 193
420.074540227279 728.013642360729 3337.85275168501 200 200 198
425.672545353017 728.359179085663 3346.59008860938 185 186 181
-37.8686982343439 777.970294563357 3341.94023877893 225 227 226
-29.6898115676372 777.34659568834 3345.25653961476 222 223 225
-20.071472780874 776.222378460376 3345.92277656978 226 227 229
-3.7901851172677 772.76791831662 3334.20011409536 228 229 231
14.778419718446 768.487878921615 3318.01527266304 223 224 226
30.4055326407682 765.212549750339 3307.10518984181 224 225 229
44.0754777245502 762.606536720701 3299.71308017056 223 224 228
57.2187841678371 760.170531109045 3293.18551499835 216 217 221
67.521668118947 758.731377620568 3291.97369029335 204 204 206
78.7239249317289 756.962998116391 3288.97038000301 204 204 206
88.9730562993953 755.527117038655 3287.73676645314 201 201 203
98.2843924712096 754.422560516439 3288.27855119778 203 203 205
107.127352394264 753.483400806081 3289.7082481924 211 211 213
118.219308949625 751.721692495046 3286.66048476863 216 216 218
132.420589681785 748.811566633421 3277.32819794924 216 216 218
143.425649823805 747.055637104442 3274.24520698066 219 219 221
154.396159519922 745.30190695761 3271.14821011017 220 220 222
164.448921845772 743.877853238548 3269.83474124934 221 221 223
176.672183686113 741.63732065807 3264.01198303528 221 221 223
189.282048544829 739.236764147607 3257.26816244357 217 217 219
199.233307964533 737.819138358777 3255.91354705193 216 216 218
210.022709095021 736.076917739264 3252.74313336498 214 214 216
221.206165995527 734.174112610274 3248.65467911586 211 211 213
231.070780392892 732.761707701338 3247.2649421946 204 204 206
241.334516554079 731.188287025681 3244.95921916505 200 200 200
250.304527693719 730.10333092122 3245.36265525225 195 195 195
258.84107405736 729.181089908248 3246.66841655114 193 193 193
265.703234248207 728.906274286405 3251.60655599594 191 191 191
273.403349645368 728.306968274432 3254.72882083947 187 187 187
282.33736045244 727.222796719329 3255.1179319265 186 186 186
290.84814646116 726.300450125267 3256.41300661359 179 179 179
298.536949660624 725.700396514689 3259.53069689486 190 190 190
305.41900398089 725.421458819921 3264.47717980271 187 187 187
313.514786637568 724.659294097452 3266.68181657604 178 178 178
320.808698428113 724.217793624886 3270.71748169899 129 129 129
328.900074149796 723.454902085767 3272.92033964457 132 132 132
337.380011239514 722.531766270216 3274.20318703116 202 202 202
343.89561758911 722.408117413386 3280.07892884363 176 176 176
349.649963923848 722.601985888876 3287.80165145188 175 175 175
356.201497315899 722.474354853857 3293.69197005358 177 177 177
365.834902765147 721.07109256475 3292.20854896583 171 171 171
373.91997949466 720.305436871402 3294.40913467212 184 180 181
382.378343063099 719.380782375958 3295.68325860369 187 183 184
388.948289781224 719.2495459619 3301.58080273214 187 185 188
396.279727341655 718.799692543674 3305.63172508698 187 185 188
402.875058098264 718.665393504054 3311.5398274735 187 185 188
408.74947046279 718.845415605596 3319.31126891981 185 185 185
415.745845785906 718.549380586226 3324.30416918627 195 195 195
420.937191111135 719.040181538297 3333.95455951357 192 192 190
427.605939454 718.897824157074 3339.89244924157 195 196 191
434.289811121914 718.75379037433 3345.8364750036 137 140 133
-43.3615749078087 770.799345680491 3350.55941881199 221 223 222
-33.710527295554 769.680965424079 3351.23885509647 215 216 218
-20.7159584935566 767.415458292815 3345.72858291661 222 223 225
-3.47659907773346 763.679360430117 3332.23809814274 224 225 227
15.56624400434 759.295686711138 3315.16724979897 218 219 221
30.7173246298595 756.227516772801 3305.14166280026 220 221 223
44.8544685161545 753.491169238276 3296.86089837663 219 220 224
56.124640808821 751.737368722271 3293.88523330558 211 212 214
65.0378946492172 750.799807474954 3295.34363692084 200 200 202
75.3280397299037 749.374699867675 3294.1262906468 201 201 203
86.5126295451784 747.626065936171 3291.11593467461 199 199 201
96.7489029216695 746.204204875325 3289.87700874714 203 203 205
106.506502838889 744.945782280219 3289.52158341914 212 212 214
117.148302685828 743.364759175808 3287.36925055308 215 215 217
131.355411361277 740.492314144688 3278.03878058974 215 215 217
142.364827176695 738.754898884289 3274.95741286941 218 218 220
152.451048777371 737.342295995875 3273.65766186469 219 219 221
162.954541407169 735.770054299268 3271.44900559733 220 220 222
175.185277091778 733.556097818818 3265.62907205036 220 220 222
188.239534366718 731.024179759798 3257.98711311992 216 216 218
199.062965164483 729.29883970718 3254.83034985449 215 215 217
209.420057470014 727.735985318063 3252.56234597797 213 213 215
220.176501960051 726.014786831049 3249.37842903834 210 210 212
229.618455961924 724.775508798154 3248.89531302753 202 202 204
239.464868833204 723.377547264363 3247.49809696024 197 197 197
248.864976725715 722.14050865043 3246.9980207815 192 192 192
256.988510539497 721.382416332615 3249.21412016091 190 190 190
264.274725384644 720.942338065966 3253.24640083862 188 188 188
271.980364517696 720.342415090443 3256.37090688015 184 184 184
280.920607672142 719.265795057931 3256.76222693553 183 183 183
288.619606122982 718.665382017466 3259.88404792636 184 184 184
296.319021228792 718.064397981284 3263.00604194584 164 164 164
304.01885298957 717.462842949386 3266.12820899395 189 189 189
312.52148372962 716.545022514682 3267.42020458992 182 182 182
319.818313123468 716.100427046914 3271.45681726249 191 191 191
326.724400036327 715.812447464573 3276.41284210561 131 131 131
333.640837458843 715.523164207958 3281.37332490493 111 111 111
341.740985069637 714.761126453206 3283.57998528148 177 177 177
348.670696658004 714.469691065381 3288.54560178269 167 167 167
355.224668297545 714.333647638456 3294.4369713772 150 150 150
363.711477478359 713.413344709814 3295.72257975236 161 159 160
371.426447233697 712.805778346708 3298.85092163166 170 168 169
380.276857086481 711.729341610391 3299.20586742919 176 172 173
386.480902398544 711.745006550674 3306.03321256379 180 178 181
394.198737644787 711.135658981423 3309.16272816115 182 180 183
401.916627651408 710.525739200633 3312.29227026781 184 182 185
408.897920891154 710.225967577983 3317.27909222781 185 185 187
416.62090453968 709.614538379592 3320.41070815503 177 177 179
422.164561610041 709.932077429522 3329.12599492434 190 190 190
427.017061318813 710.556189032758 3339.71724396948 183 185 182
431.193749181227 711.485578556679 3352.19016394092 199 201 198
436.843481866223 711.793064177684 3360.9487334052 133 134 128
-49.8279214660369 763.895867549261 3360.94003670473 224 228 227
-38.6986379393859 762.29869784124 3358.98520491984 192 196 195
-24.2394380238462 759.574612908093 3350.83474575762 207 209 208
-4.11675185797877 754.922368674855 3332.04528041951 214 216 215
13.0318009747692 751.244484151234 3318.51758746112 213 215 214
29.6130190822184 747.734152590354 3305.83798004893 217 219 218
43.7556425353824 745.032608932589 3297.55917045927 216 217 219
55.9646122975403 742.97684959738 3292.80803309641 203 204 206
65.8055608823955 741.724460675319 3292.48656654743 194 194 196
76.0894816433553 740.31317628014 3291.26659531417 206 206 208
85.4297378013014 739.222766909885 3291.8199823251 194 194 196
95.6698784658268 737.814078962228 3290.5825223866 207 207 209
105.885772779634 736.406719660436 3289.33497797485 213 213 215
118.337468839538 734.205264507183 3283.60441496451 212 213 215
130.289846802096 732.16612292698 3278.74951666515 213 214 216
140.856578777285 730.606086413161 3276.56637304954 217 218 220
151.838265943841 728.889398633492 3273.47362108673 219 220 222
163.227274953115 727.016520337594 3269.46790936895 217 218 220
178.091802510305 723.881111592133 3258.24800056787 216 217 219
189.380992230423 722.015060407601 3254.20207820477 214 214 214
199.761831389613 720.467032020497 3251.9435768843 213 213 213
207.953831230755 719.708685900549 3254.18739959773 211 211 211
217.858618167177 718.320714756112 3252.81374305215 208 208 208
227.311935126824 717.091326043917 3252.33515286422 201 201 201
237.169801015306 715.705990982342 3250.94273556393 193 193 193
247.003027468641 714.32210537413 3249.54007371759 186 186 186
254.296554516365 713.879086619317 3253.57533734251 185 185 185
262.428870453815 713.122390673901 3255.79498195756 185 185 185
269.728507587565 712.677841746626 3259.83273111139 181 181 181
277.856758206277 711.920451695047 3262.05073496877 179 179 179
285.162426996396 711.474438585248 3266.09093739571 183 182 180
294.099536521602 710.405210068585 3266.4809326411 172 171 169
303.021854214549 709.336555720041 3266.86493442618 158 157 155
311.527879813879 708.423756502093 3268.15826651721 180 179 177
318.029710838949 708.286165348563 3274.02853647701 156 155 153
324.547047843075 708.146837588502 3279.90509786107 192 191 189
331.079916269089 708.00574131807 3285.78796121284 132 131 129
338.802138114571 707.399722437102 3288.91922768267 175 174 172
346.913436007654 706.638988508106 3291.13013562046 172 171 169
352.702429133013 706.802041689099 3298.86737726728 151 150 148
360.819118909491 706.039799187466 3301.08073700165 154 153 151
368.168653778731 705.584661808727 3305.13876965327 163 163 163
377.416467503947 704.361452571253 3304.57692582035 171 169 170
384.387658268171 704.058571428044 3309.55942370223 177 177 177
393.236802318834 702.989378223135 3309.91380208143 176 176 176
401.699714723088 702.073628627883 3311.18970030774 176 176 176
408.678672670226 701.768488262504 3316.17536019133 179 179 179
416.03360613741 701.309659951397 3320.23586389989 181 181 181
421.576605562464 701.610782789023 3328.95100882367 186 186 186
425.706345896584 702.517052407481 3341.40509531551 187 187 187
430.961657801609 702.963387541642 3351.0819795239 189 189 189
435.896628855604 703.557926821134 3361.70658755708 190 191 186
-55.8140028748044 756.766837027105 3370.43826926873 226 230 229
-45.6203763070102 755.500977320324 3370.25944441915 200 204 203
-27.7649881156858 751.699685277176 3355.94007135049 198 200 199
-7.62197702487843 747.114059745552 3337.1585877057 208 210 209
10.9708961769526 743.011963906571 3320.98222359954 190 192 191
27.0911845011745 739.707714586992 3309.19323507413 204 206 205
41.2468429803226 737.040495753329 3300.91944310149 190 192 191
53.9355076147321 734.850542620116 3295.28473980889 186 188 187
64.2501571328689 733.450781363095 3294.07712308985 187 187 189
74.5403430704161 732.052594239122 3292.85984653509 198 198 200
82.5071143105387 731.440619903048 3296.09017446602 191 191 193
93.6759374951264 729.730684860517 3293.07314136954 206 206 208
107.084254255312 727.239995835191 3285.57422611584 211 211 213
120.884985212701 724.597041685204 3277.15654258009 208 209 211
131.472753059266 723.052075847495 3274.9818020084 209 210 212
142.478169604217 721.352905378996 3271.89852512665 215 216 218
153.448933931941 719.656061907999 3268.8012001692 215 216 218
166.153616320933 717.338852858515 3262.0951387739 214 215 217
178.363820928146 715.180829606197 3256.26646838028 213 214 216
189.212904272673 713.491982848604 3253.11981504038 212 212 212
198.723793067636 712.270352118944 3252.66421925147 211 211 211
206.918930385887 711.514268018881 3254.9092951617 208 208 208
216.827581969058 710.139524559028 3253.53736034856 204 204 204
225.857706771758 709.075061165129 3253.96498070365 197 197 197
236.570946839247 707.394287091139 3250.76326419285 190 190 190
245.561791326389 706.331919609271 3251.17496433953 183 183 183
254.118690161739 705.424001853467 3252.48860041734 181 181 181
261.832349735629 704.823712425912 3255.61635665625 180 180 180
270.375090479464 703.915930083468 3256.92425919654 176 176 176
277.261141301435 703.621432847159 3261.87247819675 174 174 174
283.748577947902 703.478675754425 3267.73695913086 167 166 164
292.285140182811 702.569888521093 3269.04236765338 165 164 162
301.216113554516 701.508677949319 3269.42981763977 165 164 162
309.730594639586 700.600588668332 3270.72653759715 153 152 150
315.840842468832 700.606349937574 3277.51597986144 159 158 156
323.161364878459 700.153780154094 3281.56224611167 163 162 160
328.517107235538 700.459661330952 3290.20179313259 141 140 138
337.426946395984 699.39746514655 3290.58069349699 138 137 135
345.543900919033 698.638967564016 3292.79413203991 163 162 160
352.883224414205 698.182786154119 3296.84803809185 148 147 145
360.22771402142 697.725771596158 3300.90429940761 141 140 138
366.814891039066 697.56943894497 3306.80901018512 156 156 156
374.174903892387 697.110148427517 3310.87157400459 162 162 162
380.787584870983 696.950833313691 3316.78689098832 165 165 165
389.284352431684 696.038384462095 3318.07621468275 170 170 170
398.884600245434 694.675970594039 3316.57931590954 172 172 172
406.984916468753 693.914462879329 3318.785783312 173 173 173
413.981632780834 693.601962415785 3323.77894644605 176 176 176
420.26128462502 693.587039325956 3330.63713597974 183 183 183
424.03360892363 694.614855902284 3344.02439409712 185 185 185
429.295758912123 695.041436664846 3353.70393950335 189 189 189
433.881218325291 695.762420527366 3365.26513969946 191 191 189
-67.1672979610571 749.271240319391 3371.29251290457 223 227 226
-56.4657466919962 747.858424210109 3370.24190614699 218 222 221
-47.7193602235813 747.071074628387 3372.71015869684 207 211 210
-33.2139047105169 744.4139803044 3364.57792032837 194 196 195
-12.5626037996089 739.738580586901 3344.92411195745 204 206 205
8.43381564711865 734.917184315602 3324.3318236585 176 178 177
25.5131910020929 731.347709628854 3310.77555673813 193 195 194
38.7366290722029 729.02524172664 3304.27931848348 177 179 178
51.9052946620835 726.706599834529 3297.76113146538 179 181 180
61.7637019560704 725.474317200606 3297.44658142407 182 182 184
73.4532239703418 723.625151824267 3293.56236555925 195 195 197
80.5027643134622 723.321258297743 3298.57685153166 192 192 194
92.1385379466171 721.475424775305 3294.6708480729 207 207 209
105.09961655874 719.17065923794 3288.06850537663 208 208 210
118.458485688478 716.71592784677 3280.54929657801 206 207 209
129.95769026935 714.879354841728 3276.58818431018 208 209 211
142.312120471281 712.738776723494 3270.8177776105 214 215 217
154.616768398415 710.60160477666 3265.02718860198 214 215 217
166.429320600223 708.620680200396 3260.11497734541 212 213 215
176.877621697644 707.100901100118 3257.88357676474 212 213 215
186.859011310157 705.735398544325 3256.54102302173 211 211 211
196.815915080656 704.37136316105 3255.18828678714 210 210 210
205.883748651102 703.312938363676 3255.63112938469 206 206 206
216.225967924569 701.799556014066 3253.35698576465 202 202 202
225.684330196655 700.591292382185 3252.88002103915 195 195 195
235.54756071267 699.232670641876 3251.48957335891 189 189 189
244.119922067786 698.329355989632 3252.80943521135 182 182 182
253.941281031609 696.973005572124 3251.40201681974 180 180 180
262.069914144412 696.221717680759 3253.61987206702 179 179 179
270.608345876139 695.319681056595 3254.92624359435 174 174 174
276.253623468663 695.471530597018 3262.6051235323 172 172 172
282.743448641974 695.320245499445 3268.470636204 167 166 164
290.062638351677 694.866939023872 3272.51662566393 161 160 158
298.196143922392 694.112874052688 3274.73647478446 165 164 162
306.726677850816 693.20892267231 3276.03966306042 162 161 159
313.25105600828 693.052927395175 3281.91920169291 136 135 133
320.981237027886 692.44714467725 3285.05368898599 158 157 155
326.346525709622 692.735657174104 3293.69697566956 151 150 148
334.092509617605 692.127636117256 3296.83787840639 120 119 117
342.616975317189 691.221595138857 3298.13862553799 172 171 169
350.358370570542 690.612921438768 3301.27767530786 150 149 147
358.484105885089 689.855317651276 3303.49440512989 148 147 145
364.315565621471 689.986463193209 3311.24908305838 153 153 153
371.688622698359 689.523335143514 3315.31670025263 163 163 163
379.066775508649 689.059259969516 3319.38664507878 164 164 164
388.319935683978 687.856464528601 3318.82655402814 167 167 167
397.92417126471 686.507483220875 3317.33116805843 170 170 170
405.289919062303 686.042782331979 3321.39583769888 170 170 170
411.561708705989 686.018021331578 3328.25091845186 173 173 173
418.58130392899 685.697640940375 3333.25340482285 180 180 180
423.804669566914 686.10867425833 3342.91736456522 182 182 182
429.422141755591 686.370028182299 3351.66322164838 186 186 186
432.576499522343 687.651430720524 3366.95622088831 188 188 186
439.6870246364 687.32175937486 3371.99533732546 112 109 104
-67.3321233034534 740.194467222154 3370.2157676113 221 225 224
-55.6608152201401 738.488208357664 3367.4021592322 204 208 207
-46.9214496411987 737.703806071966 3369.86754673386 199 201 200
-34.3425711548095 735.694739462541 3365.26608610577 170 172 171
-16.5507357258388 732.00688654798 3350.92012113542 176 178 177
6.37063662141069 726.646617436041 3326.79582736126 160 162 161
23.4619128284217 723.127851833843 3313.24373742413 178 178 178
36.6952994589045 720.834538139345 3306.75156351682 163 163 163
48.9385226684564 718.849171141368 3302.01376157783 161 161 161
57.4148170767552 718.082198839612 3304.37275853501 177 177 179
70.0520023765123 715.9496147132 3298.71677678245 191 191 193
80.3382848452265 714.578098115062 3297.49771758545 195 195 197
92.8889661911749 712.451267090844 3291.80641016027 208 208 210
105.844980325689 710.176731077821 3285.20178776128 203 203 205
117.388354529012 708.358835530502 3281.25841789117 203 204 206
128.442005493794 706.694309461448 3278.19440818977 208 209 211
139.461167944274 705.031983281786 3275.11616043174 215 216 218
152.670886633876 702.620117071842 3267.5364939949 214 215 217
163.608080404724 700.963233621263 3264.42527367033 211 212 214
174.510615654855 699.308588003446 3261.30000339367 211 212 214
185.378575556374 697.656089378638 3258.16046030271 210 210 210
196.646666633846 695.856357655144 3254.10549256498 208 208 208
207.010172315924 694.357971769917 3251.83959676559 204 204 204
216.484197842241 693.159789325262 3251.36915479485 200 200 200
225.93863141277 691.962651017669 3250.89077226549 191 191 191
234.523842810513 691.064206226754 3252.21580009709 187 187 187
243.944052489617 689.868793108237 3251.72354747967 180 180 180
252.924868111412 688.822851645443 3252.13106250495 178 178 178
261.056555529221 688.073916613715 3254.35039381123 177 177 177
269.59845303899 687.17693088957 3255.65787309659 173 173 173
276.069953426497 687.019147408763 3261.51601544808 170 170 170
282.557124474517 686.859703938177 3267.38051532146 168 167 165
289.466976200343 686.551216340059 3272.33847718244 167 166 164
297.196526058771 685.946888366265 3275.47269789626 156 155 153
305.328549412919 685.194973215816 3277.69193058273 151 150 148
311.458412042202 685.177093171248 3284.48949393556 156 155 153
318.005814774521 685.010426836995 3290.37843593927 154 153 151
322.20225621198 685.720597809021 3301.78220746701 122 121 119
329.187731222857 685.403100026581 3306.77085695602 117 116 114
338.519734525872 684.208165152686 3306.24262934923 106 105 103
348.218404216681 682.86846920424 3304.78540870233 173 172 170
356.739189650527 681.96708887587 3306.08437316736 144 143 141
362.577758786327 682.083952537831 3313.84203789415 140 140 140
368.821075898547 682.053078708345 3320.68563665409 154 154 154
376.591454528206 681.439956769977 3323.83645530449 164 164 164
385.110225433168 680.536673773409 3325.13461852272 160 160 160
394.733642559968 679.199771811116 3323.64690746721 161 161 161
401.010206620616 679.164201612677 3330.50400327863 169 169 169
408.773162415056 678.549605496085 3333.65182764942 171 171 171
416.536090717556 677.934473572704 3336.79964495018 178 178 178
424.298969211673 677.318897274776 3339.94744545211 180 180 180
429.19027570487 677.851734649606 3350.55509892359 184 184 184
431.983708574984 679.241273418663 3366.77995072566 185 185 183
439.802007514175 678.619662419922 3369.95023631525 198 197 192
-62.1257573458676 729.461549444695 3359.45841433067 221 225 224
-52.4257897305735 728.379283560875 3360.15738424131 199 201 200
-44.1894283379138 727.749327452118 3363.49700361534 196 198 197
-34.9906960599582 726.818319021413 3365.07094576243 169 171 170
-17.1945386207952 723.184549823642 3350.72632080362 166 168 167
4.7820958802014 718.208334444135 3328.37447184767 154 154 154
19.9901930980753 715.339782578956 3318.3704574134 165 165 165
32.3001911037524 713.374016471864 3313.65980077425 160 160 160
44.5657105298178 711.41136130052 3308.93085426619 155 155 155
54.4593043595032 710.197630972008 3308.63041038292 176 176 178
68.50037124226 707.643979643359 3300.3093602726 189 189 191
80.1744835947267 705.838954387419 3296.41857057462 193 193 195
93.6406139435333 703.44210083904 3288.9426096133 206 206 208
106.136256791098 701.346285139747 3283.22903962822 200 200 202
115.865243320203 700.143091156789 3282.86161032391 202 203 205
126.025049736393 698.793042142913 3281.59117914927 207 208 210
137.056006299797 697.148755036443 3278.51782723944 214 215 217
149.83351100738 694.916133404433 3271.84035270981 213 214 216
162.55596779479 692.687359605116 3265.14081772764 210 211 213
174.783412397679 690.609624616615 3259.31851912319 211 212 214
186.523373896185 688.682272147918 3254.37651034226 209 209 209
196.913093720583 687.198546674099 3252.12111734178 207 207 207
206.840470098841 685.863385866419 3250.75646404003 202 202 202
215.022943565796 685.115448343837 3252.9963506976 198 198 198
224.056101992136 684.074894147135 3253.42501812024 189 189 189
233.49982067677 682.888891663514 3252.94195557631 185 185 185
244.191172334416 681.266399960415 3249.73093483869 178 178 178
252.747921424755 680.374478762143 3251.0446462628 176 176 176
259.62557588497 680.064751724478 3255.98932384671 176 176 176
266.928629432719 679.608479583477 3260.02880236772 172 172 172
273.825054646705 679.296279068477 3264.98109884536 170 170 170
280.731979178646 678.982822865504 3269.93791316691 166 165 163
287.649589448239 678.668017368663 3274.89880706879 164 163 161
294.982370413779 678.207536920884 3278.95035390885 163 162 160
302.722900631532 677.601711344723 3282.08903184392 155 154 152
309.264760510094 677.427653490923 3287.97578561106 143 142 140
315.42506075199 677.395825143526 3294.7857786623 151 150 148
320.422121801145 677.792897599064 3304.35821509669 155 154 152
327.415264715177 677.469263013525 3309.35001578075 111 110 108
335.587510123271 676.71437036149 3311.58555666106 116 115 113
343.754826010138 675.959384643389 3313.81935954504 160 159 157
351.148389653638 675.490029136945 3317.89532690551 161 160 158
358.16520281355 675.162456926644 3322.89674135085 133 133 133
366.330513106642 674.40613570541 3325.12974230685 142 142 142
375.621559404675 673.222784544588 3324.58484369701 165 165 165
383.020639540135 672.751013951463 3328.66332017831 158 158 158
391.54032791559 671.852530017802 3329.96181849827 156 156 156
398.572805716136 671.521265907172 3334.96960342942 165 165 165
407.082392498812 670.622595998077 3336.26401309554 168 168 168
415.217562290674 669.865524506868 3338.4848160626 176 176 176
424.070961403581 668.826211001295 3338.84069080643 178 178 178
428.958756584625 669.337424043118 3349.44682925245 183 183 183
432.817126985622 670.266900720745 3362.86992944432 185 185 183
439.56359810854 670.067605710046 3368.83972014801 194 193 188
-67.1715437052949 721.905210517622 3367.18273107803 212 214 213
-55.5043448395536 720.236816611269 3364.36717189973 205 207 206
-47.2549994908502 719.605592703599 3367.7120579953 178 180 179
-38.523728600482 718.826279650588 3370.17438666635 199 199 199
-22.6214408186178 715.835292201206 3359.37356496691 168 168 168
0.338194221114918 710.641307418908 3335.26350309645 158 158 158
16.5163133305848 707.517632752885 3323.49656114035 152 152 152
29.314365080986 705.428074582972 3317.90538695095 164 164 164
42.531088754965 703.195259405012 3311.40600776813 149 149 149
54.2962524806168 701.405615686274 3307.55196753936 186 186 188
68.3376566079457 698.887295203149 3299.2307861788 184 184 186
80.4717115434195 696.95791466232 3294.44861564216 192 192 194
94.3937152428695 694.44791830535 3286.07902679817 199 199 201
105.061851633161 692.962338731586 3283.93637674977 201 201 203
114.341429054814 691.915142969896 3284.46486782214 194 195 197
123.156160770228 691.013935948915 3285.88284774409 207 208 210
134.201534969633 689.387485472792 3282.81519823632 215 216 218
146.994113521708 687.183641869896 3276.14386609665 208 209 211
161.060619927897 684.549420493425 3266.75491882505 207 208 210
174.17630634788 682.209209232285 3259.13637903572 209 210 212
185.48058288588 680.450491675969 3255.09549443229 208 208 208
194.568331678367 679.415081485192 3255.5464833445 206 206 206
204.074545729699 678.236441487971 3255.08866892692 197 197 197
213.130845645809 677.202542041 3255.52665573392 194 194 194
223.883538713455 675.59518547933 3252.34035697914 190 190 190
233.750956391739 674.276790083721 3250.95129974657 185 185 185
243.593748406874 672.959843050344 3249.55200355241 180 180 180
250.890904481858 672.502035655614 3253.58910586521 177 177 177
256.523367338381 672.614252733679 3261.26309761044 176 176 176
263.841949436535 672.153826679672 3265.30863779067 172 172 172
271.578638806383 671.550188353928 3268.44574401483 170 170 170
279.725758141998 670.803856350852 3270.67130386525 166 165 163
287.460821937775 670.1993605106 3273.80775840569 164 163 161
294.791404792171 669.736100711931 3277.85817908626 161 160 158
302.529842248859 669.130351277153 3280.99600910005 158 157 155
307.869408630908 669.372268430038 3289.62949141294 153 152 150
314.034451912108 669.328975833466 3296.44149178314 148 147 145
318.246031462253 669.988422940067 3307.85177709871 150 149 147
325.64170961712 669.517584830589 3311.9286118476 139 138 136
331.873409157589 669.467630919196 3318.76790858326 106 105 103
339.287309287503 668.994392699145 3322.85213947317 144 143 141
345.93713659051 668.800542881355 3328.78275850458 161 160 158
355.277220601572 667.625286249072 3328.25791079017 126 126 126
364.217610022785 666.590796780559 3328.64897072974 126 126 126
373.519941650651 665.417455228987 3328.10882282657 158 158 158
380.555023619485 665.081417337096 3333.11744112446 158 158 158
388.716193398968 664.326619683049 3335.34875406756 159 159 159
395.394528642794 664.127522429402 3341.29095553673 160 160 160
405.023474570138 662.816549105891 3339.80502929489 162 162 162
413.169448030684 662.061431137091 3342.03019178382 170 170 170
423.481408032976 660.475991727768 3338.6652772018 173 173 173
428.727414430828 660.827128888874 3348.33885802429 180 180 180
434.008798837513 661.175014795879 3358.02678779597 182 182 182
437.908558736243 662.070552534437 3371.46664632412 176 177 172
445.38093892832 661.585681830678 3375.57490077521 195 196 191
-66.8455994937134 712.69800425804 3365.22661818419 220 222 221
-59.5567713843517 712.35653215429 3370.33827491622 197 199 198
-50.3222503889706 711.433303922793 3371.92639146356 191 193 192
-42.540008063191 710.945223491643 3376.16013123003 144 144 144
-29.4876786885063 708.864391239784 3370.67184611231 147 147 147
-7.44077316746106 704.040985203313 3348.34729114225 159 159 159
13.0402501842819 699.661463981051 3328.62203868699 142 142 142
27.739532758418 697.021104146442 3319.48934453848 161 161 161
41.9007212415337 694.529667131847 3311.21645924708 151 151 151
53.6678193692999 692.761509103252 3307.36303938837 184 184 186
65.8586278293909 690.852498945788 3302.60369355052 182 182 184
76.1617376566093 689.519883878699 3301.39089554242 178 178 180
89.6486024691288 687.186638607749 3293.92259045887 198 198 200
101.252498832077 685.42949249983 3290.00326511898 199 199 201
111.457285919483 684.103232732663 3288.75060875745 195 196 198
122.538951659886 682.493334179163 3285.6975279789 207 208 210
135.826936830207 680.173807968037 3278.14885117457 213 214 216
148.163800133427 678.142846276297 3272.37050089921 206 207 209
160.894072253066 675.973204911529 3265.6734248555 207 208 210
173.569275212027 673.807502726454 3258.95427906674 208 209 211
184.437418243882 672.211950804526 3255.81463571003 207 207 207
192.657771150955 671.467084853302 3258.06957897678 204 204 204
200.873651113873 670.722119550319 3260.32296915969 196 196 196
210.376596812239 669.553954798177 3259.86400923615 192 192 192
220.715798514333 668.105345241984 3257.58789563614 188 188 188
231.876016611503 666.377283657039 3253.48870765148 184 184 184
242.150648408868 664.932713883524 3251.18641953324 178 178 178
249.032757092471 664.61183894557 3256.13324232529 176 176 176
255.507908017423 664.429592219932 3261.99279095176 174 174 174
263.244480678931 663.826262021285 3265.12984758602 171 171 171
270.981584373712 663.222411541045 3268.26712317549 170 170 170
278.71915024178 662.61804623486 3271.40458979789 169 168 166
286.049463856687 662.152441197501 3275.45517646811 167 166 164
293.79044680282 661.546848744981 3278.5940359427 162 161 159
300.324049829512 661.357275630285 3284.47756417035 160 159 157
306.073159319281 661.443274601049 3292.19898403854 154 153 151
312.245447358441 661.388349436873 3299.01400593169 148 147 145
318.043292826587 661.469555203853 3306.75545221058 148 147 145
324.651724460712 661.272170611605 3312.66933722105 145 144 142
328.54616089646 662.037958931367 3325.02921563851 114 113 111
334.041076469389 662.248678810563 3333.72583420696 129 128 126
341.106103883303 661.906741607122 3338.74662191895 158 157 155
350.857594495357 660.602850968831 3337.31051669501 131 131 131
360.20412433074 659.437424911745 3336.7882043362 124 124 124
369.907820047585 658.136310193643 3335.33246902995 159 159 159
378.462092814345 657.24656321521 3336.64490410162 158 158 158
386.634050971861 656.493600742817 3338.88057127251 155 155 155
394.80097589612 655.740528947187 3341.11420135149 158 158 158
403.330008962856 654.851347036413 3342.41641276406 161 161 161
412.577974457652 653.690741242154 3341.85415586454 167 167 167
420.35746073997 653.073819252244 3345.00869094244 170 170 170
426.698855936802 652.998173472339 3351.89234018439 178 178 178
431.632461978069 653.461367835305 3362.51764831877 180 180 180
433.771105449462 655.001103588207 3380.63385835873 184 184 182
439.509633974916 655.185618329913 3389.42931271657 187 187 185
-67.9852472500344 703.928823757611 3365.91071623501 222 224 223
-60.6939383091394 703.581212793975 3371.02316674252 193 195 194
-52.9076199712497 703.090059727299 3375.25858014721 173 173 173
-43.671245768893 702.171496645958 3376.84741168438 165 165 165
-32.528988802105 700.685265131021 3374.89673464584 139 139 139
-15.2253543654559 697.357635845793 3361.42917829287 148 148 148
8.14101588242244 692.196030025364 3336.4050042911 153 151 152
24.7508182401577 689.026075822863 3323.73413324557 155 153 154
38.4588191773507 686.710064741014 3316.35549121107 154 152 153
51.1750847946233 684.680157176534 3310.73075025946 183 183 185
62.4512308338634 683.07619579613 3307.7561109498 177 177 179
73.692823785916 681.474488369266 3304.7677214817 180 180 182
86.2755103505633 679.453729396291 3299.08882597255 199 199 201
97.8965475016904 677.716894093099 3295.1762868662 194 194 196
108.117817026558 676.402807964476 3293.93021185417 200 201 203
121.020029325549 674.251130357902 3287.30287423924 211 212 214
134.764278662879 671.823989552092 3278.86068588866 209 210 212
146.214237006915 670.098706002689 3274.87879062409 202 203 205
157.18139260354 668.515280133125 3271.77888761589 207 208 210
171.199282646749 665.960706638262 3262.36965221351 208 209 211
182.955823689052 664.105475545618 3257.43380971225 204 204 204
191.617416412813 663.224017479045 3258.78989227437 200 200 200
199.403270917807 662.619801465497 3261.94690949276 192 192 192
208.912433049325 661.461993559657 3261.49038805698 188 188 188
219.686492139274 659.890937335359 3258.31220788031 184 184 184
229.99998023226 658.460110609324 3256.02580545937 182 182 182
239.014602755072 657.444158329282 3256.44678134995 176 176 176
246.332513936847 656.978943566399 3260.49208617798 173 173 173
253.238005766291 656.650118863146 3265.44843689747 173 173 173
261.816104737225 655.771545257665 3266.77043433958 172 172 172
269.145788625906 655.303993026865 3270.82052357076 171 171 171
277.301745443364 654.562191255658 3273.04962731715 170 169 167
284.637423874748 654.093237558882 3277.102154319 168 167 165
293.194499913698 653.214560751896 3278.41589773342 163 162 160
299.72795800226 653.016570689887 3284.29943107482 160 159 157
305.476516800518 653.088805011171 3292.0207323042 154 153 151
311.648474999181 653.022847400631 3298.8357042702 150 149 147
316.655453659418 653.361270834966 3308.41260081877 148 147 145
321.305492875505 653.831778423949 3318.92303931883 153 152 150
324.435901090454 654.838993786664 3333.12961167524 129 128 126
331.503314035219 654.491816501403 3338.1514049902 109 108 106
339.351121766295 653.873875074717 3341.33361066657 146 145 143
348.346659130913 652.851932975091 3341.74690451277 138 138 138
356.947094087834 651.965038834082 3343.07826593158 120 120 120
366.292532397179 650.810135600461 3342.55517463492 132 132 132
376.367458866256 649.388615600257 3340.17210975718 158 158 158
384.922639913503 648.503758076991 3341.48487552446 151 151 151
393.837526215976 647.485725101589 3341.86548469588 157 157 157
401.63528755622 646.868341518789 3345.02742271424 158 158 158
410.527339029283 645.851101510375 3345.39878021425 163 163 163
417.230714114995 645.632147342265 3351.35127064831 166 166 166
423.589534917288 645.544122161394 3358.24206922715 175 175 175
427.825521301777 646.249046732783 3370.74070013395 178 178 178
431.75738212985 647.081871113484 3384.19428867807 178 178 178
439.265864572061 646.588646108632 3388.31696677169 182 182 180
-68.1468872068873 694.872725338182 3364.83484674685 215 217 216
-62.8042207910935 695.078859988118 3373.46985546311 204 204 204
-53.0742973161817 694.025393995273 3374.18073599413 175 175 175
-43.8398547088894 693.112119281454 3375.76900258428 172 172 172
-32.6985861026727 691.642075732164 3373.81780266518 148 148 148
-21.110182724849 690.034888771112 3370.96987581913 145 143 144
-1.50019717063876 686.069034807462 3353.04642712158 146 144 145
17.9894761337214 682.112020118711 3335.07445507219 151 149 150
33.6084068102209 679.271821814298 3324.15776114415 158 156 157
47.7486099259503 676.85222457566 3315.87583449998 182 182 184
59.0415058959406 675.265879740238 3312.90810081677 175 175 177
71.683728427697 673.26802040365 3307.25313742664 181 181 183
84.2762851641232 671.273647674166 3301.5780382797 197 197 199
98.1877302473571 668.870142118184 3293.20336715544 191 191 193
109.766104100235 667.157877576574 3289.27336774169 203 204 206
123.109397521839 664.899698635313 3281.74636263501 212 213 215
136.392804225033 662.645786197682 3274.19507748065 205 206 208
146.939964830052 661.216471030917 3272.00327595004 200 201 203
157.457656231236 659.789047747139 3269.7992709807 209 210 212
170.150759826697 657.681738732962 3263.0866732022 208 209 211
182.350395367291 655.714491414481 3257.25227743867 202 202 202
193.192417327734 654.158488632507 3254.10175807318 197 197 197
200.966009616754 653.554975138885 3257.25380508214 190 190 190
209.171075815411 652.815529126191 3259.50277501366 188 188 188
219.085164312371 651.534447909553 3258.13207440765 182 182 182
228.548698297716 650.390028429014 3257.65697697755 182 182 182
237.146036520109 649.51667981934 3258.98698187902 176 176 176
244.051071085613 649.182666349233 3263.94292955846 174 174 174
251.803120205785 648.57825942003 3267.0862606627 173 173 173
259.555739574058 647.973299214266 3270.22982685006 172 172 172
267.308852861938 647.367881443458 3273.37359649018 171 171 171
275.062446297429 646.762007198736 3276.51756399863 168 167 165
282.816515678203 646.155617036938 3279.66172812447 166 165 163
291.787601006409 645.147955991546 3280.06501326755 163 162 160
298.728912885882 644.807954566533 3285.03595198847 161 160 158
304.479457723784 644.86616348178 3292.75816366002 156 155 153
309.857723297278 645.054862420051 3301.4077183814 154 153 151
314.475928522837 645.506342871394 3311.90541174434 154 153 151
319.135081348715 645.954046550159 3322.41945590142 151 150 148
323.05438691621 646.662870520692 3334.78983542868 154 153 151
329.739080195704 646.441899575062 3340.73477701815 92 91 89
336.4391872526 646.219259103968 3346.68597219162 99 98 96
343.920151413445 645.731322678314 3350.79746824175 148 148 148
352.166622487918 644.979330938987 3353.06329780785 121 121 121
361.163460223883 643.964518721811 3353.47706412264 111 111 111
371.645580257332 642.425642947368 3350.18069319417 153 153 153
381.71973257476 641.020090139053 3347.79693661439 149 149 149
391.76349827285 639.616436708759 3345.40086231057 154 154 154
398.836815623613 639.259371478322 3350.42537845223 155 155 155
406.650209473137 638.640241264239 3353.59365920203 157 157 157
413.013862198155 638.541372441205 3360.48649638406 160 160 160
420.117449718841 638.180534111577 3365.52329730251 170 170 170
426.159070320873 638.20764175378 3373.36359923157 174 174 174
432.935488383957 637.973157022729 3379.34578196803 179 181 180
441.136083531974 637.219539650028 3381.59304901781 186 186 184
450.380669381367 636.078300083569 3381.02927693304 188 189 184
-75.1570652133167 687.74325513581 3376.07604946056 213 213 213
-65.8889630756401 686.833201586609 3377.67792014097 203 203 203
-55.6613850460197 685.649618285235 3377.51247559199 199 199 199
-44.9710495584683 684.33037904259 3376.45636113011 161 161 161
-35.2631590952712 683.285742152144 3377.15825372833 150 150 150
-25.092759610214 682.105553253733 3376.96963226239 138 136 137
-7.83036619742172 678.884125866468 3363.48457272909 143 141 142
13.109381834254 674.581946172002 3342.86566028143 155 153 154
29.2235179354032 671.647510932387 3331.07137767449 150 148 149
43.3868413813878 669.2614992542 3322.79855771914 180 180 182
57.0215168292489 667.01541289761 3315.38943947568 171 171 173
72.4421611159876 664.232887276339 3304.39202364753 180 180 182
85.4883267500246 662.131045134114 3297.82259398066 193 193 195
98.4797860377591 660.0330889524 3291.23098464655 188 188 190
110.508937602319 658.208085320122 3286.40529110187 206 207 209
122.493457619032 656.386079776803 3281.56150383441 213 214 216
135.330728642852 654.29881535162 3274.9073837221 201 202 204
145.882039318519 652.885406008406 3272.71688473738 198 199 201
156.403814656425 651.473828597771 3270.51441321774 210 211 213
168.660717986918 649.529720395208 3264.70302938915 207 208 210
180.429152538587 647.722443854161 3259.77163900329 200 200 200
191.716584294954 646.051521596984 3255.72352582902 194 194 194
199.495603915886 645.447398777719 3258.8777749448 189 189 189
208.568497130411 644.444284441994 3259.32224691823 187 187 187
218.05532879888 643.309316813108 3258.85651091281 182 182 182
