ply
format ascii 1.0
comment KinectMotionCapture
element vertex 767
property float x
property float y
property float z
property uchar red
property uchar green
property uchar blue
end_header
-184.389138144837 635.330188104713 3706.7973944829 134 132 135
-178.779467036972 634.158036617455 3699.29636472309 163 161 164
-174.995495235746 632.584310033058 3689.40992275099 181 179 182
-173.055516833357 630.6116362105 3677.15453871099 183 181 184
-166.266864360177 629.710423365466 3671.27640947891 174 172 173
-158.865506204622 628.941927731025 3666.18962706974 171 169 170
-152.073651460422 628.039475167996 3660.30873034767 188 186 187
-147.746305351341 626.605788822127 3651.2739952523 186 181 185
-142.816609003003 625.306214270024 3643.03957337767 186 181 185
-136.037525495386 624.404014417519 3637.16974430783 177 175 178
-129.880349294609 623.369408315432 3630.51654177873 188 183 187
-122.477928021644 622.597984802378 3625.42885690021 194 194 196
-113.817763944647 622.087963214376 3621.89618449046 193 193 195
-102.001878355501 622.230870790976 3622.24072369111 195 195 197
-91.413945666976 622.107338780005 3621.00477859996 179 179 181
-80.168290201732 622.110431516417 3620.52120187724 208 208 208
-70.1629918099411 621.848785097044 3618.46788098632 199 199 199
-57.5896503543345 622.103508833167 3619.47844226168 183 183 183
-46.8955396100394 621.963851134736 3618.15057332792 190 191 193
-37.4584344257518 621.561584331309 3615.26706075206 197 198 200
-33.1486012947382 620.123938493547 3606.24753044189 203 204 206
-24.3395877221952 619.589589257766 3602.58600246777 202 203 205
-15.5180424480559 619.053043326334 3598.91362705208 193 194 196
0.456862932904478 619.925185064606 3603.58886510769 188 189 191
15.187136929268 620.533103388862 3606.69806035219 178 179 181
31.2733578141202 621.38929592126 3611.27692061064 191 192 194
44.1406281649939 621.600026428971 3612.03332373738 191 192 194
54.4154218188511 621.296696919949 3609.7466917234 193 194 196
69.3268346298326 621.878132736589 3612.69874354078 193 194 196
120.009328998354 629.288800593166 3656.06391041359 188 189 191
164.32759537454 635.399199400865 3691.72005296319 165 166 168
182.251201715939 636.436247230236 3697.35205051262 175 176 178
194.899166321933 636.457657649891 3696.97649973809 169 170 172
205.570567802404 636.097690258533 3694.34616496692 175 176 178
213.575269832972 635.233538768393 3688.73706258666 166 168 167
-290.704119715107 629.089660807713 3728.84697480282 199 204 200
-291.558943289398 626.456452072122 3712.4012909905 169 169 167
-288.383671280757 624.769800153196 3701.71990189498 166 166 166
-284.061505538901 623.353968843403 3692.68954110901 164 163 168
-277.405650170894 622.474742187964 3686.92636943027 166 165 170
-271.338355060717 621.461612694046 3680.35093090417 148 148 150
-263.500169709705 620.848082823691 3676.20779135321 187 187 185
-252.68538984498 620.897666394009 3676.09768425218 199 197 200
-239.45910180891 621.473592025492 3679.18706911712 188 186 191
-219.613269794947 623.499335855989 3691.08679406609 162 160 165
-200.276152900933 625.380461672004 3702.10480143846 159 157 162
-186.267302313457 626.063047919454 3705.83879643271 157 155 158
-182.472429296037 624.50177678672 3695.94282527306 163 161 164
-178.697249412313 622.942700865483 3686.06422414806 181 179 182
-174.334336468243 621.516868408718 3676.99829559213 181 179 182
-165.717678846978 621.007944950205 3673.50332467547 173 171 172
-158.311907094785 620.235942704417 3668.41305507922 174 172 173
-151.515631791277 619.332655273299 3662.52833230947 190 188 189
-147.799226245233 617.779106880357 3652.70032168419 190 185 189
-142.866525490549 616.487122524234 3644.46324659794 177 171 175
-139.185919163461 614.937459284256 3634.66655477947 192 187 191
-132.414226642241 614.035566096083 3628.80312975602 193 188 192
-124.393580414327 613.390816578647 3624.50204710866 199 197 200
-113.858704874804 613.258739677124 3623.31214392677 203 201 204
-102.041878038488 613.379444693983 3623.65632670066 185 185 185
-91.4529120044723 613.239192797541 3622.41927880425 196 196 196
-80.8387318957378 613.095088390976 3621.16071744019 201 203 200
-70.1995477151285 612.947167501979 3619.88050887917 184 186 181
-60.8087028058342 612.54103981976 3617.03711676505 182 184 179
-49.4850148167201 612.512933125938 3616.48610862212 203 205 204
-39.413664395743 612.227150349279 3614.37569446749 205 206 208
-31.2500739068518 611.558958280185 3609.95086879939 200 201 203
-19.8535137914417 611.519652658753 3609.33708784742 197 198 200
-7.78124636390398 611.601712933276 3609.45980598524 182 183 185
8.86703885067242 612.557730345626 3614.87443440319 169 170 172
20.368845786551 612.502761567832 3614.16921823367 187 188 190
34.5118764340664 612.94337062448 3616.46490618011 197 198 200
46.0797202580299 612.878490494256 3615.70251769183 195 196 198
56.3621232778058 612.56039234402 3613.40938606805 182 183 185
75.8946635451214 613.97725200609 3621.61449969042 180 181 183
125.264275045281 620.957968217851 3663.4735381766 181 182 184
167.600125219642 626.543024833868 3696.88121820679 179 179 179
183.536983805643 627.164875559558 3700.26779380707 171 171 171
196.189773021166 627.163755592288 3699.88789185467 152 152 152
204.188789583859 626.298206124227 3694.28404184556 170 170 170
211.520101402979 625.309120640613 3687.93613966958 179 179 179
-283.266264569239 622.081982804801 3740.97264258606 190 192 189
-285.251313968004 619.216154130315 3722.86155176011 160 159 157
-285.548056767054 616.752632736015 3707.25432057381 167 165 166
-283.552812621785 614.820455072797 3694.95077331182 155 154 160
-278.654006342128 613.547258302626 3686.74295404137 159 158 163
-271.410018676955 612.79827917713 3681.79244382536 175 175 177
-260.022372400626 612.961721216384 3682.50833588033 127 127 127
-248.60124211145 613.120272399201 3683.19492231783 171 169 172
-237.146514299353 613.27396957889 3683.85242002862 158 156 161
-221.476364147007 614.330632995085 3690.11418107504 148 146 151
-203.945510964337 615.766828203634 3698.73084267656 200 198 203
-190.550640267215 616.288789971767 3701.67446057671 142 140 145
-184.352458299228 615.2578540884 3694.98569309212 180 178 183
-179.97468738069 613.841189456783 3685.90682718792 177 175 178
-171.358929400107 613.324362407232 3682.41268723764 177 175 178
-164.559400749104 612.421295590779 3676.52514324509 172 170 173
-157.147356444992 611.645484245446 3671.42946168569 180 178 181
-150.344573858957 610.741110867156 3665.53910585723 190 188 191
-148.468323722047 608.818378574266 3653.3383182604 184 179 185
-143.534691891081 607.534263632615 3645.10038518286 172 167 173
-141.092780065084 605.744527786353 3633.73203283228 198 193 199
-131.836722717756 605.348587287955 3631.00539992979 194 192 197
-125.06012471006 604.445374722616 3625.13773169448 202 200 203
-112.647680801738 604.674419009555 3626.28823057378 201 199 202
-100.826100778234 604.772363713356 3626.62812556403 203 203 203
-88.9710852521874 604.865438544184 3626.93938787214 214 214 214
-79.6121865735486 604.453402516848 3624.12372299064 179 181 180
-68.9677088772522 604.288240158704 3622.83903807446 175 177 174
-60.8439115179582 603.621267198369 3618.44901015512 191 193 190
-52.0732974064444 603.07688593471 3614.82051386907 207 209 208
-44.5709168323112 602.282471103921 3609.64665516839 204 205 207
-35.1364909291942 601.857988036606 3606.76560878377 205 206 208
-19.2388259259313 602.664536301372 3611.50821889845 199 200 202
-5.87020305471286 602.970459945694 3613.1527257931 176 177 179
9.48605766132404 603.638850822169 3617.04222485529 173 174 176
20.3401683994557 603.441654093586 3615.57605103009 189 190 192
33.1777507097009 603.607485675395 3616.35847679493 194 195 197
48.0171325123435 604.133825178994 3619.37331750184 196 197 199
58.9640871670492 603.922657808656 3617.82676304702 193 194 196
81.13966855456 605.772299445665 3629.03161249077 190 191 193
127.870945940889 612.092062273436 3667.88831398037 188 189 191
171.533260558427 617.773621807251 3702.79251151419 166 166 166
186.151960722157 618.116987045918 3704.6768652484 152 152 152
196.144746374564 617.611380096389 3701.31239408384 152 152 152
201.468546584216 616.262533753628 3692.73670750914 174 174 174
207.451232772174 615.03461603725 3684.91241802525 176 176 176
-289.511361296511 614.332730220532 3749.08254500377 9 14 17
-286.250778861821 612.667766356734 3738.3270737564 195 195 193
-287.079268521767 610.101587046458 3721.85813104161 160 159 157
-286.211755778757 607.928526345274 3707.88675279284 163 161 162
-283.044921174233 606.274810261485 3697.21246327372 155 156 160
-277.55415009586 605.137205991019 3689.81426457645 155 156 160
-269.125907938349 604.640451826877 3686.48252125741 173 174 176
-259.50259157391 604.397108254618 3684.75984380403 148 148 148
-247.485572072228 604.660660572209 3686.25284761704 143 141 146
-236.026028949532 604.791551383212 3686.90631951089 213 210 217
-221.546880466799 605.552373121951 3691.55544431882 209 206 213
-204.017360980175 606.939162191191 3700.17358203565 208 205 212
-190.622404731283 607.430660319626 3703.11732319015 156 154 159
-182.611588591407 606.780339978965 3698.82511224535 175 173 178
-177.618986455963 605.499003042031 3690.53604948371 174 172 177
-170.208250948298 604.721219798402 3685.44119957034 173 171 176
-163.402228407925 603.817038895367 3679.54803430976 174 172 175
-158.430301040996 602.537138821889 3671.27688180223 184 182 185
-153.470138205046 601.258403892374 3663.01591848641 178 176 179
-150.984391768963 599.48276675428 3651.60948174367 171 169 174
-144.820469069943 598.455845756719 3644.95038198237 194 191 198
-139.899768624082 597.181017961877 3636.72359682017 186 184 189
-132.503574224057 596.402048967173 3631.64135789116 201 199 204
-124.478817318474 595.745539398165 3627.33710408998 192 191 196
-113.315685159796 595.703033468374 3626.92534876381 199 198 203
-98.3552850477336 596.393415022798 3631.15781194037 189 190 192
-89.0116308693436 595.97280219987 3628.35541559304 163 164 166
-81.5475325970345 595.182532585889 3623.21439516544 184 188 189
-73.4446820205727 594.513230349687 3618.84253766947 209 213 214
-65.3332817124226 593.842297618824 3614.46328037937 215 219 220
-55.2986262543529 593.534216146436 3612.38450005134 217 218 220
-45.2429730881434 593.222969760728 3610.28785627647 209 210 212
-32.5970816417178 593.392167072747 3611.23609008036 193 194 196
-17.9804180573786 593.917860852254 3614.44428836974 176 177 179
-11.0724029049942 592.991829873765 3608.46286403528 179 180 182
2.97001289633236 593.386432086035 3610.84605661098 200 201 203
11.8528740097248 592.815817717868 3607.12075731775 200 201 203
32.4965925945757 594.395212802809 3617.00855677493 200 201 203
46.0245504374224 594.650274455413 3618.51529190942 204 205 207
60.9072188182989 595.137397949383 3621.49286870378 206 207 209
79.1337941465118 596.211009984649 3628.18561159021 198 199 201
127.171046187389 602.605309878391 3668.55641664616 191 192 194
171.485813313655 608.255707414838 3704.21888845398 147 147 147
186.104604475614 608.568885514386 3706.10304341733 169 169 169
195.43200588789 607.934481688144 3701.99285842552 193 193 193
200.087710809298 606.476427030733 3692.67368085205 170 170 170
200.028341860132 604.200541042632 3678.18275420774 181 181 181
-280.381666600945 607.588329305565 3763.71022672387 0 0 4
-288.655019432572 603.400635771071 3736.50086858638 140 139 137
-287.745057873405 601.249436005738 3722.49255676344 166 165 163
-285.709983449254 599.355491471674 3710.15423941543 157 157 157
-280.198948079212 598.220675452512 3702.7381433474 162 163 167
-274.695157118625 597.086497928686 3695.32863764483 156 157 161
-266.255008324057 596.57960650027 3691.9866401052 151 152 154
-258.392601313471 595.945507558795 3687.82264005934 174 172 175
-243.99947663401 596.682641297983 3692.54647828848 150 148 153
-231.336989142078 597.038626859804 3694.80269369563 186 183 190
-216.841783899113 597.761474279698 3699.43814760685 222 219 226
-201.094289345136 598.724719374462 3705.63347683331 209 206 213
-190.093293943916 598.689586136348 3705.36220348755 169 167 172
-180.872280708339 598.279800368209 3702.66603429405 166 164 169
-175.870532626693 597.005226536801 3694.369000587 171 169 174
-170.880474997635 595.731747986937 3686.08209231796 171 169 174
-165.292698614179 594.582097930362 3678.59989369297 177 175 178
-160.323953209522 593.310621180475 3670.33144452317 183 181 184
-155.980499230671 591.918220727303 3661.28216511162 174 172 175
-152.268190512102 590.405699366091 3651.45775501063 176 173 180
-146.105807913003 589.381530938412 3644.79997227257 191 189 194
-140.566692610341 588.236106328717 3637.35960706155 195 193 198
-133.791979873803 587.333267428037 3631.49357043716 210 208 213
-126.393150054467 586.550589891817 3626.40907132695 194 193 198
-112.732108967615 586.971182873201 3629.12296216804 212 211 216
-99.6533236988042 587.26505648097 3631.01875981533 160 161 163
-90.3122086076289 586.833646772817 3628.21863415025 159 160 162
-84.1137644695107 585.801507802254 3621.52964722942 212 216 217
-76.6512334739611 585.008095630188 3616.39000558077 215 219 220
-66.6401746695886 584.689837338522 3614.33174326672 211 215 216
-54.69381727031 584.724678327551 3614.5642136468 206 207 209
-40.7939817191405 585.11012593527 3617.07104497236 207 208 210
-28.1329535453332 585.252544026134 3618.00664827341 175 176 178
-18.0118200008645 584.917665217727 3615.85308792689 169 170 172
-13.6866109230223 583.52046785988 3606.81996862375 205 206 208
-2.24567047652391 583.416355054784 3606.16782608292 214 215 217
10.5251326450593 583.542193002391 3607.00839093067 213 214 216
31.1627826418799 585.064652886934 3616.90150367989 211 212 214
45.9961806144298 585.525945649896 3619.92226780478 210 211 213
62.8488205642657 586.329040657684 3625.16076556922 197 198 200
85.0323779094189 588.051427996642 3636.35952657481 183 184 186
123.828242985411 592.654167012377 3666.22486898938 173 174 176
168.786668716288 598.269055115217 3702.65294972266 167 167 167
186.056737666911 599.0139358882 3707.52970848466 157 157 157
198.05346259261 598.830632999956 3706.39636071197 165 165 165
204.727468976539 597.725975449797 3699.29565682102 172 172 172
-281.055097150854 598.638065759306 3764.35191111837 10 8 13
-291.636131052813 594.024587660728 3733.85210320652 145 141 140
-290.732087612097 591.901193560788 3719.84874064815 164 162 163
-286.95610509467 590.399979361868 3709.96906890628 161 161 161
-277.939661663577 590.009538912915 3707.45008235735 156 157 161
-271.252020487282 589.124833891206 3701.65939627599 159 160 164
-263.97501073059 588.362274989558 3696.68035262358 157 158 162
-256.102377343569 587.721071970827 3692.50785055713 141 139 142
-243.47943409709 588.054985092386 3694.79848341318 160 159 164
-226.651527176407 589.235640240836 3702.70249332808 165 164 170
-211.543435345259 590.041924132237 3708.12945660505 110 109 115
-198.173650466356 590.476327093684 3711.09538466879 133 132 138
-190.165821701275 589.815270239365 3706.80583256199 151 150 155
-182.149120659327 589.152659225081 3702.5086006049 171 170 175
-177.148496789017 587.886171710664 3694.21248889269 167 166 171
-170.94558563549 586.861164222825 3687.51926852401 168 167 172
-165.355075383835 585.716356089028 3680.0346689814 179 179 181
-162.21685810583 584.093592436543 3669.38498255527 179 179 181
-159.102737639215 582.47359484869 3658.75616377757 177 177 179
-153.551503904713 581.332758647033 3651.30558086593 191 189 194
-145.538840177417 580.66770478172 3647.01154851146 200 198 203
-138.756085605438 579.764022419596 3641.13854720488 191 189 194
-134.458544642462 578.386780321121 3632.12927954085 161 160 165
-125.812561470436 577.83716738003 3628.60915478411 164 164 166
-112.774954788131 578.109368305232 3630.54078383199 139 139 139
-100.951084538873 578.140740531879 3630.87912519257 199 200 202
-92.2421169288974 577.58141771483 3627.30447247975 217 221 222
-84.1521054015226 576.903005135691 3622.94380208437 212 216 219
-75.4197781585124 576.33966809207 3619.34892875023 219 223 226
-64.7672962283288 576.123183293592 3618.05763884752 216 220 223
-50.9004732514171 576.483193554893 3620.59324819245 202 203 207
-36.9881214666803 576.836683122727 3623.08943833737 182 183 187
-26.2401776176207 576.606024827597 3621.71550000284 198 199 203
-16.1113199655007 576.256354179244 3619.55565625891 221 222 226
-11.1306789612176 574.983724577266 3611.27690421584 212 213 217
1.61572538843924 575.088512361851 3612.13843724895 204 205 209
13.7492976367795 575.073407855329 3612.20896543805 185 186 190
31.7863280858859 576.080628658622 3619.06610838831 184 185 189
45.3130450395651 576.280941804192 3620.57427381774 186 187 191
62.8193826284424 577.156797043742 3626.56897772552 189 190 194
83.0253718380121 578.476464979066 3635.5142796197 179 180 184
117.184476757608 582.158196580757 3660.14129526168 173 174 176
154.162329253061 586.267739735341 3687.61547231983 196 196 196
181.356003777978 588.664748918263 3703.73087024318 134 134 134
196.672850762912 589.025092998388 3706.33326588164 155 155 155
208.695209157765 588.818695347797 3705.17785031449 180 180 180
-295.771697890498 584.426526422778 3729.55854705358 168 164 165
-291.976849939712 582.936485520759 3719.66245155926 166 164 165
-285.290661880821 582.052335509597 3713.8730213505 159 159 159
-276.266594524664 581.649549848682 3711.34750686896 161 165 166
-268.984242967483 580.883606624049 3706.36385521656 156 157 161
-262.285243149515 579.996683225926 3700.56333856732 148 149 153
-253.814175167975 579.468260874082 3697.19468177788 141 139 144
-241.775144929067 579.653931371627 3698.66911276989 144 143 148
-224.347770159452 580.906116180156 3707.37633971062 166 165 170
-209.231849958566 581.672771372306 3712.79709016596 119 118 123
-197.649674330894 581.719954793893 3713.34481448574 111 110 115
-190.839307251057 580.816057154654 3707.44788182108 159 158 163
-184.02825351464 579.911647839133 3701.55035732217 161 160 165
-180.240365929256 578.418082780248 3691.66031746335 163 163 165
-174.045176594981 577.396570534517 3684.97376722372 168 168 170
-167.244462689722 576.492385919335 3679.08520317206 176 176 178
-162.886870671109 575.119992067539 3670.02385568283 188 188 190
-159.771262815819 573.516023323336 3659.39364386459 191 191 193
-154.834488099661 572.263943429651 3651.15277914758 190 188 193
-146.206759333735 571.709602496411 3647.64850677826 189 187 192
-140.042838740346 570.689868123023 3640.98936227248 159 157 160
-132.640159242324 569.901222503131 3635.9015651807 163 161 164
-123.986230220428 569.34209553222 3632.37461512143 147 147 147
-110.316829753343 569.700875854503 3635.08134562192 149 149 147
-102.248257725531 569.020589614518 3630.73926975281 223 225 224
-92.9122276440397 568.567646942601 3627.94369098254 231 233 232
-84.8223020701187 567.883616638804 3623.5831314891 221 225 226
-75.4567371941661 567.425828121995 3620.76198525205 220 224 225
-62.8961793617848 567.533448565001 3621.78489529901 179 183 186
-50.9360790639715 567.52231041486 3622.00543664807 143 144 146
-38.3029430398008 567.619318236696 3622.96550933746 134 135 137
-28.1996825247082 567.259740177178 3620.82791575254 126 127 129
-18.7195784749021 566.784400537642 3617.90760802816 122 123 125
-6.63919150137016 566.755296557043 3618.02400901075 115 116 118
5.47442924529173 566.721349870674 3618.1119519813 119 120 122
17.6209754928132 566.682497714265 3618.17107351148 124 125 127
32.409008718687 567.084414287456 3621.23154165212 140 141 143
47.9006117907308 567.590372502857 3625.00478719722 135 136 138
64.7580712553895 568.310392890238 3630.23933052769 143 144 146
83.652221232406 569.353419201438 3637.67692153867 176 177 179
113.845537336455 572.261307023853 3657.80573165154 188 189 191
159.41744398111 577.680152625385 3695.02661765792 197 197 197
181.973044987333 579.224848793469 3705.90406649273 133 133 133
197.958410748396 579.661526534395 3709.24979910636 198 198 198
207.980281833325 579.107626952483 3705.86043148944 184 184 184
-291.481261789774 574.330814856272 3721.93519420046 165 165 165
-283.626679904369 573.681802325181 3717.77838862514 167 169 168
-275.178982810554 573.148951765384 3714.43001691905 163 167 168
-267.89044808162 572.379061762739 3709.44103166466 158 159 163
-262.949579807108 571.139365996453 3701.19653866402 144 143 148
-252.708226532183 570.953246038577 3700.26139197975 175 173 178
-242.44143456831 570.763370840075 3699.30422100342 166 165 170
-225.611744562904 571.850004112921 3707.2072947188 145 145 147
-210.500624721941 572.578537226908 3712.6321373378 120 120 122
-198.323319489162 572.719805025151 3713.98700815298 121 121 123
-191.512685068044 571.815542008713 3708.08984614169 146 146 148
-185.303827626084 570.79553493759 3701.39175502111 161 161 161
-183.330656574806 568.970449747094 3689.10632982835 163 163 163
-177.143053135331 567.952466578201 3682.42664720075 169 169 169
-170.958918720621 566.934561327999 3675.7499707967 180 180 180
-164.167534645546 566.030944484173 3669.86948956505 167 167 165
-161.052470088852 564.443248116259 3659.23964319782 180 180 180
-156.11685101963 563.19928871613 3650.99972750054 171 169 170
-148.108358450372 562.523440411145 3646.70969589976 149 145 144
-141.329131125074 561.61981386546 3640.83975142298 146 142 139
-132.686284707199 561.054214544744 3637.32244899595 178 175 170
-125.899889951758 560.148784344007 3631.44630393756 198 198 190
-115.362300496165 559.916549396449 3630.25438202085 162 163 155
-106.681069421342 559.344553089456 3626.70385168456 105 106 100
-94.8407233371427 559.329083546305 3627.02853189546 132 133 128
-84.2299241148199 559.085821548481 3625.77322789798 188 190 187
-75.4940691654307 558.505241295234 3622.17540871036 190 192 191
-62.2975933025245 558.698885716914 3623.96984917703 218 219 221
-53.5219950406791 558.112144708401 3620.33762295378 128 129 131
-41.5360178986153 558.075056623861 3620.53621958087 143 144 146
-32.0833561431932 557.592722997931 3617.63974240064 207 208 210
-20.0394332334413 557.546940723005 3617.78785617376 224 225 227
-7.96224292898984 557.496311214442 3617.90748282315 216 217 219
5.44349145637613 557.659289198551 3619.52075012598 214 215 217
15.6413394234978 557.271380302491 3617.30104226815 212 213 215
27.8156957554616 557.206317859305 3617.33654515469 193 194 196
45.2545130827371 558.003862286916 3623.39027875619 183 184 186
60.7912385306708 558.467602499145 3627.12468868992 159 160 162
77.6975137650813 559.13942790371 3632.31723394277 158 159 161
117.109354032063 563.460742399946 3662.97408854118 153 154 156
168.641881536562 569.686222708992 3706.93375757073 117 117 117
188.567074477582 570.736048131656 3714.80060788524 115 115 115
198.576258294709 570.173436969395 3711.42229323061 163 163 163
-297.102462366511 566.714539087402 3730.82674257783 127 125 126
-290.986151873834 565.713163729479 3724.20874449079 169 171 170
-284.873093097386 564.711896911151 3717.59356407974 161 165 164
-276.427836755069 564.170811328493 3714.24736122386 153 157 156
-267.96958532832 563.627564221264 3710.88959355509 175 176 180
-260.085957506029 562.967842949471 3706.70768221513 152 150 155
-250.423215310978 562.649205103098 3704.95163639884 168 163 170
-240.739314825587 562.327366267051 3703.17695716142 170 170 172
-225.09277131142 563.139070472425 3709.46076627147 143 143 145
-210.576252710121 563.715320778053 3714.07869708187 114 114 114
-198.996807713942 563.718406455419 3714.6290738926 162 162 162
-192.786130955716 562.700969024295 3707.92938925388 145 145 145
-186.579021153203 561.683630446662 3701.23248007048 167 167 167
-184.00150819404 559.992530798048 3689.74595817864 163 163 163
-180.23918163497 558.528847826011 3679.87787934344 183 183 183
-175.279847306002 557.290917126457 3671.61736971198 167 167 165
-167.890015243251 556.500109088927 3666.54072196667 178 178 176
-165.396288554036 554.818586308008 3655.12675858831 190 190 188
-162.316112127837 553.251398326681 3644.52701812297 100 96 93
-156.176411234398 552.240285469253 3637.88880983407 70 66 63
-146.94650011837 551.781242757314 3635.18524771398 77 74 69
-138.941182836803 551.099324423491 3630.89800758311 77 74 67
-132.173006044888 550.196108118745 3625.03763834245 81 78 69
-124.154580774943 549.511563909119 3620.73873854979 64 64 52
-113.619374644223 549.262694394642 3619.54930565166 78 80 69
-102.430074366532 549.119019961754 3619.11552505057 61 62 54
-93.1047841918851 548.644789100871 3616.32970840444 38 39 34
-84.3961128120529 548.05946343918 3612.75516543117 37 39 36
-70.5927282357455 548.337551237108 3615.34660549061 47 49 48
-56.1067052846234 548.717027711702 3618.66866669156 79 81 80
-42.2101561410346 548.981790376334 3621.17944401898 62 64 61
-30.8337990606775 548.810589160461 3620.58371293757 57 59 56
-20.7153559500601 548.420797740363 3618.43284032186 68 70 69
-11.2214461534275 547.921043970103 3615.50104037748 40 42 41
-2.35857053109267 547.312128993686 3611.79331141662 19 21 18
7.81597081534313 546.91352512979 3609.59387354835 53 55 52
22.573108608265 547.253667762578 3612.68152016792 42 44 43
39.3407943573023 547.903763999756 3617.99432671484 39 41 38
64.6957750957227 549.915844545589 3633.05935923698 39 41 38
179.184055000501 561.818724304062 3720.34447087104 65 65 65
195.156757196227 562.186232182256 3723.70162767437 127 127 127
203.189863259805 561.297474976486 3718.06806594338 143 143 143
-311.36809562263 557.38189366925 3727.37167846417 0 0 2
-293.147518190929 558.761973399586 3738.0374166411 90 90 92
-286.434888799235 557.873543860118 3732.22509651022 168 172 171
-282.047854099759 556.534322090743 3723.13769952242 158 164 162
-275.925257238648 555.533776950891 3716.51424743407 150 154 153
-270.391590786311 554.421327103277 3709.07870677304 158 159 161
-260.163446690163 554.20369708029 3708.15489763197 186 184 189
-249.319766703493 554.093834296509 3708.0207749728 149 144 151
-237.854897973445 554.090940826395 3708.6704978968 163 163 165
-224.574592971597 554.416094737317 3711.71468932288 101 103 100
-210.652318220641 554.845523632224 3715.52536317252 154 156 153
-200.268098591527 554.605429666945 3714.4667388367 139 141 138
-194.659222340165 553.480493444548 3706.96577653866 168 170 167
-189.057698198218 552.356270107775 3699.47149747144 168 170 167
-187.693119410752 550.465465348076 3686.39072606167 56 58 53
-183.939923861226 549.016374425473 3676.53015133097 28 30 25
-179.598234621705 547.678670359291 3667.48236256133 7 9 4
-172.22065986325 546.886488779782 3662.41634756282 19 21 16
-173.412044080818 544.574351052236 3646.26029240943 59 60 54
-170.354904530376 543.026486888022 3635.68070912639 107 102 96
-163.622904024373 542.12907073403 3629.85165758794 96 92 83
-155.034668704775 541.554267445969 3626.3817482047 77 73 62
-147.674878336503 540.762504673495 3621.33114486254 95 93 80
-143.423849990558 539.434165453698 3612.36187446369 84 82 69
-135.440483663279 538.748623555463 3608.09336798186 100 101 87
-125.56790051143 538.381274982696 3606.15576111238 124 125 111
-113.787932185219 538.329628582681 3606.53269181047 132 132 120
-103.867244203222 537.955083025683 3604.55343739223 50 51 45
-29.4625125196051 542.090750905998 3637.9656285821 42 44 39
-11.0992784638051 540.963435264947 3631.32031573102 49 51 48
3.43835212208887 539.203666718268 3620.05500848218 46 48 43
27.2707322231933 540.963095309521 3633.79453363984 14 16 13
73.3604665159962 546.218902242903 3673.2141780493 53 55 52
178.469320919435 552.125416077367 3721.02676946867 47 47 47
201.741767806355 553.575250649861 3732.60677778955 130 130 130
209.797652571798 552.680730924161 3726.95351028016 153 153 153
-287.463858447617 551.095992669975 3747.71767632248 86 86 88
-283.625098877681 549.653486532093 3737.783213023 164 168 167
-279.806096003031 548.213169715137 3727.86554386177 163 169 167
-275.423173998667 546.884824426957 3718.78195652763 161 165 164
-267.54293133557 546.214158470248 3714.60273463582 156 156 158
-258.478386960965 545.760160926619 3712.04278463458 181 179 184
-247.627815742898 545.62982500152 3711.90250625107 149 142 150
-236.747724232929 545.495214103242 3711.73666927141 161 161 161
-224.650603084292 545.572871844926 3713.16145070926 109 111 108
-210.728584186993 545.969016287768 3716.97224648769 155 157 152
-202.136818748704 545.388976642637 3713.49931135542 71 73 68
-198.930841740302 543.840000089589 3702.79041699312 21 23 18
-192.739111266913 542.829635589239 3696.10710794773 17 19 14
-187.758807913996 541.605619144533 3687.82833354477 26 28 23
-181.578007435575 540.595918139805 3681.15449361941 30 32 27
-177.224969425823 539.267375399235 3672.09680909706 25 28 21
-180.819797462452 536.561850316869 3652.73277973821 8 11 4
-184.483764752948 533.865179429725 3633.42893399331 72 73 67
-177.774674205646 532.970968366835 3627.61971857049 125 120 114
-168.599807841574 532.497300503637 3624.96396048682 92 85 75
-156.316036856142 532.545749570063 3626.22715507502 93 87 75
-146.476426281428 532.170085709513 3624.3181806066 99 96 79
-138.483371607073 531.47793914074 3620.04131968455 89 86 69
-132.355099682135 530.471928666988 3613.41298422988 94 93 73
-123.097614960636 529.985277993421 3610.68570197508 70 69 51
-115.080465821112 529.288830832319 3606.3883008948 99 97 84
-109.577655487953 528.177549862608 3598.97918125418 37 37 27
-8.41700508458354 536.413080445274 3664.75586255483 41 44 37
-41.1581484208781 529.154914787908 3611.13265263126 35 38 31
13.300474436746 535.755984913815 3661.81687742714 40 43 36
-18.5139878293672 522.732553346508 3567.7271729991 45 48 41
185.03165801682 543.521620167044 3729.95152496933 26 26 26
206.331388600255 544.606528854579 3739.27362401858 148 148 148
212.406976778649 543.411246313934 3731.36891707636 181 181 181
-285.824089168827 542.615355723107 3751.64474308762 157 160 151
-279.659358887792 541.614586053548 3744.98477390471 177 179 174
-274.079143875815 540.506804413689 3737.50854217093 166 171 167
-270.255824324161 539.079013588632 3727.58736593469 164 165 167
-265.281693964874 537.866757696642 3719.31386567852 170 169 174
-257.969627626823 537.081062674408 3714.30458714959 161 160 166
-249.473752891038 536.506540832885 3710.91472818042 200 199 205
-238.007408194915 536.458915477237 3711.56377720816 188 189 191
-227.101035022796 536.300972808053 3711.37531215768 167 172 168
-209.613983248004 537.296563268452 3720.03247763073 174 179 175
-199.821103650243 536.917101919254 3718.16403118758 8 10 7
-197.802797297535 535.173342157111 3705.83895861591 21 23 18
-197.621712427041 533.120181234921 3691.13849425196 19 21 16
-193.862526680141 531.697531811512 3681.2725562603 25 28 21
-191.334842118681 530.069465573004 3669.82881397374 24 27 20
-183.972037665711 529.273636086425 3664.77594008129 28 31 24
-183.313979826786 527.340121293643 3650.9845516632 19 22 13
-180.248463440556 525.82386454742 3640.39718754578 35 36 28
-172.908637594768 525.029969590537 3635.36390198948 69 65 56
-163.099634048148 524.645222723851 3633.48151459057 99 93 81
-151.415123873154 524.563972521577 3633.9413741329 104 98 86
-142.178064668832 524.070011706428 3631.23184277792 96 90 74
-136.657647953686 522.963298708276 3623.80774896545 108 105 88
-129.89637749835 522.060054311567 3617.95336587698 92 89 72
-121.25563306955 521.45977229091 3614.43779455136 62 61 43
-112.601991544666 520.857446221686 3610.91137360731 87 85 70
-107.088054183495 519.750048767461 3603.49290011912 51 49 37
-99.0519185982515 519.044584712767 3599.17878572072 52 52 42
-64.3530221706441 522.539441972614 3627.30925373964 41 41 33
-26.2894741337711 526.508417857145 3659.13700484066 31 32 26
6.22731623074779 529.554538419863 3683.86801593025 31 34 27
-20.6845135307332 523.351042979977 3637.09579049728 26 29 22
-28.5287594731241 520.144549290858 3613.47824992453 24 27 20
-34.53269011003 517.24631373158 3592.23374253592 27 30 23
-35.4430964935268 515.145792452384 3577.15604338635 28 31 24
-27.3163173479758 514.425119237571 3572.76377902466 24 27 20
43.3944412714857 517.153293946243 3598.8000720359 38 41 34
190.266865842267 534.663962380716 3737.38167440016 37 37 35
204.947012894646 534.727506374726 3739.21426764308 142 142 142
-279.749192578077 532.798145196959 3746.44302762156 170 172 167
-274.166183760455 531.69512977555 3738.96465902365 167 169 166
-269.173590185888 530.488591819982 3730.67511898277 164 165 167
-261.852156202991 529.698850535875 3725.65774739922 171 170 176
-255.699897093412 528.700868271999 3719.00856936641 165 164 170
-247.783450507866 528.013109899315 3714.79807899296 182 183 188
-238.675305170209 527.529974770396 3712.20052728211 192 196 197
-226.583606761952 527.558305707466 3713.63001293004 160 165 161
-209.095723980098 528.50410092917 3722.28709632663 158 163 159
-199.299697592984 528.110180236119 3720.4157006321 15 17 14
-179.291241804458 529.446951210525 3732.17893827148 13 15 10
-192.275485319581 525.176826350091 3699.78975544705 21 23 18
-195.13380889004 522.648841661073 3681.10979711279 23 26 19
-193.817802367996 520.837339900381 3668.07061114597 21 24 15
-200.437938477553 517.718735641259 3644.71509744023 21 24 15
-171.733887614374 518.440352004179 3652.9153191024 28 31 20
-162.521617895889 517.939608863531 3650.22731763549 26 24 12
-153.29219453527 517.436218495742 3647.5247811573 46 42 30
-142.192028204027 517.228821801999 3647.16866907331 35 31 19
-139.122822860504 515.726830199648 3636.57801516551 47 43 31
-136.077817656393 514.227738349613 3626.00831759794 59 55 43
-128.688104384115 513.422423913136 3620.93186681443 53 49 37
-119.415077356114 512.911424674588 3618.19158677608 40 36 24
-110.125343477982 512.397793985459 3615.43652784922 38 34 22
-104.600595766462 511.294218414416 3608.00834436307 33 29 17
-92.7599583253134 511.167411183671 3608.33349351541 33 29 17
-42.8212027617607 516.875247116786 3655.00084168135 35 31 19
-9.15054791011638 520.02192137618 3681.37794261135 37 38 30
-43.7842969965563 510.804700620685 3610.88090258545 34 37 30
-31.1308946451359 510.7493535456 3611.82439698408 32 35 28
-25.532078275043 509.633197987907 3604.3320970478 31 34 27
-45.5018327760248 502.824057263691 3552.87011092521 23 26 19
29.1959104013535 507.940038262856 3597.93259596808 29 32 25
90.022689032053 514.736936112089 3653.68307580154 31 34 27
196.267387573583 523.824637296608 3730.927469241 77 79 74
-277.524168348712 524.383278806402 3751.1859830744 169 174 170
-273.672830797847 522.978701221693 3741.24005669592 164 168 167
-268.675318296144 521.779315972181 3732.94620689438 157 158 162
-263.104287077445 520.682405054997 3725.47818015463 160 161 166
-254.605989497758 520.09069896809 3722.0863325739 159 162 167
-246.68358107791 519.396298804431 3717.87071790334 171 172 177
-235.20567538332 519.302531256814 3718.5100456007 165 169 170
-221.914952633663 519.504324005219 3721.54600697369 151 155 154
-202.626697466887 520.697859544565 3732.6108201635 48 52 51
-194.001119525613 520.087635037071 3729.10877411817 16 21 17
-192.553550779789 518.284099014262 3715.95582233771 11 13 8
-196.554261343708 515.594008993103 3695.62022506286 23 25 20
-188.560641492487 514.887914916069 3691.34328017476 19 22 15
-187.823305195135 512.998818851455 3677.48289043266 18 21 14
-178.014265202857 512.587515305716 3675.60032802008 19 22 13
-161.390316018198 511.267173275324 3667.8172449563 25 27 16
-154.59617518618 510.360879557263 3661.93439169053 25 25 13
-147.801493668395 509.454243536461 3656.0510720111 21 19 7
-141.624091369971 508.450307842254 3649.37982453829 18 16 4
-141.028579527031 506.577736385853 3635.64225206878 25 23 11
-136.742411233277 505.287722973638 3626.64227626188 25 23 11
-128.104703441712 504.671463287256 3623.12975594742 21 19 7
-118.202174833125 504.244507547235 3621.16658053014 44 42 30
-108.278801735505 503.814393077635 3619.18504340076 43 41 29
-100.854863239186 503.000457105013 3614.07898425313 37 35 23
-85.8404354074942 503.324155805304 3618.26699577711 35 33 21
-48.5745930351516 506.951563035157 3649.46509955206 34 32 20
-55.6501618836309 503.94882669685 3626.50325943162 35 36 28
-51.9642061733716 502.556841971516 3616.70090934978 35 38 31
-45.0966832736888 501.636024601203 3610.75454732191 32 35 28
-24.0952339185831 502.771913036137 3621.65810795541 31 34 27
-18.4708905136004 501.657761609415 3614.14398534646 30 33 26
-27.0789736041772 498.499368809674 3589.86491731878 28 31 24
-25.4078952587129 496.836625658202 3577.8402747523 18 21 14
8.11368873606888 499.705501387468 3603.02512002153 26 29 22
38.5403790919678 502.090736586656 3624.27861946875 35 38 31
117.573335526477 509.272525501291 3686.74366887242 34 37 30
98.4231707102454 504.650971996165 3650.43721629426 29 31 26
-273.995275808806 518.231326818541 3773.31107951452 18 23 17
-281.08643599301 514.947315951492 3747.71773837409 167 171 170
-276.663433301526 513.65630172012 3738.59916976156 159 163 164
-268.760106692594 512.959493034232 3734.40042510253 163 167 170
-262.017127611302 512.064221492303 3728.56184414112 161 164 169
-254.099902230171 511.364919979246 3724.35075355738 155 160 166
-244.407069483616 510.957940006156 3722.56919963768 160 165 171
-232.329544031749 510.938376538618 3724.01159536614 163 169 169
-215.471079388915 511.692539263415 3731.8918834864 160 166 164
-195.567336318234 512.92250962339 3743.74625595999 12 18 16
-194.676572997628 511.041466729032 3729.75283331722 28 34 30
-196.821318698139 508.68264179084 3711.77687161937 19 25 21
-193.015994312901 507.29444151787 3701.87072038008 11 16 10
-178.976424467999 507.540752141479 3705.58091696663 15 20 14
-176.991573283467 505.865336496428 3693.28439832017 18 20 15
-181.718810606861 503.143846517412 3672.25576601571 20 23 16
-162.759463611823 504.144616896956 3682.28364399137 20 23 16
-162.059074290638 502.286636851404 3668.45507588898 21 22 14
-157.718443756098 501.001505705949 3659.40786406316 23 23 15
-154.624798882106 499.52948956348 3648.79583329412 19 19 11
-149.702562674777 498.342577446983 3640.56714733646 29 29 19
-142.313711670047 497.532169036443 3635.49147692031 27 27 17
-134.920244934502 496.720809644514 3630.41181204673 25 25 17
-126.274669743394 496.095046493335 3626.89253435698 36 36 26
-118.867794198282 495.281214822581 3621.80157911944 31 31 21
-105.17808990012 495.393583964583 3624.49230831032 34 34 26
-99.63145647425 494.29778063605 3617.04510532455 40 40 32
-95.3564986178859 493.018289819221 3608.05477782001 40 40 30
-90.4636750590839 491.832583984651 3599.85157704532 38 38 30
-62.6842679356705 493.946163636546 3619.4312342312 36 37 31
-48.1694360272797 494.12308024441 3622.72995377918 37 40 33
-5.43678856180829 498.299708231227 3659.77294011619 36 39 32
11.8367952762948 498.813546451283 3665.9717259453 36 39 32
-23.6563116887876 491.896264917996 3609.43817387812 37 40 33
-38.7374427279226 487.902549888662 3577.54107131496 34 37 30
5.69622505294509 492.203390242022 3615.75575455996 24 27 20
19.7962931328135 492.25675218768 3618.09118907898 36 39 32
52.8653792681011 494.896357789772 3642.34645531192 47 50 43
49.892654237329 490.689739835642 3610.54297516131 40 43 36
74.0156673265822 492.051040786901 3624.03317813849 32 34 29
-275.24495756832 509.142755738069 3773.12954139682 0 4 0
-278.284732583284 506.599772035585 3753.2836898736 172 176 177
-274.428756171429 505.221301157833 3743.3338891683 157 161 162
-266.515548836008 504.517240834867 3739.1263120064 154 157 162
-260.930973591848 503.428716515582 3731.6464918276 149 154 160
-253.007831205173 502.722779248706 3727.43031576231 148 153 159
-244.486891902284 502.110567147668 3724.01897666572 162 167 173
-228.865042915887 502.635538329763 3730.32604744776 156 162 162
-211.99546112456 503.34122318967 3738.19701407359 166 172 170
-195.649948437255 503.942767012191 3745.19962419374 13 19 17
-191.17418122486 502.652918941037 3736.03499960474 22 28 24
-194.499069783427 500.144918398539 3716.4360395463 26 32 28
-182.870210220229 499.98497880088 3716.9449588963 21 27 23
-183.870182186208 497.861126416914 3700.6217797705 18 23 17
-177.662703805355 496.860147013326 3693.92444511915 21 23 18
-172.672600054721 495.673908658083 3685.6372470691 23 26 19
-175.003956416212 493.379178560589 3667.82229668975 23 26 19
-167.617301155743 492.567389041439 3662.74853835369 24 25 19
-167.584814731289 490.651646936162 3648.17597912688 33 34 28
-173.750006717108 487.825043500918 3625.7475176958 25 25 17
-171.358165444842 486.288759562419 3614.42060540638 33 34 26
-148.55376363328 487.762214244505 3629.05296941589 35 36 28
-133.721069437898 488.040260581161 3633.39879184325 31 31 23
-127.563760845316 487.043065506986 3626.74523214102 33 34 26
-119.533355586038 486.316866282018 3622.43653429937 30 31 23
-114.632570380981 485.139131052442 3614.22638122998 30 30 22
-110.373539951977 483.872931780551 3605.24945695685 30 30 22
-101.708159208331 483.234709996609 3601.71309381506 27 28 20
-68.945121795938 485.982963781679 3627.55618030609 21 22 14
-44.915355326745 487.463659636128 3642.44969067074 27 30 23
-34.8084902924422 486.979422173531 3640.30978071549 30 33 26
-22.7609540944287 486.757058003717 3640.45590697688 31 34 27
-42.7823690457356 482.126506572411 3602.2581347701 32 35 28
-44.9415116507574 479.976886837009 3585.61655660405 35 38 31
-60.7275011585777 475.996860261263 3553.00703063792 34 37 30
23.0178001935073 483.573034200927 3623.29546008088 32 35 28
33.2598071883337 483.068141633244 3621.03855157643 38 41 34
29.125848173686 480.65906889795 3602.14020090931 32 35 28
64.7680053532027 481.620397576141 3614.91239661333 34 36 31
33.4789287205837 475.711197648151 3565.31524595345 34 36 31
-284.558827200793 498.740910402548 3761.41943607446 0 3 2
-278.375910771615 497.74943701288 3754.74332855028 176 180 181
-271.615889649645 496.851660791979 3748.88999287003 172 176 177
-263.108250065687 496.233454581867 3745.49021995987 172 177 181
-255.755915817394 495.427177671577 3740.44648866972 169 174 178
-248.984993085202 494.527124851035 3734.58371892446 176 181 185
-243.390085827123 493.441768199161 3727.0946075784 149 154 158
-232.488517113245 493.187037752265 3726.91093391178 139 143 144
-221.557381092739 492.928055943731 3726.70166074666 84 88 87
-204.056580123219 493.673259420435 3735.34884732516 2 8 6
-204.975829042055 491.574886847949 3718.95553752304 20 26 22
-182.00142794576 493.12815256357 3734.76330073654 12 18 14
-180.540988532675 491.395682616546 3721.59841746335 14 20 16
-199.008076326483 486.67872396551 3682.05401396047 17 23 19
-186.801159474469 486.589753965542 3683.38471126756 18 23 17
-180.625341662776 485.595216437624 3676.71509173885 22 24 19
-178.715606028901 483.97252572846 3664.48333678124 23 25 20
-174.394083788836 482.711766492398 3655.45252887051 25 26 21
-176.218852177584 480.560743152081 3638.52114564767 19 22 15
-186.712121407646 477.171946002051 3610.58385472116 28 31 24
-182.508140415803 475.925938272421 3601.6548284451 24 27 20
-159.124551093879 477.421522885959 3617.10830729032 23 26 19
-141.841962709731 478.020796303992 3624.62231131844 25 28 21
-138.202336968104 476.678086866205 3614.85948226779 26 29 22
-128.954316975908 476.125698195899 3612.14082941794 26 29 22
-124.708895581612 474.872522641097 3603.1759317032 26 29 22
-118.591014469305 473.88216442265 3596.55650091233 34 37 30
-106.792983373417 473.672531151145 3596.91879971755 38 41 34
-83.556608724471 475.014241236496 3611.17761105008 39 42 35
-64.0269530962665 475.824184019651 3620.71241860145 26 29 22
-46.9655745057347 476.279136487301 3627.09551192741 28 31 24
-50.3112098944931 473.984789471982 3608.83641028435 29 32 25
-42.1692093703996 473.235267309281 3604.43113994866 31 34 27
-44.9651649426039 471.037959241515 3587.01824310788 34 37 30
-23.9221207632498 471.986124444168 3597.88728397617 32 35 28
-31.9490999924508 469.118252864259 3574.42593063165 32 35 28
8.68492707319568 472.581065728455 3607.99913324176 32 35 28
12.3615139798585 471.228617724067 3598.20433172697 32 35 28
5.55071654750217 468.539562765019 3576.33454842487 33 36 29
88.4407169828521 475.416236709163 3643.39873256406 37 39 34
-270.376257914911 490.168529169013 3767.70935699255 163 167 168
-265.325232752599 488.993691931177 3759.36896677283 134 138 139
-259.121472840937 488.001260243259 3752.67511517582 125 129 132
-253.505125561429 486.918705417611 3745.16740283663 122 126 129
-246.137687009016 486.106943707734 3740.11030013197 135 139 142
-241.117854633416 484.935221552242 3731.79724114875 141 145 148
-232.568309541727 484.301693022093 3728.36093100493 143 145 144
-227.559144208167 483.130823523097 3720.05711200522 117 119 116
-225.533410153748 481.516360799226 3707.72476372946 0 4 0
-211.611682079037 481.679549510279 3711.53763664608 21 26 22
-192.253847012061 482.631371244647 3722.54370874684 17 23 19
-213.043068564023 477.666564881931 3679.72022909839 17 24 17
-203.289737133362 477.207256436454 3677.88657788438 21 28 21
-186.864462389846 477.70825926786 3684.82070687153 24 29 23
-175.226202403867 477.501547956853 3685.32146610622 26 28 23
-172.685263851062 475.984627131594 3673.86551588391 28 29 24
-175.058842880653 473.777028418137 3656.08659679515 28 29 24
-168.91360105548 472.788105758822 3649.44344218851 24 26 21
-162.771934862048 471.799350232836 3642.8033856274 30 32 27
-169.589923923489 469.006081157401 3619.61693449385 32 34 29
-162.879590128113 468.109082644402 3613.80665956599 33 35 30
-161.137234049925 466.5286130256 3601.72002040481 33 35 30
-148.211134132335 466.484151173325 3603.75034835642 30 32 27
-131.492489606507 466.942838549035 3610.43016190054 31 33 28
-129.761096867505 465.362887200941 3598.3530217011 32 34 29
-119.252145975107 464.96699968342 3597.18729784208 33 35 30
-101.773273106224 465.491473864369 3604.53134423999 32 34 29
-88.657975290904 465.420125120262 3606.39786180073 30 32 27
-74.2301968171199 465.509803446975 3609.77259899582 32 35 28
-59.7528722419365 465.592457754599 3613.10412280689 42 45 38
-58.0173863661875 464.00999390547 3601.02345121977 40 43 36
-58.2395107228342 462.183725726071 3586.67099251555 39 42 35
-35.3336749668767 463.327867571182 3599.8939976499 44 47 40
-17.4907371740747 463.801231534196 3606.92282708757 43 46 39
6.90063144663622 465.082847957018 3621.50452942238 38 41 34
15.1562617780456 464.311084046823 3617.00060066255 30 33 26
16.9010914975081 462.725325718304 3604.91185177853 40 43 36
25.8069069778579 462.034362926652 3601.16743697116 43 46 39
-265.271107013118 482.063160038497 3776.57061745682 178 178 176
-260.198798241001 480.893301593258 3768.21174770476 163 165 162
-255.137872139786 479.724721553281 3759.86273543861 143 143 143
-251.256000519988 478.382153458182 3749.89025777486 152 152 152
-245.050245030054 477.391272325706 3743.19435097795 151 151 151
-239.435517375188 476.313494191659 3735.68832698542 168 167 165
-232.648208606096 475.410021943789 3729.81137703096 160 156 155
-230.004605659288 473.900549711944 3718.26639562107 179 175 172
-222.041843994784 473.170727115365 3714.01603488112 10 9 5
-217.647139708367 471.923587721838 3704.9217092034 19 22 15
-219.848932529908 469.735717827542 3686.99376899009 15 20 14
-199.900217165834 470.716007008021 3698.81109581359 17 24 16
-208.171298503306 467.682306090929 3672.91586737451 19 26 18
-189.95029894297 468.395953033575 3682.2619817935 20 25 18
-172.256840952376 469.014272955705 3690.74300781545 23 26 19
-165.442269397441 468.104613968055 3684.84246831478 26 29 22
-168.396426048749 465.849890396341 3666.24380121754 24 25 19
-157.937649088881 465.446491997726 3665.12161358002 22 24 19
-164.050537153162 462.785055147354 3642.64643266367 25 27 22
-154.213498797097 462.298514098977 3640.74040611655 25 27 22
-164.15728999521 459.15464925433 3613.6488520465 29 31 26
-153.723237500771 458.753300730435 3612.5477651958 30 32 27
-139.526300323152 458.842656506284 3616.12258292991 31 33 28
-127.779425534972 458.596562168983 3616.52977252726 32 34 29
-127.285942630722 456.872534876446 3602.87966963642 33 35 30
-112.36419873421 457.029678526783 3607.14877742652 33 35 30
-101.175212450456 456.691573262577 3606.71684440473 32 34 29
-82.3588051549224 457.32139766083 3615.54744071012 30 32 27
-72.9926359380033 456.729300127887 3612.72695650764 31 34 27
-71.8950684284452 455.0886071305 3599.8759926396 35 38 31
-66.9979444708182 453.933672565609 3591.66886515608 31 34 27
