ply
format ascii 1.0
comment KinectMotionCapture
element vertex 794
property float x
property float y
property float z
property uchar red
property uchar green
property uchar blue
end_header
67.6409378647804 53.5188242793083 2854.00009155273 13 16 9
75.0892013311386 53.274367004633 2841.00008010864 15 18 11
83.515964448452 53.7049062550068 2864.00008201599 15 18 11
90.6966477632523 53.3290505409241 2844.00010108948 14 17 10
98.1485918164253 53.1593859195709 2835.00003814697 14 17 10
106.260642409325 53.3459261059761 2845.00002861023 14 17 10
114.987954497337 53.7948831915855 2868.99995803833 15 18 11
123.332127928734 54.0187619626522 2881.00004196167 16 19 12
130.830496549606 53.8675524294376 2872.99990653992 16 19 10
139.153480529785 54.0537759661675 2882.99989700317 17 20 11
146.714568138123 53.9399348199368 2877.00009346008 18 21 12
153.812512755394 53.676038980484 2862.99991607666 19 22 13
161.454379558563 53.6183081567287 2859.99989509583 18 21 14
172.452554106712 54.6291060745716 2914.00003433228 18 21 14
180.463492870331 54.6461939811707 2914.99996185303 21 24 17
-118.789121508598 45.4970747232437 2839.99991416931 21 24 17
-111.076682806015 45.5140322446823 2841.00008010864 23 26 19
-104.049324989319 45.8353161811829 2861.00006103516 23 26 19
-97.0468968153 46.2206266820431 2884.99999046326 19 22 13
-89.1403406858444 46.2053716182709 2884.0000629425 18 21 12
-79.6045064926147 45.2607944607735 2825.00004768372 18 21 12
-72.4518075585365 45.6138849258423 2846.99988365173 18 21 12
-64.7470355033875 45.6625148653984 2849.99990463257 18 21 12
-57.2055131196976 45.8552800118923 2861.99998855591 17 20 11
-49.2875762283802 45.7595773041248 2855.99994659424 17 20 9
-41.838027536869 46.1444966495037 2880.00011444092 17 20 13
-26.2732375413179 46.4334525167942 2898.00000190735 13 16 9
-18.1508529931307 45.9048897027969 2865.00000953674 14 17 10
-10.4357115924358 46.3856868445873 2894.99998092651 13 16 9
-2.54532368853688 46.6581247746944 2911.99994087219 12 15 8
5.36365294829011 46.2895855307579 2888.99993896484 10 12 7
13.2570918649435 46.3055372238159 2890.00010490417 10 12 7
20.877854898572 45.7125566899776 2852.9999256134 8 10 5
28.829038143158 45.9687151014805 2868.99995803833 7 9 4
37.5958792865276 47.138087451458 2941.99991226196 8 10 5
44.7139628231525 46.1924262344837 2882.99989700317 10 13 6
52.9141463339329 46.4804284274578 2901.00002288818 11 14 7
61.0026940703392 46.6081388294697 2908.99991989136 13 16 9
68.3762580156326 46.2230890989304 2884.99999046326 14 17 10
76.4114111661911 46.3186278939247 2891.00003242493 14 17 10
83.8957875967026 46.0936725139618 2877.00009346008 13 16 9
92.4833416938782 46.4614480733871 2900.00009536743 14 17 10
99.3958041071892 45.9960512816906 2871.00005149841 14 17 10
106.70979321003 45.7709245383739 2857.00011253357 14 17 10
115.38977175951 46.1224690079689 2878.99994850159 14 17 10
124.189384281635 46.4739464223385 2901.00002288818 14 17 10
131.651341915131 46.3127121329308 2891.00003242493 17 20 11
138.527244329453 45.975212007761 2869.99988555908 17 20 11
146.358877420425 45.9740608930588 2869.99988555908 17 20 11
155.747935175896 46.4373826980591 2898.9999294281 17 20 11
163.544565439224 46.4040711522102 2897.0000743866 18 21 12
172.33569920063 46.6429889202118 2911.99994087219 21 24 17
180.465057492256 46.6896221041679 2914.99996185303 23 26 19
-132.912710309029 39.6431460976601 2983.00004005432 22 25 18
-120.128482580185 38.1688214838505 2871.99997901917 22 25 18
-112.563230097294 38.2626354694366 2878.99994850159 23 26 19
-104.450158774853 38.170337677002 2871.99997901917 23 26 19
-97.686767578125 38.5963208973408 2904.00004386902 21 24 15
-88.9555439352989 38.2513850927353 2878.00002098084 21 24 15
-79.5205682516098 37.5076569616795 2822.00002670288 19 22 13
-72.197861969471 37.7075374126434 2836.99989318848 19 22 13
-64.6566525101662 37.8276221454144 2845.99995613098 19 22 13
-56.3864298164845 37.495743483305 2821.00009918213 18 21 12
-49.1153709590435 37.8283932805061 2845.99995613098 17 20 9
-33.7384305894375 38.0150452256203 2859.99989509583 15 18 11
-26.2825004756451 38.5336428880692 2898.9999294281 13 16 9
-18.2840321213007 38.3609943091869 2885.99991798401 13 16 9
-10.4177659377456 38.4142585098743 2890.00010490417 13 16 9
-2.57418747060001 39.1453690826893 2944.9999332428 12 15 8
29.4723622500896 38.9855019748211 2933.00008773804 7 9 4
37.6600585877895 39.1713604331017 2947.00002670288 8 10 5
53.2428622245789 38.7985669076443 2918.99991035461 10 13 6
61.045091599226 38.6918522417545 2911.00001335144 13 16 9
68.6848759651184 38.5186187922955 2898.00000190735 14 17 10
76.2533918023109 38.3453406393528 2884.99999046326 14 17 10
84.712915122509 38.6106185615063 2904.99997138977 14 17 10
92.3883467912674 38.5036952793598 2897.0000743866 15 18 11
99.8466089367867 38.3302643895149 2884.0000629425 15 18 11
106.822624802589 38.0105935037136 2859.99989509583 15 18 11
114.829517900944 38.0763001739979 2865.00000953674 15 18 11
122.734792530537 38.1020829081535 2867.00010299683 15 18 11
130.422785878181 38.061361759901 2864.00008201599 16 19 10
136.404484510422 37.5554673373699 2825.99997520447 17 20 11
145.595028996468 37.9399098455906 2855.00001907349 17 20 11
153.976157307625 38.0850806832314 2865.9999370575 17 20 11
163.432866334915 38.4693890810013 2894.99998092651 18 21 12
173.283874988556 38.9067716896534 2927.99997329712 22 25 18
181.395024061203 38.932166993618 2930.0000667572 22 25 18
188.48218023777 38.7449227273464 2915.99988937378 19 22 15
-121.258556842804 30.6128896772861 2898.9999294281 24 27 20
-110.765397548676 29.9165546894073 2832.99994468689 23 26 19
-104.2325720191 30.2656143903732 2865.9999370575 22 25 18
-96.0390567779541 30.1499888300896 2855.00001907349 23 26 17
-88.0906283855438 30.0976801663637 2849.99990463257 22 25 16
-80.5918425321579 30.2037391811609 2859.99989509583 19 22 13
-72.5800320506096 30.1196649670601 2851.99999809265 20 23 14
-64.5888820290565 30.0249867141247 2842.99993515015 20 23 14
-56.866493076086 30.0464387983084 2845.00002861023 19 22 13
-48.6151911318302 29.751006513834 2816.99991226196 16 19 8
-41.1122255027294 29.8885460942984 2829.99992370605 14 17 10
-33.5852764546871 30.0682913511992 2846.99988365173 13 16 9
-26.0832086205482 30.3852986544371 2877.00009346008 13 16 9
-18.2841438800097 30.4804686456919 2885.99991798401 14 17 10
-10.4430625215173 30.5967256426811 2897.0000743866 13 16 9
-2.54098791629076 30.7023748755455 2907.00006484985 12 15 8
5.55681344121695 31.610656529665 2993.00003051758 14 16 11
21.4416235685349 30.9451352804899 2930.0000667572 7 9 4
37.3280271887779 30.8497659862041 2921.0000038147 7 9 4
45.1953746378422 30.7756140828133 2914.00003433228 8 11 4
52.6595041155815 30.4901953786612 2887.00008392334 9 12 5
61.0244944691658 30.7327974587679 2910.00008583069 12 15 8
68.1401714682579 30.3628090769053 2875 13 16 9
75.2230361104012 30.0561562180519 2845.99995613098 15 18 11
84.6259444952011 30.6471288204193 2901.99995040894 15 18 11
91.9105336070061 30.4354447871447 2881.99996948242 15 18 11
98.981685936451 30.1920417696238 2858.99996757507 15 18 11
105.926856398582 29.9486070871353 2835.99996566772 16 19 12
114.389322698116 30.1380977034569 2854.00009155273 16 19 12
123.035185039043 30.3486604243517 2874.00007247925 17 20 13
129.831567406654 30.1051139831543 2851.0000705719 16 19 10
137.612000107765 30.1044024527073 2851.0000705719 16 19 10
144.830927252769 29.9874991178513 2839.99991416931 17 20 11
155.051574110985 30.472407117486 2885.99991798401 17 20 11
163.038656115532 30.4926838725805 2888.00001144409 18 21 12
170.680910348892 30.4495673626661 2884.0000629425 22 25 18
179.043516516685 30.533105134964 2891.99995994568 23 26 19
186.479523777962 30.4582379758358 2884.99999046326 22 25 18
-102.12367027998 21.9863783568144 2808.00008773804 22 25 18
-96.0731357336044 22.3626084625721 2855.99994659424 22 25 16
-88.6783227324486 22.464768961072 2868.99995803833 20 23 14
-80.5358663201332 22.3789718002081 2858.00004005432 19 22 13
-72.8857666254044 22.4262606352568 2864.00008201599 19 22 13
-65.1344358921051 22.450027987361 2867.00010299683 19 22 13
-57.3664605617523 22.4737636744976 2869.99988555908 17 20 11
-49.0986481308937 22.2782120108604 2845.00002861023 15 18 7
-40.9526191651821 22.0747962594032 2819.00000572205 14 17 10
-33.3494953811169 22.137587890029 2826.99990272522 13 16 9
-25.8657392114401 22.3413072526455 2852.9999256134 14 17 10
-18.214538693428 22.5136745721102 2875 14 17 10
-10.4359025135636 22.6703509688377 2894.99998092651 13 16 9
-2.54537025466561 22.8035002946854 2911.99994087219 12 15 8
5.43987285345793 22.944450378418 2930.0000667572 14 16 11
21.1855936795473 22.6702634245157 2894.99998092651 7 9 4
29.1611663997173 22.7249767631292 2901.99995040894 5 7 2
37.5326685607433 22.9989215731621 2937.00003623962 7 9 4
44.8078401386738 22.6228814572096 2888.99993896484 9 12 5
52.969828248024 22.7401442825794 2904.00004386902 9 12 5
60.4375936090946 22.5676447153091 2881.99996948242 11 14 7
67.8323805332184 22.4107801914215 2861.99998855591 12 15 8
76.1220529675484 22.5514397025108 2880.00011444092 15 18 11
84.8596468567848 22.7860286831856 2910.00008583069 16 19 12
92.2617688775063 22.6525589823723 2892.99988746643 14 17 10
98.1858521699905 22.2058687359095 2835.99996566772 15 18 11
106.674358248711 22.3620571196079 2855.99994659424 15 18 11
114.630326628685 22.392937913537 2859.99989509583 16 19 12
123.977571725845 22.6743314415216 2895.99990844727 17 20 13
131.289407610893 22.5720424205065 2882.99989700317 16 19 10
140.605285763741 22.8063855320215 2913.00010681152 17 20 11
148.146420717239 22.743184119463 2904.99997138977 18 21 12
155.106037855148 22.6016659289598 2887.00008392334 17 20 11
162.813603878021 22.5775558501482 2884.0000629425 21 24 17
170.089855790138 22.4986150860786 2874.00007247925 22 25 18
-131.845191121101 15.0886410847306 2959.00011062622 14 17 10
-122.30521440506 14.9104921147227 2924.00002479553 22 25 18
-111.352749168873 14.5232398062944 2848.00004959106 23 26 19
-103.506021201611 14.5133184269071 2845.99995613098 23 26 19
-96.9144329428673 14.6920653060079 2881.00004196167 23 26 17
-88.5240733623505 14.6056115627289 2864.00008201599 20 23 14
-81.2124311923981 14.6976262331009 2881.99996948242 20 23 14
-73.90396296978 14.8100247606635 2904.00004386902 19 22 13
-66.0888403654099 14.8357059806585 2908.99991989136 17 20 11
-57.8863546252251 14.7695690393448 2895.99990844727 16 19 10
-50.0479899346828 14.7901093587279 2900.00009536743 16 19 8
-41.141614317894 14.4434245303273 2832.00001716614 16 19 12
-18.5060333460569 14.8975700139999 2921.0000038147 16 19 12
-10.4791941121221 14.8262055590749 2907.00006484985 13 16 9
-2.53838603384793 14.8109225556254 2904.00004386902 11 14 7
5.37119572982192 14.7548159584403 2892.99988746643 11 13 8
13.4316962212324 14.9332983419299 2927.99997329712 10 12 7
21.3027521967888 14.8465493693948 2911.00001335144 9 11 6
36.8171520531178 14.6933933719993 2881.00004196167 8 10 5
45.1802238821983 14.8564893752337 2913.00010681152 10 13 6
60.9201267361641 14.8154124617577 2904.99997138977 10 13 6
67.9511055350304 14.6214477717876 2867.00010299683 11 14 7
75.9108513593674 14.6467592567205 2871.99997901917 14 17 10
84.2183604836464 14.7281484678388 2888.00001144409 14 17 10
92.5809890031815 14.8044154047966 2903.00011634827 15 18 11
99.8826250433922 14.7123718634248 2884.99999046326 16 19 12
107.832610607147 14.7223025560379 2887.00008392334 16 19 12
115.833140909672 14.7373117506504 2890.00010490417 17 20 13
122.436821460724 14.5840225741267 2859.99989509583 17 20 13
131.198763847351 14.6907800808549 2881.00004196167 18 21 12
141.426280140877 14.9402860552073 2930.0000667572 19 22 13
149.115845561028 14.9093177169561 2924.00002479553 19 22 13
155.321434140205 14.7406635805964 2891.00003242493 18 21 12
164.056107401848 14.8167368024588 2905.99989891052 19 22 13
172.280162572861 14.8417977616191 2911.00001335144 22 25 18
-122.179962694645 6.92008063197136 2921.0000038147 21 24 17
-106.779433786869 6.95589324459434 2936.00010871887 22 25 18
-96.5782180428505 6.80201780050993 2871.00005149841 25 28 19
-88.7406021356583 6.80212955921888 2871.00005149841 21 24 15
-81.7479863762856 6.87331007793546 2901.00002288818 22 25 16
-74.1585940122604 6.90420623868704 2914.00003433228 20 23 14
-66.1798492074013 6.90192170441151 2913.00010681152 17 20 11
-58.0663569271564 6.88304146751761 2904.99997138977 17 20 11
-49.6511533856392 6.8167638964951 2877.00009346008 18 21 12
-41.3305498659611 6.7409984767437 2845.00002861023 17 20 13
-33.2199074327946 6.67232973501086 2815.99998474121 16 19 12
-25.9837359189987 6.79083727300167 2865.9999370575 17 20 13
-18.3540172874928 6.86431769281626 2897.0000743866 17 20 13
-10.4864230379462 6.8927682004869 2908.99991989136 13 16 9
-2.52003455534577 6.83117005974054 2882.99989700317 11 14 7
5.35264005884528 6.83116912841797 2882.99989700317 10 12 7
21.6028317809105 6.99462834745646 2951.99990272522 9 11 6
28.9201512932777 6.8192589096725 2878.00002098084 7 9 4
36.8427783250809 6.83106621727347 2882.99989700317 8 10 5
44.8235832154751 6.84760278090835 2890.00010490417 11 14 7
52.6600182056427 6.84043532237411 2887.00008392334 10 13 6
60.2701492607594 6.80956523865461 2874.00007247925 10 13 6
68.8281804323196 6.88056787475944 2904.00004386902 11 14 7
76.0695934295654 6.81887753307819 2878.00002098084 13 16 9
84.5684632658958 6.8709054030478 2900.00009536743 14 17 10
92.3260375857353 6.8589523434639 2894.99998092651 16 19 12
99.5712280273438 6.81382138282061 2875.99992752075 17 20 13
107.944868505001 6.84686563909054 2890.00010490417 17 20 13
115.19206315279 6.80882483720779 2874.00007247925 19 22 15
123.20764362812 6.81815855205059 2878.00002098084 19 22 15
131.563320755959 6.84406468644738 2888.99993896484 21 24 15
140.123307704926 6.87706749886274 2903.00011634827 22 25 14
148.351162672043 6.89110904932022 2908.99991989136 20 23 12
154.515832662582 6.81275594979525 2875.99992752075 19 22 11
163.435429334641 6.85757445171475 2894.99998092651 19 22 13
-117.882505059242 -1.08903669752181 3015.00010490417 27 30 21
-96.8473851680756 -1.03995099198073 2878.99994850159 17 20 11
-89.5133763551712 -1.04610878042877 2895.99990844727 25 28 19
-81.6353186964989 -1.04648596607149 2897.0000743866 20 23 14
-74.0059390664101 -1.05047377292067 2907.99999237061 19 22 13
-66.157154738903 -1.05193152558059 2911.99994087219 19 22 13
-58.0064207315445 -1.04833068326116 2901.99995040894 19 22 13
-49.7029609978199 -1.04039325378835 2880.00011444092 17 20 11
-41.388675570488 -1.02920283097774 2848.99997711182 19 22 15
-33.6210168898106 -1.02957093622535 2849.99990463257 17 20 13
-25.8568227291107 -1.03029911406338 2851.99999809265 16 19 12
-18.2906705886126 -1.04294717311859 2887.00008392334 14 17 10
-10.4179391637444 -1.04403356090188 2890.00010490417 11 14 7
-2.53489566966891 -1.04764732532203 2900.00009536743 11 14 7
5.24310162290931 -1.02019147016108 2823.99988174438 10 12 7
13.3858546614647 -1.05414795689285 2917.99998283386 10 12 7
29.442697763443 -1.05847511440516 2930.0000667572 7 9 4
37.0217114686966 -1.04654754977673 2897.0000743866 9 11 6
44.7150394320488 -1.04148255195469 2882.99989700317 11 12 6
52.3681975901127 -1.03713851422071 2871.00005149841 11 12 6
59.7249381244183 -1.02881959173828 2848.00004959106 12 15 8
67.8801760077477 -1.03458773810416 2864.00008201599 12 15 8
76.624684035778 -1.04721763636917 2898.9999294281 12 15 6
84.9184468388557 -1.05189881287515 2911.99994087219 11 14 5
92.3260822892189 -1.04574160650373 2894.99998092651 17 20 11
99.5712801814079 -1.03886076249182 2875.99992752075 15 21 11
107.27259516716 -1.03739707265049 2871.99997901917 16 22 12
115.111961960793 -1.03737658355385 2871.99997901917 18 24 14
123.593002557755 -1.04277278296649 2887.00008392334 19 25 15
132.109865546227 -1.04780599940568 2901.00002288818 20 26 12
139.882028102875 -1.04669772554189 2898.00000190735 21 27 13
146.464332938194 -1.03728100657463 2871.99997901917 20 26 12
155.644163489342 -1.0462828213349 2897.0000743866 18 24 10
164.790421724319 -1.05419906321913 2918.99991035461 17 23 11
174.470320343971 -1.06464151758701 2947.99995422363 20 26 16
-118.62525343895 -9.37972869724035 3033.99991989136 21 24 15
-96.4436307549477 -8.86376947164536 2867.00010299683 16 19 10
-89.2660319805145 -8.92884097993374 2888.00001144409 26 29 20
-81.6070586442947 -8.95370822399855 2895.99990844727 20 23 14
-73.8277360796928 -8.96929018199444 2901.00002288818 19 22 13
-65.6345635652542 -8.93229804933071 2888.99993896484 21 24 15
-57.9264163970947 -8.96022375673056 2898.00000190735 20 23 14
-49.4095236063004 -8.85209161788225 2862.99991607666 18 21 12
-41.2433668971062 -8.77795834094286 2838.99998664856 20 23 16
-33.6563773453236 -8.82130395621061 2852.9999256134 16 19 12
-25.9837247431278 -8.86154640465975 2865.9999370575 13 16 9
-18.2843189686537 -8.92342068254948 2885.99991798401 11 14 7
-10.5260731652379 -9.02857072651386 2920.00007629395 12 15 8
-2.52440432086587 -8.92963726073503 2888.00001144409 12 15 8
5.35078113898635 -8.91108345240355 2881.99996948242 10 12 7
21.7857733368874 -9.20477788895369 2976.99999809265 8 10 5
29.2517486959696 -9.00066830217838 2911.00001335144 7 9 4
37.3411625623703 -9.03462711721659 2921.99993133545 9 11 6
45.5835498869419 -9.08712390810251 2938.99989128113 11 12 6
52.4228774011135 -8.88607371598482 2874.00007247925 11 12 6
60.2491535246372 -8.88289231806993 2872.99990653992 12 15 8
67.9986178874969 -8.87042377144098 2868.99995803833 12 15 8
76.0431289672852 -8.89504514634609 2877.00009346008 12 15 6
83.8977172970772 -8.89491848647594 2877.00009346008 12 15 6
93.0595025420189 -9.02154017239809 2917.99998283386 11 14 5
100.159756839275 -8.94409604370594 2892.99988746643 16 22 12
107.720710337162 -8.9161079376936 2884.0000629425 20 26 16
115.352354943752 -8.89738462865353 2878.00002098084 22 28 18
122.736684978008 -8.86319205164909 2867.00010299683 21 27 15
131.973132491112 -8.95882677286863 2898.00000190735 21 27 13
139.350965619087 -8.92460998147726 2887.00008392334 21 27 13
145.495250821114 -8.81928391754627 2852.9999256134 19 25 11
154.838129878044 -8.90869554132223 2881.99996948242 17 23 11
164.903193712234 -9.02900099754334 2921.0000038147 16 22 10
175.002813339233 -9.14001371711493 2957.00001716614 18 24 12
-96.409760415554 -16.68606325984 2865.9999370575 18 21 12
-88.6785537004471 -16.7038030922413 2868.99995803833 22 25 16
-81.12782984972 -16.7622771114111 2878.99994850159 20 23 14
-73.5221728682518 -16.8207306414843 2888.99993896484 20 23 14
-65.3845146298409 -16.7568903416395 2878.00002098084 22 25 16
-56.9468513131142 -16.5882203727961 2848.99997711182 21 24 15
-48.9434488117695 -16.5126863867044 2835.99996566772 18 21 12
-41.6500382125378 -16.6933201253414 2867.00010299683 19 22 15
-33.7506793439388 -16.6584979742765 2861.00006103516 17 20 13
-18.5250267386436 -17.0254800468683 2924.00002479553 10 13 6
-10.4431388899684 -16.8683119118214 2897.0000743866 10 13 6
-2.5322656147182 -16.8683305382729 2897.0000743866 11 14 7
5.3804749622941 -16.8741494417191 2898.00000190735 10 12 7
13.4500358253717 -17.0720908790827 2931.99992179871 10 12 7
21.4271433651447 -17.0487482100725 2927.99997329712 8 10 5
29.5933373272419 -17.147658392787 2944.9999332428 7 9 4
37.6861169934273 -17.1708483248949 2948.99988174438 9 11 6
45.4438589513302 -17.0600954443216 2930.0000667572 11 12 6
52.8422892093658 -16.8678071349859 2897.0000743866 11 12 6
60.5006702244282 -16.7977679520845 2884.99999046326 11 14 7
68.4013739228249 -16.8033968657255 2885.99991798401 12 15 8
75.9900957345963 -16.7391374707222 2875 12 15 6
83.6933925747871 -16.7097896337509 2869.99988555908 13 16 7
91.5604010224342 -16.7153533548117 2871.00005149841 12 15 6
100.09029507637 -16.8315097689629 2891.00003242493 14 20 10
107.832513749599 -16.8079137802124 2887.00008392334 18 24 14
115.472324192524 -16.7726539075375 2881.00004196167 22 28 18
123.250126838684 -16.7606584727764 2878.99994850159 22 28 16
131.836205720901 -16.8534275144339 2894.99998092651 21 27 13
139.929860830307 -16.8763138353825 2898.9999294281 21 27 13
146.259889006615 -16.6954323649406 2868.00003051758 19 25 11
153.76327931881 -16.660064458847 2861.99998855591 17 23 11
164.564087986946 -16.9681161642075 2914.99996185303 16 22 10
182.202234864235 -17.1300880610943 2943.00007820129 13 19 9
-104.051105678082 -24.4681816548109 2861.00006103516 17 20 11
-95.8375632762909 -24.3659894913435 2848.99997711182 24 27 18
-88.2454961538315 -24.4177039712667 2855.00001907349 18 21 12
-81.2402442097664 -24.6575437486172 2882.99989700317 20 23 14
-73.7254992127419 -24.7776247560978 2897.0000743866 21 24 15
-65.3842762112617 -24.6154218912125 2878.00002098084 22 25 16
-56.9866225123405 -24.3847612291574 2851.0000705719 21 24 15
-49.4264848530293 -24.496179074049 2864.00008201599 15 18 9
-41.7225249111652 -24.5648082345724 2871.99997901917 11 14 7
-34.4819538295269 -25.0011887401342 2923.00009727478 12 15 8
-26.5184734016657 -25.0184275209904 2924.99995231628 12 15 8
-18.3475650846958 -24.7704796493053 2895.99990844727 11 14 7
-10.352979414165 -24.5652627199888 2871.99997901917 8 11 4
-2.48505477793515 -24.3172403424978 2842.99993515015 7 10 3
13.3995255455375 -24.9843578785658 2921.0000038147 10 12 7
21.4051101356745 -25.0184945762157 2924.99995231628 8 10 5
38.0438007414341 -25.463005527854 2976.99999809265 9 11 6
46.3277511298656 -25.5483537912369 2986.99998855591 11 12 6
60.1020008325577 -24.5129615068436 2865.9999370575 10 13 6
68.7092393636703 -24.7949287295341 2898.9999294281 11 14 7
77.4699673056602 -25.0683035701513 2930.99999427795 13 16 7
84.5096036791801 -24.7857067734003 2898.00000190735 14 17 8
91.8151810765266 -24.6228240430355 2878.99994850159 14 17 8
99.3974953889847 -24.5539899915457 2871.00005149841 11 17 7
107.608020305634 -24.6390625834465 2881.00004196167 12 18 8
115.792535245419 -24.7069969773293 2888.99993896484 17 23 13
124.277114868164 -24.82620626688 2903.00011634827 20 26 14
132.700994610786 -24.919718503952 2914.00003433228 20 26 14
140.89472591877 -24.9618850648403 2918.99991035461 19 25 13
149.421185255051 -25.0553265213966 2930.0000667572 17 23 11
157.039985060692 -24.9948091804981 2923.00009727478 17 23 13
163.49084675312 -24.7632414102554 2895.99990844727 17 23 13
171.154960989952 -24.7283224016428 2891.99995994568 16 22 12
-105.105273425579 -32.606802880764 2890.00010490417 16 19 10
-96.173457801342 -32.257616519928 2858.99996757507 24 27 18
-88.6159688234329 -32.3484092950821 2867.00010299683 18 21 12
-81.0989439487457 -32.4730090796947 2878.00002098084 20 23 14
-73.7505778670311 -32.6991230249405 2898.00000190735 21 24 15
-65.3612315654755 -32.4625708162785 2877.00009346008 22 25 16
-57.3461167514324 -32.3726534843445 2868.99995803833 20 23 14
-49.5470426976681 -32.3955304920673 2871.00005149841 13 16 7
-42.521309107542 -33.0276861786842 2927.00004577637 11 14 7
-25.8837137371302 -32.2156399488449 2855.00001907349 12 15 8
-18.638901412487 -33.1974700093269 2941.99991226196 12 15 8
-10.4502569884062 -32.7123440802097 2898.9999294281 10 13 6
-2.5540953502059 -32.971914857626 2921.99993133545 10 13 6
5.40084997192025 -32.8252129256725 2908.99991989136 10 12 7
13.4361553937197 -33.0508388578892 2928.99990081787 10 12 7
21.5586796402931 -33.2425683736801 2946.00009918213 8 10 5
29.7538563609123 -33.4116779267788 2960.99996566772 7 9 4
37.9285924136639 -33.4904715418816 2967.99993515015 9 11 6
46.3895536959171 -33.7497554719448 2990.9999370575 11 12 6
52.9877506196499 -32.7790714800358 2904.99997138977 11 12 6
60.2694675326347 -32.4289500713348 2874.00007247925 10 13 6
68.6614960432053 -32.6880998909473 2897.0000743866 11 14 7
77.8396129608154 -33.2292802631855 2944.9999332428 12 15 8
91.62338078022 -32.4159227311611 2872.99990653992 16 19 10
99.1892740130425 -32.3251076042652 2865.00000953674 13 19 9
107.794232666492 -32.5614549219608 2885.99991798401 12 18 8
116.03245139122 -32.6623544096947 2894.99998092651 15 21 11
124.490536749363 -32.8083373606205 2907.99999237061 18 24 12
131.151989102364 -32.4917137622833 2880.00011444092 21 24 15
142.148986458778 -33.2242473959923 2944.9999332428 19 22 13
151.409313082695 -33.4941670298576 2969.00010108948 18 21 12
157.146647572517 -32.9969190061092 2924.99995231628 19 22 15
166.199833154678 -33.2103408873081 2944.00000572205 20 23 16
173.876479268074 -33.1416949629784 2937.99996376038 18 21 14
-96.711054444313 -40.2877926826477 2875 19 22 13
-88.5844826698303 -40.1623323559761 2865.9999370575 15 18 9
-81.1547860503197 -40.359128266573 2880.00011444092 21 24 15
-73.0375349521637 -40.2195416390896 2869.99988555908 21 24 15
-65.6561478972435 -40.5003167688847 2890.00010490417 15 18 9
-57.3257617652416 -40.1924438774586 2868.00003051758 12 15 6
-42.8115800023079 -41.3002893328667 2947.00002670288 15 18 11
-34.092266112566 -40.5017398297787 2890.00010490417 13 16 9
-26.0830000042915 -40.3197705745697 2877.00009346008 10 13 6
-18.1762967258692 -40.2078106999397 2868.99995803833 11 14 7
-10.5583304539323 -41.0487875342369 2928.99990081787 12 15 8
-2.55233095958829 -40.9227050840855 2920.00007629395 11 14 7
5.38224959746003 -40.6283847987652 2898.9999294281 11 13 8
13.385608792305 -40.8945977687836 2917.99998283386 10 12 7
21.6829460114241 -41.5251292288303 2963.00005912781 8 10 5
29.783807694912 -41.5389575064182 2963.99998664856 7 9 4
37.6983247697353 -41.3425117731094 2950.00004768372 8 10 5
46.0790656507015 -41.6365191340446 2970.99995613098 9 10 4
53.2974787056446 -40.949460119009 2921.99993133545 10 11 5
61.2966232001781 -40.963064879179 2923.00009727478 10 13 6
69.2535638809204 -40.9485846757889 2921.99993133545 10 13 6
78.2091468572617 -41.4665751159191 2959.00011062622 11 14 7
92.5476253032684 -40.6665802001953 2901.99995040894 16 19 10
100.504226982594 -40.6799092888832 2903.00011634827 16 22 12
108.167052268982 -40.5810736119747 2895.99990844727 17 23 13
115.831300616264 -40.4962040483952 2890.00010490417 17 23 13
122.991405427456 -40.2571447193623 2872.99990653992 16 22 10
130.78685104847 -40.2422361075878 2871.99997901917 21 24 15
143.016904592514 -41.516337543726 2963.00005912781 21 24 17
150.541394948959 -41.3611717522144 2951.99990272522 21 24 17
158.058986067772 -41.2199795246124 2941.99991226196 19 22 15
167.158469557762 -41.485033929348 2960.99996566772 18 21 14
179.320067167282 -42.4505285918713 3029.99997138977 16 19 12
-114.282436668873 -48.9391535520554 2923.00009727478 20 23 14
-106.594860553741 -49.0740351378918 2930.99999427795 22 25 16
-95.3984037041664 -47.4842861294746 2835.99996566772 18 21 12
-89.1710445284843 -48.3055002987385 2884.99999046326 27 30 21
-80.9568911790848 -48.1052994728088 2872.99990653992 20 23 14
-72.4007561802864 -47.6371236145496 2845.00002861023 20 23 14
-64.8604929447174 -47.8051491081715 2855.00001907349 15 18 9
-50.0295460224152 -48.5428869724274 2898.9999294281 12 15 6
-42.0848913490772 -48.5097952187061 2897.0000743866 13 16 9
-34.4458930194378 -48.895251005888 2920.00007629395 12 15 8
-26.2913107872009 -48.560619354248 2900.00009536743 12 15 8
-18.4612441807985 -48.7952381372452 2914.00003433228 13 16 9
-10.5762723833323 -49.1302609443665 2934.00001525879 11 14 7
-2.56979232653975 -49.2307916283607 2940.00005722046 10 13 6
5.46946655958891 -49.3312515318394 2946.00009918213 13 15 10
13.7203708291054 -50.0846989452839 2990.9999370575 11 13 8
21.6095969080925 -49.448236823082 2953.00006866455 9 11 6
29.5323599129915 -49.2135770618916 2938.99989128113 7 9 4
38.0047224462032 -49.7993677854538 2973.99997711182 8 10 5
53.570669144392 -49.1790361702442 2937.00003623962 11 12 6
60.8348026871681 -48.5757403075695 2901.00002288818 11 14 7
77.6799097657204 -49.2108352482319 2938.99989128113 12 15 6
85.7910439372063 -49.2603667080402 2941.99991226196 14 17 8
91.494508087635 -48.0373241007328 2868.99995803833 16 19 10
100.503452122211 -48.6057922244072 2903.00011634827 15 21 11
108.465000987053 -48.6216433346272 2904.00004386902 16 22 12
115.589924156666 -48.2858382165432 2884.0000629425 16 22 12
122.81921505928 -48.0336919426918 2868.99995803833 16 22 10
132.835060358047 -48.8362349569798 2917.00005531311 21 24 17
141.229897737503 -48.9857494831085 2926.00011825562 21 24 17
148.908376693726 -48.8840788602829 2920.00007629395 20 23 16
157.466784119606 -49.0669421851635 2930.99999427795 19 22 15
170.939549803734 -50.6893880665302 3028.00011634827 18 21 14
180.383965373039 -51.0227158665657 3048.00009727478 17 20 13
-114.203199744225 -56.880246847868 2921.0000038147 11 14 5
-87.2230157256126 -54.9553595483303 2822.00002670288 19 22 13
-81.2379270792007 -56.1441071331501 2882.99989700317 19 22 13
-73.5452622175217 -56.2812052667141 2890.00010490417 19 22 13
-66.2456825375557 -56.7882284522057 2915.99988937378 17 20 11
-57.9244159162045 -56.4383007586002 2898.00000190735 15 18 9
-49.9255321919918 -56.3414581120014 2892.99988746643 14 17 8
-42.2588214278221 -56.6535219550133 2908.99991989136 12 15 8
-34.410186111927 -56.8097122013569 2917.00005531311 14 17 10
-26.3817273080349 -56.6736832261086 2910.00008583069 15 18 11
-18.4990856796503 -56.8686611950397 2920.00007629395 13 16 9
-10.5365235358477 -56.9272339344025 2923.00009727478 11 14 7
-2.56102788262069 -57.0636242628098 2930.0000667572 12 15 8
5.53996441885829 -58.1152960658073 2983.99996757507 13 15 10
13.7018943205476 -58.1736229360104 2986.99998855591 10 12 7
21.7996574938297 -58.0176487565041 2979.00009155273 7 9 4
29.8536363989115 -57.8615851700306 2970.99995613098 7 9 4
44.7909981012344 -56.2443882226944 2888.00001144409 11 12 6
52.8770536184311 -56.4581267535686 2898.9999294281 12 13 7
61.6940073668957 -57.2949834167957 2941.99991226196 13 16 9
68.7546879053116 -56.4958713948727 2901.00002288818 13 16 9
76.3048231601715 -56.2225133180618 2887.00008392334 11 14 5
84.1864347457886 -56.2217198312283 2887.00008392334 10 13 4
92.9606333374977 -56.7661114037037 2914.99996185303 12 15 6
101.333402097225 -56.9988340139389 2927.00004577637 12 18 8
109.248355031013 -56.9588430225849 2924.99995231628 14 20 10
116.390451788902 -56.5488077700138 2904.00004386902 16 22 12
125.001326203346 -56.8591766059399 2920.00007629395 15 21 9
132.879376411438 -56.818962097168 2917.99998283386 21 24 17
141.952618956566 -57.265467941761 2940.99998474121 20 23 16
148.04008603096 -56.5241388976574 2903.00011634827 19 22 15
161.011129617691 -58.3528690040112 2996.99997901917 18 21 14
168.567001819611 -58.1370964646339 2986.00006103516 18 21 14
-91.178297996521 -65.5019655823708 2950.00004768372 16 19 10
-82.4768990278244 -64.9922415614128 2927.00004577637 18 21 12
-74.1806775331497 -64.7266805171967 2914.99996185303 18 21 12
-65.8814981579781 -64.3943920731544 2900.00009536743 17 20 11
-57.8238666057587 -64.2396584153175 2892.99988746643 17 20 11
-50.2183809876442 -64.6177604794502 2910.00008583069 16 19 10
-42.5343848764896 -65.0179833173752 2927.99997329712 15 18 11
-34.5041900873184 -64.9518072605133 2924.99995231628 16 19 12
-26.3089165091515 -64.4414126873016 2901.99995040894 14 17 10
-18.4672120958567 -64.7303462028503 2914.99996185303 11 14 7
-10.4751298204064 -64.530648291111 2905.99989891052 12 15 8
-2.54614162258804 -64.6861791610718 2913.00010681152 14 17 10
5.49534894526005 -65.7298415899277 2960.00003814697 10 12 7
13.5503746569157 -65.5964910984039 2953.9999961853 8 10 5
21.6164831072092 -65.5962973833084 2953.9999961853 6 8 3
29.4714849442244 -65.1296749711037 2933.00008773804 7 9 4
45.5504767596722 -65.2176514267921 2937.00003623962 10 11 5
53.2412901520729 -64.8173987865448 2918.99991035461 11 12 6
60.9384402632713 -64.5280852913857 2905.99989891052 14 17 10
69.5597603917122 -65.1712939143181 2934.99994277954 15 18 11
76.4361545443535 -64.2156675457954 2891.99995994568 13 16 7
83.3107382059097 -63.4376108646393 2857.00011253357 12 15 6
91.8753817677498 -63.9695152640343 2881.00004196167 12 15 6
101.366952061653 -65.0120079517365 2927.99997329712 11 17 7
109.583355486393 -65.1440396904945 2934.00001525879 13 19 9
118.032455444336 -65.3869956731796 2944.9999332428 16 22 12
125.599339604378 -65.1414021849632 2934.00001525879 17 23 11
133.925348520279 -65.2953609824181 2940.99998474121 19 22 13
141.42020046711 -65.0496110320091 2930.0000667572 20 21 13
150.639265775681 -65.5807927250862 2953.9999961853 19 20 12
158.108398318291 -65.3348714113235 2943.00007820129 17 18 10
170.258775353432 -66.9536292552948 3016.00003242493 17 18 10
181.268125772476 -67.9950341582298 3062.99996376038 17 18 10
-107.609763741493 -73.7775266170502 2959.00011062622 21 24 15
-99.1291254758835 -73.479637503624 2947.00002670288 13 16 7
-92.0117124915123 -74.2288529872894 2976.99999809265 15 18 9
-83.3776071667671 -73.7811475992203 2959.00011062622 17 20 11
-74.1288885474205 -72.6351514458656 2913.00010681152 16 19 10
-65.3809309005737 -71.763314306736 2878.00002098084 19 22 13
-57.243537157774 -71.4149996638298 2864.00008201599 19 22 13
-50.2522960305214 -72.6125836372375 2911.99994087219 18 21 12
-42.3595495522022 -72.7129057049751 2915.99988937378 18 21 14
-34.6335358917713 -73.2121244072914 2936.00010871887 16 19 12
-26.6802944242954 -73.3870640397072 2943.00007820129 14 17 10
-18.422644585371 -72.5145787000656 2907.99999237061 14 17 10
-10.413727723062 -72.0409825444222 2888.99993896484 13 16 9
-2.51988926902413 -71.8914419412613 2882.99989700317 12 15 8
5.32448338344693 -71.5173780918121 2868.00003051758 9 11 6
13.4722301736474 -73.2378661632538 2937.00003623962 8 10 5
21.2430264800787 -72.3898187279701 2903.00011634827 6 8 3
29.2601231485605 -72.6139172911644 2911.99994087219 6 8 3
37.4412536621094 -73.0623453855515 2930.0000667572 8 10 5
45.6274673342705 -73.3610391616821 2941.99991226196 8 9 3
54.0431812405586 -73.8840624690056 2963.00005912781 9 10 4
61.0845014452934 -72.6365596055985 2913.00010681152 12 15 8
68.8716173171997 -72.4611803889275 2905.99989891052 15 18 11
76.8316835165024 -72.4851936101913 2907.00006484985 15 18 9
84.15537327528 -71.9605535268784 2885.99991798401 14 17 8
91.7148366570473 -71.7101022601128 2875.99992752075 12 15 6
100.811824202538 -72.6065039634705 2911.99994087219 11 17 7
110.515773296356 -73.7770423293114 2959.00011062622 13 19 9
115.105330944061 -71.606457233429 2871.99997901917 16 22 12
125.084146857262 -72.8515535593033 2921.99993133545 17 23 11
134.19696688652 -73.47322255373 2947.00002670288 19 20 12
142.528638243675 -73.621079325676 2953.00006866455 19 20 12
149.566605687141 -73.1206387281418 2933.00008773804 18 19 11
168.506786227226 -74.413001537323 2984.99989509583 15 16 8
177.419364452362 -74.7349262237549 2997.99990653992 13 14 6
-106.735542416573 -81.1912789940834 2934.99994277954 15 18 11
-91.1141782999039 -81.5536677837372 2947.99995422363 17 20 11
-83.066537976265 -81.5548971295357 2947.99995422363 17 20 11
-73.8988742232323 -80.338753759861 2904.00004386902 16 19 10
-66.3796067237854 -80.8377042412758 2921.99993133545 19 22 13
-58.0022782087326 -80.2852734923363 2901.99995040894 20 23 14
-49.8547106981277 -79.9263715744019 2888.99993896484 17 20 11
-41.9522486627102 -79.899363219738 2888.00001144409 17 20 13
-34.2084132134914 -80.2318900823593 2900.00009536743 16 19 12
-26.4623630791903 -80.7579755783081 2918.99991035461 16 19 12
-18.4667427092791 -80.6476324796677 2914.99996185303 16 19 12
-10.4676559567451 -80.3434997797012 2904.00004386902 12 15 8
-2.5801642332226 -81.6715881228447 2951.99990272522 9 12 5
5.40981022641063 -80.6202366948128 2914.00003433228 12 14 9
13.210590928793 -79.6794518828392 2880.00011444092 12 14 9
21.1695618927479 -80.0388604402542 2892.99988746643 8 10 5
29.6515990048647 -81.6431567072868 2950.99997520447 6 8 3
37.7474315464497 -81.7256718873978 2953.9999961853 5 7 2
45.6578806042671 -81.4484283328056 2944.00000572205 7 8 2
53.7871085107327 -81.5860629081726 2948.99988174438 6 7 1
61.7756694555283 -81.5022513270378 2946.00009918213 9 12 5
68.7048137187958 -80.2010670304298 2898.9999294281 12 15 8
77.1213844418526 -80.7256698608398 2917.99998283386 15 18 11
85.4955837130547 -81.1118334531784 2931.99992179871 14 17 8
92.6702842116356 -80.3913176059723 2905.99989891052 17 20 11
100.360438227654 -80.1963284611702 2898.9999294281 15 20 13
109.991408884525 -81.4673602581024 2944.9999332428 14 20 10
118.350110948086 -81.6870629787445 2953.00006866455 14 20 10
134.468406438828 -81.6835463047028 2953.00006866455 17 18 10
142.57501065731 -81.7092731595039 2953.9999961853 17 18 10
150.584504008293 -81.6795751452446 2953.00006866455 18 19 11
169.181987643242 -82.892157137394 2996.99997901917 13 14 6
-104.62474822998 -87.4402970075607 2877.00009346008 24 27 20
-98.3863472938538 -88.9007300138474 2924.99995231628 16 18 13
-90.4019847512245 -88.9021828770638 2924.99995231628 23 26 19
-82.6708376407623 -89.1770571470261 2934.00001525879 16 19 12
-74.890211224556 -89.4518196582794 2943.00007820129 14 17 10
-66.8784007430077 -89.4833132624626 2944.00000572205 13 16 9
-58.7209463119507 -89.3019139766693 2937.99996376038 15 18 11
-50.3371581435204 -88.6644423007965 2917.00005531311 17 20 13
-41.8208912014961 -87.5101163983345 2878.99994850159 17 20 11
-33.8186472654343 -87.1459469199181 2867.00010299683 16 19 12
-26.4619719237089 -88.7270197272301 2918.99991035461 15 18 11
-18.5044799000025 -88.7881591916084 2921.0000038147 14 17 10
-10.6693543493748 -89.9738520383835 2960.00003814697 14 17 10
-2.54691299051046 -88.5757058858871 2914.00003433228 14 17 10
5.4375771433115 -89.0316292643547 2928.99990081787 13 16 9
13.2654393091798 -87.9068151116371 2891.99995994568 7 9 4
21.4985329657793 -89.3047899007797 2937.99996376038 17 19 14
53.7680722773075 -89.6064192056656 2947.99995422363 8 10 5
62.0473623275757 -89.9398848414421 2959.00011062622 8 10 5
71.0737109184265 -91.154657304287 2999.00007247925 9 11 6
77.1466791629791 -88.7219309806824 2918.99991035461 15 17 12
84.6195593476295 -88.2039815187454 2901.99995040894 17 20 13
93.8169285655022 -89.4183665513992 2941.99991226196 13 15 10
101.293668150902 -88.9305770397186 2926.00011825562 16 18 13
108.607925474644 -88.3818790316582 2907.99999237061 15 18 11
115.903653204441 -87.8938809037209 2891.99995994568 11 14 7
125.123471021652 -88.8341888785362 2923.00009727478 14 17 10
132.736101746559 -88.5890945792198 2914.99996185303 19 20 14
142.33161509037 -89.6202623844147 2948.99988174438 12 13 7
149.919405579567 -89.3445238471031 2940.00005722046 14 15 9
160.304710268974 -90.6792730093002 2983.99996757507 13 14 8
167.486041784286 -90.1601910591125 2967.00000762939 11 12 6
-104.113958775997 -94.8297083377838 2862.99991607666 20 22 17
-97.1066057682037 -95.6263467669487 2887.00008392334 14 16 11
-90.585969388485 -97.0853418111801 2930.99999427795 14 16 11
-83.3175629377365 -97.9480072855949 2957.00001716614 13 16 9
-75.2452537417412 -97.9493409395218 2957.00001716614 12 15 8
-66.8091773986816 -97.4205434322357 2940.99998474121 11 14 7
-58.8599033653736 -97.5541025400162 2944.9999332428 12 15 8
-51.0438494384289 -97.9856476187706 2957.99994468689 13 16 9
-42.0962125062943 -95.9988906979561 2898.00000190735 14 17 10
-34.2899262905121 -96.2976738810539 2907.00006484985 14 17 10
-26.7516355961561 -97.7557301521301 2950.99997520447 15 18 11
-18.6878927052021 -97.7229848504066 2950.00004768372 14 17 10
-10.5394208803773 -96.8619510531425 2924.00002479553 12 15 8
-2.58969864808023 -98.1539934873581 2963.00005912781 11 14 7
5.48204407095909 -97.8227108716965 2953.00006866455 11 13 8
13.4395249187946 -97.0606356859207 2930.0000667572 11 13 8
21.5933118015528 -97.7560058236122 2950.99997520447 15 17 12
29.6004470437765 -97.589947283268 2946.00009918213 9 11 6
37.6695990562439 -97.6556241512299 2947.99995422363 8 10 5
45.4858802258968 -97.1580371260643 2933.00008773804 8 10 5
53.0741512775421 -96.3953211903572 2910.00008583069 7 9 4
62.402818351984 -98.5806211829185 2976.0000705719 5 7 2
74.8461484909058 -93.8083380460739 2832.00001716614 7 9 4
83.3352282643318 -94.6682468056679 2858.00004005432 8 10 5
92.9544344544411 -96.554808318615 2914.99996185303 14 16 11
101.049713790417 -96.6856703162193 2918.99991035461 15 17 12
108.718231320381 -96.4189395308495 2911.00001335144 14 16 11
117.905631661415 -97.4438339471817 2941.99991226196 12 14 9
124.43657964468 -96.282571554184 2907.00006484985 14 16 11
131.459012627602 -95.6180319190025 2887.00008392334 16 17 11
140.833169221878 -96.6424718499184 2917.99998283386 11 12 6
150.987863540649 -98.0641767382622 2960.99996566772 15 16 10
160.141006112099 -98.7239629030228 2980.99994659424 10 11 6
-98.5848680138588 -105.084016919136 2930.99999427795 15 17 12
-90.4916822910309 -104.978166520596 2927.99997329712 23 25 20
-83.1752344965935 -105.840213596821 2951.99990272522 14 17 10
-74.1497650742531 -104.47920113802 2914.00003433228 13 16 9
-66.6944235563278 -105.269275605679 2936.00010871887 11 14 7
-59.6583150327206 -107.027314603329 2984.99989509583 11 14 7
-50.2491854131222 -104.410871863365 2911.99994087219 11 14 7
-42.4295663833618 -104.734420776367 2921.0000038147 13 16 9
-34.1359861195087 -103.767022490501 2894.00005340576 13 16 9
-26.4157559722662 -104.484684765339 2914.00003433228 13 16 9
-18.5735374689102 -105.13050109148 2931.99992179871 14 17 10
-10.5176093056798 -104.628778994083 2917.99998283386 13 16 9
-2.58178729563951 -105.919726192951 2953.9999961853 13 16 9
5.6211780756712 -108.573079109192 3028.00011634827 7 9 4
13.6090014129877 -106.385663151741 2967.00000762939 19 21 16
21.5490311384201 -105.596505105495 2944.9999332428 17 19 14
30.102301388979 -107.424706220627 2996.00005149841 9 11 6
37.0172746479511 -103.874355554581 2897.0000743866 7 9 4
45.1128855347633 -104.303866624832 2908.99991989136 8 10 5
53.675077855587 -105.52205145359 2943.00007820129 8 10 5
61.1855685710907 -104.624636471272 2917.99998283386 6 8 3
81.4093351364136 -100.103102624416 2792.00005531311 10 12 7
93.7818959355354 -105.44365644455 2940.99998474121 10 12 7
100.944101810455 -104.545570909977 2915.99988937378 18 20 15
109.463281929493 -105.081461369991 2930.99999427795 20 22 17
117.502823472023 -105.115257203579 2931.99992179871 16 18 13
124.477222561836 -104.25266623497 2907.99999237061 13 15 10
133.369162678719 -105.003193020821 2928.99990081787 14 15 9
142.375141382217 -105.753540992737 2950.00004768372 10 11 5
153.177887201309 -107.686690986156 3003.99994850159 13 14 8
158.956423401833 -106.070771813393 2959.00011062622 11 12 7
-109.310254454613 -115.975469350815 3006.00004196167 25 27 22
-99.5247960090637 -114.164158701897 2959.00011062622 10 12 7
-89.8100584745407 -112.121120095253 2905.99989891052 9 11 6
-81.7930772900581 -112.007044255733 2903.00011634827 22 25 18
-74.8608410358429 -113.513328135014 2941.99991226196 22 25 18
-66.4205774664879 -112.820200622082 2924.00002479553 19 22 15
-57.6985999941826 -111.393786966801 2887.00008392334 18 21 14
-49.6442951261997 -111.008994281292 2877.00009346008 15 18 11
-26.0526612401009 -110.895454883575 2874.00007247925 12 15 8
-18.3704793453217 -111.899115145206 2900.00009536743 14 17 10
-10.4993898421526 -112.401030957699 2913.00010681152 16 19 12
-2.60970578528941 -115.217924118042 2986.00006103516 15 18 11
5.67861879244447 -118.034683167934 3059.00001525879 5 7 2
13.8197308406234 -116.259522736073 3013.00001144409 35 37 32
21.8998398631811 -115.487456321716 2993.00003051758 21 23 18
45.4221852123737 -113.015994429588 2928.99990081787 9 11 6
61.9182884693146 -113.939948379993 2953.00006866455 11 13 8
69.3400427699089 -112.896904349327 2926.00011825562 12 14 9
75.5041241645813 -110.233195126057 2857.00011253357 12 14 9
84.7026109695435 -112.08363622427 2904.99997138977 12 14 9
100.422963500023 -111.925706267357 2901.00002288818 11 13 8
109.12511497736 -112.733870744705 2921.99993133545 11 13 8
117.019735276699 -112.654514610767 2920.00007629395 11 13 8
125.973045825958 -113.539509475231 2943.00007820129 11 13 8
134.50500369072 -113.961361348629 2953.9999961853 11 12 6
143.482521176338 -114.691667258739 2973.00004959106 13 14 8
152.818098664284 -115.614660084248 2996.99997901917 12 13 8
-109.708048403263 -124.6337890625 3016.99995994568 14 16 11
-99.6573194861412 -122.405178844929 2963.00005912781 26 28 23
-89.6846354007721 -119.887135922909 2901.99995040894 13 15 10
-80.4953873157501 -118.029862642288 2857.00011253357 20 23 16
-66.2602409720421 -120.511718094349 2917.00005531311 20 23 16
-57.5375407934189 -118.943072855473 2878.99994850159 19 22 15
-49.384456127882 -118.241846561432 2861.99998855591 17 20 13
-41.9776290655136 -119.39962208271 2890.00010490417 18 21 14
-34.4884991645813 -120.805129408836 2924.00002479553 16 19 12
-26.8135741353035 -122.210472822189 2957.99994468689 16 19 12
-18.3827765285969 -119.897298514843 2901.99995040894 18 21 14
5.6692217476666 -126.177653670311 3053.99990081787 7 9 4
14.0350209549069 -126.425340771675 3059.99994277954 32 34 29
22.0384169369936 -124.44182485342 3012.00008392334 13 15 10
30.4728634655476 -125.308886170387 3032.99999237061 11 13 10
37.5652462244034 -121.465899050236 2940.00005722046 9 11 8
54.9313686788082 -124.438606202602 3012.00008392334 10 12 7
62.3783208429813 -122.908763587475 2974.99990463257 12 14 9
68.8409879803658 -120.015434920788 2904.99997138977 13 15 10
76.427549123764 -119.476847350597 2891.99995994568 12 14 9
84.6134200692177 -119.888290762901 2901.99995040894 11 13 8
92.2158062458038 -119.473323225975 2891.99995994568 10 12 7
100.282482802868 -119.677893817425 2897.0000743866 9 11 6
109.085567295551 -120.667174458504 2921.0000038147 8 10 5
117.979168891907 -121.614940464497 2944.00000572205 9 11 6
127.297431230545 -122.851677238941 2973.99997711182 10 12 7
135.868281126022 -123.262025415897 2983.99996757507 10 11 6
144.203573465347 -123.424373567104 2987.99991607666 15 16 11
161.636203527451 -124.285496771336 3009.0000629425 13 14 9
-105.88762909174 -128.243073821068 2911.99994087219 18 20 15
-99.0497767925262 -129.698663949966 2944.9999332428 19 21 16
-90.9188613295555 -129.568636417389 2941.99991226196 12 14 9
-82.3813304305077 -128.777831792831 2924.00002479553 14 17 10
-74.6541693806648 -129.219979047775 2934.00001525879 14 17 10
-65.9408047795296 -127.856224775314 2903.00011634827 18 21 14
-57.2165474295616 -126.095861196518 2862.99991607666 19 22 15
-49.4869276881218 -126.317277550697 2868.00003051758 17 20 13
-41.8459959328175 -126.890853047371 2881.00004196167 14 17 10
-34.7118489444256 -129.62244451046 2943.00007820129 15 18 11
-26.695154607296 -129.711225628853 2944.9999332428 18 20 15
-18.6610911041498 -129.755780100822 2946.00009918213 17 19 14
-2.50035361386836 -126.012429594994 2861.00006103516 9 11 6
13.5210296139121 -129.844084382057 2947.99995422363 8 10 7
21.9647753983736 -132.222130894661 3002.00009346008 10 12 9
30.0803799182177 -131.869181990623 2993.99995803833 5 7 4
37.5899896025658 -129.578128457069 2941.99991226196 12 14 11
45.0946427881718 -128.079697489738 2907.99999237061 9 11 6
54.018322378397 -130.456954240799 2961.99989318848 7 9 4
62.0205365121365 -130.279496312141 2957.99994468689 12 14 9
69.1949725151062 -128.604426980019 2920.00007629395 15 17 12
76.690174639225 -127.810031175613 2901.99995040894 13 15 10
85.5446085333824 -129.217565059662 2934.00001525879 13 15 10
94.3820625543594 -130.360633134842 2960.00003814697 11 13 8
110.240906476974 -130.003780126572 2951.99990272522 11 13 8
126.524269580841 -130.174726247787 2956.00008964539 10 12 7
136.001974344254 -131.536975502968 2986.99998855591 10 11 6
155.106276273727 -133.952528238297 3042.00005531311 13 14 9
-105.994306504726 -136.329740285873 2914.99996185303 23 25 20
-98.2403457164764 -136.612743139267 2921.0000038147 17 19 14
-90.4532372951508 -136.895567178726 2927.00004577637 14 16 11
-75.0850066542625 -138.02196085453 2950.99997520447 18 21 14
-66.5071457624435 -136.947885155678 2927.99997329712 17 20 13
-57.0153892040253 -133.441433310509 2852.9999256134 16 19 12
-49.5548099279404 -134.331375360489 2871.99997901917 17 20 13
-41.8014638125896 -134.613081812859 2878.00002098084 16 19 12
-34.3454256653786 -136.204272508621 2911.99994087219 17 20 13
-26.8486347049475 -138.543680310249 2961.99989318848 16 18 13
-10.4554602876306 -135.691359639168 2901.00002288818 10 12 7
