ply
format ascii 1.0
comment KinectMotionCapture
element vertex 755
property float x
property float y
property float z
property uchar red
property uchar green
property uchar blue
end_header
-233.855773406422 578.352601466858 3075.12917224224 170 171 175
-226.690614704689 577.84515199843 3071.56899718907 167 166 171
-220.912963349491 577.059820732629 3066.56638805044 157 156 161
-214.436017406958 576.4119244867 3062.28004544686 149 148 153
-210.060459748548 575.350398555294 3055.84794931702 155 155 157
-203.582240125901 574.701432488363 3051.56050970157 153 153 153
-197.806156634999 573.91448584098 3046.55926995499 156 156 154
-187.782926589307 573.947669861568 3045.81175741859 164 164 162
-172.76566927517 574.932400334573 3049.99303302608 167 167 165
-151.99936728199 576.998847547739 3059.77111341428 139 139 139
-126.148547270667 580.004587054852 3074.39994528104 134 134 134
-86.5767880765413 585.57111440151 3102.26328612975 143 143 143
-99.240459054732 581.230705735249 3078.86016413589 171 171 171
-89.6839993995031 581.091465097719 3077.1947592059 170 170 170
-91.6641591097513 578.792602492239 3064.36911535814 166 166 166
-98.7604921376444 575.558044165655 3046.72044902469 170 170 172
-97.9411689449274 573.809629346862 3036.7578692917 175 175 177
-97.8794205037254 571.930931748714 3026.12980570297 187 187 189
-92.7376069227668 570.992044037407 3020.35603419569 174 174 176
-89.7982933736703 569.653181201865 3012.52374235359 172 172 174
-86.1414367924187 568.449415612897 3005.39191561232 176 176 178
-84.7076164635197 566.848530372798 2996.21934951316 179 179 181
-83.2991014138611 565.250753602037 2987.06869626615 178 178 180
-78.2120179550048 564.317320121485 2981.34232597939 181 181 183
-73.8726678396851 563.252234110702 2974.94131978518 181 181 183
-70.2870632412096 562.056267548778 2967.87119916061 182 182 184
-66.7145256710167 560.86176131244 2960.8123947362 177 177 179
-60.9081442677013 560.062050904508 2955.78497740937 168 168 170
-54.3514168589394 559.392892598535 2951.42993863282 170 170 172
-50.0507954624028 558.331225657685 2945.06247785561 178 178 180
-44.2487963147054 557.53102746365 2940.03886194811 179 179 181
-39.9620526813309 556.470570714248 2933.68342168498 179 179 181
-33.4064503306211 555.800276368851 2929.32936539825 180 180 182
-31.4153409373548 554.352506792123 2920.99604551427 181 181 183
-24.8656852837721 553.682272466557 2916.64682754192 188 188 190
-18.3126720383568 553.011248848792 2912.29502005151 186 186 188
-6.38483341299123 553.239538593859 2912.54197225299 180 180 182
4.03613629995991 553.206522430175 2911.45015342924 181 181 183
17.566702864054 553.681913305078 2912.95319975241 168 168 170
28.8166588252015 553.768357356851 2912.4653555167 174 174 176
40.8701009125738 553.978137164041 2912.6038781406 197 198 202
58.3984786640128 555.073239298359 2917.25448193699 186 187 191
77.5467597717303 556.413518783192 2923.14630576944 188 189 193
94.4186412460044 557.36427660098 2927.04390848223 149 149 151
106.644090982221 557.549013210048 2927.03319266184 145 145 147
123.616142542367 558.485330538539 2930.84375242253 144 144 146
146.947331509922 560.419487995324 2939.72318670212 162 162 164
181.425912930771 564.097524429941 2957.45638913561 137 135 136
229.513448168021 569.88308951754 2985.87757768001 142 140 141
256.379281739437 572.266316173724 2996.98385745175 130 128 129
266.633818227664 572.017913272739 2994.71411161272 128 126 127
272.917575302507 571.144931035971 2989.27341043559 133 131 132
278.400235652724 570.147894253056 2983.20459158923 134 132 133
281.471451560113 568.780129099659 2975.25816251977 137 135 138
289.350302762092 568.155373625217 2971.07984915626 141 139 142
293.205392214041 566.913585483247 2963.77676876049 138 136 139
304.321379193325 566.779462325757 2962.08289315289 137 135 140
310.599144549196 565.906268937918 2956.64738658223 153 151 154
315.2513355178 564.788384691814 2949.97588762226 152 150 151
308.492867491052 561.962832294374 2934.67825292349 184 182 183
-244.495090589445 576.472949865703 3109.50668070663 193 195 194
-244.865285395974 574.453608064064 3097.93033284972 185 186 188
-242.515677122905 572.985038907963 3089.28673939516 181 182 186
-238.804428416016 571.79134518212 3082.10770377757 175 176 180
-233.719058631597 570.870898239268 3076.38273464096 167 168 172
-228.638280029073 569.950628197821 3070.66142818755 165 164 169
-224.259179431685 568.895092840014 3064.22622244609 159 158 163
-217.090843256713 568.38081538238 3060.66302209534 169 168 173
-208.511472939551 568.134843512624 3058.52192636468 131 131 133
-199.915910335236 567.88623411051 3056.36712880083 136 136 136
-192.715894542925 567.366342872073 3052.77650696447 152 154 151
-182.677080872948 567.381079297554 3052.01560708163 146 148 145
-166.226010683736 568.595894529266 3057.59949183455 136 138 135
-147.578459099714 570.202400472351 3065.24685166172 146 148 147
-121.004597227904 573.263536773125 3080.57189905805 157 159 158
-132.973082093297 569.13064426656 3057.88815043427 152 154 153
-104.83693806635 572.438968779599 3074.50434720244 175 177 176
-93.1353206050671 572.685387519321 3074.94725594192 166 168 167
-93.6771150512592 570.681699472094 3063.51953822406 168 170 169
-99.3253239800973 567.760187238447 3047.26053939231 169 170 172
-99.2304340914632 565.899431605998 3036.6033191426 169 170 172
-98.4406264277688 564.174117573672 3026.66648739871 179 180 182
-92.5680439771033 563.369025054783 3021.58172612079 178 178 180
-88.8932451926268 562.171586543262 3014.43430722744 175 175 177
-85.2314303368198 560.97550733692 3007.29813316344 174 174 176
-83.7919992055527 559.390544780407 2998.1206008008 174 174 176
-81.6392390728091 557.938514413246 2989.64751553332 183 183 185
-78.0267227022566 556.748026300407 2982.55403400808 184 184 186
-73.6846485720095 555.688262628729 2976.15063232332 184 184 186
-70.8407117309644 554.371406902861 2968.40086429575 178 178 180
-66.5204978165765 553.31392068531 2962.01671040072 173 173 175
-60.7117678300981 552.514133534822 2956.98725796974 170 170 172
-54.9038283500889 551.714063582918 2951.95849253169 171 171 173
-49.84967471633 550.785910964369 2946.26031397504 175 175 177
-44.8002282952586 549.858115039203 2940.56652853028 177 177 179
-37.4848409751256 549.312498147289 2936.87639225949 180 180 182
-31.6801602911134 548.511519623504 2931.85045722464 182 182 184
-28.9206215175803 547.203432610748 2924.17346770151 185 185 187
-22.3625387395954 546.529630255361 2919.8172842713 186 186 188
-16.5665553565173 545.728894774574 2914.79888592486 187 187 189
-5.4010016338788 545.809038982701 2914.38423696622 181 181 183
3.48455192553621 545.508208848952 2911.97811669678 181 181 183
16.2421808849977 545.831588876184 2912.82881998678 167 167 169
25.9422055392311 545.649538743978 2911.03925951837 173 173 175
41.0896722646723 546.337663849017 2913.78633908683 189 190 194
60.1724242415544 547.641164921172 2919.73519769743 187 188 192
76.2058666716339 548.438170906121 2923.03692559793 188 189 193
93.8547084085486 549.475451280934 2927.58380912736 150 150 152
108.429524844268 550.009632708996 2929.50464645951 145 145 147
129.333301856937 551.524129259812 2936.52062721669 147 147 149
150.313639501741 553.027574443745 2943.47000622235 162 162 164
187.954636414511 557.0980838305 2963.75336075687 133 131 132
232.88360077552 562.24799169172 2989.62295628664 141 139 140
256.579495417505 564.0709993566 2998.18669178958 129 127 128
262.856311669315 563.19967048502 2992.75199575941 128 126 127
269.929870873387 562.449838464674 2987.9492075434 133 131 132
277.806562565926 561.82069494695 2983.77310985181 129 127 128
284.086421724784 560.948267591504 2978.33578354293 128 126 129
291.973393428134 560.317320445987 2974.15078748402 126 124 127
297.449184175942 559.323791654483 2968.08758452428 126 124 127
306.152339210789 558.811513693352 2964.51766492741 149 147 152
311.626287414491 557.817895919813 2958.45637505633 167 165 168
311.410182822957 555.987456606546 2948.06882396349 156 154 157
299.76155927196 552.490590263149 2929.07381670498 198 196 197
-246.774969064005 570.397841705644 3119.46229644027 198 200 199
-243.002368769381 569.205527342412 3112.23007625803 191 193 192
-239.242353316538 568.014458652553 3105.00875573852 182 183 185
-237.56204949109 566.423107891007 3095.6224917495 178 179 183
-232.451170455465 565.502549261276 3089.87541355169 171 172 176
-229.424151893326 564.182237348144 3081.96698441183 162 163 167
-225.023596456604 563.129749111989 3075.51284773166 163 162 167
-221.328815125372 561.9452797546 3068.34802520633 158 157 162
-213.450818320117 561.556703195261 3065.49249831885 167 166 171
-204.859575199146 561.298292999996 3063.34119260302 148 148 150
-196.955657918051 560.905357341515 3060.46322775451 141 141 141
-189.745275259829 560.378732366009 3056.86397973045 143 145 142
-176.866938701329 560.901207501551 3058.93203213642 142 144 141
-160.400173597402 562.072954680225 3064.50227711182 135 137 134
-142.448783756952 563.497429900713 3071.43125954974 161 163 162
-90.8265787638451 565.336845961773 3078.28716413494 166 168 167
-94.967478214504 562.709787187429 3063.36633967729 168 170 169
-99.89035314719 559.961189104898 3047.80080818333 168 169 171
-101.245506048751 557.864711529242 3035.75539788093 167 168 170
-99.0020966422396 556.416021495243 3027.20340647124 176 177 179
-93.8592562586082 555.482924233867 3021.42870747491 179 179 181
-89.453498702575 554.422010104294 3014.97011653095 174 174 176
-85.7907514165683 553.234279219464 3007.83308019884 177 177 179
-83.6134626798724 551.793168513922 2999.33866434897 178 178 180
-80.7192833114163 550.481651303936 2991.54499921038 183 183 185
-78.5824109626709 549.045324786547 2983.08558269503 183 183 185
-74.9820089617894 547.86461265353 2976.00253778083 183 183 185
-72.8834886921548 546.432822263788 2967.57633299678 177 177 179
-67.0737265676742 545.633524918518 2962.54598280075 172 172 174
-60.5161919168356 544.959624468016 2958.18995957484 171 171 173
-53.2048060709824 544.41036217496 2954.50299963509 173 173 175
-48.1438671751713 543.484312280298 2948.79924193506 177 177 179
-44.5973345287669 542.308908514074 2941.76285312835 178 178 180
-38.0367183384132 541.633237882836 2937.40448600505 179 179 181
-31.4729874328497 540.956796217453 2933.04310872959 180 180 182
-27.1885861202552 539.907554195181 2926.68962596836 182 182 184
-22.9130343085364 538.859286600674 2920.34412258617 185 185 187
-15.5869828352135 538.305683761622 2916.64447954678 183 183 185
-5.95238180090707 538.120249744947 2914.91196152189 181 181 183
2.16369311018338 537.686076572513 2911.85037924966 181 181 183
11.0621909916659 537.3726039241 2909.43312159482 172 172 174
20.749161539916 537.17898713487 2907.65495054151 167 167 169
36.6574336982377 537.958654985427 2911.06528036729 172 173 175
57.2813783552379 539.461251232284 2918.32387899985 201 202 204
76.4234804836468 540.710048315916 2924.221651184 184 185 187
97.1969378255784 542.191401569377 2931.35079945348 145 146 148
110.996707519067 542.573826247428 2932.62112017128 146 146 148
135.046842379946 544.518418617466 2942.20061145652 141 141 143
159.190045037986 546.449908487987 2951.69952244119 156 156 156
192.900430942995 549.808752007157 2968.77735504668 145 145 145
237.042754013351 554.704569812106 2994.0068309835 134 134 134
257.572726925739 555.988750272661 3000.02503277253 136 134 135
263.853783312423 555.117209692739 2994.58666303693 148 146 147
268.538396267697 554.007662743387 2987.88669323698 138 136 139
275.612980040972 553.255147580461 2983.08303437685 129 127 130
282.690840492435 552.501973794442 2978.27685528268 123 121 124
289.771582216745 551.748240070828 2973.46786700135 146 144 149
297.661352031584 551.111646116299 2969.28048231009 158 156 161
306.366092681154 550.591399358801 2965.70924004195 157 155 160
311.842306495824 549.600538413056 2959.64565310725 155 153 158
314.06575710963 548.142611165373 2951.11133607082 214 212 215
288.591664742622 542.721611406408 2921.61481562841 234 232 235
-250.06936970933 562.181909812039 3117.07755233751 194 196 195
-246.304055949011 560.998841029089 3109.85158774487 186 188 187
-239.80422423943 560.342652625388 3105.54546295776 173 174 176
-236.74464296179 559.029932676493 3097.60876134581 169 170 174
-230.93827281667 558.24235073449 3092.5812751841 162 163 167
-227.903947462483 556.932103803311 3084.6664477636 151 152 156
-224.191450257784 555.753962060453 3077.48622925085 154 153 158
-219.09760475832 554.837142377188 3071.75357488978 147 146 151
-210.512400733895 554.569237308358 3069.60788051586 139 138 143
-201.210221126066 554.42800981519 3068.16288211782 156 156 158
-194.700770409092 553.766962778011 3063.84845167532 144 144 144
-186.071596852358 553.491728940785 3061.66469481788 136 138 135
-173.890015456959 553.856911922671 3063.01409284041 132 134 131
-156.706097375609 555.115053787121 3069.28577209774 134 136 133
-140.168339284076 556.235761312676 3074.79513115005 204 206 205
-82.762317520948 558.980869220321 3087.21915845339 170 172 171
-93.3709139715 555.248721533004 3066.00098608047 172 174 173
-99.0082371317 552.413723828968 3049.7316760326 171 172 174
-100.356985724575 550.343931414366 3037.68054196515 167 168 170
-99.5638046381724 548.656849545027 3027.74053860918 176 177 179
-95.1505069937366 547.601028369868 3021.2753793971 179 179 181
-90.0139965518889 546.671268847444 3015.50614516021 176 176 178
-86.350361664441 545.491892321282 3008.36828537558 177 177 179
-84.1717650657818 544.064529018914 2999.87264687122 179 179 181
-80.5382649242068 542.888462207372 2992.76088450698 180 180 182
-78.398245986627 541.465613272234 2984.29833788207 181 181 183
-74.0525827818082 540.416796766966 2977.89206999231 181 181 183
-71.2046363508345 539.121746351899 2970.13836989722 176 176 178
-65.3884505981406 538.321763585426 2965.10245655327 172 172 174
-59.5730241936652 537.521613593752 2960.06720244733 173 173 175
-54.50874728515 536.59846778949 2954.36053275313 176 176 178
-49.4493763849766 535.675713197013 2948.65811273764 180 180 182
-44.3949000086055 534.75319855425 2942.95993342699 180 180 182
-39.3455530365769 533.831083011553 2937.26588185642 179 179 181
-34.3009356916157 532.909327180818 2931.57624280555 179 179 181
-29.261248955343 531.987935931748 2925.89087492795 181 181 183
-21.9385595075345 531.429875195673 2922.19417476421 186 186 188
-11.5493278294219 531.353553677683 2921.13014505583 185 185 187
-2.67005192390135 531.032668691146 2918.72959581062 183 183 185
3.91826527492389 530.348925775788 2914.34727153618 182 182 184
11.2804647479194 529.784226669137 2910.61636963024 172 172 174
22.5147589404888 529.816367141207 2910.14245190087 168 168 170
39.2019636993894 530.679559363956 2914.20068798824 167 168 170
59.0534711444577 532.0108017735 2920.80631970951 207 208 210
79.7568772636668 533.450535969607 2927.99645358421 194 195 197
99.7558150423834 534.760845762236 2934.47443777986 147 148 150
115.128506516953 535.351776599248 2937.02693678392 144 146 145
139.186642799799 537.232650470095 2946.59990584659 141 143 142
164.1250933793 539.218077326625 2956.73245823196 155 155 155
197.05389414465 542.363194094443 2973.16584285432 142 142 142
256.235123993218 549.351611827444 3010.49084726652 125 125 125
268.827241398119 547.605298361847 2999.58812264809 149 149 147
271.134241686224 546.150978870141 2990.9810512146 164 164 166
275.018964636779 544.931288114199 2983.65182769597 166 166 168
281.295070186363 544.060144783219 2978.21774645466 168 168 170
289.177492588153 543.419689536 2974.03675505167 163 162 167
297.067029646672 542.778096488692 2969.84960449293 160 159 164
303.348293798805 541.90568952228 2964.41106029375 161 160 165
308.008968065918 540.804277098317 2957.73178630338 175 173 178
313.472475376743 539.818263634372 2951.67949665333 233 231 234
-249.267632313157 554.761777793289 3119.07726210263 192 194 193
-246.18175067564 553.457373397182 3111.11771113843 183 185 184
-238.306472484312 553.055718512141 3108.26462531924 169 170 172
-235.23960996928 551.752947214339 3100.32154832961 166 167 171
-228.736077880032 551.092757133873 3096.0122422214 160 161 165
-224.999707682883 549.9201737032 3088.81129610998 148 149 153
-220.58123908089 548.87638195886 3082.34157709211 151 150 155
-213.383766320447 548.342602482298 3078.75356490184 153 152 157
-204.780715035057 548.06128258656 3076.5921730809 137 136 141
-196.161432514701 547.777469628732 3074.41704473314 148 148 150
-189.63539700018 547.11155410025 3070.08827119841 142 142 142
-180.285385268144 546.949452415252 3068.6019502443 127 129 126
-166.672294813821 547.539602969418 3071.35630288488 139 141 138
-150.177911363659 548.625706460776 3076.9031650201 129 131 128
-48.1072143113832 560.940533656753 3144.51116397944 153 155 154
-66.3711762387922 555.870657747146 3115.38002441481 174 176 175
-82.6171601348005 551.192168137814 3088.46707717831 166 168 167
-94.6617745573488 547.274361017781 3065.84823453234 170 172 171
-98.1269823032687 544.854150005082 3051.66368428018 169 170 172
-98.7437843444829 542.934432936824 3040.30043420701 165 166 168
-99.3981389371168 541.019503639641 3028.96970125509 173 174 176
-96.4414234688773 539.723391548644 3021.12204951828 180 180 182
-92.7700897494272 538.551721590212 3013.97746694047 180 180 182
-89.8454861417024 537.259275304108 3006.15762395291 175 175 177
-86.2021736585916 536.090720260029 2999.03730820312 177 177 179
-81.0959956631137 535.166962011489 2993.29432529939 182 182 184
-78.2145490007853 533.879279728435 2985.5118571168 181 181 183
-73.1243593442463 532.956933822804 2979.78240721626 180 180 182
-68.782873012577 531.914099521895 2973.37972080776 176 176 178
-65.1965908660892 530.75157796971 2966.30879620348 175 175 177
-60.8752575759253 529.71077676467 2959.92324847308 180 180 182
-56.5627579301613 528.670858022722 2953.54566697428 182 182 184
-50.0025590994078 527.991029369117 2949.18737302278 182 182 184
-44.9476356105287 527.071508707794 2943.48878678257 183 183 185
-39.1413230816173 526.271478201338 2938.46143122591 182 182 184
-35.6111183832932 525.114712098689 2931.43907366618 182 182 184
-30.5732049962164 524.19656172411 2925.75490630028 183 183 185
-24.0149853489755 523.515404880299 2921.39865189783 184 184 186
-12.1017673441255 523.659607177685 2921.6588212054 185 185 187
-1.68973433432429 523.563716329595 2920.57515557301 185 185 187
6.43995308961243 523.111840103984 2917.50188956283 182 182 184
13.0395685036371 522.423798680216 2913.10948506076 176 176 178
22.7334196861464 522.202568229789 2911.32584476447 175 175 177
37.0956025377742 522.678041362514 2913.4313596982 167 168 170
56.9397052526104 523.961353975986 2920.04371995159 186 187 189
79.9722830840048 525.698606548866 2929.18324718489 215 216 218
103.874726359855 527.539004620074 2938.89142325723 142 144 143
121.606560341391 528.442491367323 2943.36724141116 150 152 151
142.538600767909 529.79808420306 2950.35943943883 147 149 148
164.33473316335 531.257794168822 2957.9259151138 154 156 155
200.415475934398 534.769322108762 2976.91806743945 140 140 138
325.260441213902 551.065818700306 3067.10849123342 121 121 119
280.178807835156 542.754183562418 3020.2179559827 133 133 131
279.364289651129 540.850822747448 3009.0259676084 139 139 137
279.309374351914 539.066017828682 2998.49841225001 127 128 130
279.220491086398 537.285615515043 2987.99995410714 148 149 151
283.104976547506 536.074370749288 2980.67088169892 177 178 182
289.386389378286 535.202752223416 2975.23220352551 212 213 217
296.472357408403 534.44348608219 2970.41903678012 218 219 223
301.946078136184 533.45933876151 2964.35756718897 231 232 237
305.795831163046 532.252292375788 2957.05857142435 230 229 234
312.067019774449 531.381392013101 2951.62875029566 203 203 205
-256.335960473014 547.737889855339 3123.92589028355 182 184 181
-246.419823062928 547.709320992591 3123.27159894406 186 188 187
-244.00697569026 546.288116875872 3114.57257144929 176 178 177
-240.242089739015 545.121274972976 3107.34687250357 165 166 168
-235.80124951352 544.081439401006 3100.85805307222 164 165 169
-229.988033284611 543.293145088155 3095.8246377798 160 161 165
-224.175124421363 542.504443022414 3090.79149153449 150 151 155
-220.446371770219 541.340760489752 3083.59709014596 143 142 147
-213.943682984604 540.676731490928 3079.28853983561 152 151 156
-206.738421617966 540.136064209258 3075.69382161355 145 144 149
-195.320845157115 540.338062319704 3076.38320674462 126 126 128
-184.573561469184 540.411505389764 3076.33113088314 129 129 129
-172.388118509102 540.727622840442 3077.67781540747 129 129 129
-159.459260758269 541.161459757033 3079.70265365794 119 121 118
-142.235809847478 542.326843864913 3085.94066946358 154 156 153
-43.6893117501018 553.701573226958 3149.99237480419 140 142 141
-65.5179840832969 548.113114399649 3117.33732292432 174 176 175
-90.3844338379569 542.060204569387 3082.02487258011 166 168 167
-95.2312177335028 539.425473282756 3066.39265238953 171 173 172
-97.9702272707632 537.161651225321 3052.90092751481 170 171 173
-97.1319738274601 535.507605063689 3042.9216442548 165 166 168
-98.5055560118995 533.495982816587 3030.89165740966 173 174 176
-96.2732871134824 532.090234322469 3022.34904361652 181 181 183
-93.3305199650816 530.806810126775 3014.51339917201 183 183 185
-90.4048320188116 529.525386582184 3006.69254492161 176 176 178
-86.7606565346062 528.365159266654 2999.57142721387 177 177 179
-82.3918027719146 527.325354349972 2993.14468532586 183 183 185
-78.0317378248645 526.286425859226 2986.72587085386 182 182 184
-74.4225560801484 525.129923081642 2979.63505934287 180 180 182
-69.3386033610808 524.211134188329 2973.91130768353 177 177 179
-65.0055989015161 523.174809712611 2967.51561512179 178 178 180
-59.9334394083595 522.256950282964 2961.8020790523 182 182 184
-56.3663294202739 521.104885705903 2954.74770388538 182 182 184
-50.5560222380916 520.305305355287 2949.71688310213 181 181 183
-46.2549177790073 519.271989348149 2943.34881992248 183 183 185
-40.4503945831851 518.472559130914 2938.32301135524 184 184 186
-35.4048851991755 517.556761614361 2932.63256053203 183 183 185
-28.8438410814154 516.873046295859 2928.27355912559 184 184 186
-21.5171481340324 516.304228063881 2924.57377420655 183 183 185
-12.6544829111466 515.964679789152 2922.18774297561 184 184 186
-3.00976590511404 515.737759704235 2920.44672590517 184 184 186
5.11733006296167 515.278335245525 2917.37543940282 181 181 183
12.4855749299924 514.702633601044 2913.63968454614 179 179 181
22.9512235941653 514.582334920479 2912.50970646228 179 180 182
36.5389318724301 514.9141187677 2913.96415658495 174 175 177
53.2732347659688 515.694561204678 2917.98179173394 174 175 177
79.4082803577454 517.826948029045 2929.72309716386 212 213 215
106.429467039504 520.057563665149 2942.01897660607 150 152 151
126.515168386624 521.257937865935 2948.42278759652 148 150 149
141.964146148463 521.772997558546 2950.90934266738 146 148 147
160.609027225715 522.730067617464 2955.91670373527 151 153 152
344.420307220466 545.269207427528 3083.62323924997 129 129 127
304.953747065909 537.90640995946 3041.12354235587 141 141 139
291.485693215015 534.241630764419 3019.73649068727 142 142 140
285.885416802104 531.69882935566 3004.75643832472 134 138 139
282.620359346017 529.495991944867 2991.72057842063 130 134 135
284.913299060039 528.071413081764 2983.12550107208 130 131 135
288.791318020294 526.869483119661 2975.80197305243 147 148 152
295.07180474893 525.998198914965 2970.36409539862 166 167 171
300.544084106954 525.017561641969 2964.30416786211 194 195 200
305.201811386917 523.92837361213 2957.62736891704 198 197 202
311.473120259385 523.057876256905 2952.19744094226 194 194 196
-243.979485016783 542.41213389858 3138.39444953548 184 186 183
-242.892133667076 540.752268642962 3128.19930187415 184 186 185
-240.465616625051 539.342997430706 3119.48834906008 174 176 175
-238.74604608965 537.81286215567 3110.06765452424 163 164 166
-234.986657339622 536.654665543834 3102.8466641787 164 165 167
-229.16901768848 535.865805465112 3097.80941861341 161 162 164
-221.274577328946 535.44396344744 3094.93985506739 151 152 154
-216.84011178457 534.4092382816 3088.45652768574 148 147 152
-211.717963712127 533.497110884444 3082.69931206121 147 146 151
-206.600129369079 532.58522730351 3076.94614923391 145 145 147
-194.48104299958 532.88665600178 3078.35044258393 122 122 122
-181.622822642706 533.303775619754 3080.43661313129 128 128 128
-167.314668826864 533.956362416964 3083.91107014353 128 128 126
-154.371020958064 534.360989260978 3085.92327854913 125 127 124
-41.419294940209 546.06528367592 3153.36771198798 145 147 146
-71.1187702360681 539.271862710576 3112.98556000164 178 180 179
-89.5191912448241 534.406879433442 3083.97136671842 170 172 171
-94.358784033203 531.812389141964 3068.33233746128 173 175 174
-96.3677262024962 529.698977586348 3055.53043867792 171 172 174
-96.2467991576932 527.94531750358 3044.85027262008 163 164 166
-97.6139838687007 525.960441224219 3032.81456754022 170 171 173
-96.1056165623213 524.450484715504 3023.57679967568 179 179 181
-95.3538473071265 522.826530451062 3013.67228037389 178 178 180
-92.4313800212659 521.556657268816 3005.85382722616 176 176 178
-86.5839645463313 520.755013910752 3000.79085672007 179 179 181
-81.4747268749421 519.836832228204 2995.04518574896 176 176 178
-77.8495934348 518.686984478932 2987.94050520542 182 182 184
-75.7206665524106 517.307152641416 2979.48760922443 174 174 176
-71.38208326261 516.276185245713 2973.08704657597 176 176 178
-66.306652999887 515.361238962202 2967.37065673568 181 181 183
-59.7406049942624 514.676310787014 2963.00732613911 182 182 184
-54.6708444600359 513.76152919269 2957.29584938911 178 178 180
-49.6061772452654 512.847022066482 2951.58846991075 185 185 187
-47.561924186764 511.476856681807 2943.20890113763 189 189 191
-40.247150109189 510.905421606932 2939.51946368868 191 191 193
-37.4734447725702 509.651929364721 2931.82984172064 189 189 191
-29.3962497990603 509.192719752438 2928.80212032458 187 187 189
-24.3560751029346 508.280095999404 2923.11627270105 193 192 197
-14.7360002437633 508.043447070501 2921.39636139535 194 194 196
-6.62863822389337 507.57921663775 2918.34252567091 185 185 187
6.09980991007664 507.785286936232 2919.21928120122 176 176 178
14.2422247562379 507.315677138505 2916.1350987907 171 171 173
24.7131100680988 507.178593793579 2915.0006906811 173 173 175
34.4330754723678 506.926815641208 2913.19429868718 175 176 178
51.9373586261946 507.781118735411 2917.86766203401 164 168 169
75.7299802424631 509.511773361415 2927.67173562646 180 184 183
107.421274700727 512.332727347056 2943.85623564477 190 192 191
130.638085012713 513.924318758868 2952.83702585294 143 145 144
146.097267652079 514.405545840137 2955.3149552258 151 153 152
163.178195582813 515.098936733529 2959.03303760478 156 158 157
305.138599586923 529.516256120006 3042.34095330942 141 141 139
296.446796013586 526.569511016597 3024.74969722443 136 136 134
288.473320209444 523.741520579219 3007.85864749363 131 135 134
286.017631781343 521.678189943744 2995.44331971243 134 138 139
287.521198108267 520.158721537794 2986.21009017953 145 149 152
289.802019471206 518.749698206265 2977.62541544122 183 184 188
294.476555185307 517.664354948715 2970.9340231079 189 190 194
299.949153727468 516.686818714723 2964.87379882821 173 174 179
307.84410126737 516.028956568154 2960.68206423494 176 177 181
314.934824765644 515.263847650196 2955.86449810286 195 195 197
-240.468373182187 535.404015381361 3143.33685174382 193 195 194
-240.730773301182 533.519273273799 3131.66620214722 180 178 181
-239.662477684216 531.880808483507 3121.48743209886 165 163 166
-237.937279258313 530.366443875343 3112.06175747371 166 164 167
-232.10872149635 529.576682356768 3107.01505463068 161 161 161
-225.59041360727 528.906507593087 3102.69300650664 155 155 155
-216.299555337385 528.71430678582 3101.25846654033 149 149 149
-213.236562826301 527.443983743106 3093.31821804388 150 150 152
-208.797609488565 526.413864296291 3086.83097108524 139 139 141
-204.367429800385 525.384455067035 3080.35100844896 157 157 157
-192.941917138493 525.541839404176 3081.03411960053 112 114 111
-180.079190214347 525.931044021627 3083.11656503395 113 115 112
-165.766912098251 526.550377543339 3086.58766284896 121 123 120
-154.938411597783 526.573867181656 3086.46551715623 128 130 125
-70.9824491224644 531.398347333388 3114.24200255318 176 178 177
-82.9041388377059 527.670181592731 3091.5150722512 173 175 174
-90.6035484972105 524.650543822464 3073.0641450362 175 176 178
-92.5977108356815 522.56550413375 3060.24925219181 169 170 172
-93.9127060515705 520.601506372229 3048.16817730729 160 161 165
-95.2694116861919 518.642856328058 3036.12321968861 166 167 169
-95.9387533707554 516.804204218107 3024.8049823099 183 181 182
-95.1832947349085 515.199126275744 3014.89714297025 181 179 180
-91.5243174763618 514.054212686518 3007.76309679932 181 179 180
-87.1431508806255 513.024517214743 3001.32561742687 178 176 177
-83.5082072849156 511.882151584236 2994.21238558456 182 180 181
-79.8861051355191 510.741268039734 2987.11058979424 179 177 178
-76.2772529535827 509.601787374545 2980.01995362345 174 172 173
-73.4250681245174 508.351020910609 2972.26229299528 180 178 179
-66.8620833817699 507.664491336621 2967.9019433287 183 181 182
-59.5484488505611 507.089235042049 2964.2132028143 177 175 176
-52.976842206351 506.400825709501 2959.84539241669 175 173 174
-50.1606504652594 505.153738708765 2952.11890444861 189 189 189
-48.115150230029 503.797418729094 2943.73816498402 196 196 198
-43.8238236623643 502.776708068735 2937.37849497137 197 196 201
-39.5413892383654 501.757007521996 2931.02684106654 193 192 197
-30.7087592798942 501.400933241733 2928.6669495678 188 187 192
-23.3843873119746 500.822127158033 2924.96924104661 191 190 196
-13.7609390049156 500.571669305516 2923.24649533454 191 190 195
-6.4157899841879 499.989436339914 2919.53080080114 185 184 189
7.84919718549615 500.389786631086 2921.72104552395 183 183 185
18.307770317521 500.238611322865 2920.59740013945 175 175 175
30.3342160538849 500.301420793894 2920.75995832973 168 168 170
39.2956680722976 499.925632348364 2918.28853986947 175 176 180
56.0353424062527 500.62943793642 2922.30233151952 175 176 180
76.7227753302548 501.86480580374 2929.50763423556 173 174 176
103.72979951003 503.950308173853 2941.81672916488 205 206 208
130.063927422205 505.913085704854 2953.38658186423 165 166 168
151.012052394356 507.111646770495 2960.36585640782 148 149 151
169.677668548851 507.979059513169 2965.35582662059 153 155 154
295.018596283474 519.742577321859 3035.29526509731 141 143 138
295.842122447176 518.118900550614 3025.32854970549 135 137 132
287.07551904777 515.234689139231 3007.80172009851 131 133 132
286.217854805257 513.412108609843 2996.64692001855 130 131 133
286.923873864171 511.804106982544 2986.78195068287 156 157 161
289.205771832679 510.409071799438 2978.19625216827 171 170 175
293.076034958085 509.225373658614 2970.87932826681 176 175 180
299.353792580979 508.355145677687 2965.44380918268 184 183 189
309.67538100135 508.003324438777 2963.11693269016 194 193 198
322.449170423352 507.958780755066 2962.63243689627 189 189 191
-237.639529690017 528.243390942768 3147.54801230562 191 193 192
-236.526107279672 526.618551409508 3137.33004095136 176 174 177
-237.492917651671 524.642816251684 3124.94725780591 164 162 165
-234.38633326751 523.379340690746 3116.96949780717 164 162 165
-229.233085441157 522.470391041853 3111.18530631617 158 158 158
-222.704222970283 521.796182081933 3106.85445181124 151 151 151
-214.095820766752 521.472071534339 3104.6886994417 148 148 148
-208.941284828558 520.561742943754 3098.90371594629 149 149 149
-201.007155185812 520.117316439174 3095.99958310708 132 132 132
-195.853337306962 519.206306030494 3090.21522639771 131 131 131
-185.802809380408 519.106669274934 3089.4449144887 135 137 134
-175.728039470867 519.003318668603 3088.65361524751 142 144 141
-164.924801391664 519.011615779053 3088.5534638513 124 126 123
-69.413802023111 523.745430889301 3116.90177343328 175 177 176
-79.8865016455905 520.311232897266 3095.56419918611 173 175 174
-90.4544567045811 516.889601357331 3074.30878930592 176 177 179
-90.275927880596 515.172627241609 3063.57814447676 173 174 176
-91.5804552272892 513.234857224566 3051.48782675731 161 162 166
-95.1073271076233 510.965689304292 3037.35574426394 162 163 167
-97.9593976769815 508.815456383929 3023.96127738923 184 182 185
-97.9373131898069 507.11846516608 3013.36641451328 182 180 183
-92.817476976677 506.20556341313 3007.61152319101 180 178 181
-88.4376838254433 505.181801977686 3001.17519577958 178 176 179
-84.8039147511641 504.048068415051 2994.0629260012 182 180 183
-81.9223069217627 502.805249113076 2986.28002741608 181 179 182
-76.0929721834111 502.005531682672 2981.23271565424 180 178 181
-71.751016657136 500.985608287754 2974.82915860182 179 177 180
-65.9272887760798 500.185987193406 2969.78670588047 176 174 177
-60.1043426576213 499.386201892436 2964.74493180493 177 175 178
-54.2822296884227 498.586169475905 2959.70388145111 182 180 183
-50.7154308958215 497.459358886298 2952.64961236204 203 203 205
-47.1615632070495 496.334042457008 2945.60685695611 204 204 206
-44.3767535234074 495.101901350108 2937.90747209547 188 187 192
-39.3360913564584 494.195889256786 2932.22115911974 182 181 187
-32.7810185650819 493.505791765228 2927.86737463315 184 183 191
-24.6992391468446 493.029855378657 2924.83578812398 191 190 198
-13.5509092697084 492.980779171937 2924.43690504284 189 188 194
-4.67214330412791 492.606955851534 2922.03745633547 192 191 196
9.59703451122529 492.976948411697 2924.2242655939 189 189 191
22.370657676265 493.127948032023 2925.06222316036 169 169 171
35.9520669404998 493.379823674438 2926.52265067207 164 164 166
46.4774167846307 493.202827431239 2925.34129483122 161 162 166
60.9066562682745 493.549737147274 2927.3895224658 165 166 170
76.9361980837537 494.100717064978 2930.69622542423 170 171 175
98.4791168393531 495.378675734646 2938.48303270258 201 202 206
126.360401392834 497.482322172308 2951.35751803918 188 189 191
152.786827064475 499.361375337149 2962.84791548877 149 150 152
170.669393923048 500.080863809709 2967.19428035355 165 167 166
283.318041264089 509.826418592704 3026.97389939897 153 155 150
288.881442999413 508.843750266816 3020.83500598397 143 145 140
285.677838932133 506.732295171293 3007.74497454636 133 133 133
287.215536738232 505.241894002251 2998.48165816435 126 126 128
287.126682595578 503.550650529971 2987.98291254098 147 146 151
291.017080161422 502.372924348524 2980.64849869782 163 162 167
294.0896057122 501.09538099966 2972.70034987382 169 168 173
300.371565199113 500.225036293643 2967.2611896395 176 175 181
309.887520409659 499.758522571263 2964.30975123328 179 178 183
322.66189645909 499.692460636079 2963.82488642712 190 190 192
-233.453894363524 521.28642375032 3153.22871016831 185 187 186
-232.324375936376 519.678640003271 3142.9966772958 174 172 175
-232.590996875651 517.843572980753 3131.32936414007 165 163 166
-231.523637122605 516.243381716045 3121.1511572252 164 162 165
-227.047032206109 515.220947428793 3114.63122648985 156 156 156
-219.820337724968 514.657549197574 3111.01776320132 149 149 149
-210.510268100849 514.435542903161 3109.56676520405 148 148 148
-203.26159807458 513.868316842581 3105.93427972508 143 143 143
-193.917265453681 513.640887835296 3104.45361989625 132 132 132
-185.250804353825 513.296831458628 3102.23767504383 123 123 123
-174.468344188813 513.289661479811 3102.15563283983 102 104 101
-165.06150220386 513.052526689315 3100.62085679201 119 121 118
-154.930481596492 512.924892474598 3099.7809604075 121 123 120
-50.3360069652445 520.572319010467 3148.02778659408 140 142 141
-59.2493422068636 517.406340704211 3127.98343886127 176 178 177
-77.5897026296191 512.813296716089 3098.91542673594 174 176 175
-88.1445907036773 509.453145222866 3077.64829283799 178 179 181
-89.4010303866168 507.536806123491 3065.51615693899 176 177 179
-90.6991804882891 505.625814741466 3053.42013830583 164 165 169
-94.9459205220999 503.281936278729 3038.58889915767 162 163 167
-97.0644164753725 501.273497014429 3025.88127435369 182 180 183
-96.305627336958 499.706836673688 3015.97029940074 181 179 182
-91.912121121863 498.687306925639 3009.52205896251 177 175 178
-89.7320791199596 497.343409950503 3001.02462681132 176 174 177
-86.8364052093114 496.110224436164 2993.2294742208 179 177 180
-83.9580338967951 494.879047461207 2985.44898988579 179 177 180
-78.1325101575825 494.080142694674 2980.4049759878 182 180 183
-71.5644804169404 493.38835241106 2976.04028772973 179 177 180
-64.2482608568522 492.802717052982 2972.34937393447 174 172 175
-60.6605371173461 491.682161224167 2965.27692791078 183 181 184
-55.587334851869 490.775988881708 2959.56241230042 191 189 192
-52.773043668624 489.551667286241 2951.8377396066 198 198 200
-47.7158419744148 488.647080846262 2946.13708198981 197 197 199
-44.1744848084444 487.531661379797 2939.10479025826 173 172 178
-36.1015277146652 487.049666882217 2936.08088963153 168 167 173
-30.2956585795342 486.250684210105 2931.0539115902 182 181 189
-22.2061846031441 485.765784414299 2928.01539850117 188 187 195
-13.3414399228875 485.383548940046 2925.62815705675 192 191 199
-3.69578261574821 485.103031618316 2923.88635679212 188 187 193
7.50491652007623 485.027379872413 2923.44225560224 183 182 187
23.3517716577691 485.569366338759 2926.9073579487 174 174 176
40.7945415216839 486.310564250626 2931.63476999936 167 167 169
53.654782171368 486.424836600542 2932.39789107207 162 163 167
65.7748960391706 486.431105135816 2932.47963011265 156 157 161
77.1488796956552 486.33026043033 2931.88550025108 168 169 173
94.7904164885345 487.043103115952 2936.44081760239 182 183 185
118.748321865922 488.56267762869 2946.10300162242 203 204 206
145.935457743596 490.475795638556 2958.25710432408 200 201 203
165.371012697251 491.359980903655 2963.90289309022 165 167 166
281.921615021436 501.291906491191 3026.91627519634 144 146 141
290.660327461132 500.713546463876 3023.31596493203 136 138 133
290.650685336068 499.034010620905 3012.7481720272 130 130 130
291.405694618929 497.458606905496 3002.84052986821 118 118 120
290.530184114992 495.688382572594 2991.7005430022 146 145 150
292.826804641555 494.319593264015 2983.10222935626 163 162 167
297.515184314901 493.250081983292 2976.39873537424 162 161 166
302.194611159348 492.181678818018 2969.70330946307 160 159 165
311.716032478531 491.703948886479 2966.74720606534 168 167 172
323.684582825551 491.517852832435 2965.6382963125 194 194 196
-231.800036030027 515.657504615265 3167.71211975616 191 193 192
-231.30886491441 513.950557402143 3156.71043164047 182 184 183
-229.488024241207 512.473698975202 3147.20193291363 170 168 171
-229.058980979921 510.774340093876 3136.25404406987 162 160 163
-230.033765635465 508.854324976548 3123.87781145535 159 157 160
-226.92523998054 507.612266775899 3115.89823010243 150 150 150
-219.696574256617 507.043213318982 3112.28309491293 146 146 146
-209.693636284777 506.918994480683 3111.55419022077 142 142 142
-200.359917065865 506.679789895421 3110.08280571497 146 146 146
-189.614755444057 506.659437571584 3110.03317692097 133 133 133
-178.143512774871 506.745604800269 3110.67679820727 114 114 114
-165.93988576199 506.93746490383 3112.00852715012 109 111 108
-156.507017858457 506.683201059487 3110.45130449988 100 102 99
-52.3537522862849 512.253260099363 3147.1840249556 151 153 152
-66.9966361514342 508.279172202966 3121.52388601599 172 174 173
-81.0408401845555 504.429052857856 3096.66762281231 174 176 175
-90.8788373050857 501.240287618417 3076.10128404149 177 178 180
-92.139178921764 499.352081523511 3063.97234778615 175 176 178
-93.4412175640178 497.469251285364 3051.87951700597 164 165 169
-96.9644566795278 495.271307825778 3037.74382432846 161 162 166
-96.1704821406695 493.719641507564 3027.80225576259 180 178 183
-95.4059393127635 492.171609428397 3017.88617316854 182 180 185
-91.7402668476326 491.051185922386 3010.74616532505 178 176 181
-89.5570760709275 489.720796178201 3002.24560097752 177 175 180
-88.1318574759513 488.287552903947 2993.07940398622 177 175 180
-83.7766402713309 487.278052571504 2986.66460053164 180 178 183
-80.1713701529532 486.16459576046 2979.57690042886 180 178 183
-72.1216954316204 485.679987662678 2976.57319640739 175 173 178
-64.8056074857952 485.089189875439 2972.88243013961 173 171 176
-60.4698885721402 484.081117683871 2966.48451730028 191 189 194
-55.3944048392196 483.177610204532 2960.76769147886 198 197 202
-52.5769808650658 481.964155254746 2953.04023306642 202 203 207
-46.0111058757504 481.268590641363 2948.67712135368 194 195 199
-41.7074575337359 480.263669661794 2942.30698481162 164 165 170
-35.1412430333657 479.567490407314 2937.94358281534 157 158 163
-32.3681841951089 478.358992112503 2930.25454514161 169 169 177
-24.2829820626187 477.866844720673 2927.22009709069 181 181 189
-13.8962446582758 477.678093448981 2926.15895780665 193 193 201
-1.18956684312677 477.79026739584 2927.05487539266 184 185 190
8.48326560338819 477.492428563585 2925.2899492146 177 178 182
22.7927881692973 477.797101663518 2927.44221349928 175 176 180
39.4612867548565 478.397367618819 2931.51836666823 165 166 170
50.7706316519463 478.287172231973 2930.9803221355 161 162 166
60.5561758614606 477.972754757523 2929.11749653824 157 158 160
72.6945589227026 477.95481652629 2929.18387338548 160 161 163
89.5432436647883 478.529207359253 2933.10370489446 176 177 179
111.139161678689 479.690885990783 2940.84532930815 188 190 189
139.870641083852 481.731619903246 2954.30690426657 225 227 226
159.288800431752 482.572065451734 2959.96805386395 201 203 202
289.261303628073 492.176008361377 3023.26029625009 145 147 142
293.231972628777 491.005048495889 3015.85626442312 124 124 124
293.996704854838 489.447918155173 3005.94007662785 116 116 118
294.731758257076 487.894754763425 2996.04958683005 140 140 142
296.239396939614 486.441848128874 2986.81208080537 151 150 155
302.547160270609 485.569016502014 2981.35057156718 149 148 153
304.822385079131 484.217062065124 2972.77069326874 151 150 155
315.15964843032 483.823283358614 2970.43018712284 159 158 163
323.895593756105 483.236253170783 2966.83233139848 177 177 179
-235.082519134282 507.391669570915 3165.31736966584 189 191 190
-229.844539891582 506.481280061728 3159.45974774099 180 182 181
-229.378244871547 504.799413884029 3148.47977361862 168 166 169
-225.529485382829 503.671461216983 3141.18112645995 160 158 161
-226.489646210482 501.77693449638 3128.7920536827 156 154 157
-221.305924550138 500.872376980305 3122.98173647613 148 148 148
-214.058846636405 500.295454170509 3119.3506937735 145 145 145
-204.729607069183 500.043618022764 3117.88327379568 138 138 138
-196.767036011568 499.571488884149 3114.9549847865 138 138 138
-186.706215115986 499.422295280048 3114.17575720802 134 134 134
-176.6209456522 499.26938220083 3113.37567879182 117 117 117
-160.914633108442 499.974763703267 3118.28511203721 106 108 105
-150.764584908985 499.812266170624 3117.42863415702 95 97 94
-119.479328519828 502.861654826438 3137.93367983147 114 116 113
-68.6505005154627 501.828082486973 3132.26261006016 151 153 152
-69.728047345702 499.943735016589 3119.97521398895 170 172 171
-81.6183715911514 496.486274908723 3097.21965944048 174 176 175
-88.5712412693351 493.777188406323 3079.44292768176 177 178 180
-93.4321288622528 491.391873779875 3063.82099993363 173 174 176
-94.7339990424809 489.536658322934 3051.72784419688 165 166 170
-98.2564349332469 487.374478508708 3037.59122358631 162 163 167
-95.2777931911761 486.153774628956 3029.72407891275 177 176 181
-93.7771536884347 484.72798084156 3020.49246363686 181 180 185
-90.8368550042531 483.511781931468 3012.65852307749 177 176 181
-89.3827534782585 482.091716508183 3003.46720681889 177 176 181
-89.4270071955545 480.469324343852 2992.92935824553 175 174 179
-84.3346905884026 479.568183387921 2987.19824294468 179 178 183
-79.9879552558873 478.565192880669 2980.79043333685 178 177 182
-73.4220315877434 477.868753362145 2976.42728510183 174 173 178
-66.8526562983156 477.171571774504 2972.06146554405 178 177 182
-61.7738591530381 476.270941755446 2966.34174922303 201 200 205
-57.4485663523503 475.269753248978 2959.95282846412 207 206 211
-53.1325091593065 474.269456945008 2953.57159124398 196 197 201
-46.5665870895942 473.571460601283 2949.20845448264 181 182 186
-40.7523776523262 472.772612337685 2944.1742467307 180 181 186
-36.4530319258649 471.773810268737 2937.8077997695 186 187 192
-30.6446491177468 470.975147824374 2932.77864096236 187 188 193
-24.0760509602214 470.275683193683 2928.41319425406 184 185 190
-13.6881989679667 470.070732324735 2927.35119389041 179 180 185
-2.51140513624115 469.960990857288 2926.92803318911 169 170 175
8.69311146512741 469.84715660553 2926.48087068823 172 173 177
22.2334187425806 470.023900841331 2927.97740962266 172 173 177
37.3565822026651 470.390685910117 2930.74763599621 168 169 173
48.6606317956322 470.262399391964 2930.21429832488 175 176 178
60.7678383163197 470.227467794067 2930.30749160504 181 182 184
72.1294462103166 470.090823204527 2929.72463575865 175 176 178
91.3143255505125 470.917979897 2935.58806363598 171 173 172
112.912661944882 472.02495619767 2943.32794642486 169 171 170
136.942765755136 473.40925627937 2952.92843004966 173 175 174
156.351688331253 474.204863348745 2958.59787604362 223 225 222
285.480683102305 483.3585143103 3021.30087453244 158 160 155
298.995134199782 483.331594059372 3021.4978828263 113 113 113
299.777746017047 481.791608682151 3011.56608704687 111 111 113
299.730513241543 480.161630654458 3001.03055417408 122 122 124
299.649765849643 478.536128401425 2990.5243561337 136 135 140
305.163826194237 477.568908222432 2984.42812857122 148 147 152
308.254230058715 476.322890436605 2976.46396417082 163 162 167
318.601088008804 475.914666849983 2974.11555115721 163 162 167
326.536388871525 475.22595632685 2969.88872527398 161 161 163
-238.363697365682 499.146417102151 3162.92103970687 181 183 182
-232.454504678867 498.347742656974 3157.80450543206 174 176 175
-229.269006822691 497.118554328286 3149.7581261085 164 162 165
-224.734246628197 496.105804887088 3143.1877273453 160 158 161
-222.948062663261 494.665840238089 3133.70871224778 156 154 157
-217.751677982999 493.762369827259 3127.88709698937 148 148 148
-212.559531999433 492.859163070971 3122.06946936609 140 140 140
-202.533699870858 492.69913324915 3121.32095354144 136 136 136
-195.256370918588 492.11199040739 3117.66407291526 122 122 122
-183.104448831765 492.262493297203 3119.04056885897 138 138 138
-173.705003617723 491.986440507582 3117.51245604798 120 120 120
-158.690417033481 492.547476669978 3121.69879202274 101 103 100
-149.935808992463 492.158192813898 3119.40674012321 106 108 105
-59.9567574234365 495.12880418003 3141.9744953083 146 148 147
-71.7427845596133 491.726234952769 3119.12787149919 169 171 170
-82.1961498004313 488.542452245791 3097.77191675119 177 179 178
-91.3050114611016 485.575704901863 3077.89543225944 174 175 177
-96.8907180770113 483.130232319577 3061.57886016481 174 175 177
-98.9225572995833 481.20180859128 3048.79560835482 165 166 170
-99.5480748323927 479.482117284591 3037.43861613958 168 169 173
-97.2985534992841 478.171622149525 3028.88074730987 165 164 169
-95.0704007881358 476.8637130745 3020.34106716232 176 175 180
-91.3988961175161 475.759451923154 3013.19589960424 176 175 180
-89.208932774711 474.456169089326 3004.68960508962 176 175 180
-89.9858030918303 472.755483308871 2993.46367261657 173 172 177
-86.3698778592337 471.657898661116 2986.36663449129 178 177 182
-81.2860388796683 470.760594277829 2980.64284219391 177 176 181
-73.9796692130912 470.161104275268 2976.96055543384 176 175 180
-68.8994110528358 469.263743150784 2971.23986712895 199 198 203
-63.8240610868897 468.366743589386 2965.52343058956 212 211 216
-58.7538694975693 467.470057200538 2959.81114745838 218 217 222
-53.6883785630335 466.573816451167 2954.10325117877 180 181 185
