ply
format ascii 1.0
comment KinectMotionCapture
element vertex 792
property float x
property float y
property float z
property uchar red
property uchar green
property uchar blue
end_header
-93.9736802166979 70.8398017348206 2792.69258604143 17 20 11
-94.1512566378313 69.5483146360884 2805.57694512497 17 20 11
-93.0936572216752 68.3735008015957 2816.80291753124 15 18 9
-83.2188366310958 68.1103292460271 2815.40885937646 13 16 9
-73.9498125031106 67.7879242034409 2814.8487756354 13 16 9
-57.199028909718 66.9629073794955 2816.24274767949 11 14 7
-78.8065841278598 61.9824550425957 2874.42274405152 8 10 5
-65.4634710048398 62.0891110401767 2867.95680650903 8 10 5
-72.5791898162673 59.9505637333099 2892.06391606274 5 7 2
-58.6895858311809 60.1214956020717 2884.73995346841 6 8 3
-25.1969785763695 62.4989798442519 2847.57501145799 10 12 7
-33.324582268051 60.2257436966552 2873.43156762455 15 17 12
-1.78659985585639 62.4367237402403 2838.71315555209 12 14 9
1.26596936458445 61.4262936184985 2847.50894948275 9 11 6
-2.8171939151691 59.5846074229403 2867.44737125446 18 20 15
14.6196397766165 60.227941416532 2854.00390474532 12 14 9
52.7353906480656 63.3162669263333 2807.91659979266 13 15 10
52.4749971467646 61.9242258025764 2821.84725436819 6 8 3
44.6985035951173 59.6231772706474 2847.84592613106 15 17 12
41.911121116081 57.8938708185427 2866.1505322903 14 17 10
70.3378780299619 59.9247046137474 2834.48951950303 14 17 10
69.1905274513274 58.3881175695835 2850.21976333617 14 17 10
72.903868159375 57.4337011126205 2858.20386625733 14 17 10
99.9256628543865 59.3621150637806 2828.1326440317 14 17 10
90.4285005297141 56.7674966968405 2857.75234415681 14 17 10
82.1367599960332 54.2922078319735 2885.70159026818 14 17 10
78.6856443242294 52.4007744576594 2905.89630071641 14 17 10
116.332398605086 55.746305964483 2857.45953652293 14 17 10
126.829211575362 55.6530121671087 2854.15815754338 16 19 12
127.014158372765 54.2265991517609 2868.26938778586 16 19 12
101.12480802239 47.8629150195376 2941.98841653777 17 20 13
114.299214821046 48.0956567796831 2934.37414993202 17 20 13
100.209674141141 44.6816902858619 2974.00855745849 17 20 13
-227.27980091389 63.9554646306216 2838.02761347729 18 21 12
-199.797176317499 65.389894747239 2813.54102022598 17 20 11
-171.864339966669 66.8990884711549 2788.15708247234 18 21 12
-135.407627186185 68.0455244022012 2762.99072717724 18 21 12
-128.549717138469 67.4842522121843 2765.77170074503 17 20 11
-131.089042169639 64.6782797117908 2793.89469218943 17 20 11
-110.968296661416 65.4872148257258 2778.29998572543 17 20 11
-86.7767251252671 66.744394049089 2756.79770167872 18 21 12
-80.5685405079217 66.1246788572107 2760.3948571402 18 21 12
-93.8940215744069 63.4201296774827 2791.70201298384 19 22 13
-94.6660392450311 62.0322647632164 2805.425482897 18 21 12
-96.5459818588366 60.5118260949143 2820.85924022243 17 20 11
-78.4734293280833 61.1537254305076 2807.67292542301 15 18 11
-73.300897364398 60.395665654479 2813.00967457697 13 16 9
-53.6230893064069 61.2411339128286 2797.23509173411 12 15 8
-59.4447015171833 59.2621639510224 2818.62854191522 11 14 7
-83.5396048115842 55.2068383473281 2867.16343683352 10 12 7
-84.4809843950902 53.7216352646243 2881.8978792461 9 11 6
-76.2387908244244 53.2707874079144 2883.08062892268 8 10 5
-62.9026193729574 53.4077618802929 2876.6116509407 14 16 11
-45.1046504570973 54.0726264271185 2863.31398510749 6 8 3
-18.9718611863634 55.7297342224816 2837.20035709968 3 5 0
-25.3080569383204 50.7817750265652 2887.53783785745 14 16 11
-14.3758059133694 50.6695838510861 2884.41290790368 0 1 0
25.6391942922607 54.0931851397962 2835.85537261876 14 16 11
33.6356060925138 53.6633738208094 2836.93870477004 21 23 18
25.8375640938617 51.2894618437632 2862.92920400417 19 21 16
24.1367194618463 49.6444806713863 2879.51522897744 5 7 2
43.0109643218783 50.5572152459699 2863.41477921836 14 17 10
56.4078210871253 50.8021759315034 2855.89048841475 14 17 10
99.6634198291047 54.8540112790652 2800.00956434227 14 17 10
98.4437280835848 53.2818653469865 2815.71078727524 14 17 10
83.0120827578935 49.859491059488 2854.80184985109 14 17 10
70.9535653066526 46.8309374149059 2888.78231968116 14 17 10
77.4236803809674 46.1926368475871 2892.4856698043 14 17 10
87.0298852485538 45.9674994650772 2890.98256275434 14 17 10
112.185769201254 47.8182070724383 2863.3928598884 14 17 10
120.634979696476 47.4648821816144 2863.57988191276 16 19 12
118.788789548613 45.7221993013231 2881.18660621029 16 19 12
95.5443744055533 41.0435816730752 2935.4648800934 18 21 14
98.5593110557073 39.9080362302147 2945.32545057247 17 20 13
104.65488808748 39.1902073933181 2949.95656383702 17 20 13
115.801337436578 39.1752541513836 2945.83881608941 17 20 13
94.3098007014025 29.6832501787169 3046.1765881674 22 25 18
126.723456259722 32.7274361424551 3004.25424302821 19 22 15
-195.711276444505 60.8061242384386 2782.86355657799 24 27 18
-217.270546898044 57.3096507529699 2823.78963852742 19 22 13
-130.56872758522 63.7076917385951 2731.53747550849 16 19 10
-110.231210077846 62.0418725397064 2739.78461897105 17 20 11
-136.11202194694 57.9840010753899 2787.59617420819 17 20 11
-140.638935092892 56.1811249132522 2806.27582248449 17 20 11
-115.077777622256 57.6338933007026 2783.16871807074 17 20 11
-111.174952633629 56.7421346818262 2790.15025876429 18 21 12
-85.8326521067145 58.2128350417769 2766.95466202891 18 21 12
-90.8522340466595 56.3359492734826 2786.51420131084 19 22 13
-91.6418278928524 54.9133870646259 2800.23081775084 18 21 12
-73.5719880753507 55.607028323979 2787.04301240334 16 19 12
-86.5892216715978 52.7836708086897 2818.47587600248 15 18 11
-81.9668102390076 51.9476052372586 2824.66928465005 14 17 10
-65.728481117153 52.4481259199592 2813.97831625936 13 16 9
-94.5930769021286 47.7197451561069 2869.21782036898 12 15 8
-84.0642608675637 47.5440731957532 2867.00908897779 11 13 8
-67.2700549367213 48.1137260122024 2855.46334457655 9 11 6
-78.4750389382152 45.3711096257933 2885.47174693741 9 11 6
-67.9652279485268 45.1972476940088 2883.25504959189 11 13 8
-44.4971230957714 46.5932953748735 2861.45878641655 4 6 1
18.7769336104366 47.2497595783215 2832.04995495688 11 13 8
24.5766575106419 46.5471908344939 2836.56142093999 13 15 10
9.05327748961082 43.1298097139896 2874.53623756967 13 15 10
-9.5295419733763 39.2767636468059 2917.7489743414 9 11 6
30.6616916929119 42.9647355742003 2868.1822399641 18 20 15
32.783127861147 41.7632663318419 2878.76034624491 13 16 9
79.5190558110193 46.4025074909298 2817.81050993906 13 16 9
78.8523311914577 44.8577356252312 2832.65660971926 13 16 9
74.0018895112116 42.740655745429 2854.44432681537 13 16 9
70.8517720158539 40.8276525626465 2873.68226464638 13 16 9
62.5299598506901 38.1945910934763 2901.62053084016 14 17 10
65.367046365693 37.0499486695795 2911.4089027834 14 17 10
88.5971752301964 38.696390973903 2887.35677060364 14 17 10
103.363130012932 39.2060121559087 2877.14813019357 14 17 10
108.235578971535 38.3527816724877 2883.44290737245 16 19 12
105.929755623033 36.4863030788537 2901.94353314537 16 19 12
67.8942941436298 29.5397070479088 2981.5377016016 19 22 15
162.928644372023 32.0831734309706 2922.89748109967 16 19 12
-133.213714982922 52.187244199552 2770.47259146668 18 21 14
-125.734842383765 51.6912966002951 2772.42568509398 17 20 13
-130.310355229556 49.8398975052184 2791.08576625958 17 20 13
-119.189178712261 49.7484095064049 2788.03717397711 17 20 13
-111.68717546131 49.2505396448065 2789.99964761196 17 20 11
-114.303985103068 47.5901232960652 2806.21492182512 17 20 11
-101.434791413576 47.706973254099 2800.63582853162 18 21 12
-82.7149090920363 48.5160438521621 2786.63153773043 17 20 11
-82.8931310516419 47.1245277581983 2799.51639363252 16 19 10
-76.5757691956681 46.4894922089077 2803.15812753647 14 17 10
-79.5711449181413 44.743112024892 2820.29958274669 14 17 10
-69.1415873725019 44.5914192022375 2818.05022331344 13 16 9
-114.750567829736 37.6669289764594 2897.81469882453 12 15 8
-89.1877147910478 39.3215228113645 2873.62794300901 11 13 8
-87.8248931888923 38.0383919305327 2884.97831873347 9 11 6
-94.9587913203189 35.6941104950268 2909.07988424424 9 11 6
-78.1364923081445 36.3077444767257 2897.54518116771 12 14 9
-7.2713430322493 34.9581638610235 2885.25066944682 0 1 0
-34.6980246995012 29.8257697391403 2942.1545024945 18 20 15
32.3122870280694 35.7020905339015 2864.59011341124 17 19 14
38.7392544669867 35.0599606204042 2868.27602238737 13 16 9
60.2125475422117 36.4654322521167 2847.82987611344 13 16 9
37.17673855271 31.7942067233067 2898.95587546597 13 16 9
63.3784206043444 33.86695194052 2870.70911772621 13 16 9
69.8051037409206 33.2255020888945 2874.39490643565 13 16 9
68.8590255138328 31.5481955291222 2890.20796786261 14 17 10
80.0543881871134 31.5707374532684 2886.10948334435 14 17 10
89.644368786852 31.3735157428672 2884.59959560989 14 17 10
95.5739740829484 30.6564180501578 2889.16350255058 14 17 10
80.3187793835163 26.8722354913877 2929.40755928856 16 19 12
83.2875513042424 25.6952764120365 2939.24975189925 16 19 12
75.5960082381095 21.2959992438027 2982.56093994114 17 20 13
60.5101231779803 17.3820272506341 3023.95334086662 17 20 13
97.0912662687338 21.1833026501088 2976.160729194 17 20 13
133.051701166576 21.6483663450801 2959.42957871011 15 18 11
72.7010391193521 7.04948225448765 3115.27875652441 18 21 14
-150.3602103589 44.170975865982 2780.85307430864 18 24 14
-93.562232825124 48.0282235812578 2727.21989967207 17 19 14
-106.714958386275 45.1485233300593 2757.51952245203 16 18 13
-122.702165378057 41.901583323815 2792.06882249416 16 18 13
-126.543550813741 40.0573771353384 2809.94728399252 15 17 12
-126.722505722975 38.6324689681379 2822.83235345785 17 19 14
-129.210794209482 36.9172173803985 2839.100080614 18 20 15
-123.945481661155 36.1253409030548 2844.4746522919 14 17 10
-100.446653208514 37.5563829740544 2823.76937178033 13 16 9
-91.130954942956 37.2720186907779 2823.22789772889 16 19 10
-76.007917301923 37.7108065351451 2814.24343991011 17 20 11
-80.0977793431503 35.7672757708933 2833.10111321133 13 16 9
-115.281584542345 29.8969512306258 2897.65858822614 11 14 7
-106.39052345335 29.5276729781774 2898.02463335319 11 14 7
-96.3680648424397 29.3056368837579 2896.68978376658 11 13 8
-102.331418544194 27.0362454551132 2919.10685327937 11 13 8
-12.2413693594843 25.1720905805371 2905.96903107442 4 8 7
39.5425068941684 30.7616754617508 2838.42489038988 6 10 9
53.490524259765 31.178497685426 2830.0436498084 11 13 10
40.9213265835169 27.8932124390313 2863.81929478256 15 16 10
9.72786353221822 21.9376680964461 2927.83546076851 15 16 10
24.8878572102842 22.495527699913 2917.78599828634 14 15 9
43.1670323992244 23.5173099926629 2902.52284784388 13 14 8
58.6927081423094 24.1653821173676 2891.54195551393 16 17 12
58.8486582821079 22.5960105231623 2905.64252880188 15 16 11
90.5550875226402 25.6353409180229 2867.74961655888 15 16 11
102.703942409292 25.8412720722878 2861.87818796733 15 16 11
94.0161160208739 22.958930300676 2890.74895521079 15 16 11
89.1009551000517 20.6069707314645 2913.59105641152 17 18 13
91.5079867847095 19.33378316725 2924.28534190246 17 18 13
84.2316952465032 14.9014536494411 2966.6858475091 19 22 15
76.1907122510905 11.9674751435225 2995.81890846014 18 21 14
114.719885011514 16.2474411414948 2944.49592207946 17 20 13
162.836240465056 18.7918429006765 2905.69859564603 19 22 15
-185.005423511001 35.4187492851267 2802.49505301144 22 28 18
-184.753682312109 34.0480038672336 2814.47503237614 17 23 13
-150.262166649987 36.7391568019366 2779.87029453205 17 23 13
-127.545747824034 38.065125546098 2761.00689183654 18 21 14
-97.6938155606819 40.2780578827696 2732.0791584986 17 19 14
-131.939182571212 34.7435280595861 2791.61975732319 17 19 14
-127.41717640141 33.8812254781597 2797.77271145932 17 19 14
-133.038105518611 31.765126525536 2818.16939083616 16 18 15
-123.072889319768 31.560561752409 2816.81148900044 16 18 15
-133.881833440413 28.7658135287709 2844.82276673994 17 19 14
-113.250436238926 29.8948119768292 2828.35332817233 15 18 11
-118.010580678658 27.8308651274414 2848.01932973529 15 18 11
-98.6707316429538 28.8204679884885 2833.18588254338 16 19 10
-103.330628550104 26.7483993866816 2852.89253518398 16 19 10
-93.3812815831041 26.5453364214319 2851.52793939867 12 15 8
-78.8336355191137 26.9467210663542 2843.3896012491 10 13 6
-101.167913725291 22.5211180370462 2889.40348575927 11 14 7
-98.0429936630387 21.4057273631454 2898.22936960646 11 13 8
-99.4436014646118 19.6801235506653 2913.85850407671 10 12 7
40.8971012506416 25.1035815295511 2821.75402644715 17 21 20
6.87146468329525 18.6938163699026 2888.94239807635 7 11 10
40.502625606484 21.9481752167627 2849.66929270912 6 11 7
10.1630535172104 15.9726082154944 2911.87347135962 15 16 10
-3.7019580017994 12.3265943896641 2948.36386635418 15 16 10
12.0560665378442 12.9987886518215 2937.47686756951 14 15 9
51.1637629689503 17.1540920702591 2888.54668252681 12 13 7
72.4814935014462 18.7200735893842 2868.03633345832 14 15 10
78.3684992243392 17.9940615779274 2872.58331692774 15 16 11
98.4395681073324 19.4172460897163 2853.72690202323 15 16 11
102.19133544057 18.3759790672029 2861.72722191677 15 16 11
100.775892258549 16.5319419615732 2878.43031270842 15 16 11
96.3383167716605 14.2000041519692 2900.38656774433 17 18 13
88.923862911308 11.3763602099236 2927.61485331847 17 18 13
99.0701682510442 11.2836919035237 2925.25035968053 17 20 13
89.8157924318852 8.12085759819675 2956.05173463654 18 21 14
83.2603964643868 5.35031496065397 2982.54837881269 17 20 13
84.4133714116413 3.78793016045953 2995.97377929259 17 20 13
119.27556568417 7.6799013198359 2950.72091438135 18 21 14
148.397816501015 8.98092088928382 2930.13588706323 18 21 14
94.5890939304363 -1.68839791245357 3041.13290539056 17 20 13
101.929859172935 -4.11885373020854 3060.30695979796 20 23 16
-236.126272026638 24.5785505476583 2845.53305927556 22 28 26
-214.76918976979 25.7105477449297 2829.35742272496 24 29 25
-155.357508380466 31.497492257126 2761.66354880531 24 29 23
-155.230737672585 30.1064311970596 2773.59308248905 28 33 26
-144.667458614927 29.9914865430249 2771.39758740921 16 22 12
-107.376895343935 33.2029637103796 2732.52766506051 19 22 15
-132.712505773994 28.6324216678843 2779.48504626434 19 22 15
-140.894777411311 26.1667666288508 2803.16305273573 17 20 13
-141.743646805625 24.6047058067038 2816.85672628697 16 18 13
-125.780282380153 25.1756384795082 2807.1324438485 16 18 15
-98.5756574151928 27.2076394681808 2781.44995294481 15 17 14
-93.4834637382203 26.4125622374558 2786.75445427687 17 19 14
-99.5952746222708 24.1533997794441 2808.03252885026 19 22 15
-97.3630790975599 22.9658220587663 2817.57631014729 20 23 16
-110.312893119524 19.7624464049141 2849.03935188915 16 19 10
-99.7710099821352 19.6493708238765 2846.83543681199 13 16 7
-96.2236792296771 18.6049388851589 2854.75274854244 10 13 6
-77.0399708202272 19.6645964145242 2839.85555011994 10 13 6
-70.6206773161278 19.0118664732329 2843.53843231945 11 13 8
-75.0812585940406 16.868474468244 2863.32632706067 11 13 8
12.8928344165957 12.0350698712817 2878.48441017956 19 23 22
10.717512801085 8.45225561185531 2909.99735393815 12 13 7
0.604117733967291 5.26916601362401 2940.45081437889 13 14 8
22.7644557320565 6.96477498511427 2919.20184042995 13 14 8
59.1670010288436 10.8790065319896 2874.57248402704 13 14 8
80.4491754622387 12.521509028898 2854.04715853733 12 13 7
102.651751453236 14.3395969506002 2831.73529272601 14 15 9
87.4267068537669 10.3224605045568 2870.9145146098 14 15 9
93.8405893981742 9.67311818054623 2874.59518027278 14 15 9
99.2205060383864 8.85796501140276 2880.01633076795 15 16 10
94.7835231276628 6.46515265457701 2901.97354437277 16 17 12
87.3687761915081 3.56439628574604 2929.20203854722 17 18 12
80.0962999785912 0.652153443842202 2956.48848142222 16 19 12
87.7553526771075 0.152720099574594 2958.51455511847 18 21 14
96.9329877496679 -0.0947275650770019 2957.91664321215 17 20 13
101.547059902808 -1.0964262398144 2965.18699616816 16 19 12
-167.566349809501 22.5633563698654 2777.28689165276 20 25 19
-153.901252954163 22.8508098884329 2770.94969542387 18 23 16
-150.673993483294 21.8156215237775 2778.73759971881 18 23 16
-137.074862933467 22.108415567323 2772.37391094618 19 22 15
-139.885984685508 20.2868454833952 2788.51173106149 19 22 15
-136.583222694832 19.2453464270458 2796.33025362605 16 19 12
-133.249083352103 18.2013369278244 2804.16124246047 15 18 11
-113.133029308614 19.3694049624168 2788.56191432595 17 19 16
-99.0836289220043 19.7534562158656 2781.3007795511 17 19 16
-93.991985292061 18.9498148055394 2786.60512308715 19 21 16
-88.8842050837348 18.1448351482502 2791.91601035322 21 24 17
-90.8187621136112 16.3795223193615 2807.32925354065 21 24 17
-92.0913488895259 14.6880555960947 2821.93141315212 15 18 9
-89.2100008240833 13.5531679842834 2830.65882420188 13 16 7
-85.1310637949931 12.5763879663283 2837.71205862758 11 14 7
-75.2442706345175 12.4049955258832 2836.32215242101 11 14 7
-48.1120661351508 14.6642611800368 2809.52955100882 12 14 9
-65.2859640377288 10.6886116703309 2847.91938151325 11 13 10
16.1312359402399 3.36448997713681 2886.33444277257 1 6 2
5.32890526557583 0.0213307798943019 2917.589236712 10 13 6
19.4370960890471 0.531021944208898 2909.27240253613 10 13 6
38.8348901184568 1.88875578861272 2892.30175301652 12 15 8
63.4465216897844 4.10073888704582 2866.64682135407 13 16 9
70.922298604333 3.61693741149763 2868.5983122697 12 15 8
75.2271836383698 2.62437259428477 2875.74340831568 13 16 9
67.4768056893444 -0.327082859335082 2902.83639215192 13 16 9
86.0072405364594 0.974531145849777 2886.5940457766 13 16 9
97.1444936334409 1.08838221985416 2882.47134100341 13 16 9
82.8739627712771 -2.99377702534154 2920.95872346058 15 18 11
77.5699935812368 -5.63221487450269 2944.72437851351 15 18 11
82.6418002861211 -6.55813200429756 2951.10042517892 17 20 13
111.631585128332 -5.21298462311917 2931.54023699111 18 21 14
121.219776944963 -5.35519014925995 2930.02920798334 17 20 13
119.727237645113 -7.40779622397061 2947.78147214145 19 22 15
-132.937118483047 21.0739980892048 2717.9549559319 25 29 30
-176.701791677858 13.928186029192 2788.75781099909 27 32 28
-156.251144097341 15.1286596082145 2773.29345456965 22 27 21
-140.797796412485 15.6917639455965 2764.44179466646 19 24 17
-125.413842784172 16.2606053484232 2755.56199411515 19 22 15
-131.307887338276 13.9931228905412 2775.84923842882 17 20 13
-126.836919188672 13.1007915772243 2781.98175524113 15 18 11
-115.734387924582 13.1044499598897 2778.92489244387 16 19 12
-109.453624754556 12.4563538364541 2782.5519067943 19 21 16
-98.9952818690514 12.3819423980396 2780.31361656976 21 23 18
-80.2581262817788 13.4612073024427 2766.31427159252 23 26 19
-89.3929592213962 10.6740961457449 2791.76664556588 21 24 17
-84.8579872334951 9.77657437607757 2797.92511642191 18 21 14
-72.0995554667227 10.0372638978169 2792.30008614456 13 16 7
-85.0586115234802 6.64752127144092 2823.76079846274 13 16 7
-81.5816003562826 5.57506103794359 2831.65010796382 11 14 7
-112.774204270376 -0.508176251078851 2890.27303451596 11 14 7
-79.1405918780472 2.75324203407137 2854.23754987938 11 13 8
-69.2431640115718 2.59436698476823 2852.85185471165 9 11 8
15.0739073658925 -6.03386821257973 2901.08217504377 12 15 8
17.2989209164087 -7.39430855799772 2911.70316680522 10 13 6
37.2439092857377 -5.88790588847998 2893.87413739139 11 14 7
42.6769585422875 -6.72567969487659 2899.31697236542 12 15 8
56.084250499425 -6.25357465816212 2891.79518500494 12 15 6
54.1200142882616 -8.31699402348901 2909.35680160795 13 16 7
55.3956832648776 -9.86044030946528 2921.7526711139 13 16 7
83.3986870280685 -6.91941679950078 2889.91318468289 13 16 7
89.3429927686096 -7.66717868757905 2894.48327615581 13 16 7
94.780596603433 -8.50399827041498 2899.92794801361 14 17 8
82.1957992701168 -12.4442874971789 2935.8601150619 15 18 9
73.9069456290455 -15.6893389649128 2964.89517278975 17 20 13
83.1221210014295 -15.9189343193189 2964.31258259624 18 21 14
113.138737490112 -12.4872936890804 2927.89011980293 18 21 14
102.000697065221 -16.2832687090096 2962.24910111595 17 20 13
125.736335491653 -13.9068383122165 2936.23823955866 18 21 14
-148.902894544053 11.6779836637906 2738.53400674367 33 37 40
-134.668231757313 10.6395300879431 2743.22632686029 27 32 26
-143.749367855173 7.90748369005598 2767.62121678586 18 23 16
-124.542397041557 7.52997764797281 2765.69105708137 16 19 12
-128.553159007636 5.45106024200506 2783.50271826749 15 18 11
-118.045500515431 5.38858228773445 2781.28430513078 17 20 13
-117.144928142301 3.97586709321138 2792.44850162531 20 22 17
-113.808792563721 2.89789063588672 2800.28081340834 23 25 20
-108.660592915228 2.07225400010783 2805.60822279414 25 28 21
-73.3505147629783 5.58857470371793 2768.0917216832 21 24 17
-79.4812364980235 3.1488922841017 2789.36350767887 14 17 8
-91.9470682667343 -0.241261162721162 2819.94511799358 13 16 7
-79.1530845907282 0.0435407821754719 2814.33429966725 13 16 7
-105.338239585214 -5.42884380057973 2865.27003180588 11 14 7
-75.6968959781823 -2.65007800039838 2835.17419283008 11 14 7
-103.276183025676 -8.40899034491185 2888.78430421914 11 13 8
17.9727557145528 -16.6350584814038 2923.91395859831 9 12 5
26.6926381354604 -16.9491405132548 2924.21027632095 11 14 7
43.3593369244345 -15.9099252541748 2911.53053788103 12 15 6
58.351693405333 -15.1342356601309 2901.41180641789 13 16 7
52.7688028380413 -17.883158487266 2925.06536562378 13 16 7
61.9560260690122 -18.1010647336127 2924.47136920564 12 15 6
93.5108873122847 -14.4062959203786 2886.51212010795 13 16 7
99.4430960388464 -15.1586585622689 2891.07734845791 14 17 8
84.2479629711443 -19.6577099042049 2931.35114223631 15 18 9
79.0188532310996 -22.434488208849 2955.1484131606 16 19 12
56.5542370579502 -28.3413919141466 3008.67266683538 17 20 13
83.9702322377054 -29.1115709355509 3007.91138588142 18 21 14
108.253669929221 -26.555974052224 2981.04215819588 18 21 14
-185.300256780974 -0.678602133565132 2786.46587690475 8 12 13
-162.319280289819 0.979384089405316 2767.7070751349 35 40 36
-143.150838413344 2.13186675807803 2753.88179995531 36 41 35
-132.640780370402 2.08530835159196 2751.66423771388 20 25 18
-95.9797572554721 5.75786592546768 2713.61498951441 18 21 14
-138.993698271069 -1.89966134337555 2784.72568939339 16 19 12
-122.419996467538 -1.07988649722468 2774.16783394362 20 23 16
-121.559988552875 -2.51709406936002 2785.31579182134 22 25 18
-115.259476339127 -3.17311561348557 2788.95060526589 24 27 20
-133.401205372613 -7.41594770779952 2826.95059296129 24 27 20
-92.5459182653146 -2.99612574530597 2781.96241447578 19 22 15
-72.6706540437079 -1.62875543464061 2766.26408158838 15 18 9
-81.1655280522625 -4.48068522125555 2790.89725357113 13 16 7
-92.4599849740699 -7.78498576266001 2819.79462102215 15 18 9
-99.5114639609889 -10.4825615936509 2842.85316996689 16 19 12
-76.7985675239469 -8.66576991301748 2822.90581263357 12 14 9
-94.1517043214732 -12.9733222959688 2861.22558631035 11 13 8
-66.3487444113573 -10.3463842954624 2833.62297402068 14 16 13
8.17417740294113 -24.1214969166911 2924.31881850028 9 11 6
13.6952528566432 -24.9839386001142 2929.79748163477 18 20 15
22.4331762187588 -25.291619312462 2930.10105548667 15 18 11
33.8115732166733 -25.1337554672125 2926.07591179528 10 13 6
56.7751384703055 -22.9250714644593 2902.99013917274 12 15 8
63.8129560701426 -23.5019124668878 2905.8440740434 12 15 6
60.908684226981 -25.8545747101803 2925.18488553612 12 15 6
87.7872829867798 -22.8752942425613 2895.04771900733 13 16 7
87.5246715835882 -24.7621717739899 2910.06003443853 13 16 5
82.6920025650928 -27.5015304606999 2932.93847240681 13 16 7
69.2514269586262 -31.8533152127196 2970.68487619527 14 17 10
102.488801439142 -27.6214892555388 2929.08730426132 16 19 12
104.470327763499 -29.1458490102661 2940.69001760128 17 20 13
101.952555433085 -31.528410158327 2960.18728941231 18 21 14
108.085017737529 -32.3015156822003 2964.83401347166 19 22 15
101.954506687517 -37.3844650539152 3006.62456087247 19 22 15
102.762863230391 -39.2202413457106 3020.99130817404 20 23 16
113.899454791711 -41.0803154030142 3033.06696287442 20 23 16
-215.144379693946 -10.8260680126912 2813.29904028123 28 34 34
-217.385447131843 -12.7319645018148 2828.58950238454 17 21 22
-177.624793073883 -8.62365103486926 2787.47622289503 29 34 30
-105.624925996636 -1.320082427473 2714.07886762305 31 36 29
-132.406815580824 -6.77769460509073 2762.61525788894 29 32 25
-115.242102600749 -5.8238652888572 2751.21661721849 26 29 22
-124.134428869924 -8.71472192685777 2775.68915864671 27 30 23
-100.41417928267 -6.76835398331713 2755.06988118353 28 31 24
-98.3970877823659 -8.04995341422982 2764.52728104128 26 29 22
-96.3390578130026 -9.33498106559402 2774.00153980715 23 26 19
-95.4277422996823 -10.8041690825902 2785.17051417177 15 18 11
-89.7333840768027 -11.5526910766719 2789.63940942386 12 15 6
-90.5064012899362 -13.3010462508669 2803.36520704722 12 15 6
-96.4911062676077 -15.8740612257969 2824.6971248197 15 18 9
-104.116031099708 -18.729917666403 2848.60375469109 16 19 12
-112.195559725228 -21.687586256461 2873.40564132677 13 15 10
-91.7770724930158 -20.1655184479194 2856.84701765976 14 16 11
14.7767678724107 -32.418430171217 2927.05504917851 12 17 11
21.3731520569662 -33.09914839519 2930.80984628567 12 17 11
25.3202072134202 -34.2581347296654 2938.890129118 4 9 3
48.8553817688275 -31.8754338765292 2914.95592714206 10 15 8
60.1366375034318 -31.6875419227113 2910.89096680873 10 15 8
59.3377509564712 -33.7088055586223 2926.76623220687 10 15 8
71.640537437222 -33.3259983030326 2920.95578875651 11 17 7
70.4137238514286 -35.4508941711182 2937.73738317049 11 17 7
62.5616624200351 -38.8407823094887 2965.87132742747 11 17 7
78.9878299419453 -37.6823607627589 2953.09355325399 14 17 10
103.49864289658 -34.9606381108241 2926.31512901639 16 19 12
136.9897819587 -30.4708423248734 2883.73928385593 18 21 14
125.17203446247 -36.5930808732796 2934.0238400834 18 21 14
101.679403076993 -43.1507787776674 2990.37372939497 19 22 15
-216.285402821639 -18.5623280416525 2813.97475219833 19 25 23
-177.037158341924 -14.4091943859514 2773.73247011305 18 22 21
-158.401222609186 -13.24619486501 2760.7703153904 29 34 28
-149.687390985627 -13.5389057556157 2761.06402120057 39 44 37
-124.844341468486 -14.5944431494623 2763.57862548311 36 39 32
-115.355870521172 -16.3729805779546 2774.98609255079 33 36 29
-110.566727241104 -18.9010234374283 2793.12775295443 20 23 16
-105.440450113566 -19.750746469351 2798.44646863485 12 15 8
-122.78058004764 -24.1483093997362 2835.69312558412 12 15 6
-111.046100368215 -23.9795637467306 2831.81207477103 13 16 7
-92.311195397889 -22.6826496543773 2817.80991158685 14 17 8
-85.9423093358853 -23.3505196753633 2821.47275615378 15 18 11
-98.7598991568002 -27.1260274663051 2852.99367114514 13 15 10
-91.7166552025122 -27.7072137233564 2855.84983604418 14 16 11
-111.771199940865 -32.7333869484571 2898.47557364433 12 14 11
15.8599231274366 -39.835597073398 2924.31314952727 8 13 9
12.8400434691935 -42.2845748594955 2943.60788227883 9 14 8
18.9487802635171 -43.0701415063606 2948.24483727229 11 16 10
38.2872608130358 -41.3936447222509 2931.24775600798 10 15 9
49.6175508689034 -41.1883030110893 2927.20277428669 10 15 8
64.5746380037431 -40.2869792017049 2917.06881024167 10 15 8
57.5676558782698 -43.5428715781701 2943.38628919488 10 15 8
67.8137380801795 -43.531603930095 2941.06140669659 11 17 7
67.1919015856868 -45.6081648947951 2957.00852032096 11 17 7
88.7320093304826 -43.4014067446631 2935.50454515745 15 18 11
113.70964684423 -40.4831576912373 2907.83457989585 16 19 12
124.271835455995 -40.3549750405371 2904.55799232008 17 20 13
117.088431337527 -43.7366729403835 2931.88405819754 18 21 14
144.790007116377 -40.1898806930116 2898.83886877561 18 21 14
146.7351376141 -41.765962344477 2910.42723774064 19 22 15
-175.068800698739 -21.5404764692429 2770.26800757602 10 15 9
-124.542494166281 -23.5399001809162 2774.5574985603 30 33 26
-131.509839189693 -26.2980386678188 2796.57176365687 25 27 22
-121.578553540069 -26.3937773027178 2795.19904148273 17 20 13
-120.624274716619 -27.9220805500149 2806.3858594651 15 18 11
-119.618976322165 -29.4546107245755 2817.59362417645 13 16 7
-117.970329331596 -30.8952751001403 2827.98185727025 14 17 8
-128.651224030434 -34.3611725837096 2856.05006844347 14 17 8
-115.708068060368 -33.9809210636844 2850.49892544227 11 14 5
-58.4075051134485 -26.2492829018729 2780.8567262045 11 14 7
-50.4079733782412 -26.6200734015785 2781.94087423367 14 16 11
-97.4480747003554 -36.2135295243243 2863.30374534848 13 15 10
27.2627393698621 -47.2154651740009 2919.27596159856 16 20 19
21.6081336671707 -50.2237289109035 2942.90270681325 6 10 9
32.4726717261969 -50.1034509566223 2939.74859830584 9 14 10
42.7767293126042 -50.0815635714461 2937.447109136 9 14 8
52.5277941905384 -50.1587197729966 2936.00127599618 9 14 8
78.9384254270156 -46.9741743274827 2906.7518850176 10 15 8
66.7692005697249 -51.3269402561135 2941.77637551342 10 15 8
71.8263199237437 -52.3199580439724 2948.14698397903 10 15 8
88.2082088230631 -51.0599059122974 2935.35051137228 14 17 10
107.056731968576 -49.2788370083747 2918.15425719201 15 18 11
108.492861846408 -50.9863792910228 2930.61633998497 16 19 12
91.2415037283612 -71.3889451195048 3086.69789505027 25 28 21
-169.419554672101 -26.4426563306735 2749.9357329291 20 27 19
-165.447848331747 -30.7586369518201 2780.70644037822 24 30 20
-118.125046720563 -24.9214501314218 2728.61638179266 27 33 23
-101.611620344744 -23.9230708693017 2718.0327674757 29 32 25
-106.425323203645 -26.3316962203398 2736.60088803918 29 31 26
-137.139150309419 -32.9509799529053 2791.10624122075 26 28 23
-122.988589379707 -32.3482127019362 2783.88440782673 21 23 18
-127.483302451859 -34.7832467618432 2802.58188526972 16 19 12
-125.31431532341 -36.1443134565506 2812.10164615981 15 18 9
-124.996812908951 -39.5679957197715 2837.07053910425 13 16 7
-122.097022713243 -40.8416501750217 2845.80646905697 13 16 7
-105.073298651224 -39.737736322241 2834.34986259738 13 16 7
-68.8458557662732 -35.3467172865515 2795.04029249066 11 14 7
-79.426246666684 -38.9033076239049 2823.14988436818 14 16 11
-89.8549402654156 -42.4724301649864 2851.32124962755 16 18 13
45.174062490051 -55.2280283756493 2917.95788310134 9 14 10
46.4638698932232 -56.9558384656521 2930.36087458358 9 14 10
52.5268281336848 -57.7486628281706 2934.9796064024 9 14 8
76.8553141515036 -54.8817855830555 2909.2050671887 10 15 9
82.3334635408837 -55.7735238430654 2914.66657192339 10 15 8
71.8162438997818 -59.9212242182322 2947.12171165014 10 15 8
94.8804705106094 -57.2445922330321 2922.99459826424 14 17 10
97.3310445271118 -58.7713572625866 2933.70817855892 15 18 11
90.6671779943744 -62.2028336334138 2960.16617069439 16 19 12
96.2946830705442 -63.1054486469043 2965.68823093321 17 20 13
136.706648805595 -56.6928980633262 2910.7954054494 17 20 13
147.70721398636 -56.4147477320683 2906.61636858858 19 22 15
-189.215168439021 -36.9486043322524 2775.44588584666 27 30 23
-165.548165168044 -34.8429743233668 2755.8823930804 23 26 19
-143.867900820957 -33.0245978005091 2738.75359996095 21 24 17
-143.209736679559 -34.5837470259111 2749.82075700685 21 24 17
-129.642750219725 -34.0505870415593 2743.44223141121 24 27 20
-113.69101090887 -33.1128139197083 2733.71046149545 24 27 18
-113.602530344746 -34.7754581534729 2745.62680752375 20 23 14
-113.457840352614 -36.4427595572526 2757.56569042545 17 20 11
-138.55111609427 -42.3426440549947 2804.63126728418 14 17 10
-117.464566923697 -42.281212826039 2800.22186965546 14 15 9
-118.859402242481 -44.272634238649 2814.77680527126 12 13 7
-122.55151801053 -46.6758871157694 2832.71994242387 11 14 5
-133.818169130647 -50.4088632638186 2861.63181749159 12 15 6
-79.7514654325326 -42.8426017254445 2797.1548683378 12 18 8
-72.2742152684885 -43.3105651183252 2799.10709293994 14 19 12
-99.1480166070955 -49.8153847734215 2850.85088799043 10 15 11
51.5334202743469 -61.49569149683 2906.55471450073 12 14 11
60.6898225192711 -61.6476736330965 2905.94773919653 8 10 5
60.3905414837391 -63.725709015874 2920.94665627734 6 9 2
90.9454848215685 -59.478184737104 2884.73597404244 16 19 12
72.9874365779686 -65.2108321098045 2929.2949884978 15 18 11
84.7242875144394 -64.8229591151213 2924.33417149447 12 15 8
87.6757964876911 -66.2660485433217 2934.1713916553 14 17 10
104.994888872998 -64.684423966911 2919.5940751671 14 17 10
77.9205456226062 -72.5201625299962 2980.97654796199 14 17 10
91.7133676716244 -71.6994213350849 2972.52940829872 16 19 12
120.56373303804 -67.6103949470613 2937.78762938251 17 20 13
70.7711333108032 -84.9858843181254 3072.0392846182 20 23 16
113.76908981229 -77.703100988131 3011.71380629305 20 23 16
158.861457113742 -69.8414220850723 2946.83765427448 23 26 19
-177.274590613735 -42.43449650768 2758.74415947489 34 36 31
-165.432545027804 -42.1883748401778 2754.90607484752 31 34 27
-154.864828342201 -42.1433814596241 2752.71116424515 25 28 21
-136.331751367274 -40.7654969807186 2739.7057339695 20 23 16
-138.104464114976 -42.7642203849123 2754.10772503387 23 26 19
-122.727189078272 -41.8914807143457 2745.22265967548 22 25 16
-115.923590024368 -42.454636772754 2747.98165738519 18 21 12
-120.007999671409 -44.8750835580691 2765.76634507228 15 18 9
-146.893280261007 -51.23174733661 2815.34649576072 13 16 7
-144.100721391067 -52.5357306336433 2824.03923839236 12 13 8
-128.129147203074 -51.5590360962872 2814.3154616909 12 13 8
-125.319455968627 -52.8643767584488 2823.01515138422 14 15 9
-138.468006656223 -56.9865464692241 2854.40469026414 13 16 7
-128.439677214172 -57.0503122577296 2853.07101808978 13 16 7
-103.164182111985 -54.3916338921916 2829.83936776097 11 17 7
-105.531267139072 -56.6476287638621 2846.16026802734 6 13 5
-115.969600894102 -60.3810239391595 2874.32871797084 4 10 6
33.0121708376843 -72.8337900035307 2935.82358042719 4 6 3
51.2131337990647 -71.1188043536415 2920.52350811446 16 18 13
79.7983858715277 -67.1983658880887 2887.83328083778 9 12 5
72.1651074450556 -70.8531347723881 2914.97926559316 12 15 8
87.5279165461469 -69.6686996970905 2903.92836422675 13 16 9
98.6760360872265 -69.3610839744914 2899.80884774326 12 15 8
103.098339306619 -70.4884461282104 2907.00225008259 13 16 9
82.467030747329 -77.0499864232958 2956.95852643792 13 16 9
99.7982356620402 -75.4145665897651 2942.38570647383 14 17 10
89.6632609806634 -79.7795909421584 2974.99726173795 16 19 12
96.3415790631124 -80.4794731690751 2978.78537855882 17 20 13
101.01901079881 -81.6263367776879 2986.08248567234 17 20 13
81.2705335794512 -97.4203799268809 3101.19905550374 23 26 19
120.877543357711 -90.578558625274 3045.97731251738 28 29 23
-115.082580908239 -41.0508227403825 2686.81509847562 33 36 29
-129.425738549103 -45.1672330461153 2717.72090579398 36 39 32
-144.212674836991 -49.4029716299187 2749.52700012243 30 33 26
-137.380673493676 -49.9687067170471 2752.29751726659 18 21 14
-123.226178232821 -49.2687563521696 2745.07654023392 16 19 10
-118.853232721708 -50.2550060803192 2751.17033747568 12 15 6
-131.1354985775 -55.9466060370715 2792.6325697811 11 14 5
-127.21176753475 -57.0516827693098 2799.62393485471 11 12 7
-108.322208570602 -55.4958826348988 2785.68268491981 12 13 8
-135.353373150031 -62.1501469927251 2836.2850893137 13 14 8
-143.134902719793 -65.4061054046226 2860.13108647167 14 17 8
-141.34902579829 -66.9581611811542 2870.57598453699 14 17 8
-116.014961998835 -64.2198333848709 2847.36718731198 12 18 8
-111.897014131729 -65.3409306151296 2854.43756806178 9 14 7
-121.15072009688 -68.94283775459 2880.92679526262 12 18 14
6.41134781768371 -88.2085267399242 2993.13943196526 3 8 4
59.3487049420964 -79.0168027982352 2920.64072635198 10 12 7
52.3279600038244 -82.6432925797585 2946.95544186692 9 12 5
45.4446003072178 -86.2807269125783 2973.3258666513 10 13 6
85.7513945118771 -79.6305061494125 2920.54678722336 14 17 10
87.6602388251257 -81.3437384351936 2932.12150373334 12 15 8
91.6687329704162 -82.6064920276038 2940.22744930527 12 15 8
102.841542537677 -82.2784408850494 2936.1175175173 13 16 9
94.7100039448412 -86.2789486123411 2965.22225437466 16 19 12
90.2622437485892 -89.4921921457696 2988.26013112084 17 20 13
114.541222724853 -86.1930403072865 2961.38320496262 17 20 13
166.116259448129 -76.5753256630013 2886.17180304682 21 24 17
188.921115999794 -73.4659315786412 2860.85732696961 22 25 18
124.229043132089 -97.5560804366499 3038.75621918627 23 24 18
-174.547793110385 -56.7216080829615 2753.48340682332 32 34 29
-135.422233376087 -51.7070345447497 2713.18492107281 35 38 31
-127.448953025982 -52.0500061702104 2714.25797201577 34 37 30
-145.328924137241 -56.9193599115054 2750.2108189926 23 26 19
-151.363944298094 -59.7535640236367 2770.4455361023 16 19 12
-136.541728751569 -58.9177217879722 2762.4150761243 14 17 8
-133.332369907615 -60.1363794053247 2770.19712322891 12 15 6
-128.276073099206 -61.0317562597363 2775.48785041656 11 14 5
-105.722797074599 -58.7725192511637 2756.55131843555 12 15 6
-98.9065294266964 -59.3374859959165 2759.31545929389 14 15 10
-102.251365213287 -61.7595944032007 2776.32054243133 14 15 10
-100.152598496223 -63.203889652998 2785.81224519667 13 14 8
-140.098090861658 -72.4373429873537 2854.94060166653 13 16 7
-137.14844018381 -73.7932246017051 2863.6973430353 14 17 8
-110.653523651934 -70.7491063619237 2838.79863277683 16 19 10
-100.709493063828 -70.7792695899148 2837.43083112098 14 19 12
10.6211400098821 -95.0535691252629 2985.18604286275 9 14 10
34.6868156789757 -91.9634593018405 2960.38220969882 10 15 9
48.1463614789521 -91.1694753747372 2952.87913979552 14 17 10
59.4672691949141 -90.8331680785221 2948.82936654773 7 10 3
68.680096162572 -90.9568932235557 2948.24502303443 10 13 6
78.3884828845933 -90.9626727979235 2946.78136879574 11 14 7
82.9506473333412 -92.1293356291713 2954.03195507268 12 15 8
88.0488315630406 -93.1812883498764 2960.41963712676 13 16 9
96.7183667598628 -93.4176775308349 2960.69498072381 15 18 11
119.503494998631 -90.3783886473493 2936.45211354049 16 19 12
138.618448703128 -88.146081082356 2918.28124957331 19 22 15
165.055261358595 -86.3546662722752 2901.99974544355 22 25 18
139.854459181881 -94.577241112918 2961.98586036924 22 25 18
112.956731733959 -105.666333031634 3041.80578498211 23 26 19
-153.142589432312 -58.5553127510429 2712.5353456234 30 32 27
-138.448861347661 -61.2266261499186 2728.2147677785 16 19 12
-165.526482045361 -67.8662529938303 2776.64037795694 14 17 10
-174.549979508823 -71.3180571740801 2801.06406092571 15 18 11
-172.453038890188 -72.7842651274376 2810.55519040904 14 17 8
-145.995521308625 -69.8086727487403 2786.72092235737 14 17 8
-130.59626109774 -68.8239807748799 2777.84391007259 15 18 9
-82.1027491269109 -61.6984464570127 2722.9816740791 17 20 11
-98.2045718760813 -66.5021053812263 2757.49610929011 18 19 14
-99.7637282250665 -68.6344857733243 2771.98532368698 18 19 14
-114.947056825245 -73.3527917245962 2805.792452814 17 18 12
-116.306022965297 -75.501809901064 2820.36284892055 15 18 9
-121.136197717936 -78.3322466351299 2840.00630548945 15 18 9
-112.342954953167 -78.5767632039526 2840.33179900926 16 19 10
-114.101077366294 -80.8541145189444 2855.82061766391 12 17 10
33.1083244861912 -99.9676972411537 2961.96163323315 8 13 7
43.9624712302662 -99.7327768888517 2958.80219117113 13 18 12
90.9224818400056 -93.4412799867306 2909.79847918501 11 14 7
110.818682228855 -91.048037958187 2890.86416571896 12 15 8
88.5739482133758 -98.4052343088018 2943.40963280379 12 15 8
99.7435439053129 -100.289117159013 2954.41976573745 13 16 9
109.391272155725 -100.275296290937 2952.93140274658 14 17 10
115.498661815448 -101.098241237251 2957.56835283865 15 18 11
113.620907023733 -103.842951993697 2976.24870007664 17 20 13
124.262332497538 -117.909978564763 3069.13266064152 19 24 18
-148.005750923818 -64.8654564667519 2704.95299940544 24 26 21
-197.36736495331 -75.557470640624 2782.14755155709 31 33 28
-142.616917808975 -67.4478082476068 2721.1800081155 41 44 37
-166.14651313601 -73.5465390367762 2764.56472551593 13 16 9
-162.338510304209 -74.6838119028775 2771.5094770933 15 18 11
-183.032571890845 -80.3607177544908 2811.72359493349 14 17 10
-163.80528547753 -78.6697117824591 2797.91806363088 14 17 8
-151.975617034702 -78.3366460473769 2794.07405134693 15 18 9
-116.564234065257 -73.5521583197503 2757.66802084966 17 20 11
-101.29203835958 -72.5189686432023 2748.73945067253 18 21 12
-112.517812759646 -76.5169217661155 2776.59107674493 18 19 14
-115.81631294515 -79.0366394017031 2793.61566069089 18 19 14
-130.345542961629 -83.7463978030665 2826.60849955047 19 20 14
-132.237490218889 -86.0541229449251 2842.04336369751 18 21 12
-124.01270251546 -86.4079649470182 2843.2183305836 16 19 10
-119.325588205131 -87.454039398366 2849.43952877883 14 17 8
31.9363705036602 -110.147110151853 2977.74742558594 12 17 11
51.1350763075338 -107.956702700267 2960.68985521287 12 15 8
101.79372540643 -98.354551234435 2890.50208756362 8 11 4
92.278354143116 -102.81739516017 2921.20738380208 13 16 9
95.7396613362571 -104.249386556332 2930.17212539328 12 15 8
92.0968098648165 -107.391528755629 2951.37749154756 12 15 8
89.5759641348306 -110.297819246658 2970.87774591303 12 15 8
90.1820991914906 -112.477545599908 2985.16522221268 13 16 9
98.8946590007329 -112.700875223959 2985.45788718314 13 16 9
104.5932890821 -113.659576369024 2991.00917055115 15 18 11
157.207976120441 -112.399869440915 2975.62063062708 17 22 15
139.609319651645 -119.308013630891 3023.57075187253 15 20 14
157.475199564914 -117.16711914573 3007.05271316059 19 24 18
143.087973540676 -123.35500144137 3049.82429717876 22 27 23
-166.706171864358 -77.3329843266284 2740.63124413722 32 34 29
-160.49713271231 -78.0150539207586 2744.22921822312 25 28 21
-133.257092446653 -74.7627114823972 2719.63062501212 14 17 10
-162.843428461432 -82.1637614622334 2771.36173528083 12 15 8
-163.304137728498 -84.1302446250831 2784.13682939012 13 16 9
-167.368967590878 -86.8000092119795 2801.93107732797 15 18 9
-158.567270110182 -87.0294500429942 2802.26013705903 17 20 11
-132.815631915219 -83.9879354173617 2779.21811468006 16 19 10
-115.062383050393 -82.4545343807467 2766.9748241146 16 19 10
-118.427611907826 -85.0154411486188 2783.97270229561 20 21 16
-118.116710994976 -86.8791248870542 2795.98037134819 19 20 15
-129.070043121267 -90.9820507640165 2823.94310303533 15 18 11
-116.733154516101 -90.5026539400797 2819.22480054132 15 18 9
-116.256093063235 -92.3800701396393 2831.29985090973 15 18 9
-121.605703918827 -95.444523490836 2851.81357339968 16 19 10
-116.305023330102 -96.3857133395781 2857.20359710165 12 15 8
47.0907462380774 -114.250165467575 2951.54786584533 13 18 12
48.0061988808618 -116.32633689631 2964.88098958655 8 13 6
55.7149206580152 -116.794432113987 2966.92667918046 8 13 6
73.7252536075401 -114.776341942493 2951.54712467447 11 14 7
76.7606939475798 -116.359316614636 2961.41913111761 11 14 7
78.8170294531207 -118.194820141231 2973.05449255093 10 13 6
91.0791445823282 -117.53633109434 2967.22549196514 12 15 8
89.6516482544694 -120.251274289452 2985.00936912396 14 17 10
98.8671635664848 -120.34137373884 2984.42560200213 16 19 12
101.061447342814 -122.18691000683 2996.11689376013 14 17 10
112.535772378611 -124.126527662102 3007.25083190463 15 18 11
142.206055835897 -121.39515660123 2985.79804930905 19 22 15
123.53068334977 -128.688385193788 3035.47275097545 14 19 13
146.832726553183 -125.10177603096 3009.27715695371 19 24 18
162.249568051934 -123.532727239786 2997.16640951247 20 25 19
147.345846205648 -129.968278840571 3040.80955343428 22 27 21
142.223568923573 -133.874933410237 3066.81626050613 25 30 24
-149.617169349706 -79.5757908522348 2705.49085594886 28 30 25
-142.262237655824 -80.016369455573 2707.39334709825 23 25 20
-144.227734380125 -82.2303400729358 2721.71865558256 18 21 14
-151.689704525978 -85.5164758894463 2743.53665254097 17 20 13
-149.178335711198 -86.9136684559677 2752.11624980876 18 21 14
-158.902412742367 -90.6914249208229 2777.33780906464 19 22 15
-159.32427969125 -92.6943052510531 2790.12864880792 19 22 13
-154.816743609803 -93.747970333418 2796.2771945832 19 22 13
-143.015971420333 -93.3694622701263 2792.42139519672 17 20 11
-135.479170247238 -93.8256754615282 2794.39764251794 17 20 11
-108.112694273615 -90.3243736312228 2768.76928981664 16 18 13
-96.4774808586113 -89.9322405596663 2764.84635357939 17 19 14
-89.6493473660025 -90.4994027112128 2767.61531547492 18 21 14
-92.3161400511956 -92.9953545841747 2783.81668503877 17 20 11
-89.5826770195856 -94.4112192290705 2792.48634821352 14 17 8
-92.1095268450907 -96.9187666093819 2808.74446754234 13 16 7
-127.954145103166 -106.339411994459 2873.06129448716 24 27 20
44.473347099935 -122.485511226317 2954.86601092105 0 2 0
43.8348698032189 -124.97524668191 2970.80977577884 6 11 4
43.7912589903848 -127.344174642441 2985.9144168111 5 10 3
50.5204200219271 -128.067721510673 2989.72329895401 12 15 8
44.9448528560052 -131.844443685864 3014.46667916213 11 14 7
63.4865379139478 -129.642889731333 2998.22180939159 11 14 7
62.1101534234931 -132.409130016778 3016.02651296331 12 15 8
67.663449016965 -135.913554034953 3037.72165559414 14 17 10
77.5145023705759 -135.875553140452 3036.31543422159 16 19 12
136.270631006737 -125.628451416894 2964.00683505251 13 16 9
138.950813337869 -127.371152644737 2974.815276094 16 19 12
115.205348888751 -136.087252013985 3033.23677146769 18 21 14
118.114820036121 -137.847940036671 3044.13818626429 18 20 15
177.835835669108 -124.462330180745 2951.69757589638 22 24 19
149.170563790542 -134.635739370259 3020.00604053064 22 24 19
137.204275308661 -140.42281062631 3058.36025182977 22 25 18
139.768767347367 -142.322903316403 3070.20185181782 25 27 22
-171.302646659056 -89.0829723984301 2721.59700927933 30 32 29
-145.725617245664 -86.0299518052401 2699.56326719743 25 27 22
-132.773901960163 -85.3797421185182 2694.01354359321 20 22 17
-148.450112600758 -90.2900358957595 2726.54349811327 15 18 11
-162.088764258601 -94.8519520269539 2756.65912359103 14 17 10
-169.398545945622 -98.2138966633947 2778.5393151903 16 19 12
-152.042321802039 -96.7219582245801 2767.21439454164 17 20 13
-160.44253840265 -100.338634518961 2790.81262383953 17 20 11
-154.715838822166 -101.159692200432 2795.29542090588 16 19 10
-145.947086498897 -101.370587103018 2795.61074357606 15 18 9
-132.362997568261 -100.60099277862 2789.23735054206 16 19 10
-127.851136745896 -101.666357961625 2795.38773605792 16 18 13
-93.9823328347469 -96.7142073023082 2760.51347165691 16 18 13
-85.9745298336496 -97.0346043271559 2761.60058669434 17 20 13
-72.0390208071693 -96.1215672449124 2754.28932854487 16 19 10
-82.991537646703 -100.389270766653 2782.25363930547 14 17 8
-89.6718548279438 -103.803806508747 2804.38909525766 13 16 7
-88.029945110214 -105.493657186036 2814.77674646812 8 11 4
-117.857408307781 -113.888270477718 2870.73324678502 11 13 10
30.2887332223816 -135.988679020968 2992.38052386419 14 19 13
38.0779035182206 -136.458461013899 2994.45905650621 15 20 13
24.205522138923 -142.375998461101 3033.12155853961 11 14 7
54.670449936389 -137.136381686667 2996.86690985838 11 14 7
48.1456618442642 -141.2476466053 3023.38610925618 10 13 6
62.8081441878567 -142.453382586989 3029.33198381071 12 15 8
94.2867156388816 -136.779398935714 2990.24803546336 13 16 9
90.488233475152 -140.252884786698 3012.47170748895 15 18 11
118.099845598591 -143.032741933274 3026.90920617818 19 22 15
137.577641726221 -140.328720410097 3007.80312816196 20 22 17
135.088973071215 -143.563420931583 3028.39770819942 22 24 19
164.569127034199 -138.066672003164 2990.66357442212 21 23 18
119.851062211688 -152.974273554568 3089.19005252448 20 23 16
165.023852099515 -143.087338122078 3022.17323863664 24 26 21
-208.279745096556 -103.580032819552 2769.31062979349 27 29 26
-180.045934217748 -99.9647480640305 2744.03284812835 26 28 23
-143.870139125271 -94.7302402805229 2707.93265443771 23 25 20
-168.832032459558 -101.597417371062 2752.90114263137 20 23 16
-171.874413027091 -104.149779372195 2768.95086689131 16 19 12
-151.411012802116 -101.993151315953 2753.48442652714 15 18 11
-156.842240386716 -105.048487013158 2772.88622572799 17 20 13
