ply
format ascii 1.0
comment KinectMotionCapture
element vertex 764
property float x
property float y
property float z
property uchar red
property uchar green
property uchar blue
end_header
-85.8358999924698 1127.44821806061 3338.9605865951 19 22 11
-95.0325659995897 1119.65254586712 3316.54497509563 20 22 11
-75.1459259154057 1124.83026960019 3325.74206805799 21 22 14
-41.5656127535451 1136.01955363323 3349.49851780912 20 21 13
-18.7437620029778 1142.37194973363 3361.4376207899 20 21 13
-71.206576622763 1184.05723074923 3553.53127504187 37 35 23
-90.8076010264076 1166.82302612875 3503.14082834873 38 34 25
-97.7909027270245 1155.68800829419 3468.24141997399 20 22 11
-131.77850152034 1136.08756549069 3415.77885157452 17 19 8
-118.799815521604 1138.24734862469 3417.749317717 16 19 10
-52.4918089990285 1164.82172351193 3480.53084064685 16 19 12
-127.695578159357 1126.58405783021 3381.86440945683 17 20 13
-53.2913391701722 1148.95451203262 3427.0691602005 19 20 14
-68.1275894476898 1138.47250130748 3397.64869225387 16 17 11
-72.3722245318608 1132.80483587763 3380.19064514834 14 17 8
-77.3545118529757 1126.84590332467 3362.05057429729 17 20 9
-69.5955145375073 1126.58234512932 3357.97411755079 18 21 10
-84.1464972895176 1116.44923112057 3329.62739799866 19 21 10
-64.906840999825 1121.2698791507 3338.06430805862 20 21 13
-30.6207163120056 1132.64568782163 3362.53137329075 19 20 12
0.420716160800971 1142.50715476833 3383.2032919678 18 19 11
-11.5131949903593 1133.57958016126 3357.8741249784 19 20 12
41.6631711253328 1152.94183212433 3401.6471542611 20 21 13
-91.6860863740601 1174.01982825616 3558.11308962935 248 252 238
-88.1984880120998 1171.62499355072 3548.489161484 73 71 59
-85.3746305140075 1168.93161064681 3538.11887961808 29 25 14
-101.291835400129 1157.52776940524 3505.67118924075 37 28 19
-103.755646161146 1152.44613079653 3489.31267747201 57 50 40
-105.60790532437 1139.93710530202 3447.32839195662 17 19 8
-114.182786769789 1132.18926636121 3424.37354746707 14 15 7
-123.509373271065 1124.15438837236 3400.74883191724 13 14 8
-43.2110328687951 1156.73246335243 3479.15621237469 14 17 10
-69.6617845667205 1140.93074274875 3436.01664887805 17 20 13
-45.2028797294184 1148.10059241521 3450.50134373545 18 21 14
-38.6118666128272 1147.21662377513 3444.79440389491 17 20 13
-68.0884055170505 1130.27063427983 3398.99113930747 15 18 11
-77.6869666553712 1122.26843103901 3375.6019422184 15 16 8
-86.7118109781817 1114.57579952342 3353.03673898292 17 19 8
-65.4982131247892 1120.24245370669 3363.72737892531 17 19 8
-71.2388855560819 1114.04293289856 3344.92261034203 18 20 9
-32.2951647919347 1127.39266855341 3374.60343567381 19 20 12
-0.63729059338602 1137.46155885746 3396.06329442584 20 21 13
42.7702741671849 1152.53305297515 3429.80418493547 18 19 11
17.2851528983129 1137.75586583864 3389.7908184507 19 20 12
-89.147411738272 1166.72828665128 3562.57691382831 254 255 244
-73.4671847040529 1170.0133422663 3567.49192445711 105 101 89
-96.3186801628781 1155.40823209174 3526.51836114014 36 28 17
-103.873517375726 1147.97369594747 3504.00063831133 31 21 11
-98.5731503335474 1146.50029068697 3496.76964563501 66 56 46
-97.8260217224074 1142.94677731189 3484.2348148803 23 14 5
-80.1806962623002 1147.11795601038 3491.41096009822 24 20 9
-80.1071213451729 1143.26915449977 3478.13857514309 18 18 8
-122.022192857811 1120.45603946028 3416.6874579787 16 16 6
-78.1100235725782 1136.47437977562 3453.95463663835 16 17 9
-88.0457024638166 1128.20158699739 3429.53612417813 16 17 9
-41.8497870792383 1145.06535342084 3468.78851775208 15 18 11
-28.5893243776449 1147.13065671436 3470.51537012957 16 18 13
-59.222140777496 1129.71840645814 3423.07079244665 16 18 13
-33.3281638482439 1137.38975509135 3438.95524627013 15 18 11
-74.2920385042076 1115.59712869286 3380.64286242416 15 16 8
-66.5041977759384 1115.31938568999 3376.54149797293 16 17 9
-53.9913522839739 1117.09731676691 3377.59462285297 16 17 9
-48.8764391584766 1115.63966439518 3370.52426767319 18 20 9
-20.0415054988312 1124.45039493289 3389.1456643651 20 21 13
-1.27160476960642 1128.84576170212 3396.6689079027 21 22 14
36.6693147464234 1141.4295358471 3424.57702331412 20 21 13
-45.0850882550857 1178.64187211592 3616.94420074967 191 193 180
-83.1000269102082 1157.03838623418 3557.3982188232 62 54 43
-100.183842063982 1145.21884230868 3523.31784351772 41 29 17
-102.584081208197 1140.20527451726 3506.90347533019 73 55 43
-96.6296861696572 1139.03128410179 3500.42693373711 123 105 95
-64.3337581024386 1138.15184677305 3484.35088518091 20 17 8
-85.3213088844926 1124.94278916786 3447.04608655968 15 16 8
-101.205997218177 1114.10132416539 3415.89014509047 15 16 8
-66.3870358741869 1122.02610884039 3429.33071084626 11 16 10
-59.856430402299 1121.15045504762 3423.6760746023 12 17 11
-76.6890371077 1110.05182654202 3392.01981809934 18 21 14
-61.7562178220514 1109.19090831297 3383.05268377127 17 17 9
-64.7223301877604 1104.24398793274 3367.12866188085 16 16 8
-43.4204499849531 1109.77877879988 3377.74332330246 27 29 18
-46.4275837746908 1104.83606534104 3361.85482889379 17 18 10
17.128575193579 1128.36064257888 3417.77809816019 16 17 9
55.1182195289286 1140.8129922108 3445.64483365343 23 24 16
-78.3286896560864 1154.70103372501 3578.42172507071 164 166 153
-90.1645625850676 1145.30953001811 3550.36375384529 71 61 49
-100.190727272618 1136.81130220614 3524.70155311691 49 33 20
-103.230376559174 1131.54276274427 3507.51977603376 116 94 81
-98.5690521691436 1129.78694614559 3499.52091824174 135 113 100
-92.622014161496 1128.61610241477 3493.05073286118 51 32 18
-75.4598008884657 1124.8112566606 3472.90692222295 22 18 9
-97.1282647484273 1111.42869242756 3434.87015889665 14 14 6
-70.197089637313 1119.56395335812 3452.49915135521 15 16 8
-101.983622078441 1101.85385661791 3403.40994914354 13 16 9
-75.7920889094139 1105.91965046387 3407.14956997591 16 19 12
-117.355146157646 1084.21439388906 3348.0326921893 17 20 13
-83.574506406304 1095.21653438097 3372.93998525158 18 19 13
-55.6685991683601 1103.5961252953 3391.04613546004 18 18 10
-37.060112399026 1107.91773367936 3398.71007574766 17 17 9
-37.9679429845776 1103.86855905604 3384.96603225573 13 15 4
-3.01017008154147 1115.08896960328 3410.17522369342 25 26 18
42.9932121840553 1130.88909512556 3446.95486331745 16 17 9
-99.4213207337138 1136.55283220854 3554.47356435379 103 97 81
-93.3821708444689 1135.37503327305 3547.92358736443 113 100 84
-96.3427763850353 1130.13729010128 3530.67310066471 91 72 57
-97.4307907459644 1125.77620976478 3515.76398921222 125 98 81
-94.0411026665262 1123.44708095764 3506.22449765222 121 94 77
-86.1309043068927 1123.1440566004 3502.0172452676 78 51 34
-75.6095701257968 1123.99468668672 3500.83239538919 41 20 3
-63.6602085555591 1121.64770973803 3487.84414092639 26 19 9
-74.1136898180987 1113.27230522213 3462.55151493525 14 11 4
-71.5445334260414 1106.91290683704 3439.19219228519 12 15 8
-57.0484087023182 1109.48356766281 3442.49161450039 13 18 12
-68.4411803798652 1100.85522745926 3416.69116791894 14 16 11
-99.9579597041658 1083.64056223045 3368.68821144832 13 15 10
-84.8663438374739 1086.50552584851 3372.7928538679 16 17 11
-28.2661040776149 1103.36061544878 3409.64443713893 18 18 10
-11.5844603019797 1106.76242081797 3415.01398821322 27 29 18
-9.06575730029635 1104.16387362404 3404.90789569307 13 14 6
-96.2473560082362 1129.51334372987 3559.70838735835 104 97 81
-89.5549825587878 1128.62404891845 3553.91362938769 113 97 81
-90.5706761810259 1124.28670540877 3538.94168113622 106 85 68
-89.7021100782176 1120.81618902202 3526.3010583199 132 103 85
-84.9915070261567 1119.07032446102 3518.25942445075 143 112 94
-78.9959935609748 1117.89846199488 3511.74723025014 83 52 32
-73.6549154520536 1116.44023484273 3504.48085347441 51 25 8
-80.0687454140592 1109.83572840343 3483.6153217793 25 17 6
-5.9861909035015 1123.06507164955 3501.36775125902 14 19 13
-78.799253163059 1080.91973552668 3380.80403962128 13 14 9
-42.8345155827179 1092.52608590778 3407.78447942269 17 16 11
-16.1123191162842 1100.14314070783 3424.27501381362 19 19 11
-10.8711280904124 1098.69019878396 3417.09486300192 10 12 1
-21.2128951509607 1090.73718839851 3393.02593404399 28 29 21
2.3034715810879 1096.91481769986 3405.68746842484 21 22 14
-87.3335204437207 1125.00701128989 3571.86182194979 134 127 108
-81.8900564218437 1123.54385882553 3564.50673553923 126 111 92
-82.8762434771977 1119.23505981313 3549.50902791658 120 99 80
-83.9113712197928 1114.93225285533 3534.55370011805 135 104 83
-79.8253916188165 1112.90768659749 3525.73199496762 118 86 65
-78.3487872889124 1109.74962778787 3513.88591521627 80 45 23
-73.0028713073483 1108.29611667077 3506.61499920955 95 68 49
-76.7984203837862 1102.87776331584 3488.76609757046 33 25 14
-78.6960556086074 1098.31631362881 3473.23675114847 25 16 7
-77.3643266742403 1095.17477109906 3461.51613308401 21 18 9
-31.9436271480202 1110.95871760163 3500.12417049509 19 20 12
-3.45632813182872 1119.37400524407 3519.04943710787 18 21 14
-43.7472406077406 1098.4563546444 3460.14810288615 13 18 12
57.2472055661941 1137.55586994395 3560.27583124125 12 17 11
-33.859894688105 1095.27637045022 3444.98237128457 10 15 9
-64.7108887452394 1078.6518411011 3397.72179156842 13 14 9
-33.4050506090917 1088.16844051021 3419.49035148828 17 16 11
-27.5165694662469 1087.00548272086 3413.07086834615 18 18 10
-10.1586706161982 1090.60611731781 3419.17657280633 12 14 3
-13.0443386643191 1085.79895490481 3403.18160578637 19 20 12
-72.4640911372978 1126.97029035174 3605.27883216197 71 73 59
-90.5449959364661 1115.05222563007 3569.4164714523 131 122 105
-81.909380283407 1115.00660359446 3565.90206672328 124 108 92
-79.6807742829806 1112.13937660234 3554.72557636838 122 101 82
-81.9886162642454 1107.30382576817 3538.23028619708 135 104 83
-79.1853001934877 1104.72621441532 3527.87705812204 110 75 55
-78.3507016220417 1101.30788199386 3515.26553803271 104 68 46
-74.9521085726501 1099.01701892811 3505.71808025221 114 83 63
-72.8784513739513 1096.16704375818 3494.67546228825 42 30 18
-74.1043047259344 1091.91886932414 3479.88540472366 27 17 7
-68.1602645231512 1090.75661152095 3473.41744649846 23 19 8
-56.9533161372426 1091.83214071789 3472.96078469057 18 18 8
-25.2460297512558 1101.56599109508 3495.70324806282 18 19 11
-100.769104113107 1102.04068685388 3558.51221347281 131 119 105
-91.5246683687618 1102.270505022 3555.79159849961 121 103 89
-84.8305903171043 1101.38038178751 3549.99536845715 127 106 89
-83.9305383538118 1097.97922525738 3537.32700626021 124 93 75
-82.4212077492668 1094.86083537327 3525.45230441467 131 96 76
-80.9446526219047 1091.74605869518 3513.60567132679 125 87 66
-80.8004701431892 1088.07890501763 3500.27091117759 133 98 78
-74.8291757338357 1086.91713119191 3493.77964312857 59 40 26
-71.4781206996458 1084.64480483856 3484.27295262338 32 16 3
-56.3378185719627 1087.36619224341 3488.33632728799 34 26 13
-47.7255040582518 1087.30933552624 3484.84219129501 28 24 12
-47.6831982514119 1083.65224867756 3471.59566608594 16 19 8
-60.2641895775324 1074.74675813698 3444.18036638086 14 20 10
-39.7498985741969 1079.66711624409 3454.15869585156 12 19 11
-0.468461559393063 1088.64419648442 3471.66485089843 9 15 11
20.9680224731073 1093.80405823939 3482.16527589255 11 15 14
-17.3551612773513 1074.4657707008 3426.84188065739 14 16 13
25.6638892759185 1088.41950839434 3460.92643797209 24 26 15
-101.774048494863 1089.33157587513 3544.90845860205 121 104 94
-94.4685459919317 1088.72231338055 3539.90404141063 127 101 86
-87.1588900450497 1088.1116309322 3534.89571796854 129 100 82
-83.7188468130328 1085.84378910099 3525.31186913383 133 101 80
-81.5944109601801 1083.02652256309 3514.22534304519 140 104 78
-81.4477312322435 1079.38610112682 3500.88824521474 140 104 80
-77.431109098824 1077.40147717769 3492.12639584731 112 84 63
-72.7769504909279 1075.69315716114 3484.1334411172 86 59 40
-60.9202853776529 1077.00667742371 3484.43504963913 44 26 6
-54.9520416649103 1075.84597318779 3477.94641880755 35 20 1
-50.3078460605715 1074.13707854649 3469.96210309432 30 23 5
-48.9859464294655 1071.06009954118 3458.24958606706 23 17 1
-47.0327443230563 1068.26026401053 3447.31136146802 21 18 3
-5.80680095369157 1081.58543303963 3480.30730511507 20 18 6
-4.45818667359221 1078.50270042999 3468.57167082477 21 17 8
12.2728252651703 1081.69594333986 3473.90009974034 21 14 8
10.9137668256341 1077.5244339739 3459.22468350873 19 14 8
-92.1991095633863 1084.9701195957 3557.81152872608 117 100 93
-97.6876625577399 1078.87662909872 3537.46429121333 118 95 81
-90.3857353271098 1078.26431480734 3532.46299261464 127 100 81
-88.243325383162 1075.46436791129 3521.36045999062 132 101 80
-84.1867848006803 1073.48670463568 3512.5639667632 144 110 83
-84.0437381561916 1069.87384102186 3499.22983928138 139 105 78
-80.0319431993488 1067.90088621149 3490.4720981851 131 99 78
-75.3828160173469 1066.20138830401 3482.48344720518 111 80 59
-67.4673706642182 1065.86268380196 3478.27187827092 63 41 18
-60.2014649248979 1065.25040748871 3473.30148503458 55 34 13
-56.2302344471171 1063.27992124945 3464.57888663397 44 29 8
-46.3189453693622 1063.75095439516 3462.60198369997 38 25 6
-33.7314823801931 1065.30201099003 3463.59222057823 36 25 7
-19.1093098526327 1067.65909046587 3466.78377664358 31 22 7
19.6090765721966 1079.7392607969 3496.66781864887 32 20 6
19.0033447331288 1072.25871931936 3469.45093091059 27 17 7
-62.818710134307 1088.93569450841 3594.51846161894 116 101 96
-86.7998344120666 1075.01701695864 3551.87301835868 107 88 74
-89.1087383126981 1070.33377989706 3535.37766159402 119 96 80
-87.6034771877978 1067.28113190012 3523.50574539085 134 109 87
-86.7780581450583 1063.96188970423 3510.90153942188 143 115 91
-83.3918591064697 1061.72713228872 3501.36446041003 143 113 87
-81.3288359422892 1058.95478662749 3490.33087181771 143 107 85
-76.6806520253232 1057.26368004264 3482.34298402352 140 105 83
-72.7000806834317 1055.30421252029 3473.61221815867 123 92 71
-66.105693036806 1054.42218487402 3467.90234091397 120 92 70
-60.1709165158062 1053.27075641233 3461.44234168035 104 79 57
-48.2852781645207 1054.5350032838 3461.71947286111 77 55 32
-35.0395463985658 1056.33046708131 3463.46084163667 73 51 30
-23.0843358970279 1057.58382521508 3463.67742718051 57 35 14
-13.7674061770463 1057.76184041741 3460.89431475737 49 27 6
2.26433274931281 1060.61013981692 3465.5078030983 39 13 0
12.9781736733654 1061.3136950039 3464.15705375521 34 12 0
-65.4022104675764 1079.21035193586 3592.8505965536 117 104 98
-75.9194876302538 1071.05927853417 3566.28855021892 104 90 81
-87.1901092932443 1062.65396494829 3539.05784125194 114 95 80
-92.1249659086523 1056.9425696352 3519.55148007095 136 115 96
-89.3682441091226 1054.45189987656 3509.23807354191 141 116 94
-86.6357599586407 1051.96403734616 3498.94597197644 145 119 96
-82.6256024486369 1050.01289976442 3490.18919322515 148 115 96
-77.9783425226039 1048.33006213417 3482.20205270409 146 115 95
-74.6537480690717 1046.11497947386 3472.71824110755 137 110 91
-70.0349565575578 1044.43471811841 3464.75575849031 140 115 95
-63.4502103564549 1043.55333015228 3459.05423368786 138 116 95
-52.8967719809481 1044.2655138904 3457.84277059881 153 131 110
-40.9918301539767 1045.50474150862 3458.10301737588 152 129 111
-31.7159985292754 1045.67819288732 3455.35587123571 144 121 103
-25.0942094831119 1044.78894176903 3449.62229102138 140 114 97
-13.1154560248392 1046.0161330473 3449.81864060025 131 104 87
-0.432150211609361 1047.50260057804 3450.72622559661 124 102 88
-92.3438856318879 1052.0308462217 3534.33018539856 111 98 89
-94.7096133022884 1047.43063619645 3517.88322630756 135 121 108
-95.8385524431686 1043.36721420428 3503.00797251224 142 126 113
-91.176123294102 1041.69185561315 3495.00763581596 155 138 128
-87.1767683721396 1039.75327397083 3486.26045420607 193 176 168
-83.193841455083 1037.81574467869 3477.52718900643 207 190 183
-79.2270325782645 1035.87992913482 3468.80819829933 218 204 195
-73.9621708773144 1034.47292830296 3461.60754907612 218 204 195
-65.4097406713152 1034.38267286838 3458.16521787683 147 128 113
-58.8285087233436 1033.5009796518 3452.46674098192 159 140 125
-50.9205939539461 1033.14418561606 3448.26181629589 169 147 133
-42.339161671463 1033.04807038115 3444.79470143895 174 152 138
-33.0780841757843 1033.2118686066 3442.06009027256 178 156 142
-23.8006181963035 1033.37274113611 3439.31129357676 180 157 143
-14.5066137149623 1033.53074984949 3436.54849643738 178 156 143
-11.9316840094945 1031.07180853365 3426.3924500496 138 127 121
-115.032492425908 1037.8560801736 3522.32628424336 112 103 96
-121.271035075546 1031.7199546244 3501.306105127 88 79 72
-116.632430887728 1030.05726659193 3493.32633627548 151 141 132
-111.359143119116 1028.65793427605 3486.11833418438 201 188 182
-106.74272571609 1026.99697656181 3478.15778420423 223 212 210
-98.8845853893197 1026.64542626056 3473.99565132437 226 216 214
-91.0179521145982 1026.2922753086 3469.82648318635 229 219 218
-85.1076861728566 1025.15369182176 3463.38796042989 227 217 215
-79.201568174323 1024.01492611384 3456.95271851284 224 216 213
-71.3223484831391 1023.65786434181 3452.77266661748 227 217 215
-65.4179692682444 1022.51803749953 3446.33925415574 235 225 223
-57.5285244219641 1022.158318884 3442.15004145447 237 226 224
-50.9610253429065 1021.27703782551 3436.46346465987 237 226 222
-39.0559543212201 1022.47153527141 3436.72420482471 236 225 223
-29.1259662297056 1022.88297867104 3434.73148092641 235 221 218
-17.1614866251057 1024.06797831901 3434.94079108298 234 220 217
-9.20441777021974 1023.69555950574 3430.69304852034 175 166 161
17.671474204882 1030.55732992046 3447.05494823818 145 135 133
-161.99288853243 1017.36083492419 3494.34705917861 111 108 103
-157.400956271104 1015.71449314744 3486.40763663923 179 175 172
-152.180776359543 1014.3295369769 3479.24525636616 127 122 118
-141.82936351406 1015.02610918567 3478.20899722881 191 183 180
-135.964214463885 1013.89971004831 3471.80949994908 230 220 218
-126.870637273176 1014.07103436386 3469.22001854848 222 212 211
-121.003245727121 1012.94293364744 3462.8182731304 225 221 222
-111.886628224017 1013.10985979032 3460.20916587599 223 221 222
-103.406225624922 1013.01507371034 3456.82960846415 223 218 222
-94.258767341596 1013.17656667233 3454.19349009127 218 214 215
-87.0650420995092 1012.56041685475 3449.28568338679 216 214 215
-78.5494963679421 1012.45898163852 3445.87570924539 224 220 221
-70.0215871037502 1012.35510288644 3442.45503502005 222 218 219
-61.4813176634321 1012.24908048138 3439.02366167669 224 218 220
-52.9287258242697 1012.14044042151 3435.58162502981 226 220 220
-41.6959171346143 1013.05694038755 3435.10326416766 228 222 224
-31.7725417087948 1013.45574005006 3433.11635363613 236 227 228
-17.8020087230673 1015.38887910398 3435.55219538768 237 228 229
-7.82540766238693 1015.77895374934 3433.51920882357 254 246 243
5.54763176151152 1017.44450717086 3435.15107729845 239 231 229
30.4744571958224 1023.44656116781 3449.23777590023 150 145 142
-189.549033864661 1004.8487760985 3489.19809150892 110 110 102
-173.577441049904 1007.86975072153 3495.1855370662 219 218 214
-167.720700541233 1006.74981384444 3488.79328589603 224 223 221
-164.420161188286 1004.59785689257 3479.32991466366 227 225 226
-161.78012771135 1002.19015389749 3469.11710847142 215 213 214
-159.806607911798 999.527536135679 3458.16038462287 224 220 221
-153.351892703767 998.668270875109 3452.57141900034 222 218 219
-140.434110426202 1000.37734827149 3454.59759317153 218 213 217
-131.365234662246 1000.54032136202 3452.02957550153 220 221 225
-119.678271886538 1001.72590231449 3452.47910018922 219 222 227
-111.872894628256 1001.36998174724 3448.36304278965 222 223 228
-103.404759022552 1001.2681641869 3444.99416318607 223 224 229
-96.8938425234871 1000.39737772621 3439.35656054214 224 225 230
-90.3828427697158 999.525801533241 3433.71889085584 227 226 232
-78.5867538598577 1000.6933326787 3434.07394896377 225 224 230
-66.7576550433098 1001.85590155139 3434.40074386754 226 223 230
-55.5605749971457 1002.75882809312 3433.95343826109 227 225 230
-43.6680483720009 1003.91133569589 3434.2250076877 227 224 231
-33.7490799442293 1004.29721677748 3432.24231608535 228 225 232
-19.1136295220136 1006.45474176342 3435.42334132735 228 226 231
-7.79344283493622 1007.33841666686 3434.86977503414 230 226 225
8.28008436081529 1009.98883156902 3439.44801076356 223 219 220
19.6717244299736 1010.86136438642 3438.83226994388 243 241 242
27.0174541556343 1010.21432370145 3433.79291566334 206 206 204
-200.811538607611 1002.52576631034 3517.50167661763 97 97 89
-200.598039957356 999.100500209516 3504.1052702135 101 100 95
-197.276629149796 996.961901733678 3494.62372237794 217 216 212
-192.080289477508 995.59363055282 3487.48189717802 232 231 229
-182.455336650691 996.01662962986 3485.75348342692 215 213 216
-176.624550150006 994.902823009804 3479.38368780415 225 223 226
-170.797606605926 993.788935064805 3473.017223537 215 213 218
-168.814211889158 991.144809755802 3462.05182091119 218 216 221
-164.29134365033 989.522740478254 3454.17210135619 215 215 217
-161.068714595405 987.392631999787 3444.77580068808 217 217 219
-148.821018401096 988.823441034401 3446.0613048674 218 216 219
-139.777030646621 988.978986319871 3443.51490666217 223 224 228
-126.815317062178 990.653581716868 3445.50322743481 222 223 227
-121.6392453437 989.281474769887 3438.37930956769 221 222 226
-111.891408382522 989.68151703448 3436.54453648102 223 222 227
-102.122812881418 990.078067277867 3434.69210936288 225 224 229
-92.9921286124831 990.218643273278 3432.07066517367 228 227 232
-81.8636542711966 991.113142628314 3431.68287720601 229 227 232
-69.3813865422115 992.507211349108 3432.76530788281 231 228 235
-55.5332215900122 994.398957652358 3435.3071631207 231 229 234
-44.9727805216895 995.026776890071 3434.09017723015 231 228 235
-35.7250791947608 995.14812062349 3431.36743477618 229 226 233
-21.7662239532403 997.022864082195 3433.81346094046 229 227 232
-7.08945624059076 999.141610177697 3436.95924180273 238 236 237
8.3111921809178 1001.50341318926 3440.79929509227 235 233 234
21.734544949171 1003.10703567252 3442.38795649712 227 227 227
31.8044661048718 1003.45534050467 3440.27467223458 232 234 233
31.6807297688819 1000.05734483904 3427.1703828017 222 224 223
-223.129999013978 992.148990390575 3518.3862159852 155 156 142
-217.292213388007 991.040768780456 3512.01031777797 214 214 202
-208.956740711809 990.949369055225 3508.75603888324 225 223 224
-205.0006054947 989.077871429521 3500.04588263896 216 213 220
-202.319604689092 986.700642891573 3489.79737111517 221 218 225
-196.505089494833 985.593039926447 3483.44163821871 224 221 228
-190.060847903524 984.738478903112 3477.86171997269 209 208 216
-184.887678794472 983.377400396696 3470.73993092408 219 218 226
-178.446978364867 982.521938885009 3465.16308776538 219 218 224
-173.285440847525 981.161251295988 3458.05169321508 214 215 220
-167.490139881587 980.052942200582 3451.7126185567 215 216 220
-162.34266509746 978.692688996177 3444.61309435509 220 221 225
-153.327851980202 978.841922738767 3442.09202375556 218 219 221
-144.296451113049 978.988323722295 3439.55659431331 221 221 221
-134.598406882691 979.382757294619 3437.76533023354 223 223 223
-127.488001171836 978.77100122064 3432.9297110901 229 227 228
-117.756893513584 979.15978436773 3431.10982636382 230 228 229
-106.692997462681 980.045254271896 3430.77806923274 230 228 229
-98.2330359326329 979.926751333684 3427.41638251602 226 224 225
-86.4596007135749 981.053796039085 3427.79133774518 235 230 234
-73.328669353256 982.674521699373 3429.63334046624 234 229 233
-56.8349462440865 985.534235348595 3435.16959741758 232 230 233
-48.2763955098604 985.399820261716 3431.72256300497 232 230 233
-37.0318368939246 986.256947691733 3431.23440279487 234 229 233
-23.7471177572637 987.854207755883 3432.94326417999 233 231 234
-8.40381382465472 990.189059343008 3436.83319464518 229 229 231
6.9927308136859 992.515962403604 3440.67703098365 234 235 237
19.7359988335997 993.845477710496 3441.53366163448 226 227 229
29.12257108702 993.933686919006 3438.69076946942 226 230 231
35.8025425581694 993.031749505709 3432.90684266352 233 235 234
42.4823813763866 992.128991550579 3427.12303614981 225 227 224
74.5009112220449 1000.33805455041 3448.28235341613 216 218 215
-229.903604156007 988.144168184249 3538.83991051543 116 118 105
-227.134568938753 985.774606811026 3528.51504671928 192 193 185
-224.389602031046 983.40776997467 3518.21134164993 224 225 219
-223.538460671368 980.287958065221 3505.58354891106 231 232 227
-219.5977837595 978.430160150156 3496.88670216111 216 216 218
-214.418754596744 977.076257322288 3489.75978749474 215 214 219
-208.618223332846 975.973951105983 3483.41614065031 215 214 219
-202.190163569292 975.122048403218 3477.85023055007 216 215 220
-195.761836187105 974.269630570475 3472.2840918332 218 217 222
-189.33321384527 973.416454381009 3466.71770237836 216 215 220
-181.629448512663 973.062338386548 3462.68938848065 218 217 222
-173.917093739335 972.706548860377 3458.65395616329 219 218 223
-166.196470574884 972.348964872793 3454.61105344945 220 220 222
-159.110861518635 971.740570398558 3449.79722018745 221 221 223
-152.666772757145 970.882017583541 3444.21746027144 221 221 223
-146.222504802881 970.022901660817 3438.63754869156 224 224 226
-139.778063936395 969.162983931511 3433.05749243817 224 224 226
-131.37795642378 969.046373348591 3429.74767108727 227 227 229
-120.349917560567 969.918406912039 3429.44707973746 228 228 230
-108.63716674482 971.033202893187 3429.87471169229 229 229 231
-100.181385760187 970.907238208336 3426.51669675685 229 229 231
-89.7331048078818 971.519440612282 3425.39702526787 233 231 234
-75.9498130047396 973.360815829077 3427.99543480179 235 233 236
-60.7930395655356 975.688209682222 3432.04708627668 233 233 235
-52.2448156269975 975.546980915 3428.6090466219 229 229 231
-40.3430240497023 976.632388200581 3428.87333610602 230 228 231
-25.7274886632279 978.694741169916 3432.07223914238 229 229 231
-9.04559975208441 981.485576999406 3437.44585235959 229 229 229
2.30254549331743 982.307554556711 3436.86813766641 229 229 229
13.0029442598856 982.880414118164 3435.53020154814 230 230 230
20.3353324558773 982.226965751633 3430.50245237286 229 231 230
30.3940044875026 982.549058222823 3428.39908798725 230 230 230
43.2031991840418 983.843023541342 3429.19849246971 228 228 228
56.733892684933 985.374819333431 3430.69458324201 230 230 230
59.318587736465 983.007528438958 3420.52979449362 229 229 229
-224.118934861475 985.733252014233 3561.63243941112 128 130 117
-237.946874597119 976.625030948299 3530.00586941124 162 163 155
-232.106614894022 975.52316120491 3523.62747015933 221 222 217
-230.616158628942 972.675483433518 3511.767373161 213 213 211
-227.91231411855 970.329613048056 3501.49885897555 214 216 215
-225.857655080092 967.737573222015 3490.47135148534 215 215 217
-216.306931345377 968.131523059109 3488.80746299629 216 216 218
-211.138863693104 966.784029297299 3481.690323047 217 217 219
-205.347735933014 965.684943511932 3475.354490176 215 215 217
-200.193414820164 964.337983521582 3468.24926138769 217 217 219
-192.506227252836 963.981309186087 3464.23533261314 219 219 221
-184.173170070657 963.870075316018 3460.9835913525 219 219 221
-177.106177077678 963.262870399379 3456.18588559332 220 220 222
-168.752153397035 963.147555329671 3452.9159983611 221 221 223
-158.455450825673 963.769069884678 3451.92732944748 222 222 224
-152.006757140949 962.909956803862 3446.34358190952 222 222 224
-146.205374864193 961.804302127097 3439.99921915976 221 221 223
-141.057622870846 960.45287474392 3432.89939749942 222 222 224
-130.052988292238 961.309697339827 3432.61950556463 225 225 227
-118.36605117034 962.406889757695 3433.0696252473 226 226 228
-109.269098118002 962.520148943671 3430.47759412958 226 226 228
-103.444528006489 961.407958014372 3424.11317600504 227 227 229
-93.6650706583166 961.760863414724 3422.25130184044 231 231 233
-78.5698652424522 964.061874633194 3426.35648749433 234 234 236
-62.7572631264082 966.598693656419 3431.16192798614 233 233 235
-53.5472717375969 966.693196514672 3428.47204402054 230 230 232
-42.9847353038046 967.271028043836 3427.25356592302 229 229 231
-30.3874900411847 968.573295386877 3428.23662080096 229 229 231
-17.0811192527944 970.112544312401 3429.92709183488 228 228 228
-3.0594942636597 971.887889576316 3432.3196728183 228 228 228
8.30207703145547 972.688296590555 3431.7304610629 229 229 229
16.9791472160088 972.517319467132 3428.18093850547 229 229 229
25.6684229701132 972.344039853323 3424.62085186237 230 230 230
38.4642265542348 973.615337325757 3425.43232530435 229 229 229
50.6122444042823 974.640074997487 3425.48327925515 231 231 231
62.1064503379603 975.419026734216 3424.77924732175 229 229 229
64.6781829644696 973.069089603128 3414.62526560738 230 230 230
-240.129271131676 970.967736258923 3542.52080834602 134 136 125
-238.586336316527 968.136107184167 3530.61512230607 217 218 212
-233.982630316499 966.54291578117 3522.66515062842 224 224 222
-234.356426230957 962.977086485724 3508.45510800163 215 215 215
-232.906552034693 960.155894009134 3496.63001331568 212 213 215
-230.864359178888 957.58451693918 3485.61317681889 212 212 214
-221.32852478857 957.966877785807 3483.96226855676 215 215 217
-214.287246014991 957.36337538664 3479.18682624342 220 220 222
-206.610805211857 957.004016188272 3475.18222947366 218 218 220
-200.824696068114 955.907664594186 3468.85104421307 217 217 219
-193.772423337555 955.300802954099 3464.06577929716 221 221 223
-185.441552159534 955.181718957162 3460.81598359391 219 219 221
-179.01555445318 954.327638621717 3455.25187486388 220 220 222
-170.665745278 954.204746606477 3451.98568959383 221 221 223
-160.373702477737 954.810681744164 3451.00147593918 222 222 224
-153.283370865105 954.195460803643 3446.18327819064 222 222 224
-146.188755765015 953.579004251504 3441.36137579635 221 221 223
-141.03789453345 952.232629980939 3434.25914201603 222 222 224
-130.68365053401 952.827673169924 3433.22108692636 223 223 225
-120.304829219373 953.418605777703 3432.161440918 224 224 226
-110.556627572073 953.763525848294 3430.3270244508 225 225 227
-104.73338613289 952.654268617203 3423.9637389239 226 226 228
-94.9564721781968 952.99386249305 3422.10415546886 229 229 231
-81.1886702520082 954.777579552418 3424.71667977505 232 232 234
-67.3758724044951 956.55461588455 3427.2899322773 231 231 233
-56.1810793733319 957.361912774983 3426.84522859147 228 228 230
-42.9540318604307 958.886093232055 3428.60454960356 227 227 229
-30.355839342894 960.163821645586 3429.58725798734 227 227 229
-19.7366013781575 960.71635067324 3428.31979859567 228 228 230
-9.76691891018211 961.025133342189 3426.29333539857 228 228 230
2.92749698514205 962.287867078184 3427.192740688 228 228 230
16.3367716506904 963.783913558931 3428.79430118567 228 228 230
27.0664164742227 964.318699391825 3427.4312631773 228 228 230
37.1382359340551 964.610972353836 3425.3163811614 229 229 231
46.54621645598 964.661504612714 3422.45517782808 232 232 234
60.7746238484941 966.374687401496 3424.66893588417 232 232 234
69.5411348605397 966.179927457019 3421.04204585991 231 231 233
72.1061743982951 963.846402212779 3410.89375893671 231 231 233
-240.156598114354 962.700807048249 3543.92132440347 219 220 212
-241.075086507903 958.912187137082 3528.86188465654 220 221 216
-240.187120049077 955.86215387817 3516.20172211319 208 208 210
-239.335640626616 952.816315749522 3503.57315701122 223 223 225
-234.162790850792 951.480873840309 3496.45179412725 212 213 217
-231.496213562604 949.17206138984 3486.2153406465 209 209 211
-223.84086566821 948.811231001004 3482.22903539227 207 207 209
-216.176811889263 948.448771284962 3478.2355105059 220 220 222
-206.612176536463 948.812341805694 3476.55976117613 222 222 224
-199.55771526883 948.203111612799 3471.7729302376 215 215 217
-194.403535547104 946.866329116199 3464.6674425348 215 215 217
-188.620287010194 945.771859918651 3458.33872446699 218 218 220
-181.56311143532 945.160265745436 3453.54924074662 219 219 221
-173.219574516538 945.030133791263 3450.28853878163 220 220 222
-164.220511000598 945.138610057523 3447.78138303713 221 221 223
-154.559669255195 945.484934710412 3446.0226754353 221 221 223
-147.466807459893 944.86595951458 3441.20230901416 221 221 223
-140.369673384322 944.24575021642 3436.37824765116 221 221 223
-130.6632138177 944.584074977066 3434.58005328346 223 223 225
-121.589521128618 944.679207080358 3432.0083002226 224 224 226
-113.154599978172 944.532097152217 3428.66850227696 225 225 227
-107.994289388285 943.187242775561 3421.55775303633 226 226 228
-97.5665031635731 943.75327823316 3420.45614422739 228 228 230
-84.4681353423686 945.269456328139 3422.32704840911 232 232 234
-72.6556899751878 946.303057343816 3422.66911317098 232 232 234
-58.1482489714888 948.283431038241 3425.96223672203 228 228 230
-43.5914273282454 950.256577902395 3429.21292264071 227 227 229
-29.65521293115 951.984834667086 3431.6795216761 227 227 229
-20.3759254680427 952.046252704925 3428.9301062154 228 228 230
-11.0804394706792 952.104748430819 3426.16635432662 228 228 230
-1.09283372705482 952.396804550114 3424.12446477074 228 228 230
14.3384349729447 954.576322521681 3427.93915957588 228 228 230
27.103162070742 955.803596743268 3428.77785339735 228 228 230
37.1767369166256 956.082061340605 3426.66185491666 228 228 230
41.1140714874296 954.237387215266 3417.96750453852 230 230 232
54.640275291276 955.687563927891 3419.4680155863 232 232 234
65.4547814322566 956.191757783978 3418.03162346056 232 232 234
80.4348649076974 958.099938476732 3420.91587411772 232 232 234
82.311266489782 955.547235711675 3410.0426138672 230 230 230
-254.009609811193 952.37229084578 3541.43834049246 167 169 156
-245.097466051238 952.490137166233 3539.00646050659 218 219 213
-246.64369791377 948.493759449227 3523.16887847903 211 211 209
-246.388073684941 945.228585156358 3509.73492292285 229 229 231
-243.07149405497 943.174597715237 3500.25701416095 204 203 208
-237.285872860341 942.086793473582 3493.92588092349 215 216 220
-235.250156592015 939.554376220655 3482.91440545728 216 216 218
-231.363478699779 937.746489389418 3474.26403817355 209 209 211
-223.721927716648 937.381550631097 3470.29003333342 217 217 219
-211.658259670059 938.694412070493 3471.7354901137 224 224 226
-202.720105993587 938.803388037525 3469.28143939122 215 215 217
-196.303905589679 937.95182484304 3463.72580602425 213 213 215
-189.250805548885 937.338683512148 3458.93986474137 218 218 220
-182.19334043003 936.724415354052 3454.15014739031 218 218 220
-174.490656315517 936.3475307619 3450.12323367711 219 219 221
-166.779694511309 935.968670797567 3446.08884268032 220 220 222
-157.125506057663 936.302357184506 3444.33598362188 220 220 222
-149.391599686041 935.919149631 3440.28173391627 220 220 222
-142.298110537801 935.296818405953 3435.46116100579 220 220 222
-134.549524901037 934.910376364022 3431.39420921301 220 220 222
-126.139418179797 934.759062574927 3428.07594606622 221 221 223
-117.716887179571 934.605476727688 3424.74692907325 224 224 226
-109.281955884874 934.449562166165 3421.40717938945 225 225 227
-98.8569054188098 934.999677013812 3420.30804492682 227 227 229
-89.7298334791508 935.074026291786 3417.69016082401 232 232 234
-77.9328104000712 936.087965569979 3418.04572004587 232 232 234
-62.1107501698912 938.508447322039 3422.84340120576 229 229 231
-44.2289292926539 941.625579760498 3429.82139759095 228 228 230
-29.6247681866459 943.558994750024 3433.03131015919 227 227 229
-18.329210631058 944.312717566981 3432.49961739944 226 226 228
-9.69933595081862 944.125040157338 3428.99110910029 226 226 228
-1.73298400490784 943.701006905777 3424.73565501182 225 225 227
9.63004007990476 944.443488001109 3424.14555943277 225 225 227
21.7015151860775 945.414717337585 3424.26351797917 225 225 227
32.4420307464597 945.914742480452 3422.89128316256 224 224 226
39.7876865523266 945.24651204559 3417.85213026107 226 226 228
49.8810109850143 945.507345393301 3415.71912835455 228 228 230
64.1222021343046 947.15823945785 3417.92189438877 230 230 232
78.4082984611354 948.802367440219 3420.0857833359 233 233 235
91.3552807562898 949.976231944197 3420.76685612304 231 231 231
78.6572058286765 942.581597758486 3394.76650746918 222 224 221
-255.261666966505 943.645145532539 3541.25683468055 198 199 191
-250.035578004568 942.315926127344 3534.0889716455 209 210 205
-250.361049786814 938.834638125774 3519.83681243949 215 215 215
-251.349320583327 935.119771354054 3504.83706217449 221 220 225
-248.04577917746 933.081111754457 3495.37003927243 217 216 221
-240.407285472594 932.712931667946 3491.39870528915 214 215 219
-237.129471839536 930.67644156741 3481.954283027 223 222 227
-231.367052300721 929.593259082098 3475.64322954952 212 212 214
-224.351615445064 928.984972561374 3470.89021635654 216 216 218
-214.180314756037 929.561752306694 3470.01052764454 225 225 227
-205.248638816939 929.660701357157 3467.56215638456 217 217 219
-198.203727348779 929.046566777707 3462.7833188682 214 214 216
-190.517846252737 928.667753041425 3458.77098143598 217 217 219
-184.100639354904 927.814796691276 3453.21448473223 218 218 220
-176.402119863042 927.432821458213 3449.19089812181 219 219 221
-168.695015302393 927.049113396041 3445.1601972653 220 220 222
-158.40080395145 927.60517074156 3444.17442725916 220 220 222
-152.609067871934 926.511572446865 3437.83803157678 219 219 221
-142.928369094405 926.826717105499 3436.06231521859 218 218 220
-135.830469348142 926.200236417624 3431.23763086004 219 219 221
-125.463827774264 926.74390448401 3430.18916325905 220 220 222
-118.34722538182 926.113647472905 3425.34829311547 223 223 225
-108.598341104388 926.416974495672 3423.51355451218 224 224 226
-100.1470135227 926.24998866799 3420.15966531918 225 225 227
-88.3779402679012 927.246410203505 3420.53924766095 229 229 231
-78.5652900344354 927.539113638773 3418.64930965265 230 230 232
-61.4152070755667 930.387096670869 3424.93969730361 227 227 229
-47.535468187669 932.063873623053 3427.45589479612 226 226 228
-30.9336385068666 934.66209551417 3432.89983085624 225 225 227
-20.9835934633076 934.933541018838 3430.89094557935 225 225 227
-9.66639034760952 935.664586358843 3430.34063878522 225 225 227
-3.72404906164592 934.541146242729 3423.87421704556 224 224 226
6.95656956064372 935.034326140009 3422.55394141553 224 224 226
18.3411844829617 935.754137127965 3421.9452791844 223 223 225
29.7543869148749 936.469379558741 3421.3118687355 223 223 225
37.0942255780928 935.799237649543 3416.27777014704 225 225 227
47.1809343740484 936.047367774074 3414.15058456786 227 227 229
61.4143231834312 937.669309619505 3416.36030078164 228 228 230
79.8314597147551 940.660332962996 3422.87513703781 232 232 234
94.858914058451 942.496019815775 3425.71879942261 230 230 232
107.159611789811 943.409528193203 3425.63814100086 222 224 221
-257.736810753754 934.447958794353 3539.49163063899 206 207 201
-253.12972682774 932.888148167972 3531.5385148832 204 204 202
-254.692337561163 928.964522128529 3515.71465757908 209 209 209
-253.836514737322 925.992178261852 3503.08185165036 223 222 227
-251.157489239102 923.731694345501 3492.83429568843 218 217 222
-245.392961963686 922.652262578416 3486.52170656796 203 204 208
-240.880144350904 921.101733427104 3478.65023467003 221 221 223
-232.62307363645 920.962944595125 3475.4645321691 221 221 223
-224.98139252081 920.587029142241 3471.4904856677 211 211 213
-216.701247608472 920.443853066763 3468.28449684668 226 226 228
-210.304896246609 919.595561834482 3462.74604615551 217 217 219
-202.005529533226 919.448621603372 3459.52373701327 216 216 218
-193.057201845461 919.533171244822 3457.0610263927 217 217 219
-185.369100536576 919.147748264296 3453.04649193744 217 217 219
-177.032051923815 918.993936769702 3449.7915670645 218 218 220
-169.967390238356 918.37181252936 3444.9956630981 219 219 221
-160.964814084037 918.446601114801 3442.48599663352 219 219 221
-155.178535294532 917.356432639325 3436.15430875523 220 220 222
-144.855952605873 917.890942867095 3435.14408791676 220 220 222
-137.111110900028 917.494127939545 3431.08076385288 220 220 222
-125.4419406868 918.484899879864 3431.54697236127 219 219 221
-118.977666047207 917.620274976523 3425.94975596642 221 221 223
-108.572533043474 918.141033037059 3424.86807491702 223 223 225
-100.778028520209 917.734894951283 3420.76176671848 226 226 228
-89.0100407563161 918.709723991169 3421.14242981414 227 227 229
-77.8720823210301 919.449278192339 3420.74742568977 228 228 230
-62.0504630775085 921.793584236159 3425.54598268914 226 226 228
-46.8384016607932 923.899918399352 3429.55114655891 225 225 227
-32.9111064527274 925.539808808635 3432.02636430505 224 224 226
-20.9523395867657 926.485471940586 3432.24186129129 223 223 225
-8.28749832673203 927.654873508389 3433.16750477495 223 223 225
1.03787903363761 927.675927235446 3430.37808759251 222 222 224
10.3795769342221 927.694064416628 3427.57454371052 222 222 224
18.3789768807157 927.253385958656 3423.29086910625 221 221 223
29.1120244739296 927.721778860368 3421.92531202293 222 222 224
38.502571392053 927.731241454529 3419.07948515312 221 221 223
48.594954127767 927.964833641526 3416.94747597261 222 222 224
60.7701966416676 928.875714370698 3416.97557112449 226 226 228
75.7365745648117 930.687886806325 3419.87232301236 230 230 232
94.2101223784313 933.624182740052 3426.33862021746 230 230 232
105.122476852206 934.064056422661 3424.8178362209 224 226 225
113.971872202425 933.822502046946 3421.11941059058 222 224 223
-262.656709272014 924.328426332447 3534.5580012205 204 205 199
-259.903544058353 922.07628307712 3524.24613165458 204 204 202
-258.405741383238 919.359223562198 3512.37850533621 207 207 207
-255.704969470406 917.11275880992 3502.11201013053 225 224 229
-251.788983788349 915.335479375413 3493.43604239521 223 222 227
-245.402108048641 914.491458548072 3487.90577689403 195 196 200
-239.014845783151 913.646846691175 3482.37518020695 212 212 214
-230.749710866378 913.498767435361 3479.18254837419 227 227 229
-223.72774506595 912.884129813356 3474.42360195255 212 212 214
-216.70119953533 912.268238881073 3469.66100974847 213 213 215
-211.566362105143 910.956338895979 3462.5721254657 211 211 213
-201.367071166419 911.495535661858 3461.66873564968 219 219 221
-193.687194642473 911.10651151478 3457.66166875965 215 215 217
-185.360754114539 910.946523083194 3454.41597832185 216 216 218
-177.662066496664 910.553625925096 3450.39231676491 217 217 219
-170.597115267224 909.928827699874 3445.59617916782 218 218 220
-160.9506174019 910.222527762347 3443.85024493109 219 219 221
-156.454164504623 908.675400195435 3435.99293487795 219 219 221
-146.782676759797 908.964477223466 3434.22537097178 220 220 222
-139.692376710604 908.333630242826 3429.40730183754 220 220 222
-128.030457512656 909.30358012183 3429.87992998899 219 219 221
-120.917184394205 908.668344024255 3425.04229322429 220 220 222
-111.830080349855 908.716755371287 3422.45921881142 221 221 223
-104.04382793314 908.306196884577 3418.3597761417 225 225 227
-91.6243300119355 909.488218026025 3419.49798574073 226 226 228
-79.8305584789354 910.437139609168 3419.85678451074 227 227 229
-62.0209125495852 913.425954331149 3426.89816901956 225 225 227
-48.1426169712726 915.043017287514 3429.4156889157 223 223 225
-34.2192038100291 916.653345442917 3431.89414742266 222 222 224
-23.6053534778238 917.124855406808 3430.63188269131 222 221 226
-11.6208656381458 918.044799197283 3430.82556855992 222 221 226
-0.953795123052714 918.507824422942 3429.5172309644 221 220 225
9.06058264457021 918.741179835339 3427.45251751505 221 220 225
17.0580633689434 918.295310200285 3423.17054000853 221 220 225
29.8318592730253 919.422708390431 3424.00170525595 219 218 223
39.9096071954603 919.645515715276 3421.88245048033 219 218 223
50.6929454804781 920.089229928185 3420.47346456526 222 221 226
61.5007221516506 920.529054124983 3419.04332222989 225 224 229
76.4691922495988 922.308164871549 3421.93815948238 227 226 231
94.9440271197477 925.198055350872 3428.40364185783 227 227 229
107.940345311057 926.291076748418 3429.04247731575 229 233 234
93.581600521961 915.538644450058 3388.62317253464 231 235 234
-272.520173993812 918.953419456751 3551.08173155683 201 207 195
-267.29235842356 917.641356713196 3543.91257634553 205 206 200
-265.740147098458 914.939966193093 3531.99769055904 214 215 210
-265.446790108311 911.779601497315 3518.53035149354 212 212 212
-263.34785618537 909.317241284585 3507.46362904238 207 207 209
-259.424864674115 907.550396737097 3498.78152148475 199 199 201
-251.800962580495 907.168371775593 3494.82292429056 216 216 218
-245.411587637523 906.324014376771 3489.29049482107 200 201 203
-238.398279757772 905.708925803392 3484.53905545266 192 192 194
-231.38052151438 905.092639031099 3479.78376655848 214 214 216
-226.241189836596 903.786923133088 3472.69126238958 213 213 215
-219.220694820156 903.169070071998 3467.93361158542 214 214 216
-213.45923782564 902.092207686463 3461.62366693811 206 206 208
-203.264929616232 902.615524703842 3460.72438322102 215 215 217
-196.860896647425 901.764881482169 3455.17928984595 210 210 212
-188.542788035444 901.597810716771 3451.94086687289 212 212 214
-180.212126261796 901.428450536405 3448.69157845886 215 215 217
-172.510909820327 901.029126625094 3444.66608223798 216 216 218
-160.93691228517 901.991633700002 3445.21496348443 218 218 220
-155.791078642018 900.679233213834 3438.11686714474 218 218 220
-146.764281425167 900.727501880764 3435.58606375154 219 219 221
-142.272541470357 899.187836036511 3427.73279022289 219 219 221
-133.226988711655 899.232201484328 3425.18575602036 218 218 220
-126.78221458183 898.370202744106 3419.60542440066 218 218 220
-117.055319357932 898.635648696839 3417.78998997073 218 218 220
-105.991040373431 899.348235539219 3417.45902122389 223 223 225
-94.8979718114442 900.056346383976 3417.10312851999 224 224 226
-79.1383582193443 902.333486360055 3421.955863284 225 225 227
-63.3212800544669 904.602288633561 3426.75884546576 223 223 225
-46.7800002076051 907.086938472037 3432.25631370597 223 223 225
-34.8582062137668 907.994762183781 3432.50410160984 220 219 224
-22.9034616645749 908.89751184335 3432.72367847582 220 219 224
-10.9161070470973 909.795069138714 3432.91470915727 220 219 224
1.10416397295587 910.68761686748 3433.07755798439 220 219 224
8.41871349984524 910.014892067317 3428.06539513659 220 219 224
15.7372607308601 909.340970142409 3423.04977509233 220 219 224
26.4648741233247 909.777337140226 3421.68913555479 218 217 222
39.2661439007065 910.875845500845 3422.49699092834 218 217 222
50.0488341046044 911.303477725458 3421.08867094016 222 221 226
61.5430535317656 911.948402392723 3420.38549581022 224 223 228
73.0657695793471 912.588830629164 3419.65765077204 226 225 230
94.9859557177715 916.538669856718 3429.74699025345 226 227 231
107.289657084943 917.386378030471 3429.66415485954 229 233 234
125.18887901996 919.991984557629 3435.30712295102 225 229 230
125.020740002582 916.865743498227 3422.23955794151 223 227 228
-272.195037844759 907.562862917781 3538.9637565851 200 201 196
-268.821875070783 905.571659280278 3529.43608282498 208 208 206
-269.14733640041 902.21056141765 3515.18313572422 214 214 214
-265.21124044024 900.453510105361 3506.48960660927 208 208 210
-261.908446189686 898.46980685958 3497.02287517504 190 190 192
-254.290648310292 898.082974661691 3493.06959987375 205 205 207
-247.285690275765 897.466854672404 3488.32540429993 212 213 215
-239.029420096392 897.304159294841 3485.14055056655 194 194 196
-232.011410302522 896.685143768139 3480.38506132692 200 200 202
-227.498790393742 895.157877076545 3472.51361004483 213 213 215
-219.850443003957 894.763996307511 3468.53390205971 217 217 219
-212.82524361008 894.142096189016 3463.77220002756 206 206 208
-202.627447544988 894.648736535863 3462.87031683866 211 211 213
-195.583198082056 894.023013306175 3458.09212820076 206 206 208
