ply
format ascii 1.0
comment KinectMotionCapture
element vertex 785
property float x
property float y
property float z
property uchar red
property uchar green
property uchar blue
end_header
-107.25738697513 445.998936786785 3135.64915186968 26 31 25
-101.926800449599 445.090799966824 3129.71156479944 24 27 20
-92.3377930193183 444.705265880641 3128.01954553058 23 24 18
-91.2797323749355 443.275385603672 3117.848294868 29 30 22
-86.6777385423991 442.281698264452 3111.21949877113 34 34 26
-86.3849337641351 440.771572016473 3100.38846648546 28 25 16
-77.5006045156763 440.296937433729 3097.9845336275 32 30 18
-70.7626984115577 439.562896466987 3093.47288120455 45 41 30
-64.7443389741338 438.742693346961 3088.26186768939 74 70 58
-60.1765235483467 437.752089514339 3081.66235975213 82 76 62
-51.982762630101 437.186454239995 3078.5342961028 83 72 54
-38.6742965749685 437.210690108768 3080.23276841607 93 81 65
-30.4429478196324 436.639364018799 3077.07216291388 72 63 48
-20.0006735333575 436.318091184772 3075.96374656105 68 60 47
-8.79938555960358 436.076954532927 3075.52020735049 67 61 49
3.90433245074018 435.998572276402 3076.4202406275 42 38 29
21.0797179508244 436.413715196772 3081.38120164894 39 35 26
82.6611460423061 438.677513235555 3104.74650474865 33 34 29
110.116153613312 438.606083459153 3107.41783621389 24 26 21
87.0760988968873 434.570721373265 3075.80266888263 20 22 17
89.4989055686892 433.316867622084 3067.09424038363 16 18 13
84.3432486795379 431.25681723198 3051.72569205955 43 45 40
-221.327129756561 453.736107031437 3237.11419832835 190 192 189
-217.954316636585 452.560652590501 3228.90511793574 188 190 189
-214.59823953584 451.387100443824 3220.71021541282 173 177 178
-212.605127521387 450.036757404288 3211.05158309943 171 175 176
-210.637033023392 448.689401997672 3201.41429949402 164 168 169
-205.984143689562 447.70027654638 3194.74104536277 166 170 171
-200.660099219449 446.800506526371 3188.80907431003 147 148 152
-192.614277142387 446.253896106755 3185.80911129042 152 153 157
-181.138461800744 446.145176785719 3186.45003214683 164 165 167
-166.201657996367 446.470076817543 3190.70531542079 144 146 145
-147.773045003762 447.224535357805 3198.54827399603 134 136 133
-132.029911768638 447.62011535132 3203.42748543336 0 1 0
-130.757796181784 446.183865286163 3193.07074693441 25 28 21
-116.331235391784 446.396002909102 3196.44543048767 25 28 21
-115.774306456703 444.875421164528 3185.38585556618 16 19 12
-108.96887330274 444.133072494461 3180.81541334318 12 14 9
-108.460111758824 442.618378663527 3169.79754867715 19 21 16
-139.579587203664 437.26251914393 3126.66674829812 19 21 16
-121.62610137285 437.898078845338 3133.59871074523 20 22 17
-118.43374865657 436.74117820719 3125.54592164198 21 24 17
-98.9682144773219 437.532365835876 3133.8128507069 19 20 14
-88.6592441780691 437.216379325911 3132.81993945566 18 19 13
-80.4633766987162 436.644621456058 3129.69008964867 19 20 12
-85.8301482120467 434.479186231115 3113.18194398206 25 25 15
-84.0983419003005 433.157453892842 3103.74929380283 23 21 9
-73.0505025317085 432.92074549772 3103.43904083164 25 23 11
-67.739592652706 432.016344258861 3097.5181684987 32 28 17
-60.2653667338471 431.360285595499 3093.69107677044 43 39 27
-57.1318557914715 430.208644333322 3085.68925386679 47 41 27
-48.9281842253053 429.633739459295 3082.55266036991 45 36 21
-37.7976453925535 429.384194792758 3082.17049646705 50 41 26
-25.9082917953939 429.212088276861 3082.45339960355 45 37 24
-16.9185282420892 428.710319283866 3079.95825887544 40 34 22
-6.44302993787083 428.36807348083 3078.82118197739 40 34 22
0.371016505024802 427.618815773642 3074.243319078 30 26 17
15.318378258967 427.753442598338 3077.16742350059 28 25 18
38.4665752940307 428.762629140117 3087.5347181723 30 29 24
69.8832700626468 430.637173365002 3105.28661724292 35 34 30
73.8650804010601 429.548276485052 3097.87271256074 39 40 35
66.6240488703096 427.271419379813 3080.34294018023 21 21 19
59.3085090098584 425.004588677639 3062.87799738874 36 38 33
107.520940823738 428.573977338195 3095.1753925884 26 28 23
83.6317321738447 424.580337606122 3062.97237074693 24 26 21
75.443211296077 422.250695117966 3044.94121813193 42 44 39
103.537350381616 423.670312103719 3058.95890819461 42 44 39
172.007665957401 429.186920222422 3108.09275612339 41 43 38
-219.914857156868 446.006178425072 3239.91031916169 191 193 190
-217.203925446362 444.753549120054 3230.95183888783 186 188 187
-213.171518519422 443.677249186989 3223.49368318232 173 177 178
-211.170938178781 442.342391791731 3213.82816194198 171 175 176
-207.844827189238 441.183257731035 3205.65945420804 161 165 166
-203.180834750785 440.19822861863 3198.97686558538 163 167 168
-198.525452026175 439.214022390201 3192.30141846603 156 157 161
-190.471744107518 438.658235396114 3189.29467996848 150 151 155
-178.989050655445 438.526671450709 3189.92978735309 148 149 151
-162.6753842135 438.985153820105 3195.63766592848 148 150 149
-146.987945459137 439.350311355276 3200.56534691249 149 151 148
-149.861572016659 437.428392653077 3185.86482303363 19 21 16
-119.590892148127 439.551660577874 3205.93197906034 13 16 9
-114.149215662874 438.636527965998 3199.89815166183 16 19 12
-110.103612848723 437.554528378614 3192.42859554046 13 16 9
-116.537773594946 435.224553189759 3174.19982345487 18 20 15
-110.44897051198 434.398636146353 3168.92779092642 24 26 21
-112.783611489995 432.579613205934 3155.08270297718 15 17 12
-134.174926019425 428.540774596424 3122.03885130339 17 19 14
-115.484132893439 429.207532287973 3129.65482172391 16 19 12
-99.5521716236665 429.536361066234 3134.37080166581 18 19 13
-84.9833021526973 429.693978204915 3137.62280997699 18 19 13
-83.1851811742794 428.380532444634 3128.13262879527 17 18 10
-85.6975962176665 426.583870847948 3114.44179462929 22 22 12
-78.2320000650092 425.924640367083 3110.6218876702 22 20 8
-67.8852728228412 425.586067338877 3109.59639748058 22 20 8
-58.9554232131553 425.083458979169 3107.1531917601 25 21 10
-52.8996315017953 424.258678916076 3101.90976400633 26 22 10
-49.742506490984 423.11507119727 3093.88742188321 25 21 9
-43.6963261598806 422.291031566193 3088.65231986017 33 25 12
-34.0078098440619 421.86231806914 3086.87433246708 33 25 14
-22.1073284965065 421.667086308006 3087.14805614734 34 28 16
-13.1057697740853 421.153054131655 3084.64277158791 27 23 12
-7.02765575526199 420.323546162247 3079.38002692486 26 22 11
-0.95036504884316 419.493924496421 3074.11799659301 30 27 20
12.5149976886991 419.441097167504 3075.68098028349 28 28 20
55.6579738854555 422.479273096527 3104.43550089942 30 31 25
40.3093408956985 419.395330456682 3079.38160744337 34 35 30
41.231489040471 418.018375674957 3069.32749855815 37 37 35
30.9179168205747 415.496568111716 3049.16935143079 37 37 35
30.251872115707 413.978806218351 3037.84617706467 32 34 29
64.1029197148102 415.96279447723 3057.45752396439 27 29 24
76.2608297494936 415.729510837081 3057.50837152547 20 22 17
147.627046330997 419.910056104594 3098.84722116713 47 49 44
146.338449858716 418.297508410244 3086.74098813745 42 44 39
139.677719719589 416.168144897987 3070.03086830491 49 51 46
-215.170274559962 438.682680872601 3246.43219333195 190 192 191
-217.123179790827 436.850156948934 3232.25632877603 178 182 183
-214.429477441395 435.613374476523 3223.31299463369 169 173 174
-212.429519404379 434.295099528139 3213.64790531159 169 173 174
-205.729655540689 433.56535110729 3209.16888213719 161 165 168
-198.348725342638 432.918113833903 3205.4225960008 160 164 167
-192.997036440037 432.020250196535 3199.46665217135 145 146 150
-184.925175662524 431.453844067077 3196.4442487508 145 146 148
-176.158064011536 430.96803160651 3194.14198503083 144 145 147
-161.892812596077 431.137665087531 3197.6567566451 137 139 136
-148.952852979023 431.136453212675 3199.67510714892 77 79 76
-148.38099707291 429.658948292396 3188.60199983336 35 37 32
-136.779371140923 429.488243721626 3189.13459330772 43 46 39
-109.888689263507 431.097696883699 3205.51770923223 36 39 32
-118.347639225068 428.566695345937 3185.07509926639 24 27 20
-118.522015996494 427.014032510493 3173.32632030138 28 30 25
-112.437099899675 426.188818591901 3168.05765220726 32 34 29
-116.176697835511 424.243095927859 3152.78427471429 27 29 24
-100.972531422724 424.457895667235 3156.80853865793 25 28 21
-98.4201594525134 423.234936273631 3147.98761106142 22 25 18
-93.7653909701952 422.252070375745 3141.31268764257 20 21 15
-87.6994458717322 421.427914155878 3136.06045554072 20 21 15
-76.6501921097014 421.153863659001 3135.7489031288 20 21 13
-82.7097248922697 418.995562101893 3118.5178914568 19 19 9
-75.9500789136944 418.251624400691 3113.98714492147 20 20 10
-66.3142138554007 417.818061462052 3112.25513920315 20 20 10
-58.819212613928 417.149002108612 3108.40980948797 22 20 8
-50.5943388207086 416.555866124043 3105.25495739685 22 20 8
-43.8063103953139 415.806990475371 3100.69995828554 21 19 7
-40.6470306885267 414.673999609942 3092.67536429964 25 19 7
-34.5910407876397 413.848683823907 3087.43176823939 25 18 8
-23.422313047802 413.555885876505 3087.01710043325 35 31 20
-12.9584303483168 413.18317300894 3085.88997311184 33 29 20
-7.61257129547843 412.278159568499 3079.93912855363 32 28 19
-2.27163957237719 411.37355518277 3073.99255203853 30 27 20
11.9285313520754 411.3691503031 3076.24159815447 29 28 23
32.0990023901597 411.956043123903 3083.89917245347 32 33 27
21.8920708885615 409.480845963061 3063.64797843299 35 36 31
-1.06823389740107 405.75742549821 3031.96166758094 38 40 35
4.93940004797055 404.936361178796 3026.75995581586 38 40 35
55.1338771446726 408.456474279578 3061.3098585611 36 38 33
42.4859979943655 405.78610309676 3039.20580372283 36 38 33
59.8562639965774 406.050482842894 3043.9988317573 24 26 21
98.4298309908671 408.34305322981 3067.45519798662 48 50 45
144.750177916197 411.336008632612 3097.42616834212 62 64 59
170.029420677447 412.278128864634 3108.5936809318 51 53 48
162.676668134966 410.114493029094 3091.16032300411 50 52 47
-218.427321993416 430.330478020215 3244.01595689702 188 192 193
-219.048568173521 428.695219595104 3231.33145454758 181 185 188
-215.016540409662 427.635499307894 3223.87352003983 166 170 173
-211.669653052317 426.495994633653 3215.6866774822 165 169 172
-204.290923771849 425.843896325144 3211.94201494698 158 161 166
-197.580762398349 425.109774039755 3207.45441040628 158 161 166
-190.866858229871 424.374841050399 3202.96325159117 157 158 162
-183.468013929695 423.719157726009 3199.20149338918 151 152 154
-175.378400263691 423.141894641223 3196.16345774256 142 143 145
-160.426011237245 423.357948686575 3200.40593806904 127 129 126
-147.481813139002 423.328760860244 3202.42048070088 27 29 26
-134.496787787613 423.293760363634 3204.39967455115 31 33 28
-123.544494578318 423.016890109126 3204.17249512044 56 59 52
-120.190200624788 421.873266671203 3195.97894417652 21 24 17
-131.454699908613 419.090867455699 3172.6765902274 20 23 16
-123.992909615026 418.424229569417 3168.86002994334 31 34 27
-117.222563426864 417.678693393102 3164.32033502275 24 26 21
-117.463863423418 416.159349769978 3152.62902940031 17 19 14
-86.7855738382515 418.033663138859 3172.34450866599 23 26 19
-84.8945401584729 416.741854774093 3162.77365649543 21 24 17
-107.79752035602 412.777105491494 3128.39238692181 19 20 14
-86.8658639755604 413.558247128819 3138.03579304396 20 21 15
-80.7961576333538 412.733524490401 3132.78030460737 23 24 16
-81.1517085972788 411.227965262612 3121.18793508183 27 28 20
-74.3858436558313 410.4807197397 3116.65181978261 26 26 16
-65.4626467248636 409.957882459219 3114.21451126181 24 24 14
-60.1235760812662 409.058738804817 3108.26951242554 22 22 12
-51.1790934020264 408.532466021818 3105.81377704375 22 22 12
-45.8393716320353 407.632635817524 3099.86821830169 25 22 13
-41.9568649284545 406.585371355934 3092.53979835729 35 32 25
-38.8155962185399 405.465877254146 3084.53104320327 32 29 22
-26.9282461523837 405.229138918212 3084.81610168791 34 31 26
-16.4733874700076 404.841524202189 3083.69720788368 32 31 26
-10.4009836693391 404.013473927464 3078.43940302605 32 33 27
-10.2208508316415 402.604899436382 3067.70568501615 37 38 32
9.12624245930127 403.079594258171 3074.75406106545 35 38 31
51.5032897859271 405.775590131611 3102.85139622731 31 34 27
33.1878498113309 402.564177871724 3075.07609251789 30 33 26
-6.85861645932873 397.299796407779 3027.77174879704 28 33 26
0.628331759857215 396.623324955891 3023.93376246917 28 33 26
47.0573465481046 399.630586195489 3055.13371465177 29 31 26
55.4163450185103 399.007679691389 3051.86280479559 34 36 31
57.0109689116021 397.750234838097 3042.54863896507 31 33 28
90.2858682998931 399.437075818108 3061.33801887817 34 36 31
125.978253000132 401.312840653196 3082.00095127376 46 48 43
151.962526795762 402.263646620164 3093.88059271222 36 38 33
146.849541165431 400.363292401739 3078.47434035199 53 55 50
-221.016571329471 422.078405835977 3242.34352787022 177 181 182
-217.631360683664 420.94537299542 3234.12342720333 168 172 175
-212.921929577732 419.971719097427 3227.40106602978 179 180 184
-208.893315848174 418.920498301928 3219.94603551135 182 183 187
-202.853507972053 418.105206862115 3214.71640003561 150 151 156
-196.8138738685 417.289669336744 3209.48691676943 166 167 172
-189.417026225334 416.629164580576 3205.72692038483 146 147 151
-181.331488277414 416.044627487207 3202.69277995817 144 145 147
-173.916777795911 415.381051142464 3198.91700560064 153 155 154
-158.960581883405 415.561005151182 3203.15642029128 155 157 154
-142.577316310183 415.886569328165 3208.80483611107 18 20 15
-124.065884080925 416.432242884795 3216.57704969605 26 29 22
-113.772992515403 416.055990388197 3215.59846498638 18 21 14
-122.862268009602 413.556726455423 3194.37871428389 16 19 10
-128.566665837187 411.446565927415 3176.83958242616 21 24 15
-116.911360102542 411.224076904753 3177.3259852506 26 29 22
-108.719969767889 410.622604604317 3174.20020849611 26 29 22
-107.529813162159 409.273447517068 3163.91394242741 26 29 22
-97.225292386157 408.893855029802 3162.92498439338 18 21 14
-102.012776862129 405.469329309741 3135.33619076457 17 18 12
-102.352803817446 403.9871909494 3123.73021425496 19 20 14
-90.6332278032407 403.754010421229 3124.16098099916 26 27 19
-81.7360441277355 403.224525679067 3121.74626217763 27 28 20
-75.6858142332333 402.402141503978 3116.50763952504 26 26 16
-73.2250989890462 401.217838407387 3107.76558810092 25 25 15
-67.186416039636 400.396500244383 3102.53696682251 25 25 15
-56.817191098371 400.005685955444 3101.49231559308 30 30 20
-45.7001243060535 399.682873301175 3101.1223031703 33 33 25
-41.8147799500548 398.643700581942 3093.79137129586 42 39 34
-42.3104760046518 397.180392709058 3082.32051228088 38 35 30
-31.8927690060291 396.781971317099 3081.23388920389 34 33 28
-17.0585464536197 396.80235364056 3084.25648023356 34 35 29
-12.4542260488631 395.834388491492 3077.62550093248 33 34 28
-4.91413521491868 395.146710701524 3073.74121109471 32 35 28
-27.636616069648 391.606283427966 3041.84758389255 30 33 26
36.3106361846621 394.800880225385 3079.03670306917 26 31 24
-20.8354107742528 388.123629911351 3016.12512734529 29 34 27
29.9112682360754 391.415919140593 3051.52115401978 31 36 29
12.0365835771872 388.404921247229 3024.68579401748 24 26 21
23.3031863501192 388.058571816232 3024.18632590419 32 34 29
48.897982099803 388.992361421039 3036.40365223114 39 41 36
83.6549429440336 390.719208391099 3056.55505422553 29 31 26
152.333606284474 392.581040305728 3084.35825118079 38 40 35
170.827451675921 392.779720734932 3089.50143469017 46 48 43
-220.940187441768 414.148188175624 3243.65197208923 180 184 185
-214.879154335641 413.330981509216 3238.40395235442 153 157 160
-209.488442153698 412.437474278407 3232.41415741647 136 137 141
-206.118928548902 411.31697557596 3224.20758071772 149 150 154
-201.417404385197 410.34937204162 3217.4920335687 177 178 183
-196.047754282618 409.457862866464 3211.52048094455 178 179 184
-188.647129059709 408.791377539502 3207.75693363721 173 174 176
-179.877203466163 408.272839842028 3205.45275854527 172 173 175
-170.408671254601 407.826187344852 3203.86555552774 154 156 155
-154.75789805897 408.043288489063 3208.82597527853 16 18 15
-138.362990533468 408.326187941408 3214.4645770683 6 8 3
-126.72825238058 408.085755916943 3214.96860731339 11 14 7
-130.25905851694 406.229104437481 3199.51400079222 16 19 10
-139.39103475123 403.796210855212 3178.33083027451 14 17 8
-125.680652331396 403.774277463967 3181.00482279068 20 23 14
-108.440516335299 404.108095888886 3187.23376559948 25 28 21
-108.611478616004 402.629344618821 3175.481232711 22 25 18
-114.428772344267 400.580515276117 3158.03955436078 19 22 15
-122.425986440719 398.326204509117 3138.5185247456 19 22 15
-110.054570175209 398.150576492368 3139.70689053141 20 23 16
-108.255632255371 396.904429824858 3130.21588069025 25 28 21
-105.77278485359 395.732162614713 3121.45456853677 25 28 21
-93.3514576848893 395.5489968116 3122.60003910665 24 25 19
-83.0340336108346 395.150097251545 3121.60033794355 28 29 21
-82.7097951356413 393.768954569056 3110.74122512617 24 25 17
-80.266177445794 392.601019530006 3102.01420221439 24 25 17
-69.9280678850651 392.198525760883 3100.99659548703 24 25 17
-58.8443818911633 391.861554006695 3100.65560715341 23 24 16
-47.0089421166948 391.58930229782 3100.98588828129 22 23 17
-38.0443837683786 391.038422526828 3098.5129120494 24 23 19
-24.6971550675079 390.8945178414 3100.17887693928 23 24 19
-25.9072599927892 389.385871989015 3088.00393917794 24 25 20
-17.6439886021531 388.76241274986 3084.8160030044 25 26 21
-8.63529658601392 388.204511480038 3082.30482003572 25 27 22
-6.23519799509475 387.040266350081 3073.61549278056 31 34 27
7.21485916579478 386.881166161688 3075.19243101525 31 34 27
16.2642425948891 386.316991426017 3072.64601998855 29 34 27
23.844852022914 385.617965373094 3068.72700027874 29 34 27
35.1539895742179 385.247667351476 3068.1908209316 32 37 30
35.2963483004314 383.887665064018 3057.48921283996 34 39 32
39.1470213493674 382.859232282239 3050.18857775138 34 36 31
24.9744911170153 380.268741508239 3026.75832241194 30 32 27
40.7885877947716 380.288126323344 3030.25520416483 30 32 27
79.2901550186005 382.237858106869 3053.7761967859 28 30 25
99.0533611784055 382.555703234979 3060.46524475753 40 42 37
154.7715331297 384.499566257399 3087.59093950814 47 49 44
193.863484216966 386.367798938656 3110.60075332989 57 59 54
-214.204772365729 406.950394077695 3252.41791927065 183 185 184
-210.124886542285 405.909335950767 3244.91838353115 173 173 175
-208.737631983054 404.576483940125 3234.46117992425 156 156 158
-205.363143026826 403.466327029923 3226.24990838166 151 151 153
-201.331012314305 402.430876721088 3218.79172737454 147 146 151
-194.606374933292 401.686810125969 3214.29164039717 133 131 136
-186.521367668352 401.086324949548 3211.2580632765 141 142 144
-177.063650310838 400.627774288819 3209.6803109821 127 129 128
-168.26796927511 400.094547156121 3207.35359239772 127 129 128
-153.29595032416 400.20119553727 3211.57976771447 0 2 0
-138.270748193617 400.300367256852 3215.75989570678 27 29 24
-135.586612792177 399.117468210084 3206.8245044162 16 19 12
-132.923546836207 397.937144875895 3197.90704256781 14 17 8
-128.203204445205 396.970128368629 3191.17549669367 13 16 7
-127.660153086559 395.584131041033 3180.12676234329 20 23 14
-115.304677940398 395.387286485662 3181.32939786678 22 25 18
-105.708199654454 394.907503518713 3179.63151407388 17 20 13
-108.006950278011 393.249389375468 3165.7545914842 13 16 9
-118.791268089791 390.771387209794 3143.35733536498 19 22 15
-116.279415227869 389.609661329424 3134.57081482853 23 26 19
-102.475299199994 389.543402709909 3137.16353677313 26 29 22
-97.8451474330506 388.586526123527 3130.51009664778 24 27 20
-87.5343160385236 388.172509830198 3129.51620755381 21 24 17
-82.9054916980065 387.215250837997 3122.86360492182 23 24 18
-77.5701068347621 386.326140426049 3116.92173566821 22 23 17
-75.8263328277242 385.102866173084 3107.47807464645 23 24 18
-64.0361085781351 384.815593831747 3107.84764302907 25 26 20
-52.9350769022034 384.45736207809 3107.49175833468 25 26 20
-38.1883025352718 384.425405287738 3110.59079852159 24 25 19
-19.7651710597113 384.715518487838 3117.11794070912 21 22 16
-14.3701980752255 383.816841184634 3111.12448628264 21 22 16
-21.3848759133004 381.809650178127 3093.39677757747 23 24 18
-23.3519243523701 380.267061019382 3080.55486904892 24 25 19
-10.6891490311556 380.023906247431 3081.49145655627 24 27 20
12.3115572287036 380.677095009628 3091.98889365883 29 32 25
-3.70260789142662 377.919368345489 3066.18615054986 30 33 26
11.2369405082502 377.859257314312 3069.11797348074 32 35 28
22.5149553711521 377.474570947401 3068.60886252317 31 36 29
33.8210607228273 377.08589921557 3068.07574586739 33 38 31
42.9164414939089 376.504211461891 3065.48958077583 34 39 32
54.2717952795035 376.108316253614 3064.91351002761 35 37 32
55.1521208543795 374.834390892566 3054.89529814665 31 33 28
26.6647953802908 371.14029006259 3018.73580766911 30 32 27
71.9099838645438 373.535494753257 3048.31926905901 24 26 21
110.560123857501 375.34715242993 3071.71238304435 35 37 32
116.015611585065 374.436859863157 3065.66623806923 49 51 46
165.572604663595 377.067052970533 3098.12791608664 38 40 35
-208.139696755176 399.62075026284 3260.44215176638 183 183 181
-208.045211591932 398.159878851123 3248.45943017491 177 175 176
-207.31808435809 396.774333768617 3237.2511477164 162 160 163
-203.936251841254 395.674274057029 3229.03376132861 157 155 158
-197.875216255391 394.856333451068 3223.78574420048 149 147 150
-191.138222466233 394.107922893608 3219.274975629 153 148 152
-182.363215275794 393.56716454582 3216.9662246119 134 134 136
-174.252079588968 392.954701693586 3213.91007866445 152 154 153
-164.082229383637 392.547155340166 3213.03834110929 160 162 161
-152.519569936546 392.273297248763 3213.60506116128 6 8 3
-139.551598328282 392.131570629922 3215.59972769164 20 22 17
-129.98457309451 391.643574539329 3213.92774065183 15 18 11
-117.635815547735 391.423822674713 3215.13603148726 13 16 7
-103.172766545744 391.401464989483 3218.48092444391 17 20 11
-103.940778131838 389.892584040561 3205.92281001807 19 22 13
-121.468753637713 386.781594989539 3176.14107093154 13 16 7
-110.492133361437 386.423993555349 3175.89301398466 15 18 11
-98.7865154938326 386.128727135239 3176.33596556152 18 21 14
-124.295331554293 382.323340350633 3138.91887592178 22 23 17
-106.290251614744 382.62632796206 3145.80859048858 23 24 18
-76.9058034867713 383.968998764794 3164.00209645183 19 22 15
-84.9599759974451 381.831920424645 3144.52967507255 17 20 13
-90.2530214995156 379.965958312465 3127.9556878287 17 20 13
-89.9080943806298 378.626704543157 3117.07837197898 19 22 15
-72.4340119094622 378.839008126673 3123.10533238793 20 23 16
-67.8038187918983 377.886804839223 3116.45151062658 20 23 16
-81.8819364962318 375.273964629376 3091.61662402114 17 20 13
-67.2249795096391 375.221825034815 3094.79364294511 16 19 12
-33.7131260177177 376.809907727715 3116.02480791974 15 18 11
-23.2578643550352 376.358370139603 3114.9059790598 20 22 11
-22.9627241041945 375.024256456298 3104.07209748314 22 23 15
-32.9141234331622 372.819332261705 3083.59767316809 25 26 18
-29.7888630673366 371.746758941157 3075.60248897347 27 28 20
-15.6770073811123 371.605610129907 3077.92896718491 30 31 23
8.04264064640359 372.259966975896 3089.12652491826 24 25 19
18.5814669806508 371.795693424434 3087.93535008314 26 27 21
16.5683501849707 370.288996930514 3075.13313806981 27 30 23
16.734464213803 368.970874796305 3064.41066901908 26 28 23
28.0248053081626 368.565469663032 3063.89100873177 25 27 22
45.3103168381572 368.638271496735 3068.75905345626 25 27 22
52.184919220176 367.862638261974 3064.12887546185 32 34 29
59.0628934028179 367.086408451552 3059.49609438532 28 30 25
66.6958174035748 366.368936546643 3055.53153577163 33 35 30
82.6313319364096 366.301034665337 3058.92374592517 26 28 23
92.5700095255855 365.754768213345 3056.93001202344 39 41 36
121.818329000879 362.732606655155 3039.53922215612 40 42 37
-204.740975610345 391.962200403616 3265.48586632383 188 187 183
-206.634767935367 390.319751479127 3251.25785030975 151 149 150
-205.899661634951 388.955154983312 3240.04251636007 166 164 167
-200.495516110419 388.06793826868 3234.04103749854 172 170 173
-195.095645712664 387.181072718687 3228.0432617675 154 149 153
-187.672741263106 386.495612378302 3224.26052721216 158 153 157
-182.275333767507 385.608539535519 3218.26488751021 159 159 159
-172.802584853581 385.120708597958 3216.67461207534 150 152 151
-163.991625103242 384.563670205803 3214.33480517736 150 152 149
-151.744122712676 384.33381688426 3215.63123846679 0 1 0
-144.262839841387 383.639192109366 3211.79796462072 5 7 2
-129.203656284706 383.662343296095 3215.94913230449 14 17 10
-113.401152821099 383.743130953578 3220.77892529294 15 18 9
-103.079640986119 383.297433792482 3219.77598437014 17 20 11
-123.284969548345 380.008592832998 3187.02259689745 18 21 12
-124.147895283953 378.539966897292 3174.54648712315 13 16 7
-85.9387278954653 380.659501873094 3202.28991099192 17 20 13
-114.089789248278 376.701717794934 3161.87057885848 22 25 18
-109.422048963878 375.751868887534 3155.18419836158 23 24 18
-72.3501493137215 377.707501219195 3181.26755789395 21 22 16
-39.3377977429497 379.261292868691 3202.93219685768 17 20 13
-67.1215923222475 375.411384673384 3163.51710324408 16 19 12
-93.6816761689774 371.712689705548 3125.68723294435 18 21 14
-94.0558266815925 370.334535143432 3114.11047424365 19 22 15
-75.8801557100148 370.566707697881 3120.85247480166 20 23 16
-64.0879485472512 370.236020327918 3121.22060585263 19 22 15
-60.8916264616908 369.166423171158 3113.16381062561 15 18 11
-70.6917842238708 367.002544315297 3092.55803383349 14 17 10
-59.6121591027958 366.609144977866 3092.22124636931 14 17 10
-41.9781756928073 366.754857862395 3098.10973088356 20 22 11
-36.6420138311758 365.870298960751 3092.16715868361 22 24 13
-34.2277827531814 364.746984171715 3083.46531706429 25 26 18
-25.9843729479474 364.102492544575 3080.29441641828 27 28 20
-7.46160697776777 364.285458211713 3086.73621163952 29 30 22
21.4262053858443 365.284244607091 3102.71556079359 27 28 22
27.577993233364 364.446626428533 3097.38901292938 28 29 23
21.8960754582609 362.674565393092 3081.1514667811 28 31 24
11.6981598935482 360.562703366368 3060.89041941617 27 29 24
26.6931429952741 360.429476644363 3063.77466888971 25 27 22
33.5337701545519 359.656337859724 3059.17392227798 25 27 22
38.8821506426846 358.768022469632 3053.22078409739 31 33 28
45.7250804798015 357.994184319772 3048.61804620391 25 27 22
118.225674237779 360.84690487882 3091.62944747908 20 22 17
127.505813509128 360.217878104319 3088.8834523123 30 32 27
139.075407704617 359.754189833137 3088.12213100079 20 22 17
143.832252490344 358.786180037459 3081.35895362562 30 32 27
168.394580251808 359.257509113351 3091.82731656829 23 25 20
158.667099608356 357.238603868946 3072.48086934451 49 51 46
111.308551347268 352.54813044253 3020.92373297365 99 101 96
-207.227810627687 382.266221939249 3251.82404879988 147 142 138
-200.46580175917 381.509794159689 3247.29133519892 170 162 159
-195.714191418745 380.557984841599 3240.53258972614 182 172 170
-189.623952360306 379.736231132197 3235.25928560762 167 155 155
-184.885200551342 378.785607291172 3228.51136189148 157 145 147
-179.47710775958 377.89992506502 3222.50645184803 153 147 147
-169.995026381061 377.397176037948 3220.90786878739 153 149 148
-161.856137970747 376.764447101111 3217.82779988166 159 158 154
-147.550428118862 376.698706252352 3221.30934545918 26 27 21
-142.798576165495 375.74507555702 3214.55008686151 12 13 7
-133.927421195311 375.168282723247 3212.15823461208 24 27 18
-129.870334326868 374.152467821116 3204.67829596966 18 21 12
-127.902099422884 372.951851794829 3195.04025530733 12 15 6
-132.900572642337 371.136213132729 3178.21062558064 16 19 10
-131.699426580085 369.883145624012 3167.91421189211 21 24 15
-131.924125899648 368.511281791893 3156.2075621935 20 23 16
-122.381912280077 367.997979332008 3154.55692874462 17 20 13
-88.2363401995403 369.606282632326 3177.88584877958 16 17 11
-58.8579276425345 370.769149560662 3196.08575112271 13 14 8
-44.8870732848188 370.590292378338 3198.53468460499 15 18 11
-81.8865534029221 366.094877430639 3149.90768641301 17 20 13
-82.1861688501073 364.731807367657 3138.26622774405 18 21 14
-91.0754383837378 362.66192629641 3118.19360314686 17 20 13
-79.3249524817794 362.315440539013 3118.59831340101 18 21 14
-67.5423646075877 361.964354847478 3118.97491401677 17 20 13
-60.7592568559401 361.199366520045 3114.42396872798 17 19 14
-71.2736456310319 359.037113659263 3093.1139702189 19 21 16
-68.1475445342348 357.987917467055 3085.11790584815 21 24 17
-59.2388422239512 357.401891015774 3082.69356980351 26 28 15
-42.3169165904711 357.444413134893 3087.87694370675 26 28 15
-34.0832368077848 356.793558688326 3084.71483316511 26 28 17
-18.526633899048 356.708879290125 3088.4355683618 26 28 17
-9.51618531591025 356.108177364232 3085.92314026269 26 27 19
9.06811449222378 356.236242538042 3092.31164213849 27 28 20
22.5602370499587 355.963008510587 3093.85286037183 28 29 21
23.5236407438681 354.737601406893 3083.76232729937 27 28 22
27.4229752216835 353.737581615973 3076.41901597154 25 26 21
23.1311638439626 352.13289174695 3061.62236732956 26 27 22
24.744962976289 350.974641084025 3052.29093884912 27 28 23
41.2845317037447 350.910908074328 3056.48282737742 33 35 30
46.6364661592009 350.025048488499 3050.52659293193 24 26 21
67.7682456488604 350.273747505584 3058.67641901849 20 22 17
112.346331735391 352.176548270226 3087.51801195282 17 19 14
136.726741748467 352.607864105734 3098.14430883378 24 26 21
157.415613015106 352.759892053198 3105.35538495623 25 27 22
182.740324010213 353.218588995716 3116.4863056754 32 34 29
151.950563794156 348.495286020706 3067.77227127271 22 24 19
-205.819342117575 374.400130420003 3254.62434911347 141 128 119
-201.058942354764 373.452864292805 3247.85764057954 94 78 65
-194.292969923283 372.692953340275 3243.32151418714 95 77 67
-191.563113655922 371.561058346294 3234.34616447111 120 99 94
-185.476987835842 370.739663942861 3229.07642311581 138 114 112
-182.100968071224 369.672830376919 3220.86385954306 108 90 88
-170.587238566284 369.340480457667 3221.47336796319 90 76 73
-163.130310895522 368.638932267411 3217.6615640216 31 20 16
-145.410653297055 368.843346322262 3224.79898763706 21 18 11
-142.021324285087 367.773732258034 3216.57490647894 12 12 4
-145.526669647353 366.106867445401 3201.09668685451 31 34 23
-141.501565380468 365.103795892474 3193.64470161809 50 51 43
-131.954305317913 364.5771928098 3191.98978042404 25 26 18
-104.344283934993 365.584062966295 3209.07658456776 26 27 19
-124.63117444511 362.515193845294 3176.39246434402 25 28 19
-119.24668277924 361.63324396552 3170.40798605902 20 26 16
-114.567000314683 360.693389732439 3163.71119007958 15 18 11
-99.3633399225522 360.62423247753 3167.73773265791 17 20 13
-90.4448614342046 360.028340702564 3165.30498717588 19 22 15
-91.3984282688487 358.626148469118 3152.90700880813 20 23 16
-88.8518725226715 357.515121089877 3144.09039701981 19 22 15
-89.8785386505811 356.122383988605 3131.75571516756 16 19 12
-78.1228187616874 355.753672029839 3132.15571745059 16 19 12
-75.6235038340898 354.648325698341 3123.37969865161 16 19 12
-53.7979354601124 355.058489480781 3133.57398393552 16 19 12
-60.6274066434707 353.226218765978 3115.68493199052 18 21 14
-72.576407493429 351.015548676999 3092.97183982107 21 24 17
-62.2240798452491 350.52972488612 3091.94244974686 23 26 19
-54.0222359346791 349.87568702464 3088.80795312851 24 27 16
-47.2625317142663 349.110586689767 3084.27729324728 24 27 16
-14.2593433292415 350.301616672827 3104.62864859316 27 30 19
-33.0020224353684 347.632519602731 3075.89687330794 28 31 20
-34.2931431948426 346.273420762661 3063.79118581381 26 29 20
-5.48911234176774 347.114057189376 3079.84417623028 27 28 22
26.3899021856142 348.150252806384 3098.52437505289 29 30 24
34.0196014245606 347.419164131467 3094.56301520603 26 27 21
33.503185238787 346.107396695222 3083.10881757487 23 24 18
31.4625826891937 344.695817990424 3070.32981208678 26 27 22
29.3757526009459 343.290307877432 3057.5905188306 29 30 25
66.8532906861761 344.638502397779 3080.67971141875 27 28 20
70.7785283218474 343.642869221026 3073.31392046755 22 25 18
83.7080980986053 343.264254019202 3074.02014541743 18 21 12
107.97627996311 343.645602491974 3084.7440382585 25 28 21
122.519715302872 343.354129688963 3086.69774048733 31 34 27
140.137504930954 343.258211528386 3091.27856563753 28 31 24
165.412506279864 343.655549535188 3102.45328461413 23 26 19
165.652255268489 342.392652052941 3091.66663563985 22 27 20
155.929422573566 340.489322232186 3072.31572645323 33 38 32
-205.198182987098 367.822102257815 3268.68541008571 171 158 149
-203.745212154217 366.576981560709 3258.1706793212 149 133 120
-198.306837131697 365.693808659667 3252.13950631938 132 111 94
-193.54393960617 364.751521052728 3245.37060062379 133 110 94
-191.482071562423 363.573531096809 3235.65094262329 138 109 101
-186.744051727405 362.63419679964 3228.9038956916 148 119 115
-182.691879149401 361.637159279369 3221.42809476344 163 139 137
-171.858862811505 361.224818010172 3221.30485922723 156 137 133
-159.634441982266 360.924458040805 3222.62175502035 72 59 53
-143.272637396544 360.965511438142 3228.29029997351 13 9 0
-149.471269455134 359.100984496202 3209.85468610499 13 13 3
-142.680537625081 358.333247695172 3205.29715056358 23 26 15
-137.265196221267 357.45093103493 3199.28593607856 33 34 26
-124.245844083793 357.192154252811 3201.23682774537 25 25 17
-102.167038163433 357.660514023968 3212.53450670595 25 26 18
-88.3437016496531 357.442759986627 3215.11155125863 24 25 17
-89.1306041225324 356.04655377174 3202.56908010831 12 18 8
-93.4587596456202 354.378076421406 3186.48076920302 12 18 8
-98.5508938887443 352.662552153016 3169.73198562123 16 19 12
-95.2612333293001 351.615575835094 3161.59382848744 21 24 17
-91.9884455254456 350.570669420317 3153.47059767723 27 30 23
-86.6081667191057 349.691143364025 3147.48975512258 26 29 22
-82.6530745518874 348.70375132605 3140.09803477299 22 25 18
-77.9987084277516 347.771768002584 3133.42313037209 22 25 18
-64.0669662838942 347.537430825265 3135.90663884058 24 27 20
-57.2544824485495 346.763755368684 3131.33028853695 23 26 19
-61.933292301803 345.140914183341 3115.54560662026 22 25 18
-68.1152962303271 343.420824421678 3098.41790546928 23 26 19
-61.3622057659011 342.654630781363 3093.89330056559 24 27 18
-45.9109633983776 342.51408137186 3097.70540205671 20 23 12
-22.4137691124287 342.937269972927 3109.09758193271 20 23 12
-33.7962612129434 340.868442984636 3087.21581799247 23 26 15
-36.5088829491946 339.429240335921 3073.69619382065 24 27 16
-20.9516745954428 339.273559202683 3077.4168643494 23 26 17
8.62034738331241 340.075723192038 3094.12803493942 25 26 20
14.0048493893121 339.192806515742 3088.14323844428 26 27 21
18.6456598742781 338.260140756729 3081.48040313814 24 25 19
34.3924911669102 338.077964637013 3085.03689233802 22 23 17
51.6778066207015 337.987805435047 3089.90584748752 23 24 19
54.8666794598574 336.950576861989 3081.8552990409 26 27 21
74.4757876919291 336.996249128291 3088.67935739955 25 26 18
94.1579912069428 337.031830251403 3095.4404423528 21 24 15
126.684333635089 337.882883211172 3113.56046303208 18 21 12
116.414396365538 335.962115670369 3093.3606011705 24 27 18
116.628185062118 334.72568064673 3082.59628143708 29 32 25
151.890061099631 334.448730186142 3091.73600642644 23 26 19
169.611783276593 334.297665725897 3096.22742236296 23 28 21
166.01397179162 332.825299991068 3082.15166247681 32 37 31
119.487528506587 328.750068623518 3031.19258490177 7 12 6
-194.024406955579 362.114537642984 3294.76824957274 194 186 183
-210.447560499418 359.325585630702 3264.02683477132 161 147 136
-204.339900605225 358.502339208971 3258.73844106108 153 135 121
-200.238918161322 357.507935889199 3251.22031779801 135 112 94
-192.795801041669 356.798531055371 3247.42053486873 136 110 93
-192.074443969172 355.523489487319 3236.21653755094 145 117 106
-188.010988167135 354.533496160771 3228.73091140039 158 129 123
-183.960107508702 353.544956803128 3221.25617515705 158 134 130
-173.130220262812 353.113925498416 3221.1360883421 144 125 121
-160.228332574748 352.844767631087 3223.18885793912 57 44 38
-151.385136086702 352.239626048776 3220.82142201171 25 22 13
-154.861412954458 350.646286583328 3205.317846745 21 23 12
-139.149241769593 350.586230256592 3210.22684663892 24 27 16
-118.553792294739 350.897695941762 3220.16438336999 26 27 19
-106.170080805307 350.550133004638 3221.34352209869 23 23 15
-110.394979327185 348.909730084277 3205.16553271592 24 24 16
-85.4664631834439 349.519277971914 3219.28602500583 22 23 15
-89.7292827236624 347.883577700739 3203.14087265943 14 20 10
-98.2524644468619 345.939195019757 3182.75044887822 16 22 12
-104.055613161761 344.216509970073 3165.29408160049 16 19 12
-98.6677242175418 343.339342613714 3159.30662778136 19 22 15
-96.1080084297827 342.254674480945 3150.4784389034 21 24 17
-85.7822284902001 341.741412619447 3149.47192096902 20 23 16
-80.4021957694179 340.864689439311 3143.49127354285 16 19 12
-80.7233849412814 339.579255459466 3131.86769499993 22 25 18
-66.0857983713354 339.366938921951 3135.06254091085 24 27 20
-55.6965367150348 338.844296700581 3134.00137738858 24 27 20
-53.9019804208061 337.714462914779 3124.51309603661 22 25 18
-59.3355393535084 336.087595468914 3108.05934749438 22 25 18
-57.6122389085438 334.967043413611 3098.63276600239 22 25 16
-46.4973064482597 334.492931320935 3098.26558390603 25 28 17
-38.2600785501874 333.818048807284 3095.10055378771 25 28 17
-36.5675562423409 332.701169826097 3085.70094052469 27 30 21
-23.9425346577336 332.317119638124 3086.67084804557 28 31 22
-2.48987028716119 332.508254428606 3095.86650107433 28 31 22
2.88554888659975 331.62986966204 3089.88954762948 26 27 19
3.09929136633746 330.417402556429 3079.125428154 26 27 21
11.4056271997738 329.73204539234 3075.90056758004 28 29 23
39.7253350994888 330.320494331867 3091.05171141808 31 32 26
56.2814311882298 330.140736859668 3095.23002692969 33 34 28
75.873840718848 330.139872932187 3102.06917572166 33 34 28
100.767775735683 330.453718720026 3113.57440410435 23 24 16
117.524356783763 330.246220283493 3117.57944737034 18 21 12
110.302953573103 328.563799906163 3100.02881045447 18 21 12
114.303569767518 327.574888313872 3092.59764264092 22 25 16
112.249678254142 326.225314799558 3079.82975338023 25 28 21
126.808345689147 325.872061957277 3081.77033822795 28 31 24
155.078101501124 326.317806740366 3095.64244119033 22 25 18
162.148569277592 325.502710888431 3090.842755337 23 28 21
175.329262343132 325.040436267414 3091.33186482109 25 30 24
150.274918374108 322.37851598698 3058.80713270654 17 22 16
-203.238489494579 353.230424086203 3285.60834199412 185 176 171
-209.048870739642 351.414788507586 3266.83590037275 148 132 119
-206.934452471375 350.263452419731 3257.07052248603 140 121 106
-199.495561962097 349.549376749886 3253.27443317902 138 113 93
-191.377904934827 348.888006949172 3250.21295186963 142 115 96
-189.975885395904 347.687663632798 3239.74177675163 149 119 108
-187.252996728483 346.59789369062 3230.77219313353 149 119 111
-181.843397419951 345.723357009117 3224.76590511445 156 132 128
-172.364628629395 345.166467847762 3223.17054402228 136 118 114
-157.417428446617 345.027451907978 3227.41982256843 33 20 14
-177.93607873851 342.16026765143 3193.61169357018 17 14 5
-146.546743897224 343.269955448657 3215.36236089109 14 16 5
-121.189898217981 343.893039489802 3230.43477773393 22 25 14
-105.36753705009 343.779547073872 3235.24861827602 22 23 15
-99.8571924484564 342.889960688753 3229.1551082126 20 20 12
-108.911764018861 340.931241804861 3207.90177562657 17 17 9
-109.016846408926 339.643121425112 3196.09122248877 12 15 6
-114.739394280953 337.956846899135 3178.56475962226 14 17 8
-112.837351072342 336.830974882738 3168.98360533851 18 21 14
-110.960635086911 335.708341809534 3159.42406656818 17 20 13
-104.183741630679 334.935671562731 3154.87855721162 17 20 13
-91.0520186974173 334.605678235929 3156.73251455559 17 20 13
-77.8797298326705 334.270012232232 3158.55134870769 16 19 12
-86.6706484684729 332.418832465216 3138.39237817513 15 18 11
-86.2945333951934 331.208760042889 3127.48719350595 18 21 14
-68.1040646361333 331.206731126151 3134.21788592102 21 24 17
-51.9921065394575 331.051550601718 3138.78130804832 20 23 16
-50.1838648014856 329.93662693306 3129.28106841241 18 21 14
-46.9607798100999 328.919613775932 3121.2007360673 18 21 14
-45.9211983340371 327.763656189737 3111.04372693827 18 21 12
-58.6707439679759 325.723182786316 3087.70013195748 22 25 14
-55.5506514684567 324.719568440623 3079.70866456962 23 26 17
-45.1646011665643 324.180081536667 3078.65039359761 23 26 17
-25.2601495427829 324.234105535945 3086.54198948818 23 26 17
-9.67289145554062 324.003651990905 3090.23709935988 24 27 18
-4.31542265733631 323.130835877809 3084.27598357857 26 27 19
0.300484240677967 322.213449016943 3077.63431858591 26 27 21
18.2015578718548 322.103552176749 3083.29327827523 27 28 22
38.3892868227673 322.118259009953 3090.93960230031 29 30 24
62.367346557723 322.343539577836 3101.91596574329 30 31 25
80.4853591432311 322.203678663684 3107.38709081106 30 31 25
94.9340870066289 321.836411329516 3109.42305505148 22 23 15
99.6925327839344 320.898712901909 3102.65829362094 17 20 11
96.932925144773 319.530822158331 3089.17861620429 19 22 13
99.3935190138831 318.469526632644 3080.4358728882 21 24 15
116.177347682631 318.219866880997 3084.41757286832 24 27 20
126.204194298247 317.581741365411 3082.34769943835 26 29 22
128.659892895766 316.52070808694 3073.60951284357 21 24 17
144.794228651283 316.213644343172 3076.8309472717 26 31 24
158.691261732485 315.774971213636 3078.02228704952 22 27 21
155.793364503643 314.424880703219 3064.66235484506 16 21 15
-199.864174666139 345.411664067447 3290.67456406193 191 180 174
-206.987171722127 343.539131728704 3270.3933451807 143 125 113
-207.52869353934 342.195741528789 3257.63785154691 143 121 107
-203.432370927761 341.218539253697 3250.12365566481 137 112 92
-193.98437529668 340.652956001655 3248.55533862686 136 109 90
-191.241779370612 339.5745381921 3239.56828494438 138 108 97
-185.14674780719 338.752273812697 3234.29083029868 137 107 99
-178.375288606217 337.98027551909 3229.75002665222 140 116 112
-166.848618124058 337.558666404187 3230.34921257688 114 96 92
-162.778168508315 336.583780704194 3222.85742673881 22 15 7
-132.072981331417 336.266176923745 3231.97676305733 21 23 12
-105.989379123541 336.856109854629 3247.74274958596 19 22 11
-99.0797397535372 336.064289933867 3243.08230866481 16 17 9
-111.516809541194 333.914108166992 3218.14532967707 16 16 8
-126.144841858259 331.634190893272 3191.13807922697 14 14 6
-116.56469939477 331.048438498578 3189.45504096311 14 17 8
-120.909500304567 329.50669841231 3173.38065146501 17 20 11
-119.721992152323 328.35219868039 3163.09541952164 18 21 14
-108.043228642401 327.907928868622 3163.56261228126 18 21 14
-101.959468843973 327.084532511746 3158.29493461468 19 22 15
-94.4652140339048 326.35410775135 3154.45096502064 20 23 16
-90.5010635907986 325.391172017791 3147.05123506028 21 24 17
-89.3882250922702 324.245859811485 3136.83066245436 21 24 17
-91.8631049360683 322.875825536229 3123.10421511319 20 23 16
-87.2506939947213 321.966627050991 3116.4658426438 21 24 17
-49.7219633358963 323.135276176334 3142.15834999114 20 23 16
-51.4931743364566 321.811517223846 3129.14528409015 21 24 17
-49.7109954996744 320.716751841211 3119.66750348133 23 26 19
-35.6813053613898 320.378578913339 3122.06647424776 25 28 21
-56.3585359936551 317.920581603351 3091.03997824604 23 26 17
-66.2979741428007 316.139477942387 3070.55244037889 24 27 18
-47.2044940892871 316.109598466711 3077.82421730395 21 24 15
-11.9747060375293 317.019955608522 3100.21761558062 20 23 14
-6.60182259344699 316.148320152877 3094.24281620813 21 24 15
-14.4502790979164 314.509660252156 3075.91243999294 22 23 15
11.4925242299284 314.830180048163 3089.15537051864 22 23 15
23.5164094060378 314.336003696741 3089.32375732054 20 21 13
31.129858223681 313.586532590638 3085.37660141655 18 19 13
51.3726043861205 313.541804061157 3092.97562518946 19 20 14
70.9477735212873 313.445236006993 3099.83002150415 21 22 16
92.8357342554822 313.4615097191 3108.64952063216 19 20 12
109.568432009986 313.181194961572 3112.67542074589 16 19 10
109.092105376034 311.963679194517 3101.185865306 20 23 14
100.297932385851 310.309723966179 3082.35169829152 21 24 15
99.7232853555725 309.105299440047 3070.94727584164 25 28 21
132.609680721595 308.479673429891 3078.1783921246 24 27 20
129.730738596542 307.160701207043 3064.80182920308 20 25 18
163.424277905288 307.707747612478 3083.23574474652 18 23 17
135.297589582535 305.119714875533 3048.07977061027 9 14 8
-201.126822592002 337.212030076163 3290.49881936504 183 170 164
-205.59122676928 335.591739513401 3273.20502694206 138 119 105
-205.458277784362 334.323866434409 3261.18771673977 131 108 92
-201.352974779413 333.353734019409 3253.66569141507 131 104 83
-195.919478150893 332.482207211567 3247.63867122571 141 112 94
-193.179691289483 331.417993662368 3238.65427572943 141 112 98
-185.065498001323 330.740314975304 3235.59558673638 144 114 104
-176.939005770256 330.06080753775 3232.52656517062 136 115 110
-166.764749689742 329.521816553287 3231.65186064956 89 74 69
-158.607874074505 328.837843050899 3228.55653365284 21 17 8
-140.198991645335 328.855244743059 3236.42136956335 22 22 12
-126.509475626249 328.536294117644 3239.11505690531 18 21 10
-135.438558358731 326.682439020932 3217.75227911285 24 27 16
-113.461047354485 326.912693837212 3229.13929694427 19 20 12
-110.043258884978 325.894342372798 3220.89021676841 19 19 11
-131.588442494376 323.240514830613 3186.64717766582 16 16 8
-117.853493050833 322.914517381606 3189.30153188931 14 17 8
-118.014973879578 321.683645647455 3177.53917482004 15 18 9
-106.328777712851 321.216793128917 3178.00038727819 17 20 13
-97.4149897749106 320.567875027615 3175.57205087671 18 21 14
-97.6273088622275 319.343355697655 3163.85371598977 19 22 15
-101.403549349928 317.90466063027 3148.60912787499 20 23 16
-103.115855106684 316.604289287385 3135.54485512958 20 23 16
-83.5919758696719 316.60780396783 3143.76663408892 18 21 14
-88.8916026133937 315.096236232982 3127.19605455937 17 20 13
-88.5496250058471 313.935121836443 3116.32014080957 17 20 13
-86.8100137205357 312.863246478485 3106.87910669975 17 20 13
-60.6963173299548 313.227682179252 3121.29720987409 19 22 15
-48.1422027212925 312.78092072843 3122.32929690313 22 25 18
-34.8300950223503 312.370671085185 3124.02742834975 24 27 20
-54.0482195182879 310.095702979305 3094.38160832311 25 28 19
-48.7320485784348 309.235365364034 3088.4562060191 26 29 20
-4.84223545235141 310.535548801414 3119.22151571532 22 25 16
8.60239755645731 310.106688225731 3120.80490331162 20 23 14
6.7151382540982 308.828029416184 3107.89181288221 22 25 16
-4.76075036493384 307.036529296998 3086.08951748949 22 23 15
19.7334316288211 307.200784328523 3097.94251105091 24 25 17
25.8752685193584 306.366976564962 3092.62456334722 22 23 15
35.7171960880067 305.728572241673 3090.71496770877 20 21 15
47.8057361993534 305.203777598828 3090.82782967444 24 25 19
80.0226818440333 305.714708174819 3109.2182196686 28 29 23
98.9476696412961 305.517658135179 3115.31354177302 25 26 18
92.4951558062843 304.020184459239 3098.41885872358 16 19 10
110.737536644314 303.775946243831 3103.78286572404 20 23 14
98.943607693192 302.026318918033 3082.25595598223 21 24 15
98.3687795817665 300.847070970489 3070.85152733703 26 29 22
148.45006722999 302.142040557611 3104.19069355911 28 31 24
125.176547572281 299.856912562267 3072.76653712376 26 29 22
163.360873459818 300.533563413171 3095.24748293816 18 23 16
