ply
format ascii 1.0
comment KinectMotionCapture
element vertex 754
property float x
property float y
property float z
property uchar red
property uchar green
property uchar blue
end_header
-137.223874867761 840.454396736641 2605.90298818571 248 247 252
-129.643772888314 840.512415514109 2603.30276350256 250 248 253
-126.130901761536 839.278095906314 2597.61919299307 247 245 250
-125.079781909537 837.27169081866 2590.10453131691 244 241 248
-123.229675374593 835.525595992509 2583.21893321851 248 245 252
-116.464975399633 835.325373215492 2580.00354378869 255 254 255
-107.220544941542 835.89491891094 2578.60430833938 255 254 255
-101.260076614223 835.435092219741 2574.76439675408 244 245 250
-98.60787709622 833.949068983479 2568.50517143809 254 255 255
-95.9683105441265 832.46486682017 2562.25688376713 247 246 252
-89.180695077701 832.261699948427 2559.02196724783 247 244 251
-81.5511650205254 832.313122058145 2556.37894421961 246 245 251
-75.5821212846044 831.852320162226 2552.53160633878 246 245 251
-71.2856241083544 830.881240058857 2547.49070955151 246 245 251
-67.8338294566379 829.656103891003 2541.86001670941 247 246 252
-61.0211153670206 829.450095925292 2538.60336472158 248 247 253
-49.9791388386677 830.513624930749 2538.28945220118 249 248 254
-40.6015673306674 831.065816984727 2536.7746155574 250 251 255
-34.5971517445709 830.601231883836 2532.8969596507 251 252 255
-20.9352376724419 832.415685154398 2534.27748520975 253 254 255
-9.79012002500079 833.465803078857 2533.8742634782 253 251 255
3.09235214800907 835.017613393201 2534.60880040873 250 248 253
10.8721995561218 835.05010953389 2531.83561457011 248 247 252
23.8153208599785 836.593969486023 2532.51732072462 248 247 252
31.6316085670802 836.622097132125 2529.71257907699 246 247 251
47.2238234021241 838.912917179105 2532.06379396943 248 249 253
60.2707930388364 840.443472664004 2532.65589276719 247 248 252
73.3541507043975 841.969225293616 2533.21616836218 255 254 255
81.2617305132437 841.985956786994 2530.33237441586 255 254 255
92.664749049697 843.00319928032 2529.70583374729 253 251 255
103.223565619336 843.766759698294 2528.4893762619 254 249 255
106.808057442498 842.528446320022 2522.74407091306 255 255 253
92.8462617161081 836.299713066138 2505.7716756906 237 238 233
-154.555302804187 844.884744918389 2652.65652050274 224 224 224
-154.159917579558 842.614727206274 2644.38865494249 222 222 224
-158.597596517041 838.80356344353 2632.37925470769 229 229 231
-157.461178081642 836.799003486242 2624.79033421393 231 231 233
-154.734770232975 835.310891476613 2618.46680340567 241 241 243
-152.020843569288 833.824542409994 2612.15439457799 249 248 253
-150.129392427878 832.083457298807 2605.23261364713 250 249 254
-143.385420888643 831.880598606725 2602.03552289127 250 249 254
-135.006665960448 832.187953534592 2600.06472215783 248 247 252
-129.058807009587 831.726890544761 2596.23574758358 247 246 251
-128.830431323215 829.479364259543 2588.11248944823 247 246 251
-127.807496888916 827.490087364177 2580.62183058274 247 246 251
-121.875112603467 827.030988598579 2576.80625572901 246 245 250
-112.643876740837 827.588597296817 2575.4185338619 245 244 249
-105.869959036498 827.381406278568 2572.19551576193 245 244 249
-101.571900360767 826.412129818746 2567.15293836643 246 245 250
-97.2781684079806 825.443458242038 2562.11442269041 244 243 248
-92.1569293178619 824.728621042586 2557.68029285308 245 242 249
-85.3680705212727 824.51959754338 2554.44433664592 245 242 249
-76.8995099201191 824.814738433215 2552.39577725497 243 242 248
-72.605195000389 823.846265581529 2547.35643949996 243 242 248
-67.4749147263451 823.130629995378 2542.91447851711 246 245 251
-62.3449887104299 822.415102003876 2538.47282388529 246 245 251
-52.1506031870653 823.20845755428 2537.57203881383 246 245 251
-45.316558111725 822.993947612347 2534.29695358697 248 249 254
-40.1710371693325 822.276858404075 2529.84179238854 250 251 255
-29.0741864531761 823.314013503305 2529.48048934071 253 252 255
-17.096760093982 824.59773639159 2529.67762283781 255 254 255
-0.81528145768317 827.127352226308 2532.75314148785 253 252 255
8.66834739275202 827.651988844388 2531.14687520595 250 249 254
20.7471129768395 828.922423543145 2531.25626046204 248 247 252
28.5563606128028 828.942875677541 2528.45767043463 246 247 251
42.4149566567911 830.704072370982 2529.66806976296 248 249 253
54.585283122083 831.962797486017 2529.69848730343 247 248 252
66.7879717718671 833.217381684652 2529.70056669576 248 247 252
77.2861180037685 833.971685792726 2528.53675435398 253 252 255
89.5498087400384 835.218533837564 2528.48601117573 252 249 255
102.718895833029 836.708748997575 2528.97252779098 253 250 255
108.052538928965 835.969678720216 2524.35445679799 247 247 247
108.126024172448 833.74963693327 2516.36495416388 255 255 253
-154.667427549952 840.552267448666 2662.04555025529 208 208 210
-159.026316981587 836.762771630654 2649.9677199149 236 236 238
-159.43910706916 834.255158042468 2641.07829218951 229 228 233
-162.28428253337 830.987172204733 2630.33192940311 240 240 242
-161.155039246424 828.997052924163 2622.74913429248 230 230 232
-157.630842788934 827.772069710842 2617.05600272456 231 231 233
-154.922565107393 826.294424065226 2610.74811816153 241 240 245
-154.654890135727 824.057632583089 2602.59041284838 249 248 253
-149.544131676429 823.344027167513 2598.16535896851 249 248 253
-141.993711356475 823.389394863185 2595.59094242586 246 245 250
-134.431438201942 823.433106433542 2593.00626333717 248 247 252
-131.762035797535 821.960576407901 2586.73204022484 247 246 251
-129.105288218716 820.48957096823 2580.46877562536 247 246 251
-123.996537754959 819.776056313933 2576.04546155927 245 244 249
-117.241279941259 819.565666868246 2572.83832187028 243 242 247
-108.826677760637 819.856957788973 2570.83687064266 242 241 246
-104.534581375402 818.890939612862 2565.79943986488 243 242 247
-100.246856541871 817.925532357022 2560.76610962216 242 241 246
-95.9634177813733 816.960941857801 2555.7364889804 241 240 245
-87.5158520452595 817.247651557556 2553.70618122795 240 239 244
-79.0522288698785 817.532318550043 2551.6619691525 239 238 243
-73.9239068359816 816.81652747985 2547.22170645431 239 238 243
-70.4754584185547 815.602224458925 2541.59415922753 241 240 245
-65.3517810877564 814.887298442604 2537.1579166549 242 241 246
-57.6968018684085 814.918802381179 2534.49264948047 243 242 247
-50.8755044073634 814.700260107243 2531.22863919873 245 244 249
-45.742378061882 813.984540667209 2526.78421196684 246 245 250
-37.2093971632692 814.260585784358 2524.6799409296 251 250 255
-22.6955637135764 816.26793761234 2526.64440373971 250 251 255
-3.01259932544617 819.753106739052 2532.05889941575 250 251 255
9.89033029988473 821.252636153377 2532.77604391855 248 249 253
19.3967764659013 821.760344026627 2531.14979523492 247 248 252
28.9237080718738 822.265614722376 2529.50612238995 245 246 250
42.7821266326149 823.999227792597 2530.71685429196 245 246 250
55.8166955444603 825.481605810199 2531.31969792205 247 246 251
65.4227979997501 825.976873195919 2529.60746967791 248 247 252
76.7857406772121 826.960227437098 2529.01588379355 249 248 253
86.4365319229794 827.450015491416 2527.2649576746 251 250 255
99.5972336254742 828.916425080413 2527.75858095705 252 251 255
104.050032040153 827.933278578822 2522.58229045881 249 248 253
112.881257491254 828.172212846146 2520.21976062689 255 254 255
112.064860781792 825.726139912253 2511.67975448319 253 253 255
-160.718576941265 831.917287830293 2658.08248117857 229 228 233
-161.901744387933 829.17234012465 2648.5390442601 226 225 230
-162.319213570059 826.684160935114 2639.65354613877 233 232 237
-161.96486536216 824.451926189808 2631.42068848857 244 243 248
-162.438352449452 821.971231130041 2622.58369460184 234 234 236
-159.720859392604 820.500369182914 2616.26777878324 233 233 235
-159.437214880082 818.277536438767 2608.09614164204 233 232 237
-157.560261699406 816.559985008471 2601.18708962888 240 239 244
-152.455590652636 815.847019735424 2596.76730778012 248 247 252
-147.351354222939 815.133993220572 2592.34790302645 248 247 252
-140.617062659262 814.921119658974 2589.15926714996 248 247 252
-137.144140940706 813.708049933856 2583.51018452877 245 244 249
-132.041137301856 812.99518944081 2579.09184720342 244 243 248
-127.759800632024 812.033097821669 2574.06403232639 242 241 246
-121.013040999172 811.81828342487 2570.86428699 241 240 245
-112.607656642931 812.099654699203 2568.87057394881 241 240 245
-107.496058998335 811.385457179902 2564.44479655372 241 240 245
-103.214198053913 810.423414728252 2559.41652695046 240 239 244
-98.9368112414288 809.462094587055 2554.39213055758 238 237 242
-88.8289640083233 810.233687895971 2553.56649235274 238 237 242
-79.5327413546336 810.754675458212 2552.12236589092 237 236 241
-73.566985189979 810.285513037243 2548.27793164269 237 236 241
-70.1162287775534 809.076109292082 2542.64835224626 238 237 242
-64.9906456698357 808.360627191045 2538.21046147171 239 238 243
-58.1779527871094 808.137412553223 2534.95362385148 241 240 245
-51.3572051462243 807.913255138087 2531.69012650489 242 241 246
-46.2242799754531 807.197263359697 2527.24587540311 244 243 248
-38.5420262701182 807.217091651815 2524.55735962263 248 247 252
-25.7363962528046 808.704871790132 2525.35891332869 249 250 254
-6.91686979930628 811.900203025254 2530.20039898325 247 248 252
9.39974337199212 814.353702922376 2533.24595850208 246 247 251
20.6211097223115 815.335762163098 2532.77709030099 245 246 250
32.7308039596259 816.557775772498 2532.85998235148 244 245 249
44.8731366022743 817.775775432355 2532.91492704623 243 244 248
56.1838455580621 818.746401631104 2532.36869648399 245 244 249
64.9243707535017 818.984495453489 2530.08478526994 245 244 249
78.0221344526666 820.433951572326 2530.63338455391 246 245 250
86.8053398883397 820.66695633015 2528.31251381879 248 247 252
97.3494113287958 821.382198112722 2527.10914957284 249 248 253
100.923583592788 820.160163945036 2521.37236755433 252 251 255
110.623992967645 820.630274551669 2519.57856312974 252 251 255
115.952929043981 819.891838175752 2514.96456777212 255 255 255
122.162288920681 819.394839827006 2510.90917380794 255 255 255
-158.470781958418 828.299644535165 2669.39123414905 174 175 177
-164.382846192063 824.069970735791 2656.01592685786 228 227 232
-165.572545003245 821.347581413035 2646.4780047289 228 227 232
-165.996751030859 818.879173628748 2637.59821755451 238 237 242
-163.247018659489 817.412054597596 2631.254334509 230 229 234
-164.524078673824 814.701228484774 2621.79174103224 237 236 241
-162.614779099039 812.99010042761 2614.85461161301 239 238 243
-162.336073289374 810.784102052399 2606.68714593596 233 232 237
-159.655569636299 809.326126498841 2600.40320665904 226 225 230
-156.176665267073 808.11778280571 2594.74922354752 238 237 242
-151.080551586461 807.405730421409 2590.33685276006 246 245 250
-144.354967929126 807.188318183609 2587.15547823688 247 246 251
-139.255635321803 806.475712529239 2582.74032107514 244 243 248
-133.337464456575 806.009926494493 2578.93742435014 242 241 246
-127.415818614806 805.543650282608 2575.13120340157 239 238 243
-122.313670539595 804.83054569258 2570.71360920573 239 238 243
-115.561427634794 804.609385751918 2567.50946795257 237 236 241
-112.110486364253 803.404606036233 2561.87938285629 236 235 240
-107.00951750726 802.691780025648 2557.46280892606 235 234 239
-102.740105907451 801.734049137605 2552.44530167822 234 233 238
-91.8084082413193 802.735056630245 2552.22737695259 234 233 238
-83.3546107167899 802.998829088278 2550.19181651902 235 234 239
-75.7223823802629 803.01623178814 2547.54667524172 235 234 239
-73.1149818705243 801.56858023474 2541.32603018701 237 236 241
-67.1542278639596 801.09727681189 2537.48594536275 238 237 242
-62.0330871752284 800.382333091959 2533.05190150369 241 240 245
-52.6842922594386 800.882908248723 2531.56265655837 241 240 245
-47.5534958999759 800.16690372971 2527.12025065642 242 241 246
-38.1748535820825 800.663616753447 2525.60484540871 245 244 249
-27.9242372574418 801.399873752869 2524.65569308063 245 246 250
-10.8195519580399 804.068502463332 2528.34006899114 245 246 250
4.63049146227235 806.246180396283 2530.81524212273 244 245 249
18.41354342843 807.934548490862 2532.09159014985 243 244 248
33.0969691673739 809.858613724921 2533.9092854133 241 242 246
46.1013836705702 811.295249584242 2534.53887687642 240 241 245
57.4143881622611 812.246043747726 2533.99078520279 240 239 244
66.1580363645129 812.472458389784 2531.70424284785 240 239 244
78.3898423180087 813.656849521846 2531.68185559211 241 240 245
85.4341707476976 813.399168632227 2528.2247899723 242 241 246
96.8466710038629 814.337461843329 2527.59054274975 242 241 246
100.420901081077 813.120510214444 2521.85367768746 239 238 243
108.36763258407 813.099031695569 2518.93619716237 240 239 244
113.692194039259 812.360825139463 2514.32599195691 250 249 254
127.818737000025 814.00556977428 2515.30490667347 255 255 255
126.988135114248 811.599557364324 2506.77695307349 255 255 255
-164.505277892543 819.691309502105 2665.41387377765 223 224 226
-171.223175317708 815.253689692378 2651.41509770211 228 227 232
-171.631152750861 812.802140181353 2642.52113537954 227 226 231
-171.269732306184 810.601351426124 2634.28194419672 231 230 235
-167.731138938517 809.390456656373 2628.57592750295 228 227 232
-165.806249626577 807.687828958139 2621.62523081562 234 233 238
-163.898166726984 805.987524491024 2614.68908579538 231 230 235
-162.813665255452 804.043614279563 2607.14477058847 237 236 241
-161.749830589189 802.102509494795 2599.61866537816 234 233 238
-159.085489009821 800.654675372964 2593.34866863473 232 231 236
-154.808290194494 799.698448677427 2588.32408666724 237 236 241
-149.720751922484 798.987371497846 2583.9191421753 253 252 255
-141.366051560647 799.253732206421 2581.96977155556 246 245 250
-134.633468449669 799.029628269138 2578.7823737167 243 242 247
-127.072161719257 799.048257911003 2576.19869479405 237 236 241
-124.436895961445 797.604279587827 2569.95387412461 237 236 241
-118.514102187125 797.134876670342 2566.14699399562 232 231 236
-114.241946052382 796.179029649361 2561.12678024035 230 229 234
-106.657758612902 796.194518025388 2558.5232901402 232 231 236
-102.386195298376 795.238952695712 2553.50390389099 232 231 236
-94.7864522798385 795.2523461784 2550.8869447863 232 231 236
-87.174829640408 795.26413981459 2548.25969955421 233 232 237
-79.5513230081482 795.274392901679 2545.62216402117 234 233 238
-74.4338571681782 794.559345217467 2541.19130595931 235 234 239
-69.3166471849502 793.844511648384 2536.76066827023 237 236 241
-61.6696776244674 793.851844492159 2534.10281549718 240 239 244
-53.1654321497936 794.097983651432 2532.0236442761 240 239 244
-48.0348369650416 793.381706794063 2527.58141450427 241 240 245
-40.3561024122188 793.385121115347 2524.8960552627 243 242 247
-31.8139012046528 793.626567921917 2522.78401685019 243 244 248
-15.5737727340588 796.019043698764 2525.89626384615 243 244 248
1.57464240549521 798.643396209508 2529.54302444322 243 244 248
16.2069969706256 800.54409675901 2531.40513633248 242 243 247
30.884157131676 802.438785467998 2533.22876807097 238 239 243
41.2974957171364 803.137078920638 2532.13882451518 237 238 242
52.5987774592567 804.070108571061 2531.60100848445 237 236 241
62.1967683282336 804.524406067034 2529.89576081681 237 236 241
75.2864248169463 805.92530835981 2530.4517015415 237 236 241
83.1937291351848 805.899617658186 2527.56842126967 237 236 241
92.8566440522789 806.34595025472 2525.8069532086 238 237 242
97.2968147853717 805.371451138009 2520.64155154062 240 239 244
104.360656971978 805.106411293692 2517.16762033248 237 236 241
109.676665987644 804.368877418167 2512.56482347478 251 250 255
126.432845567936 806.694071600583 2515.23022641113 255 255 255
138.831676558059 807.835885154242 2515.06303294343 246 246 248
-168.160483318692 811.855168206184 2663.33939109487 222 223 225
-173.295193985382 807.948544318269 2650.61149102617 226 225 230
-174.502021272069 805.271699529163 2641.0881196329 233 232 237
-174.943722463079 802.843555791658 2632.22323523345 228 227 232
-172.21307663968 801.395116554953 2625.89577413959 231 230 235
-169.495170927448 799.948273275927 2619.57934501618 228 227 232
-165.985636024937 798.746382178186 2613.89845599463 242 241 246
-164.097548678238 797.059490167132 2606.97955492577 243 242 247
-163.843424106941 794.889140717159 2598.83316368565 242 241 246
-161.18253564836 793.449736493159 2592.56610526018 239 238 243
-158.534257741311 792.012150323534 2586.30996507196 240 239 244
-152.64009580723 791.544028193858 2582.52789288853 243 242 247
-144.292385502377 791.800289011581 2580.58433073713 239 238 243
-135.110176044005 792.29560887551 2579.23918993717 236 235 240
-128.370110409408 792.064950038292 2576.04566471489 233 232 237
-126.559051984912 790.388251970079 2569.19346132467 234 233 238
-121.46549243411 789.675944692582 2564.78330594503 232 231 236
-116.372305183879 788.963807325709 2560.37347215066 229 228 233
-108.792809232374 788.971543447472 2557.77409856658 228 227 232
-104.525387523917 788.01902889656 2552.75796671426 228 227 232
-98.5961645743751 787.545945502262 2548.94553803759 229 228 233
-92.6634710202281 787.072312633429 2545.12978931092 230 229 234
-85.8898466882665 786.837194281895 2541.90720645714 231 230 235
-79.9476811503559 786.36246546521 2538.08325512345 231 230 235
-73.1606703143801 786.125582022327 2534.84876563047 233 232 237
-65.5225613163752 786.125724067402 2532.19863922196 236 235 240
-56.1819726034662 786.599736954581 2530.71667901181 236 235 240
-51.0576796764601 785.883949514756 2526.27990846186 236 235 240
-42.5366078202076 786.116983242716 2524.18623813458 238 237 242
-33.1479364470146 786.584880082404 2522.66264258658 238 239 243
-14.3526914346603 789.651949106039 2527.52568946845 239 240 244
0.230944718667025 791.528990317766 2529.43049618234 238 239 243
14.001649470841 793.164105610858 2530.71789106311 237 238 242
26.0938305526732 794.32236340981 2530.8163755342 234 235 239
36.4955086393923 795.005578843702 2529.73663625774 232 233 237
49.5121856760505 796.391157197455 2530.35593019624 231 230 235
59.102931058586 796.832536862201 2528.65704616 231 230 235
73.0519591290979 798.444176060081 2529.79003393669 231 230 235
81.8239788518347 798.644933610725 2527.47938273659 231 230 235
90.612047463055 798.843807067367 2525.15451808409 233 232 237
94.1741505438212 797.638609362438 2519.42808775981 239 238 243
102.98252984499 797.83540629566 2517.0856325582 233 232 237
109.174065433309 797.330949349231 2513.04605139019 243 242 247
125.047325943466 799.387890913649 2515.15487391948 237 237 239
140.969896785029 801.438513408875 2517.22131387268 255 255 255
145.450781752397 800.462962821415 2512.02063052795 227 227 227
-170.677282704104 806.704607002583 2670.84752635362 199 201 200
-172.606008149875 803.797673148387 2660.62808015392 220 221 223
-174.572214061553 800.895704762207 2650.44077193205 223 222 227
-176.575627842445 797.998747216001 2640.28568063747 227 226 232
-177.0199416332 795.589819465339 2631.42293615206 230 229 235
-175.092815291631 793.908629183272 2624.47016163575 233 232 238
-171.578265180894 792.711512321485 2618.7848948158 230 229 234
-170.48483988474 790.793491071484 2611.23299276106 239 238 243
-166.993676715218 789.599403992069 2605.56797661062 249 248 253
-165.127736701802 787.926214220591 2598.66818264074 247 246 251
-162.468216826759 786.494959166641 2592.40225760898 232 231 236
-160.633769015901 784.826010497672 2585.52973158058 231 230 235
-155.558351996317 784.116326160786 2581.13528398815 233 232 237
-148.033922495772 784.12357319005 2578.58364164579 236 235 240
-138.860823843939 784.606465972915 2577.24647803714 235 234 239
-132.949947604101 784.132896738528 2573.44963874864 231 230 235
-127.857988218082 783.420685185297 2569.04086966905 235 234 239
-122.766454705264 782.708530985054 2564.63246933742 225 224 229
-115.195321827962 782.709069196791 2562.04039097298 228 227 232
-108.440990108976 782.470799938117 2558.8345501383 227 226 231
-104.171215704181 781.520446075871 2553.81668063102 227 226 231
-99.0731552351254 780.807472766739 2549.40262845966 228 227 232
-93.9754490241995 780.094607052256 2544.98888263933 231 230 235
-86.3675970220874 780.090260130138 2542.36501014536 232 231 236
-79.5868336304841 779.848468967546 2539.13596733912 234 233 238
-75.3208838953343 778.899049382542 2534.12140675637 234 233 238
-66.0017369668848 779.361914306262 2532.65778763776 234 233 238
-56.6622522005598 779.82218227176 2531.17687332522 235 234 239
-49.8440753930973 779.575711904946 2527.91543328801 235 234 239
-41.3195767750882 779.797227400753 2525.81918301441 237 236 241
-31.9282336864379 780.250668989336 2524.29304995214 236 237 241
-14.8382272734633 782.8061733056 2527.99088163003 237 238 242
-1.96737642075195 784.186238099797 2528.73660409183 236 237 241
12.6544065312295 786.028019280136 2530.60857609003 234 235 239
25.6019781792625 787.397669885921 2531.28755385218 231 232 236
35.1411378685822 787.831765961858 2529.63374370115 230 231 235
47.2902334670833 788.960620316513 2529.68308884993 229 228 233
57.7412531415451 789.62102157786 2528.56073128221 229 228 233
70.8186738021257 790.973866165587 2529.12758865408 228 227 232
79.5854118873218 791.164054205263 2526.82126821693 227 226 231
87.4969207152461 791.121089034061 2523.93445568442 226 225 230
95.4205551675327 791.076790317559 2521.03714207884 225 224 230
102.480788605857 790.800536468548 2517.56609585675 225 224 230
110.426800242899 790.753942816821 2514.64940201204 231 230 235
121.023922255637 791.396584612981 2513.40052737793 237 236 241
137.817172751398 793.645521854862 2516.03429376622 242 242 244
149.361268782668 794.509919635008 2515.28646659946 245 245 245
-174.32290133743 798.887655709508 2668.76461010121 208 210 209
-174.674392228595 796.485331047461 2659.82136988406 217 218 222
-175.848799097293 793.847537626158 2650.26964549534 221 220 226
-177.852414709608 790.974861160435 2640.11457179331 226 225 231
-178.297315062121 788.584996319361 2631.25221217392 229 228 234
-177.971394825937 786.43755611611 2623.0434445979 233 232 238
-176.868485674882 784.531769739046 2615.4829277501 229 228 234
-175.786337358547 782.628741565592 2607.94070270361 234 233 239
-171.500873315704 781.67930675404 2602.90891295476 251 250 255
-166.411774781032 780.967899679185 2598.50261826482 252 251 255
-163.753454220855 779.544972854929 2592.23799426808 234 233 238
-161.92042406681 777.886852645712 2585.36631129226 229 228 233
-159.289838089593 776.467518910514 2579.12538705932 228 227 232
-150.957666032802 776.704036031709 2577.19573591852 228 227 232
-142.609847436948 776.938124382188 2575.25222358556 236 235 240
-135.887032718301 776.698507954812 2572.07339288477 222 221 226
-129.15627531339 776.457963843015 2568.88799949657 219 218 223
-123.242412414131 775.980998082105 2565.08859357258 222 221 226
-115.671842407124 775.973287918568 2562.49705651774 227 226 231
-110.575099459796 775.260252497392 2558.0841466923 225 224 229
-106.309212106818 774.313057101842 2553.06962576561 225 224 229
-101.215284627379 773.600520616324 2548.65915297428 226 225 230
-94.4523532899675 773.355463933902 2545.44590252387 229 228 233
-86.8451133588444 773.34281537627 2542.82261432863 230 229 234
-80.0648057579494 773.09545629556 2539.59400265283 232 231 236
-75.7987620590193 772.148539275524 2534.5793444116 233 232 237
-69.0090808757478 771.899977726482 2531.34261610705 233 232 237
-59.6767388225419 772.34749367863 2529.86797527409 234 233 238
-52.0182377612457 772.328241137992 2527.20030000874 235 234 239
-42.6500948249813 772.770973420493 2525.69434474903 236 235 240
-33.2617037083582 773.211120819086 2524.17117192655 234 235 239
-17.88241622861 775.26669775607 2526.70846299262 234 235 239
-7.58478568632981 775.930426863227 2525.71871622191 233 234 238
8.73643867837615 778.205144403143 2528.76143756779 231 232 236
22.5331652615539 779.781779791306 2530.02665734353 228 229 233
33.7870678450178 780.662920819554 2529.5302427722 228 229 233
45.0695294168293 781.540597279511 2529.00941306247 227 226 231
58.1103630261408 782.873374370324 2529.60779627181 227 226 231
71.1879057139009 784.201469535552 2530.17470825521 226 225 230
79.0863947581184 784.151394604883 2527.29922650866 225 224 229
86.997067371263 784.10015798395 2524.41319235276 224 223 228
94.9197628354468 784.047421999842 2521.51674727562 223 222 228
103.730138162092 784.221552697079 2519.17270892476 223 222 228
110.801960327337 783.9382508457 2515.69197952057 229 228 233
119.640666319692 784.109165071091 2513.32340680622 235 234 239
134.665996514324 785.868610895451 2514.84582792619 240 239 244
146.202265526042 786.714659632516 2514.10490362087 243 243 245
139.170781857108 782.79815103779 2501.69780807298 221 221 221
-170.549930159576 795.616009430346 2681.39603322942 195 197 196
-175.598160231905 791.80343816316 2668.59256785776 212 214 213
-179.908379374148 788.235015182376 2656.47112067062 215 216 220
-180.299798434231 785.856991737433 2647.56233016019 221 220 226
-181.515931614476 783.246436569548 2638.04659496096 226 225 231
-181.169859647127 781.112571540912 2629.82027318771 229 228 234
-181.648475013627 778.746231068151 2620.98698314433 231 230 236
-180.552718596647 776.854882349227 2613.43257227187 227 226 232
-179.477651399313 774.966342075575 2605.8963908038 229 228 234
-174.394044387507 774.255674552403 2601.4948510218 245 244 249
-167.695217295031 774.014318022642 2598.33682253475 246 245 250
-165.038506756836 772.599610572691 2592.07322522734 247 246 251
-162.394531957873 771.186558377816 2585.8206557168 228 227 232
-158.949087497605 770.009190469082 2580.19547278722 236 235 240
-151.431876076816 770.000821098492 2577.65018780869 227 226 231
-145.539225858332 769.524136975974 2573.86916585258 228 227 232
-139.642953254314 769.04684524898 2570.08500818202 215 214 219
-130.454118624397 769.500033515538 2568.73471363439 214 213 218
-122.893852998698 769.48550665308 2566.1521519296 221 220 225
-115.321824195937 769.469335739619 2563.55940530991 223 222 227
-111.05152927204 768.523860133734 2558.54073752595 223 222 227
-107.615803353706 767.347621377213 2552.92397068906 224 223 228
-102.524000313639 766.635131448469 2548.51533892401 226 225 230
-95.7637430426716 766.384783389678 2545.30412495851 227 226 231
-87.3225706416347 766.594943466312 2543.28017009568 229 228 233
-80.5427188314476 766.342016467486 2540.05198955032 230 229 234
-77.9577796896525 764.937274010806 2533.85053451855 231 230 235
-71.1723791598238 764.683801612831 2530.61786374548 232 231 236
-62.6900668815802 764.88851889558 2528.55797122892 232 231 236
-53.3448826592573 765.320471667742 2527.07230047616 232 231 236
-44.8285278658824 765.52084393822 2524.98293024388 232 231 236
-36.2961692058694 765.719060943794 2522.87970285131 231 232 236
-22.6311389382983 767.285944320982 2524.25913175083 228 229 233
-8.07085594501089 769.075560449649 2526.1844304918 227 228 232
7.39089218113387 771.087154778505 2528.65053496002 226 227 231
22.0423120396145 772.864497367813 2530.4969216369 223 224 228
31.5729965535052 773.272067397105 2528.8506291145 221 222 226
44.5755020382745 774.585175629909 2529.48267565461 222 221 226
57.6143911799583 775.89342171003 2530.0829031655 221 220 225
69.8229875358409 776.970568299225 2530.08132744957 220 219 224
75.9804154857679 776.460022744641 2526.07103253922 220 219 224
84.7550888521869 776.627044130644 2523.7579844291 219 218 223
96.1654278827364 777.469091888479 2523.1262340914 219 218 224
104.978853853332 777.631515461229 2520.77994301308 220 219 225
109.422256559346 776.666739542235 2515.61136155859 226 225 231
114.74092580635 775.927829344417 2511.00626790137 230 229 234
128.872386120352 777.434173556921 2511.98181740931 234 233 238
146.577983925844 779.832239163115 2515.14742961974 238 238 240
159.913697324965 781.103146463489 2515.49063083371 243 243 243
-172.612898272073 788.26628761598 2680.58487096843 204 206 205
-177.662547405716 784.489120524888 2667.78240612828 212 213 215
-182.765856562792 780.719179910241 2655.02640353148 217 218 222
-184.748861003682 777.89271459537 2644.8531659369 220 219 225
-185.973542842554 775.304989482417 2635.34469222806 225 224 230
-184.838703970106 773.422113600272 2627.75666779529 225 224 230
-182.925439673996 771.775166362912 2620.81537060342 227 226 232
-181.830466683295 769.897479620791 2613.26186573757 217 216 222
-179.952743041566 768.255161235345 2606.35165842612 212 211 217
-174.869077530494 767.544366061645 2601.95006876789 231 230 235
-168.1705405842 767.297539078512 2598.79232720963 227 226 231
-165.513172591557 765.890827721357 2592.52810824794 254 253 255
-163.680340024416 764.254315340077 2585.65677202137 242 241 246
-159.422688733164 763.31361886286 2580.64934747226 229 228 233
-151.090161079413 763.527908014947 2578.71921664775 226 225 230
-144.377512011282 763.278783524635 2575.54957400699 221 220 225
-138.477369843189 762.798096141357 2571.76208445009 209 208 213
-130.92949313605 762.777033307759 2569.19030301959 212 211 216
-124.194029299497 762.52445480428 2566.00059286822 220 219 224
-117.450698763689 762.270839077321 2562.80438659992 219 218 223
-114.012377087575 761.099378760147 2557.18502344921 222 221 226
-108.091798125519 760.615901433567 2553.38015418014 222 221 226
-103.000053030017 759.90323964979 2548.97157375134 224 223 228
-96.2402471778221 759.64738297028 2545.76078674272 226 225 230
-92.8176660702231 758.478304200738 2540.15536658888 227 226 231
-85.212036252158 758.449343896074 2537.53357963703 229 228 233
-80.1157011355889 757.736303511911 2533.12102332533 229 228 233
-72.4925389011761 757.705041976415 2530.48405531007 230 229 234
-66.546407353921 757.218400678634 2526.6567436867 230 229 234
-56.3640560102612 757.864499867347 2525.76734329625 230 229 234
-49.5518191082471 757.601941536155 2522.511155839 229 228 233
-38.4789351086061 758.468774143716 2522.17172929983 229 230 234
-25.6725361866161 759.783379696251 2522.9737387442 225 226 230
-7.70198340278583 762.446003046595 2527.23125148254 224 225 229
6.90254310025562 764.199538090576 2529.11843658962 224 225 229
19.8343728873764 765.497251678957 2529.81184005497 221 222 226
31.941779513978 766.56542635838 2529.89771173999 220 221 225
42.3561502842942 767.180698343486 2528.80741153366 219 218 223
57.1186751905168 768.913254934607 2530.55778968642 218 217 222
68.4584597625424 769.744622728126 2529.98726064042 218 217 222
74.6135969464543 769.231593221189 2525.97928282823 217 216 221
82.5144208083248 769.164675273708 2523.10188655446 218 217 222
93.0460931039478 769.765168150058 2521.91001266879 219 218 224
101.85222888676 769.917412478681 2519.56979070717 220 219 225
106.289306300277 768.955883843254 2514.40667056856 226 225 231
113.35968768288 768.661637196314 2510.92726086502 229 228 233
127.486855011762 770.141071798799 2511.90670563241 232 231 236
150.485957487152 773.830367922403 2518.41576061215 237 237 239
167.370435176353 775.960182529962 2520.9712290304 240 240 240
172.774402587324 775.210863050593 2516.29227184087 198 198 196
-166.537033863548 785.605370070293 2695.18643434882 181 183 180
-181.759409995099 778.836726514492 2674.01676910552 206 208 207
-185.250562308975 775.561481957676 2662.50676832583 209 210 212
-189.578207024417 772.060703829122 2650.40030168186 219 220 224
-188.402625536874 770.186032813958 2642.77659547952 219 218 224
-189.633767125187 767.620916325553 2633.27357416326 223 222 228
-186.911373062818 766.214071418047 2626.95299563501 222 221 227
-184.201813141069 764.808775245139 2620.64353088191 223 222 228
-182.306442565948 763.174919717584 2613.71797349944 210 209 215
-181.231487415104 761.313381000045 2606.18139866249 203 202 208
-175.34406473532 760.832452522609 2602.40525061844 231 230 235
-169.453319053012 760.350814789918 2598.62591149181 205 204 209
-165.178073094582 759.410503576181 2593.60323451572 192 191 196
-162.530770464544 758.013112597455 2587.3476791693 218 217 222
-156.641575191625 757.53132434371 2583.5696848136 225 224 229
-149.932887855905 757.277283744263 2580.40350780524 216 215 220
-144.852166262957 756.566166398405 2576.00447183435 203 202 207
-140.591810893592 755.627419122802 2570.99437541983 201 200 205
-131.404848495858 756.053371772885 2569.6458800906 210 209 214
-125.493601291194 755.568254435137 2565.84879410556 211 210 215
-118.752600610063 755.309442945431 2562.65464087473 212 211 216
-116.143841413409 753.917063010609 2556.43246003577 215 214 219
-108.567832244753 753.883647813353 2553.83637523327 216 215 220
-101.812113312671 753.62271222541 2550.62916341667 218 217 222
-97.5506828009021 752.683842355551 2545.61845144484 220 219 224
-94.9660688171154 751.29495363772 2539.41717550659 221 220 225
-89.8795643143742 750.583057498662 2535.01313232651 223 222 227
-82.2729239881363 750.54569681564 2532.39052396557 223 222 227
-72.9699666241474 750.955728817471 2530.9415947959 225 224 229
-65.3357782782753 750.914636004219 2528.29481824759 225 224 229
-54.304222798776 751.767773235549 2527.99161688158 223 222 227
-48.3347168057415 751.275169415762 2524.14408442316 222 221 226
-36.4088616864211 752.345755799839 2524.38729769743 221 222 226
-22.7458592746022 753.858116424317 2525.76883752121 216 217 221
-3.91586632307916 756.70170401586 2530.6035307933 215 216 220
10.6967441765926 758.423989942056 2532.48422721783 217 218 222
22.7782403720598 759.473556021037 2532.59267698905 216 217 221
33.1710839449197 760.07501886445 2531.52112466213 214 215 219
43.5881481629536 760.673399535491 2530.42859940398 214 213 218
56.6231122844942 761.932708226178 2531.03254598642 213 212 217
67.9613141501481 762.745065704039 2530.46351191624 212 211 216
74.1160042215516 762.229042215662 2526.45594103361 212 211 216
82.0159382960135 762.153740260815 2523.57937029914 213 212 217
92.5462202504326 762.737831906953 2522.38880775255 215 214 220
100.476252102403 762.658993417674 2519.48585759645 217 216 222
105.788252827126 761.919903328738 2514.88654495289 222 221 227
114.615700936771 762.058819610848 2512.52825271046 224 223 228
130.506288344666 763.948561105061 2514.6231408553 227 226 231
149.97762552221 766.70733494097 2518.90250762909 233 233 235
169.514148085949 769.457390048585 2523.12543238319 230 230 230
174.037009930274 768.488702581557 2517.88832169716 233 233 231
-186.966973039917 770.613214364884 2670.64344348542 206 207 209
-190.467909412173 767.369252724644 2659.14203569958 207 208 210
-192.432369176445 764.589216972432 2648.95242390248 220 221 225
-191.261806685032 762.728756147866 2641.33297576211 218 217 223
-190.112005028338 760.871053526909 2633.73181942305 221 220 226
-188.186036935374 759.244156327154 2626.77969698192 220 219 225
-185.477814438912 757.84712490051 2620.47133786762 220 219 225
-182.78239492482 756.451757784678 2614.17406477358 206 205 211
-182.509609437097 754.376389928426 2606.01088396334 208 207 212
-179.040542641059 753.212047719771 2600.36482678655 236 235 240
-172.350535095611 752.955492317485 2597.21485651984 224 223 228
-165.652897362716 752.69772968781 2594.05828071827 180 179 184
-162.193535438104 751.534395017998 2588.4206285735 187 186 191
-156.30241628015 751.049533021677 2584.64098663542 219 218 223
-150.407532254306 750.564186201705 2580.85840020552 210 209 214
-143.69171023088 750.303413493803 2577.68576741825 198 197 202
-138.607348209955 749.591626227493 2573.28358049868 199 198 203
-131.058530748599 749.553848231542 2570.71109199735 208 207 212
-125.145404487659 749.065663188375 2566.91239724549 206 205 210
-119.228517730765 748.57693402416 2563.11076217539 210 209 214
-117.447021569356 746.968692360721 2556.28342234913 213 212 217
-109.873633021932 746.927365794791 2553.68966019913 214 213 218
-103.120177449179 746.661247685868 2550.48475921312 216 215 220
-97.1929612876909 746.171045362159 2546.67386531003 217 216 221
-94.6058381998669 744.789783600334 2540.47036521825 218 217 222
-88.6793001441766 744.29993433964 2536.66037227882 220 219 224
-81.0692821294579 744.253734714168 2534.03489363043 221 220 225
-70.9215571811024 744.871357842114 2533.17537419416 223 222 227
-64.9696373044626 744.378210145581 2529.34340329212 222 221 226
-53.9377224764408 745.211933552646 2529.03970075506 220 219 224
-47.118372808145 744.937158734189 2525.77742757075 219 218 223
-35.1899314481114 745.985440797102 2526.01885930263 218 219 223
-21.5249416233445 747.470105907033 2527.3988560318 212 213 217
-5.25678632734872 749.609620908488 2530.4884503629 212 213 217
10.2077536619194 751.522146841948 2532.95277698867 215 216 220
21.4292132230098 752.33046374572 2532.48495385312 213 214 218
32.6790176750187 753.135143058712 2531.99258675345 211 212 216
41.3698621832097 753.279079141175 2529.75234572129 212 211 216
52.6701164758108 754.077203842583 2529.21629440542 211 210 215
62.2658026959382 754.434878193905 2527.513985893 210 209 214
71.8815188201485 754.790012549496 2525.79401768914 210 209 214
81.5176668116853 755.142597169948 2524.05667248664 212 211 216
91.1738490792402 755.492701092065 2522.30166341913 213 212 218
95.602861363806 754.53695191793 2517.14581167947 215 214 220
103.534252307652 754.449867961311 2514.24205249328 220 219 225
113.234929825444 754.794937819586 2512.44851041389 221 220 225
130.001641009078 756.868748814369 2515.10641420038 224 223 228
145.056054976703 758.503509671538 2516.60475084343 230 230 232
164.578936554858 761.21162503978 2520.83977050061 229 229 231
173.525280839999 761.324506206792 2518.37827986455 227 227 227
141.601415495711 751.532942264106 2490.53023273157 200 200 198
-192.959001132583 762.194329157024 2666.62804706975 206 206 208
-194.894457347084 759.434940783333 2656.41316305801 209 209 211
-196.86723787463 756.680519045112 2646.23059718608 214 213 218
-194.912734386696 755.060857882359 2639.25369520273 216 215 221
-192.180176662345 753.669053030183 2632.92421000338 218 217 222
-190.257433794816 752.053369687318 2625.97481031498 216 215 220
-186.753563635503 750.890089529621 2620.29858093013 217 215 220
-184.860492479191 749.278162576258 2613.37487443889 207 205 208
-182.181226294934 747.893055486945 2607.09153553121 194 193 198
-177.099304178791 747.182255554188 2602.69145696686 214 215 219
-172.017928751615 746.471409472517 2598.29185253655 236 237 241
-165.318500999589 746.207836364292 2595.1337629131 195 196 200
-162.6679109953 744.826171936268 2588.87525637282 184 185 189
-157.590170514765 744.115456061324 2584.47880163767 200 201 205
-150.882112672105 743.850421294893 2581.31324147605 198 199 203
-144.166648037999 743.584187189355 2578.14095384094 191 192 196
-137.443352234825 743.316740986724 2574.96220201739 193 194 198
-129.891013854843 743.270224531646 2572.38671843476 202 203 207
-124.797407811179 742.557012700309 2567.97652861962 194 195 199
-118.878820565251 742.0652176818 2564.17312402852 204 205 209
-116.266921596427 740.688404516961 2557.9481209631 202 201 206
-110.349230925661 740.196730241584 2554.14549268349 204 203 208
-104.427802173319 739.704514863736 2550.33994349342 207 206 211
-96.8354759864218 739.652313759414 2547.72983787786 207 206 211
-93.4100501177251 738.498759406473 2542.12153595588 208 207 212
-87.4798970522104 738.005406801562 2538.3081169464 212 211 216
-82.3858296051592 737.292312490849 2533.89752645483 213 212 217
-73.0829108662081 737.674802055388 2532.44880923855 214 213 218
-64.6040043914971 737.835782008126 2530.39215207332 214 213 218
-53.5714712887652 738.650258576256 2530.08803837534 212 211 216
-45.9024704377939 738.587971123741 2527.41154143217 210 209 214
-34.8217464201173 739.39595774853 2527.065700991 207 208 212
-22.0087906760367 740.635541203355 2527.86251354704 202 203 207
-5.74323230980944 742.739833551273 2530.95458697419 204 205 209
8.00658847285263 744.18564648127 2532.26130942603 211 212 216
22.6549369620592 745.842732060535 2534.11113743748 213 214 218
33.0471603767704 746.411221254802 2533.04033629398 213 214 218
44.3256819909394 747.192749836881 2532.52322901495 206 205 210
50.4473673307291 746.674883097557 2528.54427646387 204 203 208
60.903745263289 747.235069626192 2527.41760858238 207 206 211
71.3846836808551 747.792210298678 2526.26998849578 207 206 211
82.7601283325454 748.561344856715 2525.66895484986 208 207 212
92.4193613097213 748.897286312461 2523.91170890865 212 211 217
97.7267195501494 748.157863255154 2519.31642223075 210 209 215
107.416045932899 748.490208879072 2517.53280104146 218 217 223
115.368767928139 748.392167604347 2514.61062446998 219 218 223
129.497298730926 749.788775668789 2515.58942418356 219 218 223
143.666453132412 751.180032664148 2516.53304863902 230 230 232
164.068684332112 754.058248828626 2521.32837849889 226 226 228
175.673675128623 754.798625962638 2520.52857530714 219 219 219
170.422967867507 751.496514490477 2509.22055727287 225 225 225
-189.977078215167 758.570134586872 2678.62380829594 190 192 191
-191.869234878003 755.829408441353 2668.37127407469 207 207 209
-195.375849700305 752.645977925922 2656.87439576242 210 210 212
-198.137354431076 749.692145481118 2646.05347682203 213 212 217
-197.769494591913 747.637030985065 2637.80776041171 213 212 218
-195.042402910528 746.253987000163 2631.48295605764 214 213 218
-192.328069382755 744.872601288917 2625.16919890822 212 211 216
-188.028842454564 743.937624244297 2620.1257021981 214 212 217
-185.336115833489 742.558848936969 2613.83065561589 207 205 208
-181.050220534193 741.625427738272 2608.79870382581 183 182 187
-177.574072721164 740.470851543094 2603.14644599306 202 203 207
-171.685504492232 739.981205070269 2599.36936155322 237 238 242
-165.793514859388 739.490955862669 2595.58900005252 199 200 204
-159.897974456082 739.000048808931 2591.80556523429 193 194 198
-154.811989855995 738.288162799777 2587.40197260689 184 185 189
-148.096139312555 738.016449278416 2584.2297015099 192 193 197
-141.372832776976 737.743589678186 2581.05065995029 187 188 192
-133.822599487508 737.689092427133 2578.47705264103 188 189 193
-128.72445206877 736.975149229609 2574.06293139215 193 194 198
-123.626708108854 736.261260366494 2569.64915948344 191 192 196
-118.529524508415 735.547446967837 2565.23587276943 199 200 204
-114.260182472558 734.615177071052 2560.21826082731 196 195 200
-110.824876920682 733.465442417014 2554.60137107704 198 197 202
-106.566598844201 732.534782292701 2549.59333823484 201 200 205
-98.9789510294723 732.475006826304 2546.98733661465 201 200 205
-93.0507156816112 731.978978060914 2543.17559710159 203 202 207
-87.1184962487059 731.482674494254 2539.36072173237 207 206 211
-82.8622483890578 730.552385357857 2534.35413063521 206 205 210
-74.4019173289399 730.704929917123 2532.3139436239 209 208 213
-66.7697805959544 730.639080977907 2529.66910570254 209 208 213
-56.5882978227195 731.219362463265 2528.78088463365 203 202 207
-47.2305684532088 731.580756664037 2527.2847977722 202 201 206
-34.4536992026772 732.800646611083 2528.11301540374 199 200 204
-19.0851946722317 734.660508230096 2530.66060516684 195 196 200
-5.37579885370887 736.08427749829 2532.00250823164 198 199 203
5.80631848686064 736.859445756118 2531.56899921682 209 210 214
17.8747426433414 737.845039446607 2531.68950904961 211 212 216
29.9752337801529 738.826172659256 2531.78193866908 211 212 216
42.1082200921528 739.803191439041 2531.84654572666 204 203 208
49.0892236342013 739.496226255243 2528.44436991376 202 201 206
57.8102155185469 739.6143037785 2526.17816663115 205 204 209
69.1519077102116 740.368722680842 2525.60679832621 206 205 210
82.261823113476 741.544217691787 2526.14632505342 207 206 211
92.7919194318179 742.078509042958 2524.95624611144 209 208 214
98.101008506069 741.338613346957 2520.35946232035 207 206 212
106.914977387822 741.445427127075 2518.01274552141 215 214 220
113.988615482465 741.12780549004 2514.530664579 216 215 220
123.711130809166 741.442386778604 2512.71839245236 218 217 222
137.866119852391 742.808265546666 2513.67477449738 223 222 227
160.020921531 746.06289469681 2519.5948555936 226 226 228
178.707538255348 748.466553564183 2523.23340807237 206 206 206
183.240051201455 747.504112026328 2517.98789195575 217 217 217
-192.031329589456 751.283099732033 2677.80500022442 195 197 196
-195.498531784493 748.124222461414 2666.27348695294 205 205 207
-197.434267028839 745.413858553548 2656.05852710664 207 207 209
-198.616760261415 742.929205125047 2646.51281910918 207 206 211
-198.24755872704 740.890139093404 2638.26583580896 208 207 213
-195.519733604199 739.515200740357 2631.94034323011 207 206 211
-193.601227090649 737.921886480184 2624.99447038977 207 206 211
-187.706561891857 737.429240820237 2621.21180540896 211 209 214
-184.210279211109 736.277604528933 2615.54239242481 208 206 209
-179.117369677298 735.565384790206 2611.13279987102 192 191 196
-174.024988790013 734.853056586591 2606.72366621702 180 179 184
-169.740110199527 733.922085673506 2601.69226425426 203 202 207
-165.459728348446 732.991562881393 2596.66507238618 241 240 245
-158.751251449669 732.715632282964 2593.49921961882 201 200 205
-152.035412588203 732.438508382582 2590.32667819356 184 183 188
-145.311693356974 732.160225645349 2587.1476295907 181 180 185
-139.397560959797 731.663580926428 2583.34811760331 180 179 184
-133.479614494035 731.166504644095 2579.54561813498 181 180 185
-128.379391281917 730.452162123996 2575.12970030898 180 179 184
-124.102880889284 729.521599534702 2570.10554871814 187 186 191
-118.180383749876 729.023610975413 2566.29911092896 190 189 194
-112.254546120201 728.525150350456 2562.48946536294 186 185 190
-108.812754754952 727.379872111412 2556.86692524742 188 187 192
-104.548232430962 726.451006056406 2551.85346866583 188 187 192
-98.6217267418508 725.952395576703 2548.04324503975 188 187 192
-91.8561767979886 725.667940458641 2544.82798025185 191 190 195
-86.7576975355009 724.953892685046 2540.41357205972 202 201 206
-83.3385720341027 723.811906436826 2534.81065593093 196 195 200
-76.5620707574604 723.526156144744 2531.58590762203 193 192 197
-68.9344114150212 723.452727973751 2528.94531504244 194 193 198
-60.4494393511201 723.590972725583 2526.88354793771 189 188 193
-50.2534283380323 724.152769087535 2525.98285450519 187 186 191
-37.4844974929056 725.349114895062 2526.81810520464 192 193 197
-20.4211527195572 727.601951892527 2530.5410067757 191 192 196
-6.715857455315 728.998965294265 2531.88663731697 194 195 199
3.60715342943685 729.543658391582 2530.8759793603 207 208 212
19.1004817826723 731.353832289484 2533.31570180713 209 210 214
30.3435973631609 732.101562361045 2532.82950122534 208 209 213
43.3387341216012 733.26744467639 2533.46888853303 202 201 206
51.1870799587717 733.164835297202 2530.63720813094 200 199 204
60.7792028543406 733.481548296009 2528.93825351058 205 204 209
70.3913917388794 733.795596667133 2527.22160873033 206 205 210
82.6337192454316 734.736451053543 2527.19168019053 207 206 211
92.2923321262053 735.044606751969 2525.43483624872 207 206 212
98.4751062718932 734.513700000307 2521.40270482051 204 203 209
107.290260477499 734.609297406102 2519.05534885401 210 209 215
115.243322965358 734.494382262472 2516.13298650842 212 211 216
124.968630075493 734.794634099335 2514.31838749794 212 211 216
137.361014704305 735.716717334449 2514.15852069408 216 215 220
156.859166553734 738.29663086277 2518.41548973431 222 222 224
176.422664314159 740.867886127648 2522.61619274326 204 204 204
188.945284119688 741.773149028767 2522.34355542666 211 211 211
196.158576126612 741.432865076539 2518.7402627582 217 217 217
-195.354516377721 745.824934481872 2684.69047732742 190 192 189
-196.437512772761 743.348979661261 2675.05847547731 196 198 197
-199.912477360128 740.221172932568 2663.53380432524 204 204 206
-199.491748890564 738.191696274088 2655.24209863879 206 206 208
-198.305960291376 736.383621456658 2647.60911402089 205 204 209
-197.933212456562 734.360448961048 2639.35926953694 207 206 212
-195.997098718653 732.775640595817 2632.39776525111 204 203 208
-193.281378666911 731.410297311824 2626.0827023962 204 203 208
