ply
format ascii 1.0
comment KinectMotionCapture
element vertex 788
property float x
property float y
property float z
property uchar red
property uchar green
property uchar blue
end_header
-89.8666812962876 78.0954930982685 3697.29689182055 12 15 8
-80.4368131182831 77.0259910095332 3694.42397551944 12 15 8
-60.9937590187282 75.4211735609201 3704.04949143499 12 15 8
-40.2142654515951 73.7381751544955 3715.16401109783 11 13 8
3.29605468282335 70.8233556095834 3754.22575059323 11 13 8
9.18868644634774 69.9260253482147 3746.47737230102 9 11 6
-15.9436098200296 70.7173594029526 3700.76427181094 7 9 4
-52.7167582399226 72.1620684717218 3641.31589364668 8 10 5
-43.2640197772414 71.0908188745086 3638.42316617167 9 11 6
0.720959863334869 68.1129073977609 3677.07359453609 9 11 6
26.3491840623482 66.1338613111831 3693.2509206014 8 10 5
-14.1624180259892 67.8288709921637 3630.4245527812 8 10 5
21.8184037005882 65.2689279904502 3658.80611068101 9 11 6
61.8692759753827 62.4659039084636 3691.60209641699 10 12 7
27.2801015659363 63.3130044134638 3622.32446573596 12 15 8
44.7210176669017 61.7772057472371 3628.39150037624 12 15 8
63.5391645553272 60.1577776091369 3635.91221876715 13 16 9
70.5925790507154 59.2083477379568 3629.8049232212 16 19 12
66.4297746063447 58.9058607243717 3610.91760768407 30 33 26
73.4480227415193 57.9615560201801 3604.84075887534 18 21 14
89.7606378235087 56.4770979695033 3609.23887813242 29 32 25
98.1392149754763 55.451612413697 3604.63003106652 27 30 23
-118.403121451217 78.3577317149862 3876.86163141803 15 20 14
-141.511875319315 79.0116931497699 3829.39522866114 17 22 16
-132.061962305633 77.9257626878595 3826.50504523671 16 21 14
-175.203689958486 79.6915991596635 3752.72428756316 16 22 12
-167.100148332445 78.6912955917619 3748.35366049371 6 12 2
-152.968175171688 77.3600819383149 3751.99399020162 8 14 4
-155.698118825605 76.9537475551653 3733.18901203231 10 13 6
-159.705303743344 76.623512859892 3712.84404990419 10 13 6
-150.407560888845 75.5593180213366 3710.08561697903 12 15 8
-130.109684519018 73.8791675998792 3721.61755312329 14 17 10
-129.92428177752 73.321434413578 3706.90334038351 17 20 13
-132.85493365109 72.9432226323071 3688.27214100739 17 20 13
-122.907682467308 71.8403872618984 3686.27458264349 15 18 11
-90.0587484876691 69.4319830371646 3713.39989563662 12 15 8
-55.7956848141523 66.9294034698472 3741.94666359653 13 16 9
-81.1122160111566 67.836358565606 3695.0689205309 11 14 7
-61.5771026163721 65.6326979059787 3690.06170973358 12 14 9
-38.2644666126075 63.7403603357693 3704.27537931808 13 15 10
-31.1836694626249 62.2538565026372 3683.59101436219 4 6 1
-16.5494102857173 60.3276841550519 3672.24271842817 13 15 10
31.9852921383319 56.9139522869712 3716.21633528848 12 14 9
24.3903271445514 56.3005675405782 3677.80879890229 8 10 5
38.5525237523883 54.9211921462887 3680.09998407943 9 11 6
26.7580975522974 54.586296711074 3637.39058630552 14 17 10
4.83356978024707 54.8956150927778 3583.60664651901 16 19 12
54.9858130510832 51.3136925004563 3627.50263333776 15 18 11
66.4046377754763 49.5848567674963 3612.32337140167 14 17 10
69.4550280525688 48.8866161098115 3601.74381686211 32 35 28
99.6914991864712 46.4978087952053 3621.86954567584 15 18 11
135.398089437808 43.7570873894264 3647.84375506959 27 30 23
-116.08221098756 68.1350411684889 3865.65280105404 11 16 10
-167.291331690501 70.5827391310107 3780.33269466304 16 21 14
-173.767197772516 69.9024543403208 3740.95562853843 4 10 0
-143.688025599459 67.0652235967304 3750.63419732095 12 15 8
-153.101432917987 67.1043031856691 3723.06199940598 12 15 8
-142.564091867811 65.9525567499727 3721.87656676136 12 15 8
-136.714311463285 64.5669113475791 3699.61167744496 16 19 12
-115.713286699882 62.7770357499173 3711.85814149611 14 17 10
-140.82758167392 63.7987904156563 3664.80436912267 14 17 10
-93.2079960596992 60.3732479574036 3710.89480353341 13 16 9
-75.7089591069469 58.7835998549152 3718.2350725601 12 15 8
-71.8304335154758 58.0314737128885 3708.26135342797 10 13 6
-57.8694878529573 56.1455530475687 3696.17312081484 9 11 6
-7.522950285622 52.4893841070019 3743.87128503031 0 2 0
-0.749115386774246 50.5284619883045 3707.57565701688 20 22 17
10.784765519118 49.2906288728951 3706.85030617504 11 13 8
-2.56449479163479 49.6369626535904 3676.07115814571 9 11 6
14.7145738228547 48.0336627256817 3682.27859371707 12 14 9
45.5607244204734 45.5550237384485 3704.52362630628 13 15 10
24.9629792810184 46.3797906162456 3665.4667687189 11 13 8
48.1850086375313 44.3845913378688 3678.43606050288 14 16 11
20.2336272744534 45.7017648052185 3631.19285681532 13 16 9
13.5470629625418 45.650591206631 3609.19798715245 15 18 11
33.5548472295106 43.8623897017306 3618.33521946617 17 20 13
49.0582641094424 42.3638339780216 3622.11121485959 21 24 17
63.95791272617 40.9015239848737 3625.08702216359 21 24 17
59.1260002612848 40.7374069580186 3605.45580459843 22 25 18
83.9837992630974 38.6141037438989 3619.65498340751 21 24 17
86.3943276026955 37.9734981898262 3608.30638585974 20 23 16
118.725075174268 35.3426785909455 3630.58859638182 22 25 18
128.513795296217 34.2073176918659 3627.40507696884 23 26 19
-228.098521794351 65.1725281857923 3699.41240133669 12 15 8
-224.336990190595 64.4472140248219 3689.54022686955 18 21 12
-209.80476818707 63.0380919559449 3694.15709672638 15 18 9
-137.118581996789 57.4114299109419 3760.88285824187 16 19 12
-150.741534287211 57.7932669207502 3727.69386157022 15 18 11
-134.726005449509 56.2701804644721 3733.67267182614 14 17 10
-119.257759544663 54.7783899623095 3738.802683714 14 17 10
-88.4358043290154 52.2834122733072 3763.71531492985 15 18 11
-156.287857271183 56.223070310906 3661.05009867511 14 17 10
-116.852014473097 53.16447201247 3697.02733043701 14 17 10
-87.70353203104 50.7677019625641 3719.41968614093 15 18 11
-86.9289395154516 50.2340825955266 3705.51822157256 13 16 9
-78.7298035954724 49.2116527860725 3701.06488287105 11 14 7
-72.3944083776407 48.31273213649 3694.25633226875 11 14 7
-6.45484007939467 41.0357948881991 3687.43867677022 11 13 8
28.6804577789503 38.1752396132601 3715.23208321439 9 11 6
57.5905955760154 35.7276176045425 3735.18451305424 10 12 7
44.8658745102581 36.120740250766 3705.18701209155 13 16 9
57.158891214717 34.8048525216391 3705.12745763421 11 14 7
30.0295413594429 36.20202958703 3658.49451213804 13 16 9
49.4007168213759 34.4015571223 3666.86033482975 15 18 11
53.2277748514951 33.6732051803289 3656.93107042561 15 18 11
26.343907596508 35.0806057732063 3611.40855095939 18 21 14
44.4442651884414 33.3668660931669 3618.22875340325 23 26 19
67.8711947338222 31.2764760804044 3631.02106766681 21 24 17
57.1246318557108 31.5753933531448 3604.60299535322 18 21 14
81.4364168626418 28.5178229794668 3590.16784592919 16 19 12
133.605089343782 23.9219713713074 3620.41239696956 13 16 9
-228.573515216921 55.7722702114666 3685.3281929837 19 20 12
-205.666289176739 53.7569376811404 3701.21730383843 14 15 7
-104.472780037606 46.3770602008909 3821.32417543499 13 14 6
-160.492618868632 49.2898332656532 3716.35008889179 15 18 11
-138.435855199048 47.3099834220516 3730.32957437974 15 18 11
-106.522705140804 44.6401315663251 3756.94408273613 15 18 11
-77.7820404246592 41.716059164713 3763.81324865061 15 18 11
-96.5868480773291 42.5716861456472 3724.52544859491 13 16 9
-120.506288050658 43.7978563462729 3679.08156508308 15 18 11
-119.217069848365 43.2620942115201 3666.05733069133 19 22 15
-12.86637292749 32.1432021792406 3681.14342809721 13 15 10
-11.5927087222407 31.6117055984987 3668.13264727288 14 16 11
14.621098091089 29.2744594780527 3685.12800985508 17 20 13
51.2384981846847 26.1733457332043 3714.28490558749 17 20 13
82.8890638791551 23.4228560670635 3737.15774516918 18 21 14
57.1476903405634 24.8583896900947 3691.96806390186 17 20 13
60.386595225232 24.1829249389233 3681.22496938739 18 21 14
49.8181075681927 24.0932634290116 3640.09825474746 18 21 14
70.6102333361365 22.1295316446122 3649.88006840214 17 20 13
92.8026558270525 20.0571157820173 3661.09573608652 18 21 14
82.8005368958866 20.3698311870859 3635.35559890524 17 20 13
96.4305328068091 17.6641603777166 3594.445576563 30 33 26
104.131248935902 16.668976239963 3589.10111429785 23 26 19
-188.720483974921 43.0725628083373 3710.41927363745 23 24 16
-121.580257385302 37.7332248865092 3784.59689307557 15 18 11
-184.763437765475 41.9349868277645 3685.82349496913 14 17 10
-145.787375218463 38.6459435402853 3722.20072809052 15 18 11
-113.905228060815 35.8673814583695 3748.84281222021 16 19 12
-125.87635324118 36.3251853628324 3718.1917234798 18 21 14
-83.9881108986926 32.7926303065401 3757.33980265892 14 17 10
-118.191656092578 34.9103778541722 3698.3067329663 13 16 9
-119.320192132662 34.5762305261202 3682.08338761138 14 17 10
-124.219738230411 34.5277517873842 3661.18646482296 18 21 14
-136.657620279738 35.0499194453219 3630.93919844669 20 23 16
-46.6274065455501 25.3902023829722 3641.6344755125 9 11 6
-23.1229270586852 23.1868210682417 3655.68388302568 12 14 9
-10.3953494284887 21.8048799860918 3656.57136789335 15 18 11
24.8499220891585 18.6879635186948 3684.27111744097 16 19 12
36.435348910965 17.3862518591462 3683.50150383556 18 21 14
53.8674293864982 15.6309326141311 3689.57761912881 16 19 12
53.6997876353156 14.4299222806331 3646.05993892963 19 22 15
24.0943631927339 16.3417335108066 3597.5996633084 17 20 13
48.1080010598265 14.0720138274815 3611.20819482623 21 24 17
94.6264594665101 10.0319831032365 3650.31648589545 24 27 20
71.3449621209468 11.4635503806439 3609.61170260061 24 27 20
67.7603056874325 11.354629937352 3591.54560746993 27 30 23
106.665667018826 7.89594983334418 3621.36859925369 30 33 26
71.7319494046977 10.2673241112453 3568.26011173713 35 38 31
104.112981062479 7.31714183373136 3590.50080871237 35 37 32
-180.030453574424 33.7229485942634 3738.67878082504 19 19 11
-180.367001582675 33.3498596394241 3723.09250419006 13 14 6
-188.59120010521 33.5929174227368 3697.13509173924 16 19 12
-151.313069165602 29.9001807993169 3716.45968489835 14 17 10
-123.719764234832 27.3460154909505 3737.5544670325 15 18 11
-103.93211945798 25.3969030151222 3748.20680573432 16 19 12
-106.135741572062 25.1737704794749 3730.26771948759 15 18 11
-92.4015490595092 23.697079574199 3732.93050180548 19 22 15
-81.7086613919011 22.458555566229 3731.61081363731 19 22 15
-103.821856410143 23.819149099965 3688.57030424793 14 17 10
-107.471247158871 23.3421323125375 3654.68262494488 26 28 23
-26.3525309173516 14.184376266901 3653.24807384206 8 10 5
17.0981992946873 9.90853631355404 3676.48988899473 14 17 10
26.0826452725009 8.80051458982903 3672.67970934829 17 20 13
33.1410670897982 7.84922762314935 3666.56808581048 14 17 10
46.6822461187326 6.36832499841947 3668.07461075951 19 22 15
16.6928149456269 8.45090439500756 3618.62280012052 17 20 13
8.64978575220343 8.74492345105968 3595.15486872683 20 23 16
33.2342153266141 6.36095075289328 3609.59267578953 19 22 15
42.8303765708988 5.2065397876184 3606.57649303502 16 19 12
81.2295581472719 1.30700782429591 3622.28393409347 14 17 10
94.9104822362257 -0.190798121350977 3623.66944650985 14 17 10
98.6613231245528 -0.86579768511838 3613.80589651735 16 19 12
143.065913529615 -4.92205714468777 3649.45309912706 17 20 13
97.7130116106713 -1.86379009429682 3570.96353530115 32 32 30
-92.7704413240944 18.2027338362624 3889.44197885786 21 24 17
-132.679791182954 21.0738566179418 3819.4690607543 29 32 25
-176.505290832621 24.2834160298834 3744.94802110274 9 10 4
-186.437182279495 24.7297789278267 3716.49931194041 15 18 11
-172.772315897412 22.8770244553988 3704.66748696432 13 16 9
-133.165549800517 19.242860458129 3741.82387942438 15 18 11
-125.611606361363 18.2514755303156 3736.60629019348 16 19 12
-91.167755961159 15.0286344463658 3766.32460749657 17 20 13
-106.198034111446 15.910679770715 3731.70531211402 15 17 12
-99.8460719800103 15.0187432750311 3724.88204160187 21 23 18
-95.3491937447031 14.282222252394 3715.69584927028 18 20 15
-92.1068710970787 13.6517508302444 3704.94950089992 19 21 16
-87.6461169289708 12.9206636089578 3695.79458338466 21 23 18
6.77275271146138 2.10812611017488 3694.75332867502 4 6 3
43.4260753285214 -2.07442652956241 3694.77214904007 20 23 14
15.6574853075733 -0.0401646403810352 3647.36586677509 13 16 7
-0.0201639377643836 0.965863489773816 3614.63012865053 13 16 9
-7.67665890692415 0.955157838746501 3577.59559351505 12 15 8
44.9851809911532 -3.92679880844235 3624.61820598487 13 16 9
46.0873637542245 -4.35869713987552 3611.75540889117 14 17 10
66.2448972499785 -6.44104483526209 3620.76475424027 20 23 16
99.6931824335308 -9.68163186571028 3644.72945882266 21 24 17
75.67032202856 -7.92860788971708 3603.34158210703 25 28 21
50.1248607503491 -6.03344399585773 3560.62595548309 26 29 22
98.369383723071 -10.5712742258924 3600.8882673605 25 28 21
83.3470269042014 -9.58762765521573 3570.23154602581 23 25 20
79.5906540566955 -9.5842672514172 3552.31355610072 31 33 30
-139.924095137805 12.2945971060495 3811.24771756131 18 21 14
-176.573596072628 15.1171253685921 3746.38988237336 14 17 10
-223.731798776472 18.8651008481148 3668.1373074286 14 17 10
-136.879342762664 10.998001358048 3768.91645742969 14 17 10
-132.921974995273 10.3143443360355 3758.87427478098 14 17 10
-149.006260743554 11.3783754891989 3722.52050913974 16 19 12
-147.59185699466 10.9224855665545 3709.38725436108 17 20 13
-110.785905079335 7.3730712725163 3742.35372858004 18 21 14
-96.4544771194102 5.78365645855999 3745.82285679414 18 20 15
-110.975528424419 6.72496574880721 3712.08507304097 23 25 20
-117.619080486103 6.98060513214718 3688.72767408691 19 21 16
-102.066559028165 5.28523050272295 3693.78596055388 21 23 18
-34.821335400431 -3.88665830712964 3631.59144407329 18 20 15
40.1096037241286 -10.9241905619311 3706.9674580105 25 28 21
38.2270521786898 -11.0752587692884 3690.07319776748 2 5 0
-10.2112650398145 -7.03121492524497 3618.22158455661 22 25 16
-13.0050602546965 -7.08776352081039 3600.79294308178 15 18 11
-0.262229583606999 -8.54466294182443 3601.66800883541 15 18 11
23.6013761587333 -11.0090042416326 3615.40783974152 15 18 11
-39.4156895173268 -5.60564240409578 3528.3926565274 18 21 14
47.3738186357795 -13.7771350533553 3614.67152204566 19 22 15
31.9927809267413 -12.684609832126 3583.00171592265 21 24 17
36.2781851943641 -13.375763435541 3573.99852169818 22 25 18
55.7793550114076 -15.4528549299406 3582.25346610793 27 30 23
38.8201880212167 -14.2046554466069 3549.30363532795 29 32 25
43.0370874265726 -14.8857073009185 3540.35943575756 29 32 25
71.301695948303 -17.767435162806 3558.22766029617 28 31 24
74.2184250543709 -18.330448287492 3547.76307842015 21 23 20
-183.223169805886 6.54535357043165 3738.97529697937 12 15 8
-161.944838264718 4.29886987147957 3752.30762898252 16 19 12
-179.723171448054 5.61622215901758 3713.4507310015 13 16 9
-154.148599320948 2.9743057790193 3732.32537640624 14 17 10
-135.117524310793 0.926777114535371 3742.3108381867 15 18 11
-161.646339320824 3.05839891021192 3692.50610658985 16 19 12
-144.43573928541 1.17834087122681 3700.09825612416 18 21 14
-102.647318457475 -2.96801883328815 3739.3368316674 19 21 16
-99.3525740802785 -3.57354081020134 3728.54488582672 23 25 20
-121.987479251096 -1.78230085642936 3684.63082542044 19 21 16
-105.212682037654 -3.62873134329925 3691.27722214584 21 23 18
-14.4695000732931 -15.2815789816089 3643.13956400294 15 17 12
-4.29503306344259 -16.5225466972253 3640.94564910361 19 22 15
5.9002797252421 -17.766015089267 3638.73399813575 18 21 12
-3.31387634908742 -17.1774315770231 3613.63237846335 18 21 14
-2.23527127696599 -17.557527093762 3600.78968131836 17 20 13
-5.75615132674923 -17.5003783792514 3582.6672327712 16 19 12
37.0799118762131 -21.8348519011771 3618.35247624897 17 20 13
45.1340207146522 -23.1524326938118 3599.4699341861 21 24 17
26.3626055564785 -21.6399566107404 3564.11903338573 22 25 18
43.8446805469175 -23.5755288751424 3570.15298467994 24 27 20
65.377305539307 -25.8998264666343 3580.61889390021 24 27 20
52.3583648585917 -24.926517981722 3552.19590490682 22 25 18
51.9125032304362 -25.1507778613003 3538.02698628427 22 25 18
82.2551081908389 -28.3216190999616 3558.06579269495 18 20 17
-180.618665665288 -3.13096476191166 3728.84038614846 8 11 4
-141.843716026257 -7.12257698620686 3765.39648372032 12 15 8
-163.880315178088 -5.28251276264377 3720.96353359905 12 15 8
-173.381233944963 -4.6399275836404 3693.46327427066 13 16 9
-137.972862109172 -8.31758177848313 3724.99539063354 14 17 10
-144.490387599516 -7.95945664294534 3701.52809580991 16 19 12
-119.860993055431 -10.6052208932712 3718.57546378997 17 19 14
-94.4973039090922 -13.3263531037565 3736.3101415027 23 25 20
-99.2230984992544 -13.1385498085332 3715.26109092376 18 20 15
-107.119776314673 -12.6399966534048 3690.34172527207 17 19 14
2.10358431706936 -26.4273294742539 3650.02073679501 10 13 6
23.9375683927547 -28.8321553157916 3661.54922996273 18 21 14
15.435454106985 -28.2474558810615 3637.154059632 20 23 16
8.56016506975799 -28.0680237785396 3600.76445400992 18 21 14
54.7005812701133 -32.8819330336642 3640.20573811294 19 22 15
78.7939284752639 -35.5194807895855 3653.74725070458 20 23 16
60.8980108388151 -33.9946343509035 3618.96102095747 20 23 16
57.3614126072846 -33.89016975701 3600.85188931534 20 23 16
84.8670170000023 -36.8695967081852 3618.05534223509 21 24 17
80.6311357416303 -36.6936630062939 3599.22826482121 21 24 17
65.0034679651643 -35.3798362474024 3567.77078780318 19 22 15
64.6007594927491 -35.5795902532506 3553.56430799075 19 22 15
103.688642649591 -39.7209022988005 3583.23320950686 23 25 22
89.8730695140189 -38.5802895113875 3554.17634548857 28 30 27
-117.687289251943 -18.5827877571881 3814.6713772203 11 14 7
-179.239891167362 -12.6498034225203 3717.12031704081 12 15 8
-171.18971692832 -13.6998567015157 3712.7962677833 12 15 8
-149.189905405698 -16.1544946842173 3726.82819238311 14 17 10
-148.372795329596 -16.4771118999812 3712.88850901758 15 18 11
-117.694988340068 -19.8116093187566 3737.93151879111 16 19 12
-107.061667098848 -21.1260868103427 3736.66395116625 16 18 13
-127.734692477387 -19.2743374495057 3695.01884953889 18 20 15
-111.608405360049 -21.1425821845425 3700.90389824693 17 19 14
-113.973490791111 -21.137939583833 3683.10359758504 14 16 11
40.0278447697726 -39.8561710648028 3682.08195174246 19 21 16
25.1111533945627 -38.5474997660293 3650.00827932922 9 12 5
9.40513502529328 -37.152777669081 3617.2946109975 10 13 6
54.13371220014 -41.9828681351536 3655.3128543295 11 14 7
75.577183480354 -44.4175366533789 3665.85675148306 15 18 11
58.4366206583402 -42.8697538667005 3631.73862529851 17 20 13
62.8432105669625 -43.5444400445129 3622.6302884137 22 25 18
61.9564018795309 -43.6704810445555 3607.51965712419 22 25 18
73.5917492213036 -45.0916213511145 3606.70754951036 23 26 19
84.5919213964264 -46.4474707190459 3605.12197157273 23 26 19
75.6431492067446 -45.7338099781308 3581.11310002978 23 26 19
110.005457978923 -49.5149112251961 3605.61235093139 23 26 19
105.681614381536 -49.2793872517918 3586.86112749207 18 20 15
79.7850485117668 -46.7969986226655 3544.44632611987 26 28 25
-91.4212790798663 -30.3215786471671 3883.29337568521 12 15 8
-124.368785193179 -27.3125820117656 3807.28548394085 12 15 8
-164.856389446186 -23.2786570072971 3737.80622471845 13 16 9
-164.605556102467 -23.5162997514209 3723.03354224266 14 17 10
-158.340147878088 -24.3850445883372 3716.28545634321 15 18 11
-132.623224759371 -27.3017706869569 3735.0385018006 15 18 11
-117.148711907135 -29.142425908967 3740.16502703913 14 17 10
-104.676459090706 -30.6677169449734 3741.27505552456 17 19 14
-119.803170819003 -29.2789232792408 3706.73605884846 16 18 13
-154.795940275549 -25.7852804591654 3647.05454597205 16 18 13
24.5024207145867 -47.6380360812461 3665.15161285694 5 7 2
56.7806832668665 -51.2902201066049 3688.80950888366 11 14 7
34.0440332975902 -49.0486473299039 3647.62723792767 11 14 7
46.7944126271442 -50.8008241550219 3633.94085826101 14 17 10
47.0382748802711 -51.2061696056282 3605.94143382539 16 19 12
56.700578812483 -52.8051272556189 3575.08011659544 14 17 10
73.6299526417255 -54.8150090080219 3580.2703345079 12 15 8
85.2796099322126 -56.2562519101115 3579.44595421248 12 15 8
50.7483260172692 -52.7084577630897 3527.30430058557 16 18 13
90.078100278177 -57.320033535623 3543.53303844829 28 30 27
-92.8058488915835 -39.598267141002 3899.11067692576 17 19 14
-74.8503431160237 -41.7536448173228 3907.38223482997 12 15 8
-137.041499463332 -35.3307436822552 3791.85422828253 13 16 9
-158.904898762378 -33.1198786770698 3747.26875682495 14 17 10
-164.062527470705 -32.7351636783722 3725.26945553349 14 17 10
-150.524545325035 -34.399545897673 3728.1032011606 14 17 10
-147.880617595963 -34.8683899196386 3716.55119495352 14 17 10
-115.993094455119 -38.5502354586396 3743.19447282464 16 19 12
-120.037667620377 -38.2838045603062 3722.87805002663 17 19 14
-123.541832534647 -38.0746404296771 3703.41686793493 16 18 13
-149.291524788699 -35.4127909165685 3655.57992849561 15 17 12
-107.890448454209 -40.1482777321409 3693.83478612051 14 16 11
-68.1189077977642 -44.709429928435 3729.53079306874 18 20 15
13.2428148680503 -56.0940993605544 3624.67812968566 22 25 18
18.9051131408551 -56.8867053568291 3617.12871109326 13 16 9
38.2730947067991 -59.2079370471055 3625.50067658218 7 10 3
70.8211799213188 -63.0021276481093 3648.92562781502 8 11 4
48.7255803066891 -61.1661387313462 3567.48969788941 21 24 17
92.909816268508 -66.2690718606418 3603.33467208707 24 27 20
80.5915441131368 -65.0447446314699 3575.6260227619 24 27 20
104.218456418721 -68.1553585793976 3560.46124446433 24 26 21
-137.400314016177 -44.1762808356769 3839.86340709075 18 20 15
-106.50533708374 -47.8515074997898 3866.04365667478 17 20 13
-162.292406735939 -41.8039079699916 3759.52456160467 12 15 8
-140.328136212856 -44.4610777727288 3773.58828776468 11 14 7
-149.037073560349 -43.6177017594169 3746.72386492801 12 15 8
-126.9706871695 -46.2880325449532 3760.69948439126 9 12 5
-130.319164930465 -46.0545910358068 3741.10320532966 9 12 5
-139.833297445788 -45.1139173100266 3713.61278272366 13 16 9
-108.474824287257 -48.8494078091484 3739.3916939795 13 15 10
-132.80221138645 -46.2095339661416 3692.96865568539 12 14 9
-98.2217484284802 -50.3166370832828 3722.57429601419 11 13 8
-65.9271262599312 -54.1650626062316 3748.86612148028 11 13 8
-74.9978530886808 -53.2698797189103 3722.31493888155 17 19 14
-22.8529265696942 -61.068701217075 3597.76794622787 11 14 7
13.8617763159856 -65.4458583510546 3626.84877492582 10 13 6
37.7502489235924 -68.3420490392762 3640.56985122078 13 16 9
68.1660510094591 -72.1283942467325 3647.31596378617 15 18 11
73.2682233880686 -72.8513166245073 3638.92831401608 18 21 14
54.6335304918668 -70.8213317844812 3603.45555764719 18 21 14
63.6031905112233 -71.9903403166738 3599.65890423131 22 25 18
118.340853277728 -78.4711656276961 3647.53952437228 24 27 20
103.530209801884 -76.8811176204467 3616.69537397683 26 29 22
90.5852989242639 -75.5049684878858 3588.20561027469 26 29 22
142.873255729896 -81.8359318266093 3618.35801687063 27 29 24
-136.897797676037 -53.6882514201281 3842.13633317937 20 22 17
-113.742498806425 -56.5564297522521 3857.81595685799 21 24 17
-152.775874909815 -52.1750104149601 3773.84045879527 10 13 6
-150.020503873203 -52.6220326799636 3762.19171926224 14 17 10
-141.260646598451 -53.781111928034 3758.57684508436 17 20 13
-131.277304171539 -55.0854362591978 3756.5489952834 16 19 12
-112.162067989383 -57.475035390679 3766.46372817609 15 18 11
-110.63747666423 -57.7741234473714 3753.23426929729 14 17 10
-151.953754683675 -52.9760500245289 3684.46829971381 14 16 11
-51.1682065454062 -65.3185332347078 3769.23004042035 9 11 6
-45.3094659318842 -66.1323244347549 3761.51049547086 14 16 11
24.2080702220697 -75.9735985412262 3640.44681802561 22 25 18
22.5504202274105 -75.9799093546655 3610.12281872068 18 21 14
24.2663918793848 -76.2868945572918 3598.05079567933 21 24 17
46.3086739952927 -79.0335008926981 3609.40096419452 20 23 16
25.9117746308921 -76.7818303185874 3558.25048559569 22 25 18
48.0360475581989 -79.5383406432046 3569.5296539056 23 26 19
76.9046564525495 -83.1067542335207 3588.20208022344 25 28 21
97.9043216038669 -85.7301898571621 3597.80828693195 25 28 21
74.3889633551094 -83.0934288998339 3544.06483434338 25 27 22
86.0205512398884 -84.5884714829815 3543.25646407465 31 33 30
96.3301908678993 -85.924350060055 3540.94632074602 20 22 19
-155.365128626308 -60.8758086081445 3818.48854248553 21 23 18
-142.984418386603 -62.4912289605041 3819.67818274004 23 26 19
-140.270926215796 -63.006371575642 3792.18610554319 16 19 12
-154.898621796218 -61.2929459471788 3757.2124900116 14 17 10
-158.215367908414 -60.9716129688707 3737.58813845053 16 19 12
-142.237555168415 -63.028356141931 3743.60309671283 19 22 15
-113.446661575234 -66.6661986656392 3766.31342970599 18 21 14
-104.611906178542 -67.8428802715241 3762.63375269736 14 17 10
-100.043284279478 -68.4927212430464 3753.38481586471 13 15 10
-87.6682307047498 -70.2744151203946 3724.14322776254 12 14 9
18.9876489413296 -84.6615555197505 3635.76407032989 8 11 4
21.4232008023707 -85.0373607523771 3624.39206808395 24 27 20
9.4762883298869 -83.6264647715684 3596.3603390031 20 23 16
3.30049506172303 -82.9308123996038 3575.24150265122 21 24 17
5.57753494926594 -83.2841327479584 3564.00674272774 21 24 17
33.5115085228366 -86.8252804785766 3582.16581351763 21 24 17
37.7930220698142 -87.4272037209252 3573.16541330564 22 25 18
40.0697443671088 -87.7793434616587 3561.93092099868 22 25 18
40.9878809963033 -87.9618679066821 3549.22602735567 25 28 21
47.8703939444149 -88.8855424158734 3543.26669142834 25 28 21
76.1574922013892 -92.4722098513996 3561.11999133103 21 24 17
73.0409974305846 -92.1513447736034 3543.96859951062 25 27 22
77.9387287949818 -92.8272118790733 3535.75784119675 24 26 21
111.17679987814 -97.0313912557839 3558.58741361347 29 31 26
175.045795976173 -105.051585802836 3614.44394660161 30 32 29
-173.613169436755 -68.0424566147395 3764.21334100508 15 18 11
-172.082648654393 -68.2952349800595 3750.97812725178 18 21 14
-179.600521192671 -67.3909592439945 3725.72780835796 14 17 10
-169.73337880079 -68.7077812415436 3723.80075428931 11 14 7
-143.512006885642 -72.1152759738636 3743.44333242054 16 19 12
-111.08870145307 -76.3165434337824 3770.94917077287 20 23 16
-96.1542060210698 -78.2819187114949 3775.22129583719 18 21 14
-97.6653049713909 -78.1434486613101 3758.00289255031 19 21 16
-99.2333087746919 -77.9969036916692 3740.83407393209 19 21 16
-100.858402833469 -77.8422211447622 3723.71468475867 18 20 15
-32.4392475647457 -86.7062920014729 3780.9259430679 12 14 9
33.0971938512641 -95.8350802696441 3639.48761783003 27 30 23
0.323292366059658 -91.6709964169171 3587.14204498235 23 26 19
-7.18401891495679 -90.7492859642623 3564.52929654687 19 22 15
9.13297794068058 -92.9273239767082 3555.69424160631 20 23 16
42.4014266566464 -97.2414727970746 3579.8214581136 20 23 16
52.6460862177252 -98.5981242929886 3577.5677699537 21 24 17
44.7178159780606 -97.6971077595309 3527.52932897206 25 28 21
56.2660749324544 -99.2195848335347 3526.79336065871 24 26 21
113.594108646836 -106.627437176712 3576.40491847676 27 29 24
141.536091330293 -110.2581378883 3593.23405140383 28 30 25
150.651467386414 -111.468029810321 3589.31136558656 26 28 25
-124.137926044884 -83.7722534155193 3864.35556926304 14 16 11
-156.826412639657 -79.4744127172077 3803.9952167665 19 22 15
-193.368515026705 -74.6651317795362 3739.03142118997 15 18 9
-194.894967895426 -74.488640094139 3721.82639482776 16 19 12
-186.268006500008 -75.6555054746828 3718.32644122688 16 19 12
-169.190463233647 -77.9406133630048 3726.03685609156 15 18 11
-155.670960135202 -79.7546178572207 3728.88758772919 12 15 8
-143.926011845611 -81.3334363281876 3729.30476766485 12 15 8
-115.100103891798 -85.173678541552 3751.98606400811 15 18 11
-106.285087468875 -86.3641705672292 3748.32358496942 16 18 13
-98.6830352928196 -87.3936769878343 3743.06486070806 14 16 11
-72.0114057336532 -90.9484561416578 3762.31782324878 17 19 14
-77.9118353518973 -90.188949575775 3739.63664467482 16 18 13
-31.2732176247117 -96.3882853287568 3783.94814069348 20 22 17
61.6630991221734 -108.975534141711 3674.36482783485 19 21 16
21.169389510217 -103.620639841959 3612.82249669083 16 19 12
12.4256926903556 -102.47476816682 3588.63276270304 18 21 12
13.4255225696327 -102.620265655577 3575.85682264816 18 21 12
29.5271939275419 -104.767926021635 3580.4420719807 18 21 12
34.4617226892709 -105.434376007001 3572.19935901673 20 23 14
52.6302305492763 -107.85552865933 3578.96476171445 20 23 16
38.3138552984152 -105.968056039608 3549.01354483534 20 23 16
29.8636016637808 -104.858027238762 3525.89328173888 20 23 16
32.6829066104608 -105.242125238315 3515.51198150921 24 26 21
48.2178460425189 -107.312437457914 3519.26436016996 25 27 22
126.35887083697 -117.686674045578 3591.88001491194 26 28 23
-116.53473471988 -94.3482451229655 3876.36137251141 15 17 12
-200.588522797531 -82.8276318165026 3730.78502300421 15 18 9
-178.798971547385 -85.8057149735716 3745.00257967766 15 18 11
-179.121539434015 -85.7555397480416 3729.40144320633 14 17 10
-162.623510492892 -88.0081395633642 3736.29035692903 13 16 9
-147.268105791302 -90.1039565855883 3741.52208645068 8 11 4
-153.691676479609 -89.2172781799846 3717.9699325846 7 10 3
-132.609509495131 -92.0884220087034 3715.5962582696 12 14 9
-80.9763837033466 -99.1491873187638 3767.49471109557 14 16 11
-39.1113123624787 -104.862583427599 3790.79661280248 15 17 12
49.1722984923837 -116.729432768014 3646.86389426711 17 20 13
20.9068767592684 -112.846894963083 3599.87594151865 18 21 12
19.3133995422987 -112.612906588082 3584.05221137318 19 22 13
36.0903353021382 -114.891292136762 3589.37597723816 20 23 14
25.2062801652793 -113.385881614113 3563.06925630102 21 24 15
24.14273808481 -113.223402064274 3548.10962106268 21 24 17
41.6267909659474 -115.597143353252 3554.14469739412 21 24 17
21.8672107777502 -112.877321810811 3518.3191902437 21 24 17
27.3379497244726 -113.607509829166 3510.93539853467 24 26 21
70.3400794987412 -119.469033075547 3545.16334059406 25 27 22
73.8918292427857 -119.935780605331 3535.47100057419 25 27 22
122.61201843512 -126.577347617606 3575.33466770819 26 28 23
66.7259534036035 -118.917502238774 3500.65139761864 26 28 23
-179.976933067838 -94.9415976717626 3791.07678679593 17 19 14
-142.730083011148 -100.177278223865 3826.31888305226 16 18 13
-198.862070862153 -92.194857219535 3734.64301942324 16 19 10
-143.572552041898 -99.9826515973362 3793.96377415286 14 17 8
-197.189008419614 -92.3579389925812 3706.72686232173 13 16 9
-112.697202668141 -104.274977456171 3804.28495746197 12 15 8
-135.245074903537 -101.04653494137 3758.96257298887 8 11 4
-134.951097575268 -101.049634800954 3744.15097622714 7 10 3
-112.189542779727 -104.230063037555 3758.8506345628 9 12 5
-128.824589498481 -101.799489217265 3707.08498550447 10 12 7
-89.3560888380192 -107.339901665087 3743.04999374069 13 15 10
-91.6022635551794 -106.982344189126 3725.14434199168 12 14 9
-25.8006638716108 -115.557610407612 3560.97527981294 21 23 18
9.11811182962508 -120.436836464322 3587.64585844549 20 23 16
-3.65591809285881 -118.59119625212 3559.0049437634 19 22 13
15.6790972077876 -121.27170698948 3567.40781043659 19 22 13
20.5751311548701 -121.916444236595 3559.19832161306 20 23 14
48.2571614924394 -125.725341344755 3563.02036403979 21 24 17
17.2053544263848 -121.304727244369 3514.47420225075 21 24 17
25.336352600799 -122.404119873403 3510.08073521634 24 26 21
62.2916518974139 -127.562278142365 3537.63451487866 24 26 21
78.593607339271 -129.810630946039 3542.04682328602 24 26 21
34.268984543337 -123.522827547667 3479.84873889578 25 27 22
78.905792775712 -129.759420319213 3515.30879858175 27 29 24
87.8184456932947 -130.966017818381 3511.56148333467 28 30 27
-172.952342419574 -105.254852189171 3802.25880511992 17 19 14
-164.194376116653 -106.466137063621 3798.64590820906 20 23 16
-134.56640893824 -110.726916918874 3823.2815933441 18 21 12
-189.094788827615 -102.689747600259 3734.18556841242 12 15 8
-143.842505965871 -109.231777299792 3779.7008713555 13 16 9
-150.707052492617 -108.159651929831 3755.20646452624 14 17 10
-154.040739706162 -107.603559349246 3735.59527517857 15 18 11
-146.532405410351 -108.630348056422 3730.41744644897 15 18 11
-118.339145561356 -112.675449575757 3752.32514826625 17 20 13
-131.501703734754 -110.684685236428 3720.04994644762 14 16 11
-129.49066774634 -110.908243540735 3707.7213244187 15 17 12
-109.079648637572 -113.81508340478 3719.16314466239 10 12 7
-88.5777151761351 -116.733837468142 3730.52624337306 8 10 5
-83.447968468505 -117.410498312188 3722.11439416496 15 17 12
-17.6940781253214 -125.750933582826 3557.98516167604 17 20 13
-8.25608240228526 -127.047989778634 3555.10667549578 20 23 14
-15.2417660930069 -125.960995078884 3533.36400350418 19 22 13
42.9927214438885 -134.337448725666 3586.16627990186 19 22 13
47.9485754438129 -134.981468705541 3577.90493824042 20 23 16
40.9438517915262 -133.890584623327 3556.17842815174 21 24 17
23.8651036374633 -131.339566678701 3523.32380036871 22 25 18
35.3575590664024 -132.931370312189 3522.63696372738 23 25 20
54.9177048201148 -135.691657939413 3530.84490318806 23 25 20
50.3636992900947 -134.956730793485 3512.29024873667 24 27 20
61.2429170704583 -136.45776688704 3510.81076264707 25 28 21
13.3240251760478 -129.442706149918 3445.10631244713 27 29 24
101.385184542746 -142.119581542302 3527.66566539781 29 31 28
-162.491688066634 -116.055124552309 3802.52593866555 19 22 15
-157.287652815404 -116.738466264255 3794.04974419864 18 21 12
-171.50737448748 -114.394198967172 3744.16130350207 11 14 7
-145.356874626808 -118.232552159532 3763.86810096394 13 16 9
-164.97310349419 -115.178371661337 3722.62282041547 14 17 10
-162.954193226981 -115.38247939286 3710.28724742588 14 17 10
-130.56531698171 -120.155873941784 3737.82663419018 16 19 12
-152.302078447727 -116.785689121429 3694.44714962159 18 20 15
-136.890187895413 -119.003338304767 3699.63039478866 23 25 20
-100.536982142361 -124.367281052493 3731.67777769771 26 28 23
-97.26444844447 -124.757320774909 3720.90368632075 18 20 15
16.9192820305897 -140.020709285982 3599.5384375798 17 20 13
-4.33424445221453 -136.743358453117 3561.03376093652 19 22 13
10.3927442511704 -138.840175841735 3564.16333041732 17 20 11
24.5094370053014 -140.844705496017 3566.49769092242 17 20 11
51.901795772423 -144.828982536477 3583.80580935005 17 20 11
50.8876053089566 -144.573738198448 3568.80279817318 20 23 16
41.1707737765696 -143.02107517931 3544.13093364237 21 24 17
39.3630787166144 -142.648518550822 3528.49166036281 21 24 17
47.5478003965279 -143.765438880772 3524.05142730221 23 26 19
40.2891559902669 -142.581139229377 3502.5447096357 26 29 22
28.2266625839145 -140.682175585157 3475.93325688623 26 29 22
36.3263893895267 -141.786459549798 3471.56692556717 25 28 21
41.7219974307348 -142.487695374571 3464.24806490357 24 26 21
81.7906716704479 -148.347753650279 3494.40159343736 25 27 24
-121.659145823547 -131.883042877623 3875.75243572008 9 11 6
-172.066225677314 -123.91208802103 3791.02495723877 19 22 15
-137.712468304946 -129.116735861134 3822.15746443669 18 21 12
-153.364987391453 -126.551625067197 3785.41974407654 15 18 9
-137.603705611208 -128.73201767562 3775.74310175252 15 18 11
-140.278279485285 -128.184261446261 3756.88395007384 15 18 11
-158.162702916984 -125.27929232163 3718.1087165278 15 18 11
-156.156242990197 -125.459573209752 3705.78409581009 17 20 13
-156.011973258961 -125.351536879901 3691.10122032577 15 17 12
-148.568932472664 -126.374143646703 3685.97995672873 25 27 22
-101.017331006825 -133.471466427772 3717.59597702805 18 20 15
6.44764422288446 -147.660831439169 3588.81360000254 24 27 20
8.10193522777602 -147.783205126344 3576.79384150789 16 19 12
17.6095972935575 -149.111082643278 3573.85517272719 14 17 8
30.4300099271901 -150.946460612638 3574.66544795564 14 17 8
14.8504631457325 -148.425228905663 3543.15812321456 16 19 10
35.6167712012794 -151.478069814132 3552.96968697568 17 20 13
41.8295568080378 -152.298608280446 3546.2665830991 18 21 14
36.6909069407146 -151.379966048752 3526.89420955921 21 24 17
44.19924116177 -152.398849771196 3521.71632966991 23 26 19
49.0250586645731 -153.006583224667 3513.56746017704 27 30 23
53.164626772261 -153.509113047033 3504.68944510761 26 29 22
98.506072254243 -160.313281625441 3540.86570913892 25 28 21
36.315800386078 -150.672031112255 3459.72338777473 27 29 24
73.6406128093123 -156.247421568245 3486.95991631603 23 25 24
-111.629434395947 -142.890987012975 3875.07085232248 16 18 13
-169.347748876158 -133.488219827042 3780.79061299507 19 22 13
-135.51792536567 -138.733308031101 3811.05423368613 17 20 11
-165.041855348984 -133.849033564973 3755.88712686579 13 16 9
-131.660146164775 -139.018083668183 3785.21539074983 13 16 9
-151.811872299141 -135.635885895465 3743.10854298584 13 16 9
-164.275278784917 -133.484371570951 3711.54958047702 13 16 9
-167.147314422668 -132.865228011044 3692.86111341492 14 17 10
-160.329342274091 -133.791858573627 3686.95773647374 17 19 14
6.42835502053085 -156.866690501846 3590.21323371569 20 22 17
6.12111242633429 -156.657612563721 3575.92136095395 21 24 17
19.5655692724164 -158.61721482179 3577.51482048105 14 17 8
13.2792644067288 -157.466097120753 3556.48881707636 15 18 9
21.4551982151865 -158.594447760207 3552.05659036136 14 17 8
7.09117407270154 -156.173410165814 3522.14321497501 14 17 10
34.5049003760729 -160.329525891846 3539.43361139704 16 19 12
79.3956276190819 -167.231372291263 3576.0014775945 16 19 12
97.7466541672705 -169.954527701568 3582.61064177001 18 21 14
88.6397939554571 -168.360457213792 3558.73277020831 19 22 15
68.6587401875713 -165.060036368521 3523.09545987224 21 24 17
87.6927996294867 -167.888928163866 3530.43687644677 29 32 25
112.22103486489 -171.577903534993 3543.60858474071 28 30 25
138.894573083506 -175.600494199065 3558.89282627878 27 29 24
76.3866092532917 -165.63601268717 3478.02376541248 45 47 46
-116.455174541585 -151.484876563082 3854.16533373736 18 21 12
-112.9753591123 -151.656020792647 3827.33008838122 14 17 10
-149.170892215752 -145.509772500338 3763.38050603965 13 16 9
-133.774639930557 -147.842812323495 3768.57805318915 12 15 8
-163.724638084983 -142.732167582641 3713.77908359538 12 15 8
-161.730204983412 -142.867283806918 3701.46427877839 13 16 9
-161.596512269182 -142.697884742616 3686.79048865569 13 15 10
-2.40630008741949 -164.459623272114 3567.48254060107 22 25 18
-13.9473204279867 -162.403656861456 3540.41840653236 16 19 10
7.33921004830496 -165.660394447308 3551.10334143704 15 18 9
29.3771367570863 -169.035728068813 3562.46135910861 14 17 8
1.12355096834493 -164.281621338513 3516.78107631832 14 17 8
23.1940849010757 -167.660388045395 3528.11085438332 17 20 11
40.6894312480976 -170.297592357527 3534.13784950889 17 20 13
18.7708804499747 -166.573797801168 3496.20699589011 18 21 14
14.1264475832084 -165.639817870346 3477.72942819485 18 21 12
5.37224295998673 -164.04497922587 3454.86946876573 20 23 14
89.0411183297797 -177.339816526956 3533.29958028562 25 28 21
131.181400162518 -183.93540262886 3565.63212091039 27 29 24
108.989897798306 -180.172783199695 3527.93759263893 28 30 25
-137.311361597511 -157.961952204646 3859.05055707759 3 5 0
-77.4356195028911 -167.866539245745 3924.99733314279 13 15 10
-67.7621537933262 -169.264235524106 3921.91540881158 17 20 11
-136.615915361631 -156.92340708211 3781.68656472924 13 16 9
-153.747083421659 -153.804399334505 3743.58033157361 13 16 9
-134.12521423257 -156.888516772693 3754.38370879651 14 17 10
-141.742701722947 -155.378641331592 3729.21580546112 15 18 11
-159.816604923377 -152.110299096208 3690.60213066175 13 15 10
-169.499382366427 -150.259280866153 3663.25197962142 16 18 13
-14.8559755395392 -171.542733444193 3554.49874728216 22 25 18
-22.3091694418942 -169.875603822814 3518.60039226225 16 19 10
37.5767335470103 -179.375003572387 3559.39157073166 15 18 9
24.5215222633708 -176.99527942262 3530.99090516502 17 20 11
32.0162837826241 -178.020757042216 3525.82514746569 17 20 13
13.4259946458988 -174.730129339306 3491.62899663734 18 21 14
-6.66273108254689 -171.196204418472 3456.08349634748 19 22 13
0.678955290254635 -172.199741934705 3451.04995669455 20 23 14
13.4254648773942 -174.095323919266 3451.92467647333 24 27 20
142.270482025969 -194.930436944265 3565.35583580641 25 27 22
-90.7445561838189 -175.582670977261 3924.67237328669 2 4 0
-153.998175772235 -164.307168392 3821.94409122924 15 18 11
-61.3273127442304 -180.152945365803 3932.28873689137 18 21 12
-126.317413065233 -168.327482431624 3812.53504708443 12 15 8
-134.284570454534 -166.683314714166 3786.34576861694 12 15 8
-142.055252676097 -164.818795857964 3745.42795404688 12 15 8
-153.335345224529 -162.610188768977 3715.48983810935 13 16 9
-160.47445562639 -161.121738512379 3691.2307078641 14 16 11
-119.425739684582 -167.963668416008 3729.80461871047 17 19 14
-95.0873424658543 -171.653617079539 3731.23057835667 19 21 16
-40.5778947721922 -180.797132781743 3785.9431903906 17 19 14
0.184029498925931 -183.207758185831 3573.29909347978 20 23 16
-4.53078048249411 -181.914874760919 3540.32338232429 19 22 13
35.2981780034116 -188.441940671172 3572.01226421657 17 20 11
72.6823952485201 -194.54592144529 3600.52399061399 18 21 12
18.536934764287 -185.103968484833 3525.64378876859 18 21 12
-2.65290574361243 -181.266163371566 3488.40385782894 18 21 14
30.8210911793472 -186.70205415046 3512.36018723271 18 21 12
11.4663507191106 -183.180530136383 3477.50185675838 21 24 15
8.09954454348061 -182.371426946487 3460.56457054759 22 25 16
3.99576131329082 -181.439321639218 3442.94167539859 23 26 17
46.5365148649157 -188.397261093621 3476.25303723351 23 26 19
64.8500608589759 -191.252508274265 3482.89554311046 30 32 29
-125.09680167009 -179.178561927217 3879.03845174889 0 1 0
-136.306630546792 -176.875754699495 3847.71556447013 11 14 7
-176.774939000906 -169.356657958976 3776.87373601349 15 18 11
-122.805318615157 -178.392832205788 3818.81966943141 15 18 11
-137.598324861272 -175.173167278856 3768.09918161109 12 15 8
-169.333781883045 -169.242965996429 3710.87232451928 12 15 8
-149.749187737779 -172.437044997809 3721.70872191617 12 15 8
-121.552920038585 -177.155193069463 3743.61817807999 14 16 11
-132.925038684272 -174.851040737479 3713.75920533323 17 19 14
-92.9264059566464 -181.652874623301 3750.59616396589 16 18 13
-70.5423853998286 -185.326675648455 3764.30298099242 14 16 11
34.1847056881872 -198.312471527188 3614.06523863186 18 21 14
5.71954525096352 -193.069017994532 3567.2419033428 25 28 19
19.1606295305293 -195.13718883956 3568.83898952167 21 24 15
29.3410722163161 -196.635319038009 3566.64156170851 19 22 13
60.0755267022799 -201.709151898987 3587.67664586857 19 22 13
49.7633685108676 -199.638420214877 3562.1938388691 18 21 12
-3.310792236773 -190.14030891919 3489.03157638421 18 21 12
31.4919342313842 -195.916841504498 3514.48529275496 18 21 12
58.4199377666037 -200.319491589376 3530.87501923594 22 25 16
32.3315185714952 -195.523052330507 3488.61119341833 24 27 18
39.7766929406447 -196.545197852989 3483.48807757948 23 26 17
30.306671368955 -194.637500800349 3459.92325422696 28 31 24
49.9268718417816 -197.767356766047 3468.08185242883 24 26 23
53.9646779573868 -198.198930967009 3459.29157834154 20 22 19
-108.558184038346 -191.456040991978 3887.28072364667 8 10 5
-134.648620323413 -186.344884418878 3835.75314960703 15 18 11
-213.450311621705 -171.60249491868 3713.3944287507 14 17 10
-182.73018919151 -176.902151278796 3739.73675736179 13 16 9
-104.406204069903 -190.885713089728 3829.42056020491 12 15 8
-136.45903558744 -184.068231114954 3740.70224836242 14 17 10
-91.1788320083824 -191.989314928802 3784.87934236197 13 15 10
-99.9975223443155 -190.062250035924 3758.10302405447 13 15 10
-85.0225591297797 -192.46186016047 3762.34288808969 16 18 13
33.2584882677183 -207.156419384527 3600.36851743349 25 27 24
11.9086012136864 -203.03961021851 3561.94223576287 29 31 28
33.9492349094845 -206.667219575324 3573.29954194454 23 26 19
22.9758580357857 -204.407850178145 3547.06535369506 25 26 20
10.0232236345299 -201.50227803009 3505.3385027769 21 24 13
5.42833208467064 -200.388604136936 3486.81683142018 22 25 14
28.2495618981478 -204.147575132394 3498.82199450009 24 27 18
50.4966492307921 -207.799873831539 3510.00051988137 24 27 18
40.4616521506696 -205.721732573227 3485.60070024218 24 27 20
47.2376737307352 -206.627083298539 3479.73354547274 20 22 17
54.0133582630635 -207.531939486834 3473.86667963009 31 33 30
48.5366318169409 -206.268037682 3454.78509192244 20 22 19
37.523594895216 -204.027820340814 3429.90866344004 32 34 33
-122.851293454086 -198.034958300777 3853.39410572047 16 19 12
-197.149381806551 -183.390755481825 3721.83922756179 14 17 10
-119.27603506025 -196.905488031868 3780.15010733729 12 15 8
-84.9707546301315 -202.954350673774 3810.00684090439 14 17 10
-76.2501923763703 -203.864224298167 3790.54401775847 13 15 10
-93.0524278893636 -200.380491531369 3753.47358438587 16 18 13
-78.0512058322462 -202.818940872146 3757.69094061745 15 17 12
10.5814086406304 -211.967675800588 3561.82715448658 31 33 30
-12.2591324215016 -207.468655779381 3522.04356223281 20 22 17
14.3628338036059 -211.996574914571 3538.6993539974 18 19 13
11.8909623866816 -211.217745170636 3522.30985270797 21 24 13
4.69862468150284 -209.581872679264 3500.74242292417 21 24 13
10.7826152833206 -210.364413144683 3494.15101959271 21 24 13
-1.90322674464483 -207.735540318146 3466.75185479781 23 26 17
92.1791360346735 -224.499722812755 3557.35245543248 23 26 17
39.8092004422939 -214.342043716171 3472.98850816136 24 26 21
49.9559706416361 -215.858365992148 3470.82038338765 26 28 25
47.8746807467947 -215.159931072355 3455.41644839914 30 32 29
38.9141398424218 -213.219309237336 3432.73308735788 22 24 21
-97.3427636369548 -212.075091114509 3873.72342948047 7 10 3
-154.745077903472 -200.65832882274 3780.479511543 15 18 11
-183.785656881889 -194.704042961947 3726.21010971732 13 16 9
-146.835490296469 -201.404221671543 3760.39526580196 12 15 8
-133.847551139626 -203.50676544964 3762.38533188427 13 16 9
-121.738073318387 -205.055007222237 3747.92954670264 13 15 10
-115.99706292373 -205.768953159983 3740.31139576581 12 14 9
-55.1453922261871 -216.988702557178 3804.0972453314 16 18 13
-97.7789089911458 -208.479464254932 3733.80208821834 14 16 11
12.8091797745724 -221.192785127885 3552.01584784846 11 13 8
20.3136317890711 -222.233812943695 3546.84147630139 23 24 19
45.0814585705852 -226.490646137408 3561.13246259523 18 19 11
41.3273097135227 -225.431567461466 3543.20570397699 16 20 6
-15.2597885791463 -214.548582649327 3466.46232133238 18 21 10
38.4055057276367 -223.820411434533 3499.41041053157 20 23 14
64.0744281922667 -228.230126305369 3514.24463635652 23 26 19
59.431108647356 -227.01462169867 3495.76427941828 23 25 20
37.0839588547911 -222.523366104085 3458.19993478714 25 27 24
51.9745896952322 -224.931591408268 3461.18968767677 21 23 20
-136.759051998323 -213.944961167919 3821.88079326654 16 19 12
-172.751438093448 -206.447281715969 3757.74637880325 16 19 12
-136.451023023506 -213.160596428273 3791.17152213093 15 18 11
-151.716765097446 -209.747521698124 3755.41664978897 13 16 9
-139.953667633329 -211.638665341337 3755.82012305761 13 16 9
-134.217639558454 -212.347696130648 3748.20657413898 14 17 10
-147.341182071713 -209.36908595756 3715.89083926686 12 14 9
-110.565527272325 -216.144575394161 3748.9044781325 12 14 9
-100.525984842069 -217.690600999272 3746.82979951167 15 17 12
32.4616695078475 -233.317500384427 3548.29445231253 24 25 19
30.6703924466012 -232.589933778418 3532.63864848985 19 23 9
44.1833454083254 -234.774440559283 3534.17419735837 20 23 12
21.568402993402 -230.093864777517 3495.51715503426 19 22 11
39.7551396804947 -233.16595749013 3502.27129177297 20 23 12
41.1637252569421 -233.052429389186 3490.46265084262 24 27 18
59.438106298678 -236.135149772846 3497.14057642354 25 28 21
51.339690268474 -234.222127272326 3475.03373599444 35 37 32
46.5507394050895 -232.939490598646 3456.67916793711 52 54 49
49.19486339455 -233.064524286819 3446.44802459667 38 40 37
