ply
format ascii 1.0
comment KinectMotionCapture
element vertex 798
property float x
property float y
property float z
property uchar red
property uchar green
property uchar blue
end_header
-79.4510566283875 131.024040979988 2788.04361304282 26 27 19
-81.7792855516246 130.501023611448 2776.83140664388 18 20 9
-103.783983321668 130.532023768651 2749.58618261717 14 15 9
-110.971725510552 130.160419801937 2734.64471361784 18 19 13
-111.910089120811 129.617867899672 2724.87450932248 20 21 15
-93.093822341427 128.510872875454 2731.07027582003 20 21 15
-101.984110912772 128.200873634825 2714.9572285105 14 15 9
-106.175328753538 127.761062416695 2702.71236513577 14 17 10
-101.642244765969 127.068568852597 2697.4646048074 12 15 8
-101.112805462906 126.496057296502 2689.06923436384 14 17 10
-111.833024676446 126.264804452098 2671.89522169518 17 20 13
-121.028332007942 125.995861702445 2656.0465945746 14 17 10
-92.4247060795884 124.576991136523 2669.64140306021 11 14 7
-81.4766388399981 123.691346591722 2669.42151578906 13 16 7
-77.7901173029028 123.029055740042 2663.58372946657 15 18 9
-89.5393364937807 122.85251272736 2645.97797267208 17 20 11
-81.0258893290863 122.043236400616 2643.89766513415 18 21 12
-89.6333157615228 121.778933848832 2628.86273131072 18 21 12
-77.8598596708484 120.866015061915 2629.25088746395 16 19 10
-77.5358696097426 120.321184765804 2621.03340788793 16 19 10
-67.3716720037372 119.457329679599 2620.16952653574 18 21 12
-65.4256236825961 118.86176031468 2613.19331680901 19 22 13
-54.4085589728969 117.966906119799 2612.9136866292 18 21 12
-39.2225604827008 116.929885042292 2615.63854832237 16 19 10
-19.0071618860288 115.718652377937 2621.94525780443 16 19 12
-17.0300454594337 115.118923353066 2614.94214718868 15 18 11
-15.9046512990506 114.55003016318 2607.35347867392 14 17 10
-4.7635644791999 113.638552063388 2606.96677730948 13 16 9
26.5269935616153 112.025966821567 2620.88050217269 12 15 8
68.0285021304603 110.04455365853 2641.82681171559 12 15 8
72.6345335739009 109.342387737185 2636.51588788226 9 12 5
102.571407618074 107.744526194156 2648.95628216883 10 13 6
114.847588567102 106.76411242102 2648.90914598628 10 13 6
119.518264445936 106.053259450301 2643.54224878948 10 13 6
124.183897427405 105.343057803066 2638.17940271965 9 12 5
136.065219573935 103.830833386444 2629.21480938296 11 18 11
136.439015751507 103.279314339791 2620.95420439881 2 9 2
139.363991146939 102.63578976533 2614.45309501272 0 4 0
-87.120401210961 125.070754327854 2801.34642249586 26 27 19
-85.4982136281999 124.449095967888 2793.32750718452 26 27 19
-73.7430157211718 123.517000026665 2793.73192814308 25 26 18
-85.4505932782068 123.311998705719 2774.76668707335 21 22 14
-85.4712187899276 122.749445524372 2765.524752174 17 20 13
-99.6917383586671 122.639566432038 2744.76685374891 16 19 12
-83.2334888168806 121.560728559428 2749.03611795605 16 19 12
-98.3720345729449 121.49338028337 2727.75036935273 18 21 14
-87.4367453512575 120.590702844592 2727.54166762258 12 15 8
-88.4051369045529 120.074708308468 2717.79731753239 12 15 8
-87.0145745244582 119.484344061967 2709.97927283608 12 15 8
-74.4526257992364 118.524867613556 2711.00789216066 15 18 11
-113.153133790484 119.278748727662 2671.7614166581 17 20 13
-114.311264701864 118.788284220306 2662.18135505444 12 15 8
-99.3905164200175 117.754460983631 2665.13609791541 9 12 5
-67.461090908636 116.133189329388 2681.14298692326 10 13 4
-77.069057087944 115.404454773262 2656.39154839092 13 16 7
-78.2890494995181 114.922351190706 2646.86505019407 15 18 9
-69.7529154251759 114.099629332765 2644.76516622345 16 19 10
-73.4690413148136 113.710385959118 2633.43177228175 18 21 12
-69.0320488168656 113.034196163968 2628.26719225257 17 20 11
-60.4905782075895 112.210781827002 2626.16268740259 16 19 10
-65.1171769840078 111.863014886895 2614.29458788516 15 18 9
-64.8374921311365 111.341147684236 2606.11536042423 14 17 8
-19.0408624213707 109.150490551714 2631.28048625237 13 16 7
-19.5299213955531 108.651085641697 2622.4441502702 13 16 9
137.057982720115 101.762892601054 2718.35579574694 13 16 9
73.7770914233584 103.071165750788 2655.41640473287 10 13 6
102.782248253644 101.438829313009 2667.34131434499 10 13 6
111.685366389962 100.566902244237 2664.92367094776 8 11 4
81.7649890913703 101.191995792152 2635.27162851104 11 14 7
92.2982374077774 100.262753654978 2634.08830135249 11 14 7
80.7967782985433 100.191851760511 2617.59037830462 10 13 6
115.986682642508 98.2945419275008 2633.41991910305 10 13 6
112.104844307567 97.9275425735296 2622.2296944395 10 15 9
146.629919661826 96.0387249937402 2637.31215051819 5 12 5
148.744316808407 95.4320421297532 2630.18978331613 20 27 20
115.641225593917 96.2420750658936 2599.3253324035 0 2 0
-85.2604451525387 117.107968120522 2794.49257177643 22 23 15
-74.2857788310478 116.181190936064 2794.24989666543 21 22 14
-74.2446912514802 115.630062995916 2784.95439877577 24 27 18
-113.482781487269 116.451375826601 2743.52659091147 20 27 19
-89.992184261765 115.092671426088 2753.61245902299 9 16 8
-75.0883799704636 114.028602513776 2756.58208384233 7 14 6
-75.1678344621816 113.4937418425 2747.39095868637 17 22 15
-80.8290338833637 113.162140246088 2733.77295824002 9 14 7
-98.4766266974075 113.269453728021 2710.69066096682 13 16 9
-101.095880220501 112.841559023618 2699.7300796521 14 17 10
-84.574037961652 111.716402795845 2703.9442103968 14 17 10
-94.4400694824274 111.559258501225 2687.35262319826 13 14 8
-100.367667350747 111.263484528749 2673.96528769772 13 14 8
-94.2722200164807 110.523885984044 2670.01019788392 14 15 9
-84.9437167980187 109.662358058116 2668.54736694394 9 12 5
-76.7786020859145 108.33362081674 2657.50888065264 9 12 5
-52.7740948252533 106.906227636303 2667.14976956941 11 14 7
-56.407509061533 106.536583808378 2655.74455945916 12 15 8
-55.181050185829 105.982610227043 2648.06819784347 16 19 12
-46.5986022603597 105.143290905077 2645.92827954533 15 18 11
-37.1789075110911 104.269616821776 2644.38648833517 14 17 10
-49.9816188081748 104.272726079617 2626.36909048033 11 14 7
-52.1394491123259 103.861033463911 2616.33173295824 11 14 7
-48.5397969394867 103.222568130041 2610.56940055914 12 15 8
56.0543177057293 96.9864023557966 2652.28988490922 11 14 7
106.436600265284 93.8914100322295 2670.83948344061 11 14 7
112.823074321323 93.112936363882 2666.63271773083 10 13 6
78.694482730274 94.0284182092009 2634.0092687743 13 16 9
73.1433953086817 93.7601843417439 2621.6186805476 13 16 9
94.6807160073502 92.3521222214635 2628.10448447265 10 13 6
110.343119084507 91.1865953268048 2630.41726190704 11 14 7
122.644251657401 90.1602047838368 2630.34879718582 9 14 8
153.336415997734 87.8360411192471 2634.19906442169 6 13 6
-84.2450164934059 109.732336193317 2796.3067792812 23 26 19
-80.2938187218381 109.052340383962 2790.24001879403 23 26 19
-96.7032799453045 109.148699513115 2767.40792022374 18 23 16
-111.658675094061 109.20041288009 2745.96265688338 10 20 11
-112.558250711815 108.720061423309 2736.1587460931 7 17 8
-91.4031404475248 107.386532388438 2744.29860343587 10 20 11
-93.894831754028 106.969425529744 2733.22738945735 14 21 13
-96.4283712526992 106.557946944559 2722.19241033984 12 17 10
-106.953825437902 106.466656411717 2704.84868086111 10 15 8
-115.967964017314 106.323021725009 2688.84190075886 10 15 8
-114.668231475946 105.773350573252 2681.10231785634 15 18 11
-106.980961695116 104.968372305218 2678.41479922998 17 18 12
-111.330116394151 104.650158734495 2666.30603745151 14 15 9
-86.7414692662289 103.157015563693 2676.76431828233 12 13 7
-88.6950792118926 102.743069530324 2666.55028574997 11 14 7
-91.4958199766565 102.367582829201 2655.74666634592 10 13 6
-63.5076722155756 100.719255774745 2668.55284238103 10 13 6
-50.0468951524575 99.6662582470904 2670.12628176816 11 14 7
-50.4083564103475 99.189175718695 2661.17920760925 12 15 8
-58.1564172191098 99.0262269103431 2646.72203480757 13 16 9
-27.4544675899993 97.2395505142419 2661.14737136634 12 15 8
4.19414294061671 95.4010862980407 2676.07548384007 11 14 7
20.3246324429895 94.2156398504007 2679.30594389585 11 14 7
-86.5074961284695 98.3209209400933 2591.89817280919 13 16 9
-36.6432825554925 95.693257489988 2620.15722918064 14 17 10
-57.0823665799303 96.1048284306181 2596.84592433836 14 17 10
-39.3899476179169 94.8602515280134 2601.36950889959 14 17 10
27.5540147340676 91.4454497679279 2641.29745978759 13 16 9
75.2095805710198 88.3631042721968 2658.24022163225 11 14 7
92.4517974372261 87.1038006775817 2661.83116260231 11 14 7
83.6512816266941 87.0068464899785 2646.96218634899 12 15 8
97.5667409184169 85.893012965382 2648.141930524 12 15 8
104.754487325776 85.0800926665095 2644.56415735305 11 14 7
119.581300572023 83.9191997009996 2646.27756411589 11 14 7
125.1019680435 83.1794884129882 2641.49739652787 11 14 7
149.367108008642 81.5796911025689 2649.59024202229 9 14 7
148.098329023931 81.1491469075171 2640.10601030871 7 14 7
-69.9969679756545 101.802392431326 2809.15271937076 23 26 19
-73.0309777095788 101.41342044792 2797.2281090799 23 26 19
-98.8519724163366 101.474132569019 2757.40970621979 16 23 15
-91.8488932849799 100.680620820988 2753.99186504684 11 18 10
-65.121921719526 99.0524562177259 2766.56775629786 11 21 12
-92.0542475179751 99.6960244185152 2735.64931889044 14 21 13
-92.9942038613714 99.2436285561575 2725.87991086075 13 18 11
-92.378013363263 98.7274233443251 2717.40930068454 10 15 8
-104.53707114573 98.7657715705013 2698.83379684333 10 15 8
-98.4125183479994 98.0178068007999 2694.8535344915 14 17 10
-108.303411323772 97.9692680684361 2678.28279184289 17 18 12
-110.243078832571 97.5786302641127 2668.05652386144 14 15 9
-112.220602660047 97.1930796592939 2657.8627188341 12 13 7
-84.3748902223633 95.4875946877037 2670.7927190685 10 13 6
-92.8249146729887 95.3907229139378 2655.62027433408 10 13 6
-89.1782120329774 94.7579321428659 2649.81712483256 10 13 6
-46.5084696531104 92.3681415179232 2673.72362856502 10 13 6
-49.6895317184571 91.5658454811079 2653.9886403946 14 17 10
-45.1886500322933 90.8909889940501 2648.76867666965 13 16 9
-30.8370096142241 89.7641638999548 2650.89371204191 13 16 9
16.4932378825555 87.111683365598 2677.37942609298 12 15 8
-63.0814045695449 90.3246777299888 2610.02315797564 13 16 9
-57.850572250024 89.6243770113406 2605.49394555035 13 16 9
-42.6670810595278 88.4584445261094 2608.22150024658 14 17 10
-31.5930013367258 87.4815128221252 2607.89298496983 14 17 10
-62.1686106444779 88.4687814661673 2577.48324789175 13 16 9
13.1989390210685 84.4465331557821 2623.34766440105 12 15 8
72.9927454599078 81.1367897685806 2657.56193726005 11 14 7
82.670974021045 80.202255807744 2655.79614436293 11 14 7
85.6352384197043 79.5887018503223 2649.26078757517 12 15 8
102.086047275683 78.3253610743717 2652.21412009062 12 15 8
121.971956559182 76.8910679956986 2657.48459436871 11 14 7
123.274898069625 76.3554459121218 2649.74213909904 11 14 7
133.904694586335 75.3657416918357 2648.47552194071 11 14 7
142.8543632986 74.4564796350843 2646.01777341773 0 5 0
137.303353487122 74.2605291536607 2633.62664952542 17 24 17
-62.7612078091095 94.0817068613065 2816.16481144236 23 26 19
-63.4316738680996 93.6154941034016 2806.16223154313 23 26 19
-55.5302244399938 92.7661539343639 2803.28936318411 18 21 14
-57.8144645115763 92.3770729318276 2792.03816215529 15 20 13
-79.0150534659562 92.8526522470084 2765.41605258993 14 19 12
-78.2783555921651 92.3371774005533 2756.840674094 16 21 14
-80.729180421788 91.9705156475774 2745.73371278549 17 22 15
-78.4665217878415 91.3898210755322 2738.4829891312 13 18 11
-92.1132245070066 91.5491853539575 2718.54957469817 11 14 7
-87.5360859064713 90.8671733139328 2713.26356273268 11 14 7
-112.51562500099 91.5708847753003 2684.62196778333 14 17 10
-104.821319427155 90.7495757260334 2681.92845680615 16 17 11
-113.171205347269 90.6863785052547 2666.66900019595 16 17 11
-104.690436678462 89.829330956722 2664.61732584373 14 15 9
-107.49014650958 89.5095829592936 2653.81245170424 10 13 6
-97.3894076227082 88.5747039469244 2653.00403254174 10 13 6
-105.105659061814 88.4962488293579 2638.51874189477 9 12 5
-94.1897672212848 87.5217601253272 2638.32731791089 9 12 5
-62.0560244857993 85.5135808738129 2654.15962500738 9 12 5
-56.7512742057898 84.8038757159256 2649.56640616978 13 16 9
-44.0756265158679 83.7328614068478 2650.49720128291 14 17 10
-54.3557908697316 83.7892366687263 2634.26317428459 14 17 10
-44.1352091374689 82.838431583752 2633.35098622163 14 17 10
-42.9683878680591 82.3352631871194 2625.7259854441 14 17 10
-57.5402336825062 82.6187462806337 2606.59362149262 13 16 9
-39.8690432702846 81.2959758078748 2611.13642781013 14 17 10
-12.1619644206543 79.4635809809246 2622.86414826534 14 17 10
-21.0130071489498 79.4676544745792 2608.03862635877 13 16 9
61.5645694013467 74.3902852389482 2650.30721235975 11 14 7
93.0411130018816 72.3312864508575 2664.06262962407 11 14 7
89.3006922433424 72.0681582850718 2652.74947568883 11 14 7
90.5756492211323 71.5505468615235 2645.03084339713 11 14 7
109.586251780629 70.117998093998 2649.73670530017 11 14 7
118.489841453863 69.2045700347039 2647.3189221324 11 14 7
130.807713335892 68.112037606609 2647.23669296418 10 13 6
122.717437260575 68.0837021786723 2633.07525813674 0 4 0
-82.7616093091854 87.6164189712797 2800.4577276499 23 26 19
-68.6597885886853 86.4632424974674 2802.79977700414 24 27 20
-56.8606073248166 85.4181245793078 2803.16649287875 17 20 13
-77.9652055846127 85.9746217960195 2776.46097589087 15 18 11
-82.6991779602926 85.7412478887398 2763.36193878962 17 20 13
-89.8521299115034 85.6315026611877 2748.38861898963 18 21 14
-84.4263649537358 84.9057997046313 2743.69061604713 18 21 14
-76.6245630917344 84.0622961374133 2740.90407799411 15 18 11
-71.1947569878353 83.3361387828581 2736.20257538951 11 14 7
-88.862766659989 83.7664693373161 2713.13588098244 11 14 7
-129.007717547691 85.3369333911882 2672.48954283614 13 16 9
-118.953227295304 84.3922108009834 2671.72127281416 16 17 11
-106.467757375921 83.3223260646034 2672.81657900437 16 17 11
-118.084558735013 83.4766486058172 2655.09390689833 15 16 10
-91.8755268069984 81.7043594301193 2666.79638810896 10 12 7
-101.952445541524 81.7860631284027 2650.38603669788 10 12 7
-106.432555852677 81.5857684247473 2638.39033025122 9 11 6
-98.7713690341865 80.7613441881082 2635.72522916338 9 11 6
-73.1727574769745 79.004158481167 2646.63342490774 9 11 6
-33.5869053349027 76.5092756904745 2667.92016915706 11 13 8
-55.2471595725073 77.2072201272928 2643.01860346856 12 14 9
-12.189874624374 74.5146748166261 2666.59117198496 12 14 9
-33.1371681801769 75.1839385849649 2642.39510437001 14 16 11
-78.1404732574123 77.1377959493942 2600.66383303185 14 16 11
-72.9441708640319 76.4432121505135 2596.16451188892 14 16 11
-27.1244402338389 73.5812025242368 2621.31365018701 14 17 10
17.2321407338285 70.781627451847 2645.0843420811 14 17 10
3.45897078546109 71.0912403617336 2626.58282859865 13 16 9
-19.5958832254055 71.9090792038958 2601.56565935826 12 15 8
101.727052928136 64.4812417086943 2671.14189789459 11 14 7
101.376289668865 64.062061917932 2662.18517618456 10 13 6
79.9135401041924 64.8002635760359 2638.43574161395 11 14 7
67.6182447711007 65.0454736114218 2621.30024015729 11 14 7
93.3694766158588 63.2013875976101 2630.75345665662 11 14 7
122.614936891464 61.1565394600186 2642.47244420831 10 13 6
134.093013274242 60.088355948186 2641.79436181886 1 6 0
-115.197654138672 81.9293430867785 2774.3505840869 23 26 19
-56.7281666443122 78.4550064963337 2813.68385647435 24 27 20
-66.7919949690416 78.5232467189173 2795.93898550613 16 18 13
-70.6668176986129 78.2750034817156 2783.41864975055 18 19 13
-29.0021877399349 75.6425264350026 2808.19789316087 21 22 16
-117.970192467107 79.8735910193777 2726.4792647447 20 21 15
-103.924588407163 78.6984913886309 2728.87018116193 21 22 16
-79.5372323585308 76.9710382806282 2739.50444654073 19 20 14
-75.7017639534228 76.3308294190819 2733.5377350349 14 15 9
-94.9667297201118 76.9270051579456 2709.20726793891 13 14 8
-121.543689704762 77.9259969832367 2679.30177992535 13 16 9
-107.468458014569 76.7471247026423 2681.66672594452 14 17 10
-115.013164199875 76.7344084622364 2667.0323248704 14 17 10
-96.0785231105934 75.2891457002768 2673.12768408202 13 16 9
-76.2693002756167 73.7908242432037 2679.78830103909 11 13 8
-74.9825685079659 73.3000053900096 2672.0596050101 11 13 8
-79.3911273497638 73.1235738296649 2660.00141218646 11 13 8
-79.7866362463875 72.7299803223364 2651.08330732893 10 12 7
-68.8071579179228 71.7097352743709 2650.83706715261 9 11 6
-67.599972394234 71.2296292945773 2643.17693177999 10 12 7
-35.3039663469024 69.0200627977641 2658.86990442599 9 11 6
-14.3644747973748 67.4347050061179 2665.87501724368 9 11 6
-4.86703866697269 66.4849710439792 2664.26633765402 10 12 7
-29.9918841982012 67.4816280833413 2637.07204759379 11 13 8
-47.8266145339781 68.0784449393499 2615.47235352814 13 15 10
7.99290802760622 64.5123145466582 2647.83926795762 14 17 10
58.2439650522058 61.2436184597314 2675.76750262493 14 17 10
118.798788542588 56.0887295256011 2684.19028159312 11 14 7
134.472910725526 54.7603846268282 2686.49395672201 10 13 6
120.685863484303 55.1353831835789 2668.00404748748 11 14 7
101.733430148539 55.817731274678 2646.0489761578 11 14 7
80.9677501226078 56.6147229179784 2623.01793076078 10 13 6
99.1394932207346 55.1440290436166 2627.12784862058 9 12 5
115.668934252599 53.7651295233717 2630.01377662633 10 15 9
-90.8050660013031 72.9042275651233 2786.35118004548 20 23 16
-80.6278690844326 71.9108512123803 2785.4765555115 16 19 12
-68.8592748491224 70.8270186507491 2785.87034864789 19 20 14
-32.6985649040425 68.376910914655 2806.15539848204 23 24 18
-59.4089526791537 69.4426863287146 2775.04154798622 21 22 16
-99.7162116397523 71.2872713589395 2733.21085089795 22 23 17
-92.1174053118357 70.028462968791 2721.3391749133 15 16 10
-104.252347561473 70.307037976037 2702.74152811028 14 15 9
-119.67057179079 70.7800726338748 2681.69468519779 13 16 9
-134.785245352992 70.8467709650599 2652.44718082236 13 16 9
-94.9938156128844 68.1561998692649 2674.88027251525 13 16 9
-71.1527508040835 66.3756720368234 2684.66511120126 11 13 8
-48.0270637523379 64.6297272837784 2693.74650853194 12 14 9
-68.5702761575526 65.4213493260325 2669.19941637459 12 14 9
-58.3750134688881 64.4261835443292 2668.30946069522 10 12 7
-83.1756609029757 65.4814057706124 2640.83411250001 9 11 6
-53.4264594787586 63.3390522977397 2654.76395858548 10 12 7
-49.7473909226134 62.7261194910327 2648.93231218811 10 12 7
-17.3590428875072 60.414392702425 2664.54591071535 8 10 5
-12.8041584840592 59.745554575056 2659.27910189511 8 10 5
13.1852962206711 57.8003831969835 2669.84975798665 9 11 6
19.4363978184198 57.0270479883942 2665.75997564218 11 13 8
30.6626737079774 55.9553534579533 2665.30016054255 14 17 10
65.1764019167991 53.4819097050332 2681.71950086432 14 17 10
87.3405403937491 51.7426162831615 2688.98742654941 13 16 9
80.3679211148967 51.7591919278091 2675.18024825 12 15 8
79.1912340628453 51.428805375624 2665.61554812417 11 14 7
111.534792991382 49.0621761748566 2679.94474636405 11 14 7
128.872175694683 47.6014636697929 2683.45450881716 9 12 5
124.349594558409 47.4738490625924 2671.49482687955 11 14 7
104.568317558587 48.2858292389614 2648.93404325471 12 15 8
113.46152227929 47.3426926136034 2646.52545361083 10 13 6
120.67245209595 46.502182925939 2642.92776532565 9 12 5
-120.967614037267 67.3582147767593 2762.24238361556 18 24 12
-97.5831792705222 65.5755679162343 2772.42301370375 17 23 13
-92.9113848188119 64.8937026710358 2767.05495915844 19 20 14
-118.883934951915 66.0321354521847 2736.62470382042 18 19 13
-108.000825959105 64.9869681473648 2736.46215190812 18 19 13
-86.034204812353 63.2773591303101 2745.22434147938 17 18 12
-97.2361939407529 63.5503715005405 2727.1413675897 15 16 10
-97.4118795149273 63.1665492120828 2718.03267063941 12 13 7
-111.146577047575 63.6030598861848 2698.17341304577 13 14 8
-97.0541565175691 62.3626076453664 2700.52417543215 14 15 9
-118.914573309107 63.3017135771031 2674.47095870646 13 14 8
-102.420320093319 61.9153810379409 2678.71100980831 14 15 9
-99.5380948538558 61.3564388650927 2672.24640542296 15 16 10
-82.160284702633 59.9104416872266 2677.04397795738 14 17 10
-72.8029530370655 58.9529713733092 2675.55678207514 13 16 9
-34.2618535409334 56.1956407289852 2696.42717527958 12 15 8
-44.2842499697162 56.4279590896044 2679.96859143957 11 14 7
-33.2156069959257 55.3585913886778 2679.64570288902 11 14 7
-74.3592308692316 57.5329587743407 2639.86072169475 11 14 7
-44.5456897962102 55.3004130467309 2653.73538674199 10 13 6
-32.6575815418404 54.1799219373376 2654.02583033049 10 13 6
-28.9615263295095 53.5707949299433 2648.17943632595 10 13 6
-20.3282155000197 52.6519240113811 2645.99594881698 10 13 6
22.2042594333542 49.5949598540971 2668.70248960836 11 14 7
37.579743460558 48.2418939396079 2671.26516535404 12 13 7
63.7995500135218 46.1981119600108 2681.63649070513 13 14 8
42.6657303884497 47.1569675212436 2657.60053088983 15 18 11
60.6255812535887 45.6335966200188 2661.89412919995 14 17 10
81.155628841068 43.9418360076742 2667.93155043767 10 13 6
100.919320303584 42.2941440890995 2673.30933812407 9 12 5
124.113939935121 40.4213669629645 2681.00823460209 11 14 7
111.15652851811 40.8709059704966 2663.12202802592 9 14 7
121.761894386575 39.8052924004491 2661.87707768305 9 14 7
136.624709660807 38.4624897744908 2663.56077448614 13 18 11
143.891975342024 37.6095651887379 2659.91402281818 14 19 12
-165.774457487909 63.3098154517438 2734.93654282835 20 26 16
-107.475039195186 59.3000485873415 2774.42068990743 17 23 13
-116.093056975744 59.4523500676273 2758.06865999668 17 23 13
-103.634354536619 58.2890168607269 2759.18808758544 18 19 13
-93.4961301075585 57.2690742025751 2758.34772957066 18 19 13
-91.2091963953987 56.7424966536173 2751.07529964102 18 19 13
-96.0450574747673 56.6675517001875 2738.06354651804 18 19 13
-91.436268839864 55.9975625980237 2732.75002442117 16 17 11
-90.0069838555142 55.5301923277395 2724.89762044786 12 13 7
-96.5556226240758 55.573046398915 2710.72279271552 13 14 8
-103.964048575522 55.6752387970582 2695.96952805334 14 15 9
-73.8519388255896 53.3762767377639 2710.90941966081 13 14 8
-110.962233621071 55.390809189818 2672.92331742689 14 15 9
-101.669464103233 54.4286792021279 2671.49179456071 15 16 10
-103.638903939062 54.1933011550064 2661.29000972532 14 17 10
-69.2913808344251 51.6065387391824 2679.17740116491 15 18 11
-25.0787383349209 48.3686982632825 2704.39895054599 13 16 9
-16.397686784932 47.432932921241 2702.17419391483 10 13 6
-48.4012973697872 49.1542198387674 2669.02730228668 11 14 7
-29.9989950254433 47.5865717799759 2674.26127529806 12 15 8
-58.1629443410234 49.0726886387063 2644.40455501399 12 15 8
-52.0498251923427 48.3133691539374 2640.43459170845 12 15 8
-30.3128389946128 46.5225856851916 2648.07307928454 12 15 8
-20.0338517432899 45.4846145207104 2647.11083389721 12 15 8
-11.3838140430103 44.553130661477 2644.91293034026 13 16 9
25.4425152643654 41.7468370463958 2663.29979565612 14 15 9
2.64116967894346 42.9054751005621 2638.06100867661 14 17 10
-11.9761490127068 43.5264472547517 2618.96587076478 14 17 10
70.5721118908982 37.2814353956456 2661.26743204378 9 12 5
81.9236266533241 36.1558576170533 2660.69941707617 7 10 3
103.38850223629 34.3461075901702 2667.25061473464 11 14 7
113.977200430988 33.2668913027492 2666.02019900969 10 15 8
132.190271983491 31.6692725965408 2670.09480297578 10 15 8
151.310185403589 30.0061056354638 2674.70741563844 14 19 12
154.370698193146 29.4324131081213 2668.08837860762 15 20 13
-118.141751145912 52.7338089814796 2766.50480857317 18 24 14
-101.786577999763 51.2897396704922 2770.86546399342 16 22 12
-99.472096974293 50.7708453668708 2763.56942354239 20 23 16
-93.2490563426183 49.9939456291822 2759.50398574409 19 22 15
-96.46987380422 49.8449654799801 2747.73973327247 19 22 15
-99.7368400850087 49.7022005225147 2736.0151238538 17 20 13
-94.3447519817924 48.9836528988644 2731.34626348491 14 17 10
-78.6396369500775 47.5740235241038 2734.94686359526 11 14 7
-70.8367144359951 46.6919894866853 2732.15960391121 12 15 8
-78.9719667380071 46.882879336599 2716.71247013874 12 15 8
-107.965094974405 48.4869803454743 2684.92714274541 11 14 7
-107.477243715626 48.1069218556397 2676.56657105403 13 14 8
-113.443470105659 48.1665531480286 2663.21041324679 14 15 9
-92.0760796924971 46.3705157960879 2671.16927681962 14 17 10
-58.5128167914291 43.7376115325249 2688.41345289577 16 19 12
-55.5771200635538 43.1891496657235 2681.90243493677 14 17 10
-36.419401037167 41.5300392888787 2687.80551470688 9 12 5
-20.4485028812771 40.085447419774 2691.17597758788 11 14 7
-37.0591013991053 40.8805661346094 2669.83726034583 12 15 8
-31.698021688888 40.1666810332483 2665.19524585247 12 15 8
-29.6176663185417 39.6797961352981 2658.10160758768 12 15 8
-19.334908106249 38.6254248369884 2657.13620004622 12 15 8
-12.3245149647246 37.7969426977123 2653.71224616676 12 15 8
6.25746656321891 36.162188529713 2658.79091962048 13 16 9
-22.2960017428644 37.8131089576424 2629.27074151534 13 14 8
-2.04130671838332 36.0605989438105 2635.54721437448 13 16 9
4.48410506786967 34.9295253805592 2623.28179942485 11 14 7
59.1569971964763 30.7452437779159 2654.00002355679 9 12 5
72.1571802458962 29.4864938157106 2654.65074874026 8 11 4
100.318025354076 27.1534550437765 2665.98841785399 10 13 6
113.426392219586 25.8803004905462 2666.54546957754 11 16 9
113.90534605466 25.5017621183805 2658.1925997527 10 15 8
163.147121169367 21.3061182851196 2675.09132758661 15 20 13
-93.8020749307129 44.1642279380729 2797.07491206971 17 22 16
-96.0906915817721 43.9712347436384 2785.82623372575 20 25 18
-96.8593141363083 43.6753859267589 2775.90762562683 16 22 12
-58.513105765563 40.6576339957415 2798.27220189629 19 22 15
-114.198009811579 44.1933846867286 2743.29147771908 18 21 14
-119.043974600594 44.192023138221 2730.28800502213 18 21 14
-104.216424930017 42.8142955052791 2733.32575497852 16 19 12
-91.7144054906447 41.5970628544496 2734.40767192304 12 15 8
-64.8989816500785 39.3691283561179 2746.91110044455 10 13 6
-46.7218643955984 37.7444698180119 2752.34061889682 11 14 7
-47.6150188610478 37.4656990789121 2742.52952090212 12 15 8
-101.296516065869 40.9340264921087 2691.10648342263 11 14 7
-126.432445942084 42.3916002193305 2662.59555293891 12 15 8
-79.4186250327527 38.7175713416648 2690.68540581795 13 16 9
-86.1579402300281 38.8693458743094 2676.67513839286 13 16 9
-86.4994937934473 38.5670961882056 2667.70967659841 15 18 11
-71.4896818934419 37.1655865740862 2670.58960743705 15 18 11
-66.1706220477463 36.4577645830384 2665.98397378155 12 15 8
-7.96869735190908 31.940685885075 2701.58581132961 12 15 8
-35.960191558448 33.6295359652749 2671.57830428738 11 14 7
-28.959622887998 32.7973689212559 2668.16288950842 11 14 7
-9.65618348136665 31.0729484973559 2673.94009139785 10 13 6
-11.6500372093951 30.8914546353095 2663.75911778951 11 14 7
-10.3861104287937 30.4751137381699 2656.04970504351 11 14 7
-25.6601127241707 31.2662969839817 2636.19905905819 12 15 8
22.7084823896111 27.4123338361185 2663.115846416 10 11 5
43.0714584056231 25.5966590612488 2669.29856204404 11 12 6
36.8786294749275 25.080494217403 2638.9388865886 11 14 7
82.5077053009711 21.3924811148916 2662.9356794223 11 14 7
99.768588143228 19.7909858967977 2666.51234381738 11 14 7
101.927821386163 19.3052008541411 2659.35064765095 12 17 10
119.264338540694 17.6936321354888 2662.86182234547 12 17 10
139.195548366427 15.885739385899 2668.09545395047 16 21 14
170.221908463994 13.2469931181281 2680.92155734448 16 21 14
-37.4535450107332 32.3866560299186 2835.65377805129 22 27 21
-93.4965373359176 36.1373612887573 2779.65876807392 18 23 16
-97.4182278810716 36.0959287139727 2767.17771420051 18 21 14
-130.42799296977 38.1893480323394 2730.93038329028 18 21 14
-103.837972503132 35.9176825273458 2743.62914488317 19 22 15
-104.749927960019 35.6636462838157 2733.83449761623 17 20 13
-90.6678092013111 34.3058498374478 2736.19463379862 13 16 9
-67.8187305359521 32.2975982371619 2745.51747731526 10 13 6
-68.7318584518555 32.0438998094927 2735.7235285588 11 14 7
-47.3605273064259 30.1385859511381 2743.67968467181 12 15 8
-93.033778784184 33.2137854457569 2698.55171550585 11 14 7
-98.1107028500112 33.2797362086437 2685.74798733039 12 15 8
-78.3426299020946 31.4940906320953 2692.44613224114 13 16 9
-85.8798373295055 31.7467604111703 2677.80382752884 13 16 9
-87.025319256484 31.5242636200417 2668.21106615827 14 17 10
-74.4458527882985 30.2730655348081 2669.22639258882 15 18 11
-65.0762861851808 29.2613677251232 2667.72862812911 13 16 9
-49.1799566025644 27.7565641532861 2671.16411244623 12 15 8
-30.7852071640524 26.0600700923951 2676.40546675789 11 14 7
-26.2232052682041 25.4067121957017 2671.13238863887 11 14 7
-1.99797645686495 23.2628681508929 2680.58661287336 10 13 6
-8.89890864083887 23.4780362624733 2666.71601390793 11 14 7
-18.3323569779756 23.8894639451534 2651.06938333947 11 14 7
-5.54834018200268 22.6112876767973 2651.90759346775 12 15 8
37.0669653756193 19.0526337364881 2674.54527742923 11 12 6
60.4651760780066 16.6443628151528 2674.13130347586 11 14 7
27.6022520432075 18.8597580636975 2641.72600786815 11 14 7
72.2806965069918 15.1204911334231 2665.2235028147 10 13 6
81.1226371046816 14.1323370141122 2662.85963734339 10 13 6
95.8593205380964 12.688230593104 2664.65331359778 11 14 7
86.2243671428589 13.1264586672694 2649.18084552615 13 18 11
108.585230740916 11.0900987665198 2656.28018747575 13 18 11
141.178334362448 8.25521639586271 2670.39644616548 16 21 14
165.420796261093 6.0622951069518 2678.51279101344 16 21 14
-101.844259697044 29.4679956913686 2773.70338598253 15 20 14
-100.305846631186 29.0426262104981 2765.75612461225 20 23 16
-93.2966246301299 28.198566698863 2762.3332867441 20 23 16
-91.0003524576393 27.7166717048094 2755.05247329115 20 23 16
-87.1437544291238 27.1155825197704 2749.06719448475 18 21 14
-95.1575316854156 27.4315043931022 2733.51396371316 15 18 11
-85.8006179072182 26.4078490255497 2732.02724339688 11 14 7
-93.1155637015451 26.6750821807167 2717.1918866542 11 14 7
-71.0125245063189 24.6622676742343 2725.83811809133 11 14 7
-70.3954693855358 24.3158770379756 2717.36534260005 12 15 8
-73.0076243368347 24.2225161778432 2706.39644091035 12 15 8
-90.1155285921904 25.2629487780862 2684.16359040143 12 15 8
-83.9925343011485 24.4932640668165 2680.18513512197 13 16 9
-56.0757088168056 22.016356517542 2693.05849796022 12 15 8
-78.2103372607166 23.4607230064114 2667.23999174192 15 18 11
-61.549401100649 21.8632194994189 2671.33662562489 16 19 12
-59.4696963214973 21.4108340484657 2664.24364320645 15 18 11
-28.3924045315929 18.3821882655933 2670.4111934444 11 14 7
-8.27235914973024 16.5012702604502 2676.80520407571 12 15 8
15.2054433063156 14.3503252625528 2685.58403474052 13 16 9
10.7769009779854 14.4106799537315 2673.54162794214 13 16 9
10.4256912231695 14.1493977844981 2664.58427004533 12 15 8
14.1822803027134 13.5624135068403 2658.68526567678 12 13 7
32.860777785535 11.7850901710911 2663.68120913494 12 15 8
50.7721056436372 10.0657036717841 2668.01844977819 13 16 9
47.9044278642191 10.0067694285962 2657.27079582295 12 15 8
65.8850502455755 8.27817844975975 2661.54772054455 9 12 5
72.1990447497278 7.4834529168778 2657.40356526727 8 11 4
66.7609579269044 7.63396623127932 2644.9123218677 12 15 8
100.829438347527 4.60412091048026 2660.39791907567 11 16 9
109.723030697508 3.5986953785575 2657.98939709323 12 17 10
157.537578422548 -0.553310403928253 2682.74149130452 17 22 15
156.382251402477 -0.751799714477447 2673.15742297377 16 21 14
-96.9409630937568 22.0843561496554 2788.02859851125 16 21 15
-97.7029657125641 21.8549281335416 2778.10350675479 20 25 19
-100.845456946839 21.8180465525922 2766.27063972503 18 21 14
-98.543154718429 21.3467400512155 2758.98484670502 18 21 14
-95.4717671858543 20.8146187059385 2752.35611476125 19 22 15
-90.8365743010169 20.1573477706955 2747.01962473784 17 20 13
-90.9498951019812 19.8834096593921 2737.85584643188 14 17 10
-106.151695707988 20.8300800611435 2716.61835221439 10 13 6
-98.4165496215921 19.9262273984349 2713.88997818164 11 14 7
-97.0433303686158 19.5375373853621 2706.08565854294 11 14 7
-64.5421863024787 16.622792804525 2722.92866113808 11 14 7
-77.5457525427825 17.4014534800556 2703.75706501757 11 14 7
-88.2357378368557 17.9966004741431 2686.55149243263 11 14 7
-79.6925081674269 17.0269504981586 2684.44641055257 12 15 8
-65.4856290618655 15.5937684793573 2686.69921647111 11 14 7
-47.9994208440697 13.8900353129369 2691.40450664053 12 15 8
-49.9154737506631 13.7736324990992 2681.15599398497 15 18 11
-32.3577483619424 12.0604776087965 2685.7993587047 14 17 10
-70.9764725553681 14.9632799651204 2647.79164956665 12 15 8
0.487375546398106 8.81211815918609 2693.08292630869 12 15 8
2.65678946294123 8.35941159010306 2685.91219183717 12 15 8
20.4107421391311 6.62033176063379 2690.38596282064 12 15 8
21.7611153133292 6.23522027072043 2682.60110599785 12 15 8
27.2163801786185 5.51110644523575 2677.87752412753 12 15 8
18.6074873334277 5.95395950589037 2662.83927891076 12 13 7
-3.34015861619941 7.50860760972197 2638.18125448814 12 15 8
20.2998522738955 5.27650050381301 2646.82001920513 13 16 9
42.3617842242119 3.17152511964228 2654.17890058885 12 15 8
77.5153963969064 -0.300631848580368 2662.10959039417 8 11 4
80.4891559670127 -0.818834714676642 2655.56570143542 13 16 9
82.6079365490848 -1.264744612887 2648.43849313943 12 17 10
133.635053491915 -5.8147021642154 2675.70239138667 14 19 12
140.911157237942 -6.69819863850471 2672.04817755685 16 21 14
144.804500996987 -7.29736448839996 2666.03103744173 15 20 13
-108.377868662788 15.7155390345528 2779.45541598266 10 15 11
-63.9199642145813 11.7352874732105 2807.11603611632 12 17 11
-71.6635040131299 12.1091744695431 2791.32788969825 13 18 12
-94.377100758678 13.7400545614612 2763.36346576076 14 19 12
-90.5067190988835 13.1490342084273 2757.36585942655 15 20 13
-85.0687641374188 12.4268622737329 2752.65726808858 14 19 12
-82.0028038550911 11.9043349778604 2746.03317796799 12 17 10
-72.6110751231421 10.8496932522069 2744.5167985851 7 12 5
-102.92093897151 13.1434019613141 2711.22142734406 7 12 5
-99.964159129506 12.6355781603304 2704.69187255653 8 13 6
-96.2221090883113 12.0620200788195 2698.80538269303 8 13 6
-73.2760577544656 9.86182154207282 2708.04542033318 8 13 6
-77.5291519500345 9.96532144953105 2695.85066674965 8 13 6
-64.9348922403465 8.63966886834661 2696.85365381305 10 13 6
-45.0448594964024 6.69152866268766 2703.44746026688 10 13 6
-38.8305126322344 5.90540199124476 2699.38961746013 11 14 7
-34.2343985001339 5.25724153721954 2694.08693936024 13 16 9
-33.2056484357786 4.66028186504439 2677.31876049849 15 18 11
19.5498808742101 -0.112808425805577 2708.37938652699 15 18 11
17.6745298139513 -0.209278164161275 2698.09515143853 14 17 10
8.37298356038252 0.3340942696064 2682.33302607496 12 15 8
24.5095346678945 -1.30766646842936 2685.56118924765 12 15 8
29.9730009935284 -2.03230090679832 2680.83050225044 12 15 8
31.3003600329527 -2.40008285737014 2673.06579582248 12 13 7
48.359039704446 -4.12575428250606 2676.81852163869 12 15 8
107.861148505477 -9.52511156883432 2711.29916007543 13 16 9
66.8148439857723 -6.22843840603626 2672.74613251484 12 15 8
83.1679999850619 -7.89886061971531 2675.78674216913 9 12 5
81.991365183681 -8.04957297563061 2666.22051694965 8 11 4
91.6919749558618 -9.14443479579502 2664.4366798938 13 16 9
96.3643253013098 -9.80248780730458 2659.06798923155 14 19 12
114.524918716397 -11.6359824305068 2663.18960636746 17 22 15
131.055034590555 -13.3299516386354 2666.07699112256 18 23 16
140.858177569338 -14.4384870167919 2664.20437345603 16 21 14
-86.3090173482779 6.26121712539096 2789.5027613103 30 35 29
-81.5949085256404 5.5996963388355 2784.09789954614 14 19 12
-79.2378256240225 5.14403867443539 2776.76452474274 15 20 13
-89.4749187836075 5.78916307654254 2759.16609041097 16 21 14
-69.0593684545746 3.75753286798899 2766.62789826085 15 20 13
-74.6413464732005 3.9990477788984 2752.93751996808 12 17 10
-98.6873354954629 5.62116167632398 2715.54095159895 7 12 5
-108.457824693623 6.24038292386031 2698.86152356712 7 12 5
-92.761241723049 4.62138770958215 2702.4708754174 7 12 5
-79.4136154970384 3.20716892927206 2704.14472742493 8 13 6
-66.0260796535059 1.78774014743224 2705.78402209336 8 13 6
-50.1854280006935 0.14980710383522 2709.26862715586 10 13 6
-35.9056424330575 -1.35227827202775 2711.45837340575 11 14 7
-28.858377388234 -2.21550440512114 2708.00268646431 11 14 7
-43.6887580718746 -1.13840136907079 2687.76568491495 13 16 9
-68.3727746757783 0.818330612891188 2660.18340678131 14 17 10
-52.4777206007747 -0.826584541626318 2663.62090455328 16 19 12
-12.030745950562 -4.65958519853737 2685.49321488131 16 19 12
6.48574060215079 -6.54526784324577 2690.63028120703 15 18 11
5.36875696855255 -6.68151128305142 2681.01226041736 13 16 9
8.3324044533426 -7.18089552028514 2674.47701402124 12 15 8
26.1292026666968 -9.0066738377606 2678.9138955331 12 15 8
37.3714989277762 -10.2479376488442 2678.4412938148 12 13 7
101.485186963768 -16.4713277682572 2707.60698964852 13 16 9
102.916643659872 -16.8386584508072 2699.7517396027 12 15 8
69.2574970602657 -14.0475005799908 2666.70956688356 9 12 5
74.7462927107851 -14.7749173520162 2661.95694407961 8 11 4
80.2342355219174 -15.5022342424154 2657.20505981497 12 15 8
94.9733441629776 -17.0648448833718 2658.99708645218 14 19 12
96.2665433111289 -17.4139083047851 2651.26186633332 19 24 17
113.596541836849 -19.2133678488293 2654.77990849497 18 23 16
129.288438506054 -20.8667956149874 2657.07028438279 17 22 15
-104.008778183545 0.516418275620767 2775.76705890029 15 20 14
-82.1408334526184 -1.69395002628597 2784.61833531352 15 20 13
-79.7829794754792 -2.13822835916741 2777.28421845289 16 21 14
-76.6567320858251 -2.65147767800741 2770.60781520787 16 21 14
-88.5135574872549 -1.80186840732524 2751.76509870663 14 19 12
-62.5446570519799 -4.39145377307612 2763.68100661311 11 16 9
-83.1967876656141 -2.73666663693631 2737.89946357861 7 12 5
-92.8685932296935 -2.0780204608864 2721.13424741945 7 12 5
-93.8621892314524 -2.20879044846228 2711.40956217889 8 13 6
-87.7066542876022 -2.99186258117212 2707.40267398396 8 13 6
-44.1013387196127 -7.42657440246547 2723.89459855962 8 13 6
-39.4651697180555 -8.07367637128906 2718.55719660561 10 13 6
-39.6717027772406 -8.27564713933376 2709.47405787699 11 14 7
-29.3998612131543 -9.44001141321785 2708.51882494415 10 13 6
-78.2593935470133 -5.16108343755758 2662.17430609318 10 13 6
-54.2789055334891 -7.58480574449325 2671.84246959236 14 17 10
-44.8650252405773 -8.66813679354062 2670.30707656288 15 18 11
-26.4506989829316 -10.5835986037599 2675.53288185818 15 18 11
-26.7974585833852 -10.7667147946716 2666.57116033513 15 18 11
-18.9682967016651 -11.7055063624846 2663.7615258382 14 17 10
0.388116901926416 -13.7129564945858 2669.49464712654 13 16 9
14.8651967915137 -15.2704320150643 2671.51375022545 12 15 8
44.2658479255584 -18.2155259789631 2684.42763828219 12 13 7
33.1783911276928 -17.4013255182207 2667.56514906461 12 15 8
89.8681167182707 -23.1099469917901 2691.25182989993 12 15 8
87.9097370798365 -23.1449607049065 2681.03916042802 9 12 5
60.8092969047469 -20.8315525718746 2652.90213493347 8 11 4
68.7813138132856 -21.7891634388257 2649.96880479946 11 14 7
77.6056468484314 -22.827002375835 2647.62052239435 12 17 10
84.7596405373166 -23.7090184218727 2644.07245165989 16 21 14
95.300737814854 -24.9088353062607 2642.88407485571 16 21 14
107.559478615291 -26.2707108626867 2642.85452655868 16 21 14
-99.0940312077404 -7.23297767622899 2780.82125995985 10 15 9
-57.6774082740816 -11.3400713891114 2805.82501552599 16 21 15
-70.9254652890299 -10.3055810037516 2785.54009418014 15 20 13
-99.1995595833721 -7.8504724855521 2753.126039674 16 21 14
-78.8141387272763 -9.98123673259119 2760.61491972494 14 19 12
-74.1464961859775 -10.6297626405035 2755.2502477499 11 16 9
-71.0675674280195 -11.1277613627512 2748.61475843957 8 13 6
-89.4346537909043 -9.59466004239723 2724.82357207424 8 13 6
-72.1120454063007 -11.4393561598916 2729.67157354305 8 13 6
-64.3037068075638 -12.3836376594987 2726.88002290885 8 13 6
-28.4863321608144 -15.988225964441 2746.14687397785 8 13 6
-27.8019202794262 -16.2586193305315 2737.61522549684 9 14 7
-63.3237253352146 -13.0826797251071 2700.89131790485 10 13 6
-65.2000167329199 -13.1037536552547 2690.60772478678 11 14 7
-89.7409123926938 -10.9623907977179 2662.89988666092 8 11 4
-59.3441355847602 -14.0586043965928 2677.59821330681 8 11 4
-59.684667792161 -14.2229614902472 2668.63097271895 11 14 7
-27.4861234247643 -17.4977430261425 2684.41532152615 13 16 9
-47.3941687409964 -15.7899435918697 2660.63503124174 15 18 11
-18.3319660382999 -18.7691666886043 2673.84248587694 17 20 13
-22.7860706893033 -18.5384816918042 2661.82113111782 17 20 13
2.31551071094582 -21.1429841463729 2671.8423505263 15 18 11
38.2310417376286 -24.7899783913823 2689.70082433923 11 14 7
30.4950113057827 -24.2444732679854 2675.22863357832 12 13 7
49.2043053665743 -26.2421031621969 2680.19931212736 12 15 8
92.0627673583008 -30.5687336232458 2702.63153568707 13 16 9
117.61991735564 -33.2334426056748 2712.25797204418 12 15 8
85.687640052996 -30.3527164958081 2680.36500097355 9 12 5
76.9967700591234 -29.7107209833347 2665.39651785013 8 11 4
70.7518054456635 -29.3027423620283 2652.27969518089 9 12 5
87.1477265156781 -31.0839491860343 2655.28395669825 7 12 5
102.752841014536 -32.7904190714921 2657.64957801387 7 12 5
107.424204864621 -33.4385178980209 2652.28167787924 12 17 10
113.784382028996 -34.2503921458811 2648.09760555443 14 19 12
122.694547996687 -35.3100835299044 2645.6753857787 10 15 9
-105.111470755459 -14.1445880128431 2767.55434874376 18 21 14
-91.8418815628241 -15.629832450717 2769.29629850116 17 20 13
-100.524520414915 -14.9701864048935 2752.9973059033 19 22 15
-85.6573182444156 -16.6123665933451 2756.00240127187 19 22 15
-76.2688888243686 -17.7194656820903 2754.48890593337 16 18 13
-80.3176029923227 -17.5098539496452 2742.11632122628 11 13 8
-71.7182924370845 -18.5395244559723 2739.96333647406 11 13 8
-69.4691557252836 -18.945963004158 2732.72288805951 11 13 8
-28.1502782730167 -23.1921690580873 2756.48900372713 10 12 7
-24.2361433090563 -23.76451343277 2750.4533538107 9 11 6
-15.5203239209487 -24.8092754979674 2748.19948445885 7 9 4
-79.1324526350112 -18.7261232201248 2689.486345614 9 12 5
-86.6868665551648 -18.1606560989491 2674.85661194003 10 13 6
-86.2284379795644 -18.3840574252734 2666.52052680343 10 13 6
-93.0849367980455 -17.8836991695707 2652.60956780375 10 13 6
-44.7892993884094 -22.835543715781 2680.91996539708 12 15 8
-49.1891240673388 -22.5787749188677 2668.85171072426 15 18 11
-32.4215823413185 -24.4171845460851 2672.857506809 16 19 12
-29.5053215362548 -24.8841588596554 2666.36280662153 17 20 13
-1.99850101982557 -27.7907041476114 2678.27105869408 16 19 12
23.9732008769593 -30.5483483808243 2688.86236662673 14 17 10
22.0230235549956 -30.534132384977 2678.64226890257 11 14 7
28.2977438468124 -31.3367964190271 2674.53252095135 11 14 7
25.4644202972458 -31.2328478297168 2663.75371995259 10 13 6
109.331816257314 -40.1303368767488 2698.31250770732 10 13 6
124.123009535566 -41.788473596284 2700.06000972868 8 11 4
101.228017885377 -39.6813828798312 2674.89624316269 10 13 6
105.089243968536 -40.2461378177514 2668.9064020953 10 13 6
126.634483385367 -42.5808707765266 2675.39134743279 10 13 6
141.499940218522 -44.2489116267147 2677.07486225361 12 15 8
129.318371211687 -43.2066763399147 2659.83562535865 12 15 8
179.848586485005 -48.45394533606 2686.21114835436 15 17 12
-57.2217483394892 -26.2560653292744 2808.17325643863 10 12 7
-108.048884560735 -21.2877975538942 2756.91304378916 15 18 11
-108.131313503513 -21.4478979633679 2747.72206824102 18 21 14
-86.9868736628914 -23.757893751239 2755.8775015524 19 22 15
-88.6517178988253 -23.7572290352208 2745.41049871188 17 20 13
-102.2250417035 -22.5467656988025 2725.40635747516 12 15 8
-93.6819306205208 -23.5794299002898 2723.30178671199 12 15 8
-57.282824823853 -27.4439353812616 2743.38937562515 12 15 8
-49.4349894928279 -28.4088518539058 2740.56372546852 11 13 8
-47.9719171099915 -28.7240651843944 2732.68105076171 9 11 6
-13.7695836808498 -32.5411079623442 2741.43848291602 7 10 3
-31.6266291601295 -30.8853208219748 2718.52800716144 9 12 5
-61.7186103239367 -27.9765642145363 2686.36306451238 9 12 5
-49.7228273174182 -29.6836291696653 2669.36033014736 12 15 8
-59.0652443738637 -28.8858806450496 2653.63198061432 13 16 9
-19.4088060661626 -33.1074379830237 2674.86873419078 15 18 11
-23.857948537382 -32.810678112109 2662.84265036526 16 19 12
22.6048396213887 -37.737524360395 2688.77169967942 16 19 12
14.0623220639533 -37.0210893987405 2673.67383628455 15 18 11
-9.41862690389517 -34.767281116558 2647.69372838219 11 14 7
-31.3869567689635 -32.6648084583497 2623.0500815358 10 13 6
41.9716930359289 -40.369470740684 2668.03270864062 11 14 7
69.0633998020469 -43.3186999523802 2678.97777044244 12 15 8
97.0942594915725 -46.367786594536 2690.43274259883 10 13 6
114.363466609218 -48.3101670505424 2694.00440099004 9 12 5
111.570893638414 -48.1837173642727 2683.19044970509 11 14 7
111.257729968353 -48.3121455176266 2674.19925500174 10 13 6
125.234542660818 -49.9165124239258 2675.32900064754 9 12 5
146.850407331461 -52.3120640699666 2681.75312664557 9 12 5
173.621097428817 -55.2432810949444 2691.65273202866 9 12 5
159.768742080537 -53.9708439805703 2673.21361225378 11 13 8
-39.0334526616329 -35.5997283310099 2824.22982349322 12 14 9
-40.4687836278574 -35.6046256916833 2813.56392929448 17 20 13
-33.306863779651 -36.5087364370962 2810.00881633418 14 17 10
-75.7229472886611 -32.2171473080387 2766.01995850619 17 20 13
-92.3488064067888 -30.6232553316278 2743.36571571937 14 17 10
-105.134106214265 -29.4291694145646 2724.00224827012 13 16 9
-103.736641634784 -29.7217434804529 2716.17629150172 13 16 9
-76.117803910754 -32.7690451167219 2729.31162721076 12 15 8
-37.2234349599938 -37.0049910022903 2751.20898692929 11 14 7
-30.1315034042258 -37.8991750324264 2747.71478652524 11 14 7
-31.0462325226437 -37.9504596507439 2737.92091394203 10 13 6
-18.3364681978402 -39.4362326314883 2738.82482658792 7 10 3
-23.3109054828642 -39.0585202315464 2725.93024921251 9 12 5
18.4949806274002 -43.6142438262976 2749.2762626523 8 11 4
6.24517327321383 -42.468722940483 2730.77224022044 7 10 3
-45.0503537746227 -37.1965212090925 2682.56286649391 8 11 4
-46.1889762916599 -37.2179082813064 2672.96285663019 11 14 7
-31.8637328021056 -38.8737427037505 2675.11451467569 12 15 8
-31.3951924273006 -39.0643856550255 2666.76945300416 14 17 10
-6.36059069110573 -41.8555531483166 2676.84962017629 16 19 12
3.97948193382502 -43.0923310280507 2675.83571817244 16 19 12
12.6954529542593 -44.1574820374356 2673.58153400342 17 20 13
-4.99958532033373 -42.4212866474081 2651.85338060589 13 16 9
-2.1129786601608 -42.8667656587928 2645.38424344161 13 16 9
18.1884610532252 -45.1615293694431 2651.62339930328 13 16 9
95.703705950732 -53.6817260813021 2690.36211897349 10 13 6
98.7559417398165 -54.1490764430264 2683.74956681662 9 12 5
116.041762747472 -56.1313926617951 2687.30708413692 8 11 4
132.255707770427 -58.1437931245836 2681.20711184549 9 12 5
158.106839037914 -61.0428278677603 2690.5802625055 10 13 6
166.285053736357 -62.0584951340175 2687.46858954219 11 14 7
177.019507882434 -63.347456733521 2686.11320104989 17 19 14
-34.9083364985052 -43.5541093065432 2828.64617788419 11 13 8
-70.7515269545 -39.9451812469055 2780.2880419201 15 18 11
-84.9242824866883 -38.5420196739881 2759.47894014648 16 19 12
-84.9997027991858 -38.6635540445108 2750.28164005766 14 17 10
-109.624118892512 -36.1232333727384 2721.32066147784 15 18 11
-113.787004191862 -35.7983559070925 2709.04628606934 14 17 10
-77.4528162244681 -39.8669692316755 2729.19146422249 13 16 9
-42.5545689645599 -43.7832620664538 2747.93339950349 12 15 6
-29.0824642776482 -45.3752784649156 2749.50051368762 12 15 6
-53.2250074022036 -42.8794308598547 2721.44542754373 12 15 6
-85.5515404746234 -39.4898765822796 2687.24435315672 10 13 6
