ply
format ascii 1.0
comment KinectMotionCapture
element vertex 769
property float x
property float y
property float z
property uchar red
property uchar green
property uchar blue
end_header
328.317365281406 528.240014795604 3676.58884188673 193 191 194
332.764451783323 528.575194083586 3691.33336459338 193 191 194
339.35859150747 528.394863011072 3700.4780153063 184 182 185
348.054181126431 527.702580282089 3704.00404536018 161 159 162
356.064002757073 527.179322150725 3709.40900515847 166 164 167
363.063220252723 526.908223971694 3717.63929161624 158 156 159
374.138636495999 525.623763448705 3714.58121372895 155 153 156
391.544495324649 522.744853636475 3693.59947468116 182 180 183
409.483047829101 519.70847373055 3670.67699682895 192 190 193
422.329054216856 517.937766852102 3661.86614067045 182 182 182
432.488906608199 516.839616106675 3660.59356156408 188 188 186
442.297849509648 515.826416525722 3660.25732315024 149 149 149
452.08587717856 514.814545250876 3659.91260623846 143 143 143
461.852975842939 513.804003373267 3659.5594052443 167 167 167
470.647237390953 513.042689013995 3662.0468447354 173 173 173
477.86176645823 512.693671307058 3669.28609179117 170 170 168
483.846736004072 512.671663483282 3680.34076727337 184 185 180
-25.6418717186142 561.176041068492 3815.69165847449 154 156 151
-14.6465981839905 560.093687705725 3815.83628111083 189 191 188
-3.251978628666 558.924602504507 3815.06444538698 208 210 209
8.9510218369464 557.581595703921 3812.46310491506 153 154 156
19.877288782582 556.503603745959 3812.5797542133 153 154 156
35.7203845739558 554.378679607715 3801.74840157173 161 162 164
62.5213955771513 549.906856161849 3766.24174247526 167 168 170
88.6984837852332 545.538715071933 3731.56074093754 186 187 189
109.818007481237 542.227890123968 3707.77016530293 154 155 157
124.366077336522 540.313326920683 3698.57074485337 173 174 176
134.856648448721 539.26743339481 3698.51074069263 181 182 184
145.723522886767 538.136609185931 3697.52467746868 166 167 169
158.926990652758 536.491755913599 3691.01547447151 180 181 183
174.812490279308 534.250657246987 3678.04455512737 196 197 199
187.887238488897 532.615230508483 3671.48290581504 162 163 165
197.818317461094 531.66657507018 3672.27443834887 149 149 151
208.884776016053 530.463291605397 3670.29092640037 156 156 158
220.301860809809 529.177166167219 3667.37120031242 181 181 183
233.953929676346 527.384977726245 3658.88687597531 186 186 188
246.412547108031 525.851300922512 3653.15405380161 182 182 184
257.327136478308 524.658669504246 3651.10922758122 180 180 182
265.986681657172 523.97285896291 3654.6206144388 170 170 172
275.014525087093 523.202811741741 3657.20269577466 169 169 171
283.671474980473 522.516519394828 3660.71303547145 173 173 175
292.691487707199 521.746369858392 3663.29220421303 185 185 187
300.985099329971 521.142940329633 3667.7336108795 166 166 168
311.074065981451 520.123096778534 3667.51080246114 135 133 136
320.075866586411 519.353344072571 3670.08259423555 142 140 143
327.660313538088 518.914576102068 3676.3934905657 186 184 187
331.75487881329 519.299566348787 3692.07396773723 178 176 179
338.350814847493 519.102630055658 3701.21921439988 176 174 177
346.013039257421 518.656623953067 3707.56165713588 201 199 202
355.40443219905 517.799447660241 3709.21304659568 193 191 194
362.403031079349 517.514799429568 3717.44318528616 151 149 152
373.817910596729 516.168107467862 3713.44421723174 154 152 155
388.544486840085 514.011152313479 3700.00316299448 146 144 147
406.506474118071 511.050026886923 3677.0896033079 179 177 180
418.712701852015 509.475431288106 3670.1758351139 188 188 188
428.896594637122 508.38929828531 3668.91315592828 180 180 178
439.379715765788 507.224341105891 3666.69316427857 142 142 142
449.831801345145 506.061543934359 3664.46059018216 156 156 156
460.252798388366 504.900940856814 3662.21541192671 174 174 174
469.690077025039 503.982167471709 3662.80703892568 164 164 164
477.53668353397 503.462789902926 3668.14562743534 169 169 167
483.830410461394 503.339832977969 3678.24701639445 182 183 178
487.989413247834 503.768797450882 3695.03231591587 180 181 176
-27.6316113612347 551.393088718514 3818.19686073364 135 137 132
-17.8927948902317 550.577048287693 3821.06741586821 191 193 190
-6.06241378417161 549.334939396319 3819.39350504416 186 188 187
7.40473696407595 547.754803117715 3814.06938302791 137 138 140
20.4077465046812 546.263035376766 3809.63547185318 154 155 157
38.304423739171 543.759221241037 3794.24417375387 182 183 185
61.4125630985252 540.166024494682 3766.94568226505 179 180 182
84.7553247605055 536.50184199991 3738.66366036993 184 185 187
106.305104199948 533.187221042907 3713.96877009883 150 151 153
122.479721085256 530.97418069935 3701.11444238707 178 179 181
134.973466884585 529.520369925991 3696.47404622166 179 180 182
144.251097406983 528.737102498997 3699.15762201681 167 168 170
158.64351483628 526.872171633799 3689.8948028012 189 190 192
173.356556488344 524.929381473143 3679.68332684813 185 186 188
185.272516224349 523.571981274734 3675.88732379599 146 147 149
194.058582913129 522.878238834904 3679.44999843977 149 149 151
205.914185944958 521.524878797726 3675.62926953509 162 162 164
218.491549892464 520.009918586458 3669.94438511918 184 184 186
232.15406786364 518.252648391955 3661.46402687985 185 185 187
244.622554099241 516.7456568206 3655.73499824827 182 182 184
254.425778009695 515.813557030243 3656.47463768452 181 181 183
263.100868064492 515.126544785574 3659.99232766101 173 173 175
272.88127009381 514.195595592954 3660.72271795778 173 173 175
282.646312047871 513.26549927972 3661.44713983065 176 176 178
292.396138612345 512.33628509869 3662.16513718702 177 177 179
299.965656839281 511.891526770736 3668.47003438737 178 178 180
308.625115821083 511.204019439703 3671.98139920557 195 193 196
317.995937235785 510.355830865007 3673.62413404861 204 202 205
324.883894377656 510.068083015496 3681.80949817595 184 182 185
331.095499522276 509.93757964735 3691.87795103253 162 160 163
337.690600874949 509.72433083232 3701.022983383 144 142 145
346.389386533404 509.032004103478 3704.55030782417 150 148 151
354.74468901266 508.418600541082 3709.01702550914 180 178 181
362.083156736167 508.041412143168 3716.30666797645 184 182 185
373.835396051485 506.63810043654 3711.3656583106 189 187 190
389.231538044333 504.373742919311 3696.03890430382 191 189 192
405.857413517511 501.803636615095 3676.89688837857 198 196 199
417.074946824117 500.493835842279 3672.81747938737 179 179 179
426.612041815925 499.576813449011 3673.44925082403 156 156 156
437.759879164689 498.271901493252 3669.34184260306 145 145 145
448.221030648698 497.125093467807 3667.11281803396 139 139 141
458.651120089984 495.980462493299 3664.871200162 162 162 164
467.77921056504 495.146657757702 3666.41580316518 172 172 174
477.5268259603 494.159462836467 3666.05453656958 170 170 170
484.127149063864 493.94122744004 3675.20172096699 176 176 174
489.206488762183 494.10307191947 3689.12500143516 176 177 172
-34.7156736336953 542.587085848181 3831.57872940448 122 124 119
-22.4068851759605 541.274457051924 3829.02024871197 191 193 190
-9.29412559325038 539.79927931231 3824.63064880542 171 173 172
3.77370039381919 538.327332808694 3820.22283111189 191 192 194
18.4536832580038 536.530247967897 3812.15473899616 180 181 183
36.7741049323991 534.001161509663 3795.85639543766 175 176 178
62.3496816291165 530.010275451962 3763.08634571297 172 173 175
84.062601414935 526.768298682183 3738.45695919122 180 181 183
103.597996565282 523.944680643677 3718.33703524294 151 152 154
120.190682330474 521.698568539418 3704.57342319549 187 188 190
134.292917513672 519.944926296496 3696.27107584665 174 175 177
143.96755525057 519.083570648822 3698.03718079925 168 169 171
157.572517150511 517.417933130669 3690.61163210643 195 196 198
170.725370377431 515.837000552384 3684.08145113891 175 176 178
181.878073773627 514.660448352177 3682.13265650098 134 135 137
192.614211586751 513.565805437438 3681.09338469786 151 151 153
204.092830409681 512.313554632072 3678.19831654266 166 166 168
217.442628210371 510.666364478242 3670.66957111118 186 186 188
230.731760549912 509.023597604496 3663.11597190972 184 184 186
244.33630273713 507.306293231495 3654.61183675545 182 182 184
255.259005367916 506.145946117369 3652.56979360409 180 180 182
263.553115641474 505.538382418404 3657.01143350662 176 176 178
272.220891893341 504.851576031991 3660.52616061568 174 174 176
281.254691588878 504.086222125978 3663.11087525386 182 182 184
290.64686599138 503.242866919335 3664.76247636157 174 174 176
298.22381926598 502.789320670359 3671.07019334364 168 168 170
307.249654876451 502.023581550132 3673.65168629992 203 201 204
316.626164583989 501.180525954292 3675.29694261246 199 197 200
324.225392155402 500.724183816757 3681.61369949185 145 143 146
330.085106837642 500.651636173121 3692.61804324367 140 138 141
338.075151465526 500.114462926004 3698.0151009462 146 144 147
346.07509251046 499.576137417642 3703.41591714528 182 180 183
353.74151076536 499.113151399958 3709.76018664257 195 193 196
360.74127356969 498.80117752499 3717.99126094515 205 203 206
372.838802659581 497.346156615815 3712.11164046532 185 183 186
389.584304887441 494.83303400425 3693.0173714196 208 206 209
405.874405301861 492.404951962026 3674.81713418595 195 193 196
416.096885452457 491.343946187036 3673.56988829417 165 165 165
425.637398332891 490.435111319397 3674.20298155055 143 143 143
435.487619454163 489.452190680126 3673.88322688987 145 145 145
446.608880330358 488.171282740082 3669.76461887266 151 151 153
456.727501283834 487.117265180482 3668.47526815772 175 175 177
466.502363034335 486.139453783392 3668.12470506756 159 159 161
475.310004337732 485.38569666003 3670.61776187176 170 170 170
481.922080875661 485.150250603082 3679.77009283028 174 174 172
486.702033740223 485.355086512362 3694.65063596688 176 176 174
-39.6821825300178 533.297333814439 3840.42709197817 129 131 126
-23.5474762135064 531.282158309227 3829.71297851118 181 183 180
-10.4301407723428 529.831156123105 3825.32504809325 139 141 140
3.89324576358652 528.144758295792 3818.19079903871 137 138 140
17.3275014471401 526.621385380603 3812.85292779259 140 141 143
34.8312792774421 524.310288871008 3798.37963767298 138 139 141
61.6507045557313 520.191209793506 3762.87776068012 159 160 162
84.5906141483117 516.797574024385 3735.50964153069 156 157 159
101.697681341328 514.516707218995 3720.8757541733 169 170 172
116.292871565782 512.713494699004 3711.69456842016 166 167 169
131.216777476961 510.837370877641 3701.56796460165 152 153 155
143.287751720312 509.512506303399 3697.83447921607 192 193 195
157.289512306925 507.801778550529 3689.49112513351 208 209 211
168.484000138849 506.638668100593 3687.5591468333 141 142 144
181.204782643957 505.16828059397 3681.93199372812 138 139 141
191.942184431954 504.087256152452 3680.89313047517 165 165 167
203.038340818493 502.930959542988 3678.92154404764 178 178 180
215.248855599551 501.546512873005 3674.16594388501 188 188 190
228.5507536832 499.935731002 3666.61727100545 188 188 190
242.168263149379 498.253115477186 3658.11812327872 187 187 189
253.102573403654 497.108346917168 3656.08066189082 181 181 183
262.892364637593 496.193435976312 3656.81473224456 174 174 176
272.666836504401 495.279479297792 3657.54284988839 177 177 179
280.96099691302 494.668489444838 3661.98453605956 176 176 178
289.623873955717 493.981458508532 3665.4972812155 211 211 213
297.92545509276 493.369253076094 3669.94198120089 204 204 206
307.666641345159 492.456638838153 3670.65635433296 144 142 143
317.036219951393 491.619661669984 3672.29875821878 148 146 147
324.627471499132 491.155786605857 3678.61259998667 178 176 177
331.531619633547 490.839064694753 3686.80473934788 178 176 177
338.11227708757 490.594182580434 3695.94442046427 178 176 177
346.453036587068 489.976945340459 3700.40502163127 192 190 191
353.081201471223 489.727626820338 3709.56397179688 207 205 206
360.762168458416 489.25504475935 3715.91420470839 181 179 180
370.826572178263 488.267797479973 3715.68120386187 175 173 174
388.258757903299 485.673428249789 3694.70796764819 173 171 172
404.891926615794 483.235088407387 3675.5679059501 181 179 180
414.456701656242 482.333088493339 3676.21077097639 152 152 152
424.334013438459 481.359503937478 3675.90165714122 143 143 143
433.538948650706 480.531909870527 3677.47732695985 150 150 152
444.99529845388 479.200160698072 3672.41597129864 165 165 167
454.481599239778 478.303182630071 3673.02702459003 163 163 165
464.906277958114 477.192111241952 3670.78296158209 155 155 157
473.722048276223 476.440698877128 3673.27929199422 168 168 168
480.027867750032 476.259787368411 3683.3860164198 169 169 167
486.36840980938 476.075781141732 3693.5068232318 174 174 172
-28.9337584859217 521.088104589801 3815.74171780315 140 142 137
-24.6883018009429 521.283407386356 3830.40566224857 165 167 164
-11.5664969006619 519.856538937497 3826.01961578242 169 171 170
1.09327178547347 518.509718227549 3822.52443829762 166 167 169
13.7130134836101 517.165689766224 3819.01329023051 139 140 142
31.2386231814679 514.90765788691 3804.54869469079 180 181 183
57.6748979244428 510.980787629424 3769.96903400886 173 174 176
83.4915833291239 507.146322783395 3736.2166137213 166 167 169
99.7962492140094 505.071367662468 3723.41415250794 194 195 197
113.196029820693 503.532515596669 3716.98363173135 147 148 150
128.138374466764 501.696041923569 3706.86419308888 146 147 149
143.401892488873 499.790058575091 3695.79651399595 211 212 214
157.795739002981 498.040158204111 3686.53340150688 191 192 194
168.200317095472 497.043578553069 3686.43820559488 138 139 141
180.920794253161 495.600607637637 3680.8107210464 140 141 143
191.656918323224 494.533343266795 3679.77123615692 185 185 187
202.752074989606 493.393569705514 3677.79886248302 189 189 191
214.1986324647 492.18186171797 3674.89050561131 188 188 190
228.263963952722 490.456061197452 3665.49419704121 186 186 188
241.505133746333 488.882698579095 3657.92065207877 186 186 188
251.692673599122 487.901132633237 3657.73746511868 184 184 186
260.745264687633 487.140416970911 3660.32975310235 173 173 175
270.530841758035 486.233790132 3661.06205437984 167 167 169
279.568241875237 485.473640842726 3663.64793012717 185 185 187
287.872483575362 484.858843104807 3668.09398423125 208 208 210
297.627375575108 483.953750744989 3668.81384970971 179 179 181
307.725733320765 482.977367583086 3668.59451426106 148 146 147
317.090999563937 482.146296666887 3670.23487010725 168 166 167
325.030654784949 481.602864076408 3675.61157293941 183 181 182
331.57530313728 481.344745594029 3684.73651732671 184 182 183
337.801232640829 481.155288898385 3694.81121686506 189 187 188
345.10100452908 480.749186083996 3702.08541082573 209 207 208
353.108013979681 480.19918220399 3707.48917749115 204 202 203
360.783647491184 479.718937986387 3713.83730899312 159 157 158
370.844018480163 478.743113623803 3713.6025887398 168 166 167
384.916099930894 476.924173101109 3702.05184564434 174 172 173
401.574471590399 474.550053454279 3682.92150166967 187 185 186
412.153290681342 473.444852084428 3680.73980451535 147 147 147
423.357914025696 472.202300651604 3676.65491586663 139 139 139
433.217967289341 471.241022482626 3676.33872090028 164 164 166
443.703636825659 470.142373842012 3674.11951570871 177 177 179
453.195877876833 469.253413344518 3674.7329134005 161 161 163
462.990477072208 468.296493643303 3674.39044073537 156 156 158
471.501118421995 467.615964878052 3677.84149745121 161 161 163
478.758182952001 467.209420017033 3685.09840285516 168 168 166
485.413416927149 466.937782428891 3694.26848227673 174 174 172
-24.9844369717735 511.129291978907 3829.28391649543 200 202 199
-14.8027038467906 510.246819160815 3831.25524362022 192 194 193
-2.54337312167863 508.994492616936 3828.67628076691 138 139 141
11.7554417838417 507.375242337923 3821.53157387288 142 143 145
30.9422890130415 504.876403550797 3803.42567988496 166 167 169
57.3844675748969 501.064388591044 3768.84753904569 170 171 173
81.9849517292714 497.561903940724 3737.83711003706 193 194 196
97.8937425498989 495.6086735615 3725.95224731294 165 166 168
112.107988976405 493.953365318003 3717.69450717943 146 147 149
127.056049133125 492.157579718427 3707.5770743023 172 173 175
143.913951825265 490.005156592285 3692.84132843259 189 190 192
157.513964473931 488.438566237657 3685.41328229898 143 144 146
167.917157865318 487.452966014535 3685.31718528368 145 146 148
181.416271952953 485.893712126652 3677.84823042787 163 164 166
191.759076821795 484.912283667931 3677.72765090604 190 190 192
203.235008269788 483.717765333119 3674.83105705534 191 191 193
213.911750951456 482.668276246887 3673.76765155639 194 194 196
228.356957763522 480.909835123011 3663.44633385535 192 192 194
240.465081481641 479.582302478957 3658.64910210922 174 174 176
250.281951974527 478.682073072095 3659.39402538137 167 167 169
258.224923922206 478.135035655797 3664.77184122976 183 183 185
268.762417007473 477.095099595546 3663.65198214469 214 214 216
277.807903026499 476.337089264204 3666.24111560376 197 197 199
286.48403790749 475.649052766296 3669.75923638655 145 145 147
296.606434340447 474.682122523778 3669.54956238183 154 154 156
305.990226073311 473.855436511851 3671.19764305794 174 172 173
315.720267002773 472.960009228982 3671.90737325515 183 181 182
323.664977316159 472.410756865656 3677.28590974421 189 187 188
332.322435499349 471.722765461043 3680.79646812235 197 195 196
338.188272869594 471.583680134769 3691.80379524473 165 163 164
345.479937358753 471.167310515662 3699.07478439643 159 157 158
352.79154439679 470.749076949298 3706.35386227334 176 174 175
360.46431813919 470.260899867815 3712.70089600398 207 205 206
369.168197564315 469.567751136668 3716.2302891058 155 153 154
381.906347768975 468.062635466333 3708.452557776 156 154 155
397.586284587527 465.955232554407 3692.16071247056 186 184 185
408.854171731494 464.730129719925 3688.10130663127 141 141 143
421.395433137201 463.239865978815 3680.24374384564 148 148 150
431.592706888108 462.222048408396 3678.98570747953 169 169 171
442.41102288068 461.072787349773 3675.82250674393 171 170 175
450.946149333149 460.391080821039 3679.28348623181 165 164 169
461.072919945725 459.378096466869 3677.99712423569 166 165 170
469.90997981468 458.63095050703 3680.50178507166 163 163 165
478.427752957849 457.949826815105 3683.95573390959 164 164 164
487.566474039866 457.137296994463 3685.5044799123 168 168 166
-27.3933749298632 501.338359969975 3832.69825694835 191 193 190
-17.2009360738667 500.460293839952 3834.67414257297 157 159 158
-6.18258603495492 499.440003292792 3834.82738107693 134 135 137
8.96675816221371 497.709688696984 3825.87001580184 122 123 125
31.0588923692956 494.778764865712 3801.39181282089 174 175 177
57.9143949771508 491.011135354054 3765.90187939173 175 176 178
80.0701928402061 488.036190242577 3740.37072167419 195 196 198
95.9901772221565 486.128653546539 3728.49004479823 148 149 151
112.629174587203 484.087356363404 3714.74363154877 147 148 150
128.372454550739 482.193191978159 3702.79130694502 200 201 203
142.440602905706 480.584457719199 3694.47405971748 163 164 166
153.679679675605 479.46730918436 3692.55978678412 135 136 138
166.065362479861 478.144287225662 3687.87464533269 159 160 162
178.405651377152 476.824547916591 3683.17109932777 181 182 184
190.700415284639 475.5081410607 3678.44935254391 200 200 202
202.949808293186 474.195005501498 3673.70895338186 198 198 200
214.389467731605 473.022265122515 3670.79750818004 194 194 196
228.45061197481 471.3737281938 3661.39891858717 195 195 197
239.4247000306 470.275541830614 3659.37720986943 188 188 190
248.870498195298 469.451181487717 3661.05012165679 180 180 182
256.446421443118 468.965985265325 3667.35791871301 195 195 197
266.623381763436 468.006597584678 3667.17028006984 180 180 182
276.779998718052 467.048552678303 3666.9743943639 153 153 155
285.458942124297 466.360353442305 3670.49365353221 145 145 147
295.223158456489 465.471110201619 3671.21717423493 166 166 168
304.253528235284 464.716180448894 3673.80016388529 178 176 177
313.991951432675 463.828437351037 3674.51348698602 189 187 188
321.590008584671 463.339475471406 3680.83001721961 190 188 189
330.257880207648 462.650733749605 3684.34479761307 175 173 174
337.878148242557 462.159468744455 3690.6705955597 164 162 163
345.166691888576 461.732446775202 3697.94065907254 181 179 180
351.787262882209 461.434584418277 3707.09664524809 205 203 204
358.096236252653 461.199350133329 3717.20531564249 184 182 183
367.829937048234 460.309999041071 3717.91648163773 149 147 148
379.566480426779 459.032190467693 3712.96816551856 138 136 137
396.599009662272 456.722526238093 3692.90976137584 188 186 187
408.202551882281 455.454786418452 3687.90777493633 143 143 145
420.746381804319 453.997524803688 3680.05100197768 146 146 148
431.271144440919 452.929498025936 3677.84713597401 169 169 171
442.088555911235 451.799765752362 3674.68342098087 175 174 179
451.263812737827 450.991086442713 3676.2466736358 164 163 168
459.472178909448 450.373513589389 3680.65392945106 160 159 164
467.368927723304 449.818601557514 3686.01308956691 163 163 165
475.58852156769 449.199601171796 3690.42490220777 163 163 163
485.67887703107 448.202702910297 3689.12341682054 165 165 163
-34.0324593255485 492.214552333732 3845.18363751805 154 156 153
-20.4411001652205 490.788526161272 3839.90863849683 203 205 202
-9.40661512911989 489.777741441103 3840.06859512201 206 208 207
7.42198934880434 487.810700960333 3827.477454976 215 217 216
31.1764765314522 484.691185936603 3799.35800940144 161 162 164
58.855947046486 480.905366528886 3762.04395911171 187 188 190
78.9697522867143 478.357553684928 3741.07733064659 150 151 153
95.3008992551039 476.428565923908 3728.28448504386 139 140 142
113.554166657777 474.169500190699 3710.87783914224 213 214 216
126.490505676472 472.792874384056 3705.33725265682 206 207 209
139.376499755211 471.419923488104 3699.77625400644 144 145 147
150.237269643606 470.384641878654 3698.78699490666 171 172 174
164.212435836533 468.81833310638 3690.43177828568 202 203 205
177.342079875927 467.389740631229 3683.89104538582 208 209 211
191.190905552918 465.832858764228 3675.48460293008 203 203 205
203.819475894279 464.478868442029 3669.81923151301 209 209 211
214.868337457545 463.391779159254 3667.8277139468 208 208 210
226.26660141218 462.241267491436 3664.89933951879 210 210 212
235.366154595621 461.485573365379 3667.5106040607 194 194 196
245.584816412479 460.534468787203 3667.33953004834 173 173 175
255.038811057976 459.714684047514 3669.01598307752 153 153 155
266.700338508848 458.506668446268 3665.11557267146 169 169 171
276.118755859258 457.689149500035 3666.77760353138 186 186 188
285.891529034769 456.807776299384 3667.50452918669 202 202 204
294.925043883947 456.055705725972 3670.08877058201 201 201 203
305.031600791625 455.111848696858 3669.87250837686 190 190 190
313.333093457791 454.488272456282 3674.31751595519 171 171 171
321.993865678597 453.800436919399 3677.82941498228 170 170 170
330.302575172213 453.175711500081 3682.27709608692 184 182 183
337.917450441117 452.676729259674 3688.60076903526 217 215 216
344.160211524023 452.428185784231 3698.68247419619 206 206 206
350.438133212706 452.176572663407 3708.77843890481 196 194 195
356.751189013753 451.921906940251 3718.88865230495 149 147 148
365.812470207399 451.165210145275 3721.48442838882 143 143 143
377.897744070274 449.849198160049 3715.59879220449 148 148 148
393.272542175736 447.917347575676 3700.26087589675 159 157 158
407.219202661202 446.240389331963 3688.65827455249 147 147 149
419.439089266197 444.877509078223 3681.74868922073 143 143 145
430.296811910776 443.764284665697 3678.60091358533 175 175 177
440.794355130504 442.714877333663 3676.3861427285 167 166 171
449.332545040968 442.033406301717 3679.84836080386 139 138 143
457.870028491684 441.351737192815 3683.31029434003 157 156 161
465.457926903622 440.851505398362 3689.6227967945 160 160 162
473.373960342653 440.289530778305 3694.99007587773 162 162 162
482.544456665823 439.485995778614 3696.55136204603 166 166 166
-27.9847336876815 481.025588668317 3830.45516895157 141 143 138
-20.3192809138208 480.554662925136 3837.87791585678 178 180 175
-9.2888342151336 479.554927965315 3838.03615363353 161 163 160
5.8766855808785 477.899940296778 3829.08450955989 200 202 199
27.9914973747859 475.13738738332 3804.61421236781 154 154 154
54.8743751776739 471.603794256299 3769.13358902952 194 194 194
75.8296889638408 468.997935882228 3746.35024787926 134 134 134
94.2064336852664 466.792524661537 3728.99319038416 137 137 137
110.855836898547 464.854637621726 3715.25020656837 203 203 203
123.406830941186 463.568655569641 3710.63171771584 148 150 149
135.91244804299 462.285994241093 3705.99508811726 174 176 175
149.163219332409 460.878505523689 3699.50298159702 200 202 201
162.751001149588 459.411305548098 3692.06922993426 218 220 219
175.107952640728 458.13959126577 3687.37206647914 218 220 219
188.194546350585 456.744297638915 3680.81365040912 220 221 223
201.995583787287 455.226619285504 3672.38756168091 213 214 216
213.818460047499 454.029177832662 3668.55240011749 206 207 209
222.941187481667 453.274651403319 3671.1730388988 205 206 208
232.058940858457 452.520265010783 3673.79166265802 169 170 172
243.795834504361 451.328843765953 3669.92164171063 150 151 153
255.119760245505 450.202602927053 3666.96298429944 146 147 149
266.777916009546 449.016891482153 3663.06129688835 161 162 164
276.559204712386 448.143391594927 3663.79161074288 166 167 169
287.419344407581 447.085899537209 3661.72345668807 164 165 167
295.713684699787 446.460698608012 3666.16532340892 163 164 166
304.372570864252 445.773610260865 3669.67645312165 160 162 161
311.959956031166 445.269393772972 3675.98903519628 160 162 161
320.271514549687 444.642066530666 3680.43788957206 189 191 190
327.531728481519 444.196023723015 3687.69662675675 215 215 215
334.46255923167 443.808564832317 3695.90010588739 208 208 208
341.418375225224 443.418866945206 3704.11397556391 157 159 158
349.432542361093 442.846791522246 3709.52080762175 140 140 140
356.430725563645 442.453213919677 3717.75186088875 139 139 139
365.150596149802 441.759216671533 3721.28773513011 137 139 138
375.554062876491 440.767847563659 3720.11298436951 145 147 146
391.6141262741 438.771420702856 3702.89540031598 164 164 164
406.566919020807 436.960749909946 3688.46450665662 142 144 143
419.776766016462 435.451674926346 3678.72017574526 150 152 151
430.301784410011 434.417042726889 3676.51616017397 183 184 186
438.850982119686 433.735147888414 3679.98283844172 161 162 164
447.077979837187 433.111277386304 3684.39742854605 141 142 146
456.266516852036 432.312768875523 3685.9659811634 157 158 162
464.178111214799 431.74618453863 3691.33149783644 162 163 165
471.157147107941 431.351419072848 3699.55480749695 161 163 162
478.472236290264 430.897029017041 3706.83556932579 157 159 158
-31.6656332743923 471.3843045703 3836.59004850306 128 131 124
-19.7756738015331 470.26756314021 3834.9393102872 174 176 171
-9.58819937812239 469.40537775746 3836.91280824989 154 156 151
4.33067852750013 467.977364382843 3830.6916261714 126 128 123
25.2175262910954 465.487181243962 3808.95849496946 157 157 157
49.6581304439543 462.445214871369 3778.95864921932 149 149 149
74.3195989748502 459.355389788857 3747.96978450642 141 141 141
94.7337118361626 456.90171907661 3726.0449695316 201 201 201
111.782365803965 454.954308582815 3711.3849035645 196 196 196
123.924685202156 453.755328779788 3707.6793511553 202 204 203
137.220598537005 452.374689579036 3701.20531881798 185 187 186
150.460937817679 450.998193944025 3694.70901075861 161 163 162
162.074506755215 449.870300454164 3691.86764035586 135 137 136
173.262571450578 448.805866202045 3689.9323134344 130 132 131
186.359131538307 447.439984833667 3683.3777097434 135 137 136
200.940993922518 445.836147109316 3673.11055106545 137 139 138
210.854771161874 444.961923796467 3673.89451407479 149 151 150
220.373350780713 444.148728696478 3675.5968099287 162 164 163
230.259362426334 443.276191688734 3676.36977529032 206 208 207
243.505874066514 441.867133841048 3668.79714781841 221 223 222
255.201345580394 440.700732537506 3664.91042292492 227 229 228
267.226254058069 439.47799548775 3660.07844636786 231 233 232
277.000743853386 438.613313255455 3660.80594055739 231 233 232
288.219545549259 437.513931789479 3657.80451557702 225 227 226
295.7790016578 437.00424683933 3664.10583082289 220 222 221
304.073231009741 436.37608083861 3668.54767509924 209 211 210
312.01501392333 435.8056402049 3673.92544413269 204 206 205
320.676275226855 435.117915359166 3677.43754034691 165 167 166
328.280697727276 434.603657026294 3683.75683960528 156 158 157
335.200570868825 434.203416976963 3691.95623618194 141 143 142
342.492717100649 433.743417467354 3699.22775109051 165 167 166
350.838530894023 433.109709543562 3703.6907807752 188 190 189
357.478826543479 432.760864546175 3712.85513975891 154 156 155
364.488537678567 432.352475663228 3721.09097286973 144 146 145
373.20818265986 431.658421569206 3724.62675619615 145 147 146
389.285494635594 429.72135112623 3707.4154488379 147 149 148
404.254850690613 427.961806639588 3692.99087402147 146 148 147
417.480311383223 426.490229526627 3683.25258076195 169 171 170
428.019393865823 425.471175532449 3681.0541415623 166 167 169
435.608578422079 424.955533742917 3687.36753879763 136 137 139
444.499391051139 424.216572012072 3689.89415893834 150 151 155
454.342216353831 423.312006039327 3689.570815856 160 161 165
462.897234594282 422.629186786311 3693.0398578223 159 160 162
469.566454600989 422.275444491872 3702.21622242043 157 159 158
476.888640554683 421.809777305752 3709.49994315939 155 157 156
-17.5470569437897 459.753757713018 3828.36918181359 160 162 157
-6.53999507731728 458.777424774665 3828.51777385622 154 156 151
5.69508714640032 457.621799818989 3825.92800275796 141 143 138
23.6816191927489 455.628916249444 3810.5692135221 126 126 126
46.9023519032108 452.866922179064 3783.31000999517 149 149 149
72.808923145681 449.701134576259 3749.58891545643 200 200 200
94.450806539121 447.145336816551 3724.92556575196 201 201 201
111.904260698955 445.193542732792 3709.35036837624 111 111 111
125.645769246324 443.780723966917 3701.9784473846 123 125 124
138.928816620792 442.431231267879 3695.49896962892 112 114 113
153.342966108202 440.910144262466 3686.24234332722 114 116 115
164.14919403788 439.91985613413 3685.23091676232 111 113 112
176.492317971668 438.698597500102 3680.52777218696 113 115 114
186.850262682448 437.770584540001 3680.41317503169 123 125 124
199.115178647978 436.555029023864 3675.67832137501 121 123 122
208.654531815847 435.745896692335 3677.38899749733 126 128 127
219.705170950851 434.707802532347 3675.39782828767 134 136 135
231.103220477807 433.614692911875 3672.46893194753 143 145 144
245.092580552344 432.12530350809 3663.04007115759 143 145 144
256.029215020536 431.095524410939 3661.00267923869 149 151 150
267.675694204419 429.954793067329 3657.09592312597 182 184 183
277.075757004033 429.155276768162 3658.75012867637 192 194 193
286.100427048124 428.412524240929 3661.33097547096 188 190 189
294.394840455106 427.78189283766 3665.77291295698 185 187 186
301.2540136033 427.373729625145 3673.94779259102 172 174 173
310.283406224695 426.629905981728 3676.53030241598 164 166 165
319.662355319574 425.830906377864 3678.1762124868 129 131 130
328.326126392769 425.142833247527 3681.68932752891 157 159 158
336.289909957184 424.564483074851 3687.07580719589 165 167 166
342.874110017382 424.204176568556 3696.21779757389 160 162 161
350.867579975514 423.622990775754 3701.61657577151 194 196 195
355.790498942559 423.530049355231 3715.47819657295 171 173 172
362.467404026512 423.161695634455 3724.65778355513 147 149 148
372.546167949089 422.25112416489 3724.43001587141 148 150 149
388.627926423363 420.374404066515 3707.22005142981 150 152 151
402.272658964287 418.881286335904 3696.57287350509 194 196 195
414.192871387676 417.660768160822 3690.61968129422 186 188 187
423.445474941921 416.869318327064 3692.21412049743 150 152 151
433.011790912152 416.02555274835 3692.85716803491 131 132 134
443.206114226129 415.077363576844 3691.59766652002 152 153 155
452.416157399449 414.288628185166 3693.17485275126 159 160 162
460.664681851606 413.657582646816 3697.59821326303 159 160 162
467.659984608042 413.234524533525 3705.828323712 154 156 155
475.927233952344 412.60153219227 3710.25928055642 157 159 158
484.508003955254 411.916254242663 3713.73876786546 174 176 173
-21.6322814149315 450.14523355404 3835.41891291085 145 147 142
-8.92963750725806 448.947364848572 3831.94022351098 162 164 159
4.14918216633953 447.694986658707 3827.53519281541 161 163 158
20.4910430267133 445.987914426062 3815.82381127597 111 111 111
45.7887255075624 443.032328377092 3784.01246222673 138 138 138
74.9734651141323 439.523565291703 3742.990294935 163 163 163
95.3861097167161 437.223764573179 3721.06397640654 107 107 107
112.833685309336 435.330060400336 3705.48595853484 195 195 195
126.166795108872 434.006977139446 3699.02680775123 189 191 190
140.241074557069 432.575964631794 3690.71069587756 221 223 222
153.854012977699 431.205736297744 3683.28613770046 237 239 238
165.833451585639 430.062670140369 3679.51421220103 232 234 233
176.991267407477 429.033464474241 3677.56637070153 235 237 236
187.34256836652 428.116916912941 3677.44899663357 234 236 233
198.83059186815 427.036584265313 3674.55643327349 226 228 225
206.835772100794 426.452428771862 3679.95971816142 204 206 203
219.036978566062 425.266160049685 3675.19884699274 194 196 193
230.058547406843 424.246607816573 3673.19602411033 162 164 161
244.053451819272 422.795295313459 3663.76886234451 149 151 148
257.231381313528 421.457494119835 3656.16818356728 167 169 166
267.385458985915 420.554988123156 3655.97084875413 155 157 154
275.680071637166 419.922069442232 3660.41288424968 140 142 139
283.249062883962 419.395414773079 3666.71818883144 107 109 106
292.647004352211 418.601147511754 3668.3714956835 95 97 94
302.0345618914 417.807503263361 3670.0208506604 111 113 110
311.769526836214 416.961598905785 3670.73219918633 107 109 106
320.778804727369 416.221954231187 3673.30653302382 82 84 81
330.487930482577 415.377663687427 3674.00740721235 85 87 84
338.431151967526 414.795542402522 3679.38584724932 71 73 70
344.64660963547 414.472559049793 3689.4570616846 41 43 40
350.897223124355 414.146536318828 3699.54253350081 56 58 55
355.470650498313 414.075638929531 3714.3415459101 78 80 77
363.163837735596 413.536917785006 3720.69722803066 86 88 85
373.570881235808 412.587033847869 3719.52361103409 165 167 164
389.644330697938 410.771729051429 3702.31007404754 153 155 152
400.62105824634 409.72734749601 3699.21021807252 180 182 181
410.242631774921 408.888080715777 3699.87560490491 162 164 163
418.866684033919 408.201092157098 3703.3726298593 141 143 142
429.763070836456 407.162468557308 3700.23994361419 133 134 136
441.589710910131 405.976517238785 3694.24860261334 149 150 152
450.168700487042 405.292501150919 3697.72735947592 158 159 161
458.429822011269 404.657941559873 3702.1561043152 161 162 164
465.75165501249 404.171022044936 3709.43984323305 153 155 154
474.653076458123 403.4363754863 3711.97072610074 160 162 161
482.310672506912 402.897963568615 3718.31199525693 173 175 172
-11.7394352849876 439.149660292607 3836.27111813537 143 145 140
0.521482526969042 438.030075339207 3833.69179173723 112 114 109
15.6434685390812 436.531423683618 3824.72159338456 166 166 164
40.9742996049884 433.680359998571 3792.92287371195 82 82 80
73.8718474213056 429.816523739609 3743.69664259412 62 62 60
95.9170100760034 427.377339700253 3718.11688576684 30 30 28
111.747040637209 425.756358683123 3706.19735798455 23 23 21
123.480931993586 424.677064533467 3703.4043369085 31 33 30
138.766080250019 423.120537121716 3692.34276696374 23 25 22
155.95004908817 421.304664285874 3676.65768386768 20 22 19
168.30694338196 420.13185409719 3671.95974758769 45 47 44
177.49141519296 419.384107060662 3674.60533484456 50 52 49
185.894470565542 418.741535640359 3679.09135119618 25 27 22
198.160649390776 417.57527960517 3674.35689241239 32 35 28
207.315410051844 416.829234404203 3676.99017970878 39 42 35
218.749467502434 415.771976969965 3674.07559097247 32 34 29
229.391706205533 414.820698949406 3672.99747064352 21 23 18
241.886886431734 413.613700886525 3667.27697635094 20 23 16
251.719622569434 412.76961447703 3668.02789796185 32 34 29
266.354483529485 411.262232008843 3656.70265878449 20 22 17
267.659105908794 411.593478858904 3678.80608662579 21 24 17
283.31926133803 409.939209315664 3664.66041363512 29 32 25
287.268410907579 409.908306497474 3680.28516537189 27 29 24
299.572902937362 408.715175948853 3674.48735766519 23 25 20
311.826450362803 407.525857485362 3668.66889395393 23 25 20
324.73973088137 406.240606074297 3660.96040513852 37 39 34
329.124615445292 406.152606587375 3675.68320752668 34 36 31
337.773290308402 405.465699613416 3679.19020138095 27 29 24
333.555889439259 406.602309821474 3717.39272119783 22 24 19
348.511086352304 405.024025731832 3704.04010491051 21 23 18
358.75999787597 404.663678229738 3730.84906241035 23 25 20
371.559039761939 403.386052635003 3723.09451860546 4 6 1
388.652300183781 401.485466522802 3703.05760338999 18 20 15
398.968134356319 400.556363161041 3701.8468988706 120 122 119
407.278204575219 399.91640116604 3706.29550363892 124 126 123
416.247709645755 399.180505378501 3708.85370532709 131 133 132
428.135463984436 398.017642475321 3702.88693405603 126 127 129
440.294172837683 396.811395689102 3695.95139104627 155 156 158
448.238759176049 396.221350543984 3701.33044376344 165 166 168
455.875508769658 395.67720790318 3707.66331577468 156 157 159
463.841502813563 395.085068590955 3713.05079496708 148 150 149
472.441291486852 394.399060917075 3716.53798833237 163 165 164
480.111163077016 393.851711265563 3722.88429551404 172 174 169
-14.1320336558608 429.271714797457 3839.69273391011 176 178 173
-5.60738909272485 428.637999162333 3845.30697911059 162 164 159
4.58372488088754 427.796148180292 3847.2817965722 108 108 106
64.184550938686 421.182195162313 3763.5753503565 80 80 78
84.6667753405792 419.03071556714 3741.67607996302 28 28 26
249.009628818871 404.091381589999 3698.28417049497 32 35 28
278.616384141692 401.57353619287 3700.58077595087 27 30 23
309.369790914038 397.977872199866 3647.24768295877 26 28 23
327.280963739774 396.064122250665 3626.46322632606 37 39 34
327.638958899253 396.471285997778 3651.41947772818 23 25 20
333.408289398552 396.164717692964 3662.38899937636 31 33 28
365.492394096664 394.711496671351 3737.96588665029 27 29 24
384.642559883654 392.603007024896 3712.2902676354 15 17 12
395.650297056854 391.595082877918 3709.20269090094 118 120 117
404.640978986811 390.860672006974 3711.76971292101 114 116 113
415.264143563437 389.901815917013 3709.60486168289 132 134 133
426.506432813914 388.85580338598 3705.53347675533 130 131 133
438.029945194893 387.768352639497 3700.49772025796 144 145 147
446.627051022729 387.083379443847 3703.98381951704 155 156 158
455.223469415724 386.398281384064 3707.46964138505 154 155 157
463.189273741441 385.800911749838 3712.85708340632 147 149 148
471.789220095752 385.115175519675 3716.34433855807 164 166 163
479.76857155313 384.516368501012 3721.73753383868 173 175 170
-14.0110761246968 419.074637304916 3837.66138353972 191 194 187
-11.7411697577205 419.174132275843 3856.92072300023 197 200 193
-21.8072028721084 420.737696332307 3903.54078990376 85 86 81
64.305400298708 411.259518909604 3761.54161907525 42 43 38
142.990853912559 402.955073349093 3655.36653123112 45 47 42
290.277249533593 389.836346679899 3618.00125229724 19 22 15
297.364995493138 389.339370577353 3625.19028725363 19 22 15
306.910563256081 388.922721852601 3651.71514981342 19 21 16
330.213589413192 386.409900118893 3616.93494897921 19 21 16
331.964806954098 386.57850696958 3638.14162466647 20 22 17
356.093398944635 384.339412767111 3626.35038641683 22 24 19
331.529563386511 387.826078453004 3718.8724683381 23 25 20
367.231565506383 383.729477629012 3649.20579899866 12 14 9
376.268277827972 384.221702160348 3733.77749594595 29 31 26
388.001679905635 383.143256664623 3728.82639681849 134 136 133
400.349504560614 381.983521253603 3721.96707291584 149 151 148
412.640921330692 380.828090549296 3715.08487723101 126 128 125
424.550672883272 379.718972015469 3709.12660510863 137 139 138
436.731815825224 378.571969689308 3702.19943921932 149 150 152
445.014010127665 377.928423382925 3706.63652716777 170 171 173
455.206501834217 377.03601593388 3705.37586123774 151 153 152
463.797266239855 376.351455493071 3708.85938977125 158 160 157
472.387247857253 375.666792686825 3712.34260213524 171 173 170
480.046236231973 375.104389904715 3718.68461687856 167 169 164
-13.7115373000705 409.173494723114 3859.43541888027 198 201 194
-15.9074283480773 409.727877890091 3888.75080187914 91 92 87
52.7828634822611 402.959617903166 3809.80459382012 26 27 22
133.082584256698 394.526331348472 3676.23301837163 27 29 24
143.914265816042 393.602640012672 3675.23113578928 24 26 21
127.360541557276 395.778559981272 3737.56076551059 23 25 20
123.739579424013 396.498386229805 3770.61364031872 20 22 17
160.600829093083 392.622195799365 3708.96710014624 22 24 19
185.045756120759 390.147438215943 3675.72776652625 18 21 14
176.832184297759 391.392375187877 3719.86387258188 22 25 18
217.589514439634 387.045130464438 3646.85167167498 24 27 20
205.687749981818 388.716766467547 3700.27981624129 22 25 18
259.079999700466 383.206606233107 3619.44549286951 21 24 17
274.764509579154 381.707947051291 3605.30850133906 27 30 23
292.208248194688 380.002322276643 3586.49107988171 28 31 24
304.369633466509 378.90379044735 3580.6346122283 29 32 25
306.596329148496 378.956213057057 3599.87681278371 29 32 25
302.72912507989 379.72046484352 3634.98752275358 29 32 25
314.557148036509 378.661317350963 3630.07458867722 28 31 24
313.79336379327 379.07148007309 3657.81329845801 25 28 21
323.838922072871 378.220631016481 3657.57137613812 19 22 15
334.570555703394 377.288301645094 3655.45049941406 16 19 12
355.095111968329 375.202473478083 3627.09425073256 15 18 11
346.537575954323 376.539460224745 3676.48468835119 15 18 11
357.591233107991 375.567626616076 3673.41543073563 20 23 16
378.219405170185 373.459675024709 3644.02249490376 18 21 14
375.502552645511 374.117682367437 3678.52071401219 16 19 12
385.464359354353 373.272327630879 3678.24509685472 19 22 15
377.282172495589 374.592055679975 3728.86644965138 23 26 19
385.340878211938 373.977950324618 3734.29189086745 71 73 70
399.028368870692 372.688651336655 3723.66048051173 128 130 127
410.343234093048 371.681519080119 3719.61818638004 124 126 123
422.267730235814 370.598975943739 3713.66568280367 123 125 124
433.817972097676 369.559438010547 3708.64012849146 164 166 165
443.719818318521 368.717698085116 3708.34020635716 160 162 161
454.872112385715 367.72285780552 3704.23225237119 138 140 139
463.775891628755 367.000313846103 3706.76374093342 158 160 157
472.048118922537 366.354570460038 3711.19706719037 170 172 169
479.704165832316 365.784450503017 3717.53794944942 169 171 166
502.452791917702 363.358553440603 3677.13831913814 176 179 172
-17.3509783167827 399.33094001597 3865.58861028989 184 187 180
-11.6592724752593 398.979347202361 3877.60585168002 64 65 59
26.6224862631288 395.198447789133 3817.61255144701 74 75 69
53.086224172914 392.653853576248 3783.03353313151 24 25 19
112.49669763267 387.343683663795 3745.63196905943 24 27 20
143.335834634611 384.312028166866 3698.8029331404 23 26 19
180.679060585315 380.819729922357 3660.00488910177 27 30 23
193.713142924081 379.670159376249 3653.42334903501 18 21 14
205.531887061654 378.648901184069 3649.58543620982 22 25 18
199.260780329559 379.564890543515 3689.11597080632 23 26 19
217.603383113537 377.844064816776 3669.58354294292 23 26 19
238.850779950463 375.80710312559 3642.5986622723 24 27 20
277.104396373924 372.175986543431 3597.69717501581 30 33 26
280.793087321826 372.023183256637 3613.21739287102 30 33 26
291.186207010994 371.145932055908 3612.03758768548 31 34 27
295.327337842713 370.946252863146 3626.66254241308 30 33 26
282.07055593351 372.639753738494 3686.01524758005 29 32 25
288.983408094841 372.145048360927 3694.21251743291 21 24 17
312.777979257074 369.808467684642 3658.55119569238 23 26 19
321.402494427618 369.124207095101 3662.04838739911 28 31 24
336.037482021888 367.781234985527 3649.64314516596 28 31 24
352.692105409303 366.213740880353 3631.58397768413 24 27 20
340.652996587111 367.799020544099 3690.35172221625 22 25 18
351.400296652861 366.881579968102 3688.23681864145 20 23 16
364.520695076176 365.700912046603 3679.53258954315 22 25 18
377.233824615803 364.563077952601 3671.74194362881 20 23 16
389.885543868973 363.429991786329 3663.92665436234 22 25 18
388.707745102823 363.832104948016 3694.73447526103 23 26 19
388.00991352048 364.185278761515 3724.65793705498 14 16 11
397.044834360452 363.456224731881 3727.24283049344 126 128 123
408.69970150559 362.433660409022 3722.25950956316 116 118 115
421.285268436185 361.305058635939 3714.4171444721 144 146 145
432.51673978853 360.326503295221 3710.34112537353 181 183 182
442.745250340707 359.459431986967 3709.09459395177 136 138 137
453.901768820568 358.486538557376 3704.98818404947 147 149 148
461.861808256912 357.873929023586 3710.37366464864 161 163 160
469.831264602421 357.26043685146 3715.76270755134 158 160 157
475.947269723749 356.857921168404 3726.87332255718 173 176 169
-17.2379824941464 389.080311691499 3863.55418495419 174 177 170
-4.9181341268445 388.05107189598 3860.99803432947 79 80 74
77.3710076125942 380.300855047083 3727.14771850797 31 32 26
85.1002347062575 380.076886827105 3782.06557479489 30 33 26
169.03877395807 372.467520118926 3685.5640698967 34 37 30
206.282886763246 368.935660739759 3621.91206485149 23 26 19
214.149483900086 368.329197108019 3627.25940751362 25 28 21
208.578425782735 369.066342549686 3664.91712614466 23 26 19
219.989612514821 368.107002148809 3661.99253503175 22 25 18
244.635586835788 365.819836148952 3626.6755658591 22 25 18
251.017938676368 365.545831687575 3660.5495630586 22 25 18
255.248453877264 365.306318848439 3675.21075358676 24 27 20
271.716589195166 363.833958429706 3659.23323083042 25 28 21
267.55658070681 364.442340966718 3695.30511872478 27 30 23
283.953471503015 362.975333709403 3679.29870898995 27 30 23
293.377372507887 362.212150157654 3680.96254829531 29 32 25
309.250227153026 360.794349196586 3665.82213797556 28 31 24
323.952340887963 359.493095129556 3653.44375843063 25 28 21
338.921645750857 358.162563625291 3640.09497645538 23 26 19
344.667478400157 357.769961665963 3651.05537887537 19 22 15
339.992844779226 358.441974272114 3690.15535527782 18 21 14
340.010782607368 358.638390425691 3717.13313356756 22 25 18
362.146398482702 356.572120895267 3684.03500256238 24 27 20
376.238971520236 355.326311562544 3672.48821218732 22 25 18
385.171853062701 354.608739623 3675.03144637821 25 28 21
392.419061156126 354.064431664863 3682.28566241397 25 28 21
380.01170809299 355.547356377672 3745.22057308002 21 23 18
396.383212394735 354.064669630225 3727.04612986603 117 119 114
408.368333462636 353.032967374306 3721.11778753308 131 133 130
420.302077101646 352.005223575589 3715.1686128385 181 183 182
430.567912032638 351.14933217506 3713.93710905311 147 149 148
440.486835502131 350.328767369952 3713.64394087438 145 147 146
450.703059086055 349.476545063015 3712.39232199469 165 167 166
458.998801716981 348.824134096605 3716.83521998378 160 162 159
466.98579395527 348.204022179571 3722.23141322131 167 169 164
474.360707427967 347.648191625179 3729.5374236001 170 173 166
-11.2804105418935 378.304168726967 3848.78608472962 165 168 161
-4.39290770776468 377.792140824843 3858.05177303604 100 101 95
224.18017468329 357.555787078211 3508.40954873296 28 31 24
