ply
format ascii 1.0
comment KinectMotionCapture
element vertex 806
property float x
property float y
property float z
property uchar red
property uchar green
property uchar blue
end_header
271.01737502643 262.370909291278 3566.93499798752 19 22 15
287.366083587542 261.544436999602 3550.90396729949 18 21 14
290.529863209186 260.981238969461 3567.29382832122 18 21 14
285.60002930402 260.568160032963 3604.14082711815 19 22 15
287.11894541309 260.023666580214 3625.25859347789 20 23 16
301.911847904258 259.231151352816 3612.91311755658 21 24 17
334.487049397093 257.610187445048 3579.72277861487 18 21 14
340.753761381257 256.979732803829 3588.73826796545 19 22 15
334.594477708384 256.552433223099 3630.48187697855 20 23 16
341.010439998268 255.910149907144 3639.55788638051 17 20 13
342.545147333253 255.342064884079 3661.76129068357 16 19 12
355.674234733263 254.592064233479 3653.05731534998 22 25 18
326.902277819114 254.460613629305 3757.92851780052 20 23 16
433.745657574376 248.473341386614 3681.47757891374 124 102 88
443.9156987554 247.779169614331 3680.20632035231 145 122 106
453.41897870871 247.093177807212 3680.82264917016 141 114 97
459.092244436639 246.442739468521 3692.83468945632 147 121 106
464.810496227895 245.78874063107 3704.86471404242 133 110 94
467.445868273984 245.155745723481 3726.43545355868 134 115 101
-81.837502840012 272.636679557799 3790.81000476088 89 78 74
-73.4123509190112 271.918720355868 3796.38460463746 52 38 35
-56.7156462469911 271.021909298257 3784.81075528901 38 24 21
46.6834404302063 267.267792627889 3635.74183778782 30 30 22
66.9651089165097 266.337797157376 3614.83065612268 24 27 18
68.9610211176486 265.778207019217 3632.90524482524 19 22 13
92.8549444585818 264.787741905747 3603.74731020374 11 14 7
112.396685046548 263.891321243809 3583.6156050741 22 25 18
150.458251711832 262.656145562792 3522.43478936611 21 24 17
187.514544639445 259.92029189086 3528.82812050006 19 22 15
199.56668950463 259.191004547144 3524.00368877598 18 21 14
185.622910645387 258.891250741131 3578.77785226341 20 23 16
198.939568411082 258.137041730615 3571.22866288597 21 24 17
215.743010463049 257.332292667083 3555.38184314281 21 24 17
217.166768740969 256.768007785931 3575.38242263993 19 22 15
217.125699938309 256.21946921859 3599.10553168566 19 22 15
234.977793568438 255.406908438286 3580.44668110413 19 22 15
251.556242299953 254.620037287876 3564.50837042047 18 21 14
260.39866368856 253.94451375077 3567.01491644593 16 19 12
260.141711521511 253.388046423754 3591.72948408543 15 18 11
267.153110741891 252.732223948805 3598.88881079927 15 18 11
298.688756822552 251.211788456271 3569.59229104532 17 20 13
267.657371172731 250.986973473458 3672.47056631312 18 21 14
279.286927136394 250.266251756507 3668.5535173232 19 22 15
294.148991624827 249.515136712533 3656.23573080335 20 23 16
319.39834562737 248.668342995404 3616.83665836714 17 20 13
332.937933791484 247.946789395699 3607.21986812548 17 20 13
341.777078306799 247.271635691311 3609.7250845649 17 20 13
363.33871730898 246.491340152135 3578.54216611106 16 19 12
363.30046446122 245.892586403127 3604.42466944775 15 18 11
341.430022533435 245.443642433229 3689.43588142307 17 20 13
431.789947137854 239.239064159026 3685.07146591988 113 94 79
440.032582937837 238.561159306199 3689.49279733886 135 112 96
450.20299785007 237.880997645988 3688.22132667918 134 107 90
457.166894846117 237.204110625628 3696.4406451118 139 113 98
462.893499164778 236.524953812765 3708.47449949432 132 109 93
466.787235688986 235.840562925482 3726.23938442914 123 104 90
-74.1223412705172 261.869622447877 3796.17330398793 91 80 76
-59.1621916163729 261.045556588179 3788.21127420544 30 19 13
72.5062712930373 257.375125639849 3579.38131090274 23 24 18
77.3426366953325 256.740987599885 3591.05437261398 26 27 21
96.1604267417124 255.917605579422 3572.78635047726 18 21 14
93.0307457954198 255.385840493631 3601.73213848449 12 15 8
105.062987470446 254.654804189641 3597.97821227297 21 24 17
101.7126918555 254.112721485795 3627.91356130924 20 23 16
170.294240858418 251.57270112949 3543.49697720119 28 31 24
179.994324365094 250.887401030202 3544.192985143 18 21 14
190.081612647079 250.199283249132 3543.96672554725 16 19 12
189.763552073789 249.611925944156 3567.57797681945 20 23 16
199.87682442261 248.92178891228 3567.36251052051 22 25 18
208.392670666273 248.246907575459 3570.81563185511 21 24 17
214.166055588993 247.59449765527 3580.71035112586 20 23 16
219.196597883535 246.945298508637 3592.46214784659 18 21 14
234.715169681616 246.216674422025 3579.33094064816 18 21 14
243.226771977458 245.542220857393 3582.7823403959 18 21 14
256.318435056286 244.838916545106 3575.14192364377 14 17 10
253.046879855704 244.235250820737 3607.26723718625 16 19 12
261.606978690434 243.557027818352 3610.73830141091 16 19 12
278.770246917959 242.837378730551 3592.8786541935 19 22 15
273.154473400201 242.224673662167 3631.60730751742 21 24 17
301.677184080185 241.467911301002 3584.90167480999 20 23 16
320.031835334614 240.765273686349 3563.20879141195 16 19 12
311.684897842313 240.14636340629 3609.46264239212 15 18 9
319.832447494871 239.473139609798 3613.84543862135 16 19 10
322.243765208736 238.809083191497 3633.16782204749 19 22 13
348.96819469718 238.111400540402 3588.97056907867 19 22 13
356.685085160424 237.444530637626 3594.25801165704 18 21 12
351.066131387399 236.776615285627 3635.1434120838 17 20 11
311.015361960997 235.357888723959 3796.95409734051 19 22 15
431.787542245077 229.995029019527 3682.98268594872 106 87 72
440.671439923393 229.31947905933 3685.50602563084 122 99 83
448.908103578653 228.639570396077 3689.924954159 101 75 58
455.876161638754 227.948863917222 3698.14606212475 112 86 71
460.65908469981 227.23649516112 3713.03450280768 116 93 79
467.38088581439 226.537519465772 3722.23477389958 101 83 71
-72.6435498253728 251.800112034385 3791.45382515942 85 76 71
-57.2585015187024 251.008435461356 3782.58478019099 49 38 32
81.2517891749902 247.953592796734 3559.25814215264 24 23 18
104.730647451316 247.16317782279 3531.00969966635 27 28 22
70.1548485357952 246.782111109136 3627.05949624519 20 23 16
96.5670046505189 245.97347610223 3592.44643472813 12 15 8
83.114442669826 245.41760555914 3644.18474809399 21 24 17
152.135694930247 242.485727484026 3582.60568127062 25 28 21
172.063072204488 241.762920617061 3560.47067102281 17 20 13
183.403198421398 241.078174649954 3557.51522665892 17 20 13
195.907039593854 240.393030670766 3551.79428361054 21 24 17
202.006994054808 239.725892382285 3560.74253207137 23 26 19
202.614019252414 239.065764482385 3582.5710220977 23 26 19
217.827304660359 238.380177257729 3570.39494576123 20 23 16
225.944011495087 237.706305534571 3574.76525886276 18 21 14
227.488075328604 237.0332205771 3594.81537390343 18 21 14
252.616674004127 235.684414418848 3582.3434750042 16 19 12
266.428779601309 235.018266998061 3572.83660518015 18 21 14
266.982526704995 234.332025100566 3595.72252936344 19 22 15
268.017125883552 233.638305252051 3617.72439568857 20 23 16
284.021445122703 232.982108362723 3602.6316989285 22 25 18
301.031671166071 232.338016305361 3584.70951331137 20 23 16
290.427913088824 231.587687075242 3636.52395303077 18 21 14
319.773779662841 231.006313883953 3586.91385649099 16 19 10
343.768419445041 230.420709315993 3550.2414610548 16 19 10
330.566260545399 229.631669900702 3609.63509967065 18 21 12
327.649720788213 228.884204178393 3642.98431179015 19 22 13
333.035972580384 228.182480695094 3654.8802736644 18 21 12
359.294326664235 226.898056810669 3637.47076156992 11 14 5
348.427755033717 226.046533294194 3693.49504676554 15 18 11
428.199353496053 220.709730800262 3691.31027870015 115 96 81
437.753279135913 220.045279546749 3691.94695032679 120 99 82
446.32842571408 219.36665263721 3695.42411033786 119 96 78
452.673928057376 218.650614098659 3705.55095819364 123 100 84
457.474745445062 217.904072362331 3720.44716041129 109 87 73
464.842375073256 217.198885293518 3727.75109646808 107 91 78
-70.2868367944547 241.755369727236 3784.93200654983 123 116 110
-57.5289622048301 241.010035047772 3781.47224957793 45 38 30
-37.020225557362 240.250764923911 3761.73077752373 45 38 30
76.8689947897088 237.992179835066 3588.84683569434 22 25 18
64.8367028905898 237.310889539128 3636.84566721913 13 18 11
85.8232495668632 236.614121687638 3614.06050165947 12 15 8
92.0477445678036 235.920078228315 3623.05937963802 19 22 15
107.849371579904 235.234137032619 3611.12152133919 24 27 20
137.178135306375 234.576762784194 3569.05724750159 26 29 22
136.735687344465 233.877630843761 3592.61872519455 25 28 21
158.406834846933 233.226944257293 3566.87371872758 18 21 14
163.315170067314 232.537405958106 3578.57634042803 16 19 12
181.145124850565 231.891088404927 3560.98607404903 19 22 15
195.260275216509 231.239066600666 3551.60179784033 24 27 20
183.481337443111 230.471429280348 3601.86148143256 24 27 20
201.962122622486 229.840378571567 3582.3769996728 24 27 20
206.589090207722 229.140029000866 3595.04458769757 20 23 16
220.619068067884 228.494956998945 3585.62577306603 17 20 13
227.22276326293 227.804808528256 3593.69909162848 17 20 13
236.54404019809 227.132788431931 3595.32068817965 17 20 13
254.260577428037 226.529219455889 3576.60511044292 19 22 15
260.469833212136 225.837123100425 3585.59780341182 22 25 18
270.479360308527 225.177410564616 3585.34010078451 22 25 18
276.67726683049 223.719493555895 3619.14839111329 20 23 16
277.855115796712 222.959439620682 3641.20876105865 19 22 15
300.410115789112 222.439615445123 3609.34726499914 18 21 14
323.136320251524 221.939610762652 3576.47613004899 19 22 13
309.128106342587 220.982495648348 3637.70255017352 16 19 8
326.685377258224 220.425319348939 3617.8435840718 15 18 9
325.568835974584 219.613901837326 3646.52753241025 20 23 14
336.275369731164 218.966098245541 3644.39407907035 19 22 13
357.147325251025 218.479865496638 3615.08755724969 15 18 9
353.407450552455 217.609715746651 3651.34101844246 11 14 5
333.558641165221 216.448866416141 3731.781873241 13 16 9
423.955077597185 211.360274406585 3701.53032899289 117 100 84
434.184784227946 210.717476258987 3700.28283915202 124 103 86
443.425071258295 210.053099929091 3701.87132829929 103 82 65
449.786935722701 209.316776797711 3712.00495481388 119 97 83
453.971044950276 208.519677460165 3728.80945575864 110 91 77
459.165871852058 207.742562298609 3742.78661323685 85 71 60
-62.2322232304693 231.767084622033 3766.6912648686 119 114 108
-56.9276387160937 231.020411149731 3778.55475817486 89 85 76
-39.4525007432673 230.320135804485 3765.13672776417 48 44 35
44.4224726045093 229.194282442727 3634.03590936301 23 23 15
81.73776269587 228.654850932425 3576.86340502365 23 26 19
67.5487534773789 227.828790173935 3629.38439222281 15 20 13
75.0704048771846 227.123449486525 3635.67188362663 12 15 8
91.7989618505719 226.48279341338 3621.95137317798 18 21 14
105.109907681695 225.824231643401 3615.47795424202 24 27 20
146.842093744949 225.404516503698 3546.0673776565 26 29 22
163.148672307992 224.797530035453 3532.17549870086 22 25 18
153.27097780096 223.955036100712 3576.73244355137 16 19 12
157.395305131681 223.23048334824 3590.2755076888 17 20 13
169.626917141571 222.585581386487 3585.52284409764 20 23 16
188.213365155229 222.014782175352 3566.08068778229 24 27 20
179.247438669954 221.136357506531 3609.9280080318 23 26 19
206.444542263659 220.677611381271 3570.23581619177 22 25 18
207.897350220359 219.912348796999 3590.24968105458 21 24 17
239.352287874553 218.755132611289 3563.07560343956 17 20 13
243.588004816621 218.022244085531 3576.66383162574 17 20 13
243.292697766973 217.215236910081 3601.36476866828 19 22 15
250.328642722793 216.513281362599 3608.53464067946 22 25 18
253.613343462757 215.747629589316 3624.97473912445 19 22 15
272.70366992262 215.245861791438 3602.49913750583 19 22 15
271.558768600997 214.398123147152 3630.09307022635 18 21 14
272.02401381704 213.567268708764 3654.02332211482 17 20 13
287.281475340866 213.008380066025 3640.78536389113 17 20 13
298.802743599995 212.384610210849 3636.8237351068 19 22 13
311.368970316691 211.786390688808 3630.04858451699 16 19 8
312.737783225573 210.956399824133 3652.18680451505 16 19 10
320.631464029407 210.259258260036 3657.54580047641 21 24 15
333.14114599155 209.665709209243 3650.74771991448 19 22 13
336.800102247173 208.871048466032 3667.33957165102 16 19 10
341.556438135071 207.196107996586 3708.11799666076 15 18 11
421.011948275198 201.991671610517 3707.96185965695 106 90 75
430.288713204698 201.330119616903 3709.56535426646 100 81 66
438.912003452642 200.648220095576 3713.06203211445 79 60 45
445.621775602086 199.901436754734 3722.25753790581 107 88 73
450.147321797766 199.075117871409 3738.12169759702 109 91 77
454.737904617095 198.243720978419 3754.01222864713 87 75 63
-44.5602098950983 221.164125497153 3751.27039125646 83 83 73
-19.3601112954225 220.603058401062 3721.55899766979 50 47 38
60.4476429783902 219.870603709021 3598.51871137203 19 20 12
64.0559214295378 219.117059528952 3612.93185885825 19 24 17
65.1874293676236 218.326714306101 3632.81607896194 13 18 11
80.7082528145278 217.717231354776 3621.84275389623 13 16 9
96.9845384709735 217.125688586194 3609.01730064131 17 20 13
147.320312085556 215.426388234648 3565.75646908658 18 21 14
152.617134680507 214.694966146804 3576.53789590182 17 20 13
154.307532134276 213.899704145757 3595.56937831571 20 23 16
167.36147352314 213.291984754463 3588.99177195385 22 25 18
184.362115961021 212.76016680995 3573.22247128227 20 23 16
196.484345208165 212.14872523613 3568.42552298999 19 22 15
209.351576790596 211.556057975255 3561.77194783037 19 22 15
221.770572280542 210.960112238238 3556.01597526683 21 24 17
230.628507630444 210.296726990034 3558.52871078059 19 22 15
242.194256364996 209.69084034696 3554.58495627631 18 21 14
242.940099476231 208.854442579854 3576.47098877165 17 20 13
233.844150584226 207.787729009341 3622.42496456013 14 17 10
231.820021971509 206.860113326426 3651.82138332811 16 19 12
264.556414897643 205.859307870605 3620.84948253911 16 19 12
272.019859876879 205.151545546672 3627.11316770369 17 20 13
276.170639898617 204.356621052775 3641.74654111719 18 21 14
283.319982961932 203.635027773428 3648.96221884223 18 21 14
291.948164970832 202.951750645348 3652.46088777151 17 20 11
289.350035033479 201.953607351242 3684.86211369944 17 20 9
307.046442099741 201.523294022389 3665.05826402782 22 25 16
314.975125813908 200.81795662003 3670.4317517688 23 26 17
313.696311293804 199.832084809838 3700.13012728087 20 23 14
355.917237028492 196.335859449579 3721.56707175005 13 16 9
417.739229800328 192.571961601607 3715.33939475264 97 83 70
425.416329839025 191.848682320233 3721.68996218062 89 73 58
434.394130127007 191.177819519082 3724.25102961137 64 48 33
441.771087965068 190.439634846234 3731.5589927072 81 67 54
447.268705578855 189.617330792621 3744.58028237937 73 61 47
-5.74964764399799 211.040112235114 3691.53902167311 56 56 46
26.9420966114053 210.735997094733 3645.43941931662 24 25 17
55.5009056230482 210.385076391305 3607.37656322611 23 26 17
60.4095101335787 209.62001374494 3619.07960918765 20 25 18
71.7129822109814 208.972393018459 3617.1878505661 13 20 12
75.4139917250838 208.178350667132 3631.63910839554 13 16 9
80.0128806698128 207.396464450507 3644.2959456029 17 20 13
104.197585397085 207.018221213778 3614.17229768993 20 23 16
117.867873536744 206.433069070313 3606.76500934498 17 20 13
136.40436611526 205.96170262982 3588.38068089734 17 20 13
158.083709296825 205.574263264688 3562.63699746071 18 21 14
167.84222084539 204.924890238868 3563.35639018605 21 24 17
168.721193403929 204.063814047859 3584.21770476541 22 25 18
170.497817629849 203.214904564795 3603.28450642282 19 22 15
189.469224117083 202.792777638257 3582.91802480557 17 20 13
211.076210190529 202.453167060513 3556.06587381501 18 21 14
218.375589129494 201.749431552055 3562.26335650458 22 25 18
231.153895090746 201.194170547699 3555.57374968716 19 22 15
236.510115694282 200.436539691965 3566.37916776477 19 22 15
249.610456991295 199.897546676345 3558.74101932697 17 20 13
220.943011547269 198.132831030254 3651.79899895279 13 16 9
247.121722727056 197.972431212341 3612.77101398639 14 17 10
265.138198306558 197.585085598583 3593.09668933517 15 18 11
269.52718856921 196.779698331168 3606.74752632556 16 19 12
278.441711015248 196.115124951064 3609.28318256006 19 22 15
291.050604993537 195.574001395778 3602.52461764431 19 22 15
296.990262665908 194.812451200318 3612.48748682901 19 22 15
291.289649608274 193.641850146131 3652.26482606612 16 19 10
298.105938226273 192.894231285209 3660.42491503846 18 21 10
306.026857199163 192.184018817272 3665.79503861572 23 26 17
326.818617526225 191.951922510183 3637.53318541366 24 27 18
335.022660253017 191.261053450668 3641.9389890354 20 23 14
292.356615076706 187.528779917969 3809.18166700564 21 24 15
356.515615187309 188.022599932694 3690.58486910445 14 17 10
343.963640073156 186.438838947233 3752.40540259645 16 19 12
415.11688374618 183.140090958342 3720.82222247628 69 57 45
421.835771304763 182.359938518638 3730.02192918756 85 71 58
429.549581822245 181.625834137228 3736.38744248009 83 69 56
436.639437818821 180.858065336274 3744.65844968033 75 63 49
59.5492398810098 201.063533262318 3597.2184414085 25 28 19
73.799337241983 200.509120465769 3588.96687257745 15 20 13
59.614192120689 199.235914308035 3641.49307078902 15 20 13
62.9604004010782 198.392341759013 3656.87985567696 12 15 8
80.1790049873707 197.913510255845 3642.27747008497 16 19 12
87.7329586183071 197.18034538974 3648.57799410687 20 23 16
110.594082749056 196.875694928236 3621.15456161461 17 20 13
129.175698064302 196.466656651172 3602.78803061347 17 20 13
157.433094127775 196.355739742098 3562.44344187523 20 23 16
177.333793918855 196.01987027766 3540.29495444968 19 22 15
178.95186870191 195.13651593698 3559.2978216416 17 20 13
166.235137595209 193.792030489532 3611.34004521035 14 17 10
191.205138631979 193.631516541158 3577.2172180905 9 12 5
203.706236175097 193.083873226566 3571.49412194845 11 14 7
209.869237226513 192.328759246213 3580.46830713309 14 17 10
218.405502026722 191.651841752709 3583.92971123034 14 17 10
214.141133253444 190.525344181011 3617.81487801486 13 16 9
216.595659863567 189.620729484189 3636.07777164028 13 16 9
240.187079175341 189.481360396645 3603.55422254414 13 16 9
251.030972694897 188.888190714955 3601.47622831724 14 17 10
262.977806357659 188.340817912746 3596.6075207429 16 19 12
277.130256293542 187.884959294681 3586.15779463286 16 19 12
284.498363967749 187.168224332363 3592.38320363358 16 19 12
291.8816515281 186.450398776311 3598.61476712924 16 19 12
302.588484606912 185.868586703266 3596.48093478507 17 20 11
289.535916624305 184.285912469106 3654.86234909746 19 22 13
297.808821912532 183.586630698874 3659.29635567592 21 24 13
308.966597525232 183.013763149799 3656.26597360755 18 21 12
320.445940678826 182.459870218599 3652.28709722301 17 20 11
362.406333365181 183.305985274281 3567.8547250971 17 20 11
316.986308868647 177.90286079941 3768.51943376633 16 19 12
331.376842548027 177.473709807897 3757.08709550032 15 18 11
360.401003149042 177.792613593509 3705.18204511984 12 15 8
409.548974961198 173.509624270205 3734.82422018259 124 120 109
418.575858088363 172.840833715987 3737.40540242727 66 58 45
426.953202068168 172.134881888693 3741.881488824 64 54 44
48.0184510338675 192.285816098537 3598.01079442591 23 26 17
55.0280224386901 191.539647692438 3605.17006586769 26 29 20
74.4173366142264 191.178917992531 3586.05113488705 14 17 10
58.9431351928646 189.717559461493 3641.29351111967 18 21 14
68.6030935455537 189.044381785351 3643.05198892916 11 14 7
70.301034791538 188.107035804575 3662.08760272899 15 18 11
99.1266792233929 188.082666902552 3621.97269495258 18 21 14
97.5256200733001 187.03004449665 3648.30442018751 16 19 12
119.886379840928 186.811499192692 3621.7565491931 17 20 13
157.191007200416 187.152257963093 3561.33637432988 20 23 16
164.186846674631 185.417602392953 3591.15434987057 15 18 11
182.875686485956 183.08584635724 3618.15883572747 8 11 4
187.987251659598 182.256055300361 3629.94480687637 13 16 9
201.348142744007 181.762186012451 3622.41155395272 12 15 8
212.707794089843 181.191423500569 3619.46315121193 9 12 5
209.380855469723 179.994035356591 3651.57054065361 10 13 6
214.637831084677 179.153172023763 3663.41547138665 15 18 11
240.486704861105 179.225140882642 3625.3309844405 16 19 12
268.37476684853 179.418339859542 3581.59812540117 15 18 11
266.698438125552 177.195581535183 3634.88050522706 13 16 9
274.197817150391 176.460324111837 3641.15920546447 13 16 9
293.849424209481 176.317147390889 3616.75052808156 14 17 10
287.78098470299 174.913848041756 3657.45950892392 19 22 13
295.698528633301 174.192913699264 3662.82860446575 21 24 13
300.38451914821 173.304114947603 3676.60032699414 17 20 11
330.87406523147 172.633422839453 3649.03168143965 15 18 9
296.848903298839 167.229369653201 3820.86447170237 15 18 11
328.631920563762 167.822072225401 3762.52221609678 15 18 11
358.709891488935 168.361485097645 3707.80549300825 14 17 10
413.689401288905 163.171293913838 3749.52573787334 49 43 31
30.9607960518663 182.271317331145 3632.17771667116 11 12 4
44.070316543984 181.728610762027 3626.70092925907 23 24 16
31.1221377073694 180.209002097802 3676.49315237827 14 15 9
57.0008716006427 180.150702178954 3643.81629815417 15 16 10
64.9836011708633 179.416225115951 3649.21163232418 12 15 8
83.0268387070221 179.081504979759 3632.78442616992 13 16 9
78.0677231081441 177.826867029991 3666.38926614729 14 17 10
79.4817042419964 176.815347025522 3686.38927686824 14 17 10
115.933768473844 177.266450803249 3628.85975049584 17 20 13
135.437917358118 175.967328735994 3631.37213426228 15 18 11
142.952210931445 175.220989243907 3637.65695729396 13 16 9
167.568190866848 173.067823317145 3651.95560369085 10 13 6
165.691225092263 171.869213739539 3680.33459634112 12 15 8
175.28554611175 171.208037976011 3682.06666431391 12 15 8
216.608622686722 168.730230621357 3681.55465044995 12 15 8
246.552022308613 169.150393588669 3633.25770758772 12 15 8
256.304384718751 168.527345967977 3633.974411031 12 15 8
253.730495320631 167.235362234513 3665.30861364231 12 15 8
272.428615967194 167.100658006729 3643.7504937918 13 16 9
293.197504523156 167.10123034706 3616.55642454986 14 17 10
302.104445506124 166.445932638977 3619.08894079652 13 16 7
296.489867712302 164.946576026692 3658.90360698099 16 19 8
303.686036573453 164.177748352332 3666.13860216425 14 17 8
306.966178072347 163.170776794761 3683.65749188635 13 16 7
312.098615950334 162.266511046492 3696.53128688689 15 18 9
319.750783176922 161.511825927707 3702.87199724327 14 17 8
329.869351952527 160.910909139952 3702.65799916495 14 17 8
315.282071447809 158.727051208265 3769.05355563982 15 18 11
361.471358205046 159.209635177508 3698.20410676565 18 21 14
380.338624543039 159.212548366094 3673.47674805012 18 21 14
24.9509811374715 171.432753653223 3665.42977947074 18 19 11
43.2398509397096 171.138445771903 3649.10172176997 16 17 11
5.4484496866154 168.342214867182 3752.49882959027 15 14 9
35.6516408496792 168.577459737384 3710.78183942802 13 14 8
82.3592854951625 169.609968637325 3632.58593025889 13 16 9
73.2296496384346 168.068501422085 3675.29318328004 12 15 8
72.5960541257935 166.906364270969 3699.85984150476 12 15 8
118.559563997865 167.998432749263 3621.36192875665 16 19 12
128.910946377802 167.386975965592 3621.24227515052 18 21 14
122.179921010764 165.919030804873 3659.52585337473 14 17 10
139.057679724778 165.63270690777 3644.78374531787 10 13 6
130.560082827644 164.041853913626 3687.74753800112 9 12 5
181.953874629321 164.44043280339 3616.84811963424 9 12 5
172.891047017953 162.789530083132 3661.74086861955 10 13 6
165.163365453563 159.979817540787 3728.76095571323 11 14 7
226.220930007967 158.666660012768 3681.20739502544 12 15 8
240.615293740675 158.315573295049 3670.85482395842 13 16 9
260.159035321634 158.293367710045 3647.48036382143 13 16 9
285.486884716901 158.654980647049 3609.18297959155 15 18 11
305.063583851612 158.683049552712 3584.74267452466 15 18 9
291.945945526655 156.618213514131 3643.10139697065 11 14 5
295.467250996353 155.603252091252 3659.63918469656 14 17 6
296.535508279335 154.414433158762 3682.73723980962 13 16 7
299.346493013097 152.036410384762 3728.12789023733 15 18 9
310.260813551567 151.488730052114 3726.07780938889 15 18 9
318.691486392686 150.769594135692 3730.57558819621 12 15 6
317.609336416368 148.017196785595 3788.41830834059 15 18 11
363.550919918867 150.062044795146 3690.48446323743 17 20 13
364.710124062526 148.814584227961 3714.69859472219 18 21 14
-18.6534823895368 159.684532210687 3755.75247724832 20 21 13
8.85469118399063 159.882744667782 3720.49674567636 21 22 16
38.6907189383285 160.228973718481 3679.70906056015 14 15 9
77.9771810126764 161.100203308682 3617.92942221944 13 14 8
44.3893647708586 158.166315474884 3713.31978754037 11 14 7
65.0552629226884 158.076881088337 3691.47899838217 9 12 5
130.702349253973 158.129657390031 3615.56440614345 15 18 11
143.864382280195 157.694122091608 3609.02926021262 9 12 5
132.695018234282 154.644307868237 3681.13076040215 9 12 5
141.539621819667 153.942191653384 3684.71719969231 11 14 7
172.180554469825 154.558945360263 3637.78025828585 9 12 5
197.030152123855 154.859502424361 3603.60492866872 10 13 6
184.897469815092 152.884948049816 3655.88840521593 10 13 6
150.879316451873 149.488022078381 3760.81808475295 10 13 6
173.024013216171 149.61571148188 3733.1010416419 10 13 6
212.641829498859 150.906499493241 3662.82140653797 9 12 5
236.908791359045 149.980218748977 3653.2341160152 13 16 9
238.446258027531 148.806293133727 3674.36416428946 14 17 10
249.41623291726 148.269575399604 3672.33679162729 15 18 11
290.770411189464 149.866601141567 3594.12663918759 15 18 11
300.734503397487 149.299136287188 3593.84984108302 14 17 8
305.190724113558 148.337577481663 3607.52908294622 10 13 4
291.174536531642 146.015527719155 3668.76262041947 13 16 5
291.903160603618 144.740486851993 3692.80287935607 13 16 7
313.878240238148 145.049430300111 3661.77910395575 13 16 7
312.901538033284 143.632933053357 3690.52451571421 16 19 10
308.530238415816 141.931828479883 3728.68623212074 15 18 9
313.812737378776 140.961135451364 3741.62128929399 11 14 5
-21.9260764298241 149.654034245051 3760.97681881953 6 9 0
35.8904598046874 150.471968160882 3684.04350882676 12 14 9
49.0479733441953 150.00770363795 3678.58555889082 13 16 9
56.7042033227432 149.223899497441 3684.92813494098 11 14 7
67.7104820420549 148.63981089349 3683.99462864434 9 12 5
95.6762542343221 149.095368131269 3645.68554325682 10 13 6
120.52715711142 149.391044256875 3613.66865262482 9 12 5
113.264968171504 147.697349141099 3652.8176857414 8 11 4
132.472001996096 146.404298628137 3656.28853184412 11 14 7
133.226405778261 145.180308904064 3678.1812255625 12 15 8
161.615414540294 145.777890504349 3636.80574750615 12 15 8
191.647602687345 145.256150163193 3614.4450898876 10 13 6
181.492082684494 143.269589250386 3662.13464130571 10 13 6
182.079829217734 142.001457020229 3685.03899941421 11 14 7
183.547066452458 140.780098622322 3706.14122904152 12 15 8
192.786875337165 140.105689152726 3708.80840878287 13 16 9
232.140907133521 141.637838053492 3638.42013975623 14 17 10
237.028004517295 139.332212750369 3676.01960793323 14 17 10
270.796270042977 140.551709712635 3617.39760623428 13 16 9
285.66918962125 140.3619092726 3605.07996025186 13 16 9
290.135948330913 139.369111941331 3618.76370565364 13 16 9
291.364156944703 138.109890342435 3640.84824941895 12 15 8
292.330281433748 136.813488968939 3663.90576713163 13 16 9
292.319866702288 135.420232441219 3689.80556403919 13 16 9
301.391508579235 134.76082773134 3692.40454041643 14 17 10
313.304671920039 134.341475111146 3687.52148683533 14 17 10
312.098509314377 132.810991811669 3717.25340660036 14 17 10
317.34846688616 131.81547710548 3730.17547613602 12 15 8
2.78136420102659 140.048967147941 3730.05569441653 9 14 7
19.0769598935405 139.789272851529 3718.31460970765 14 16 11
37.8193263310778 139.701214853022 3701.08954089945 12 15 8
59.1106999518047 138.495348816303 3701.08817080998 10 13 6
83.8177883330624 138.848479891105 3670.09168058279 10 13 6
103.389773425314 138.878154753791 3649.96494446089 9 12 5
115.052295789892 138.377977077352 3647.1386370398 8 11 4
163.489082904432 137.883012036652 3607.4152805481 13 16 9
170.533488131026 137.079784694804 3614.58908844913 13 16 9
163.318043874259 135.214767672296 3654.83715487408 13 16 9
174.042206443982 134.668258564279 3653.78913690133 12 15 8
163.203122788254 132.481826185904 3703.36130671528 12 15 8
190.357319945457 133.191059907067 3663.64288939372 12 15 8
195.627594790009 132.224853439555 3675.49415495757 13 16 9
204.015658060834 131.498871685953 3679.9747333408 15 18 11
218.130602922647 131.232608826479 3670.5874499773 15 18 11
250.362354047728 132.453564795226 3616.73761134882 14 17 10
260.449673605559 131.897938458021 3616.51061739396 14 17 10
267.152221290118 131.062700949927 3624.62506036565 13 16 9
278.706887287295 130.634661581605 3620.67572773208 13 16 9
289.483397915741 130.146721801753 3618.56939580859 13 16 9
298.579385318396 128.088279157897 3646.00347895377 14 17 10
293.821148719705 126.213717901338 3684.00984206748 14 17 10
302.877509474123 125.55834289304 3686.60285790878 14 17 10
305.163286500558 124.282844678982 3706.95785350396 14 17 10
318.499562587537 124.019343772797 3698.334079869 14 17 10
326.97769299737 120.24876909937 3756.81872577902 14 17 10
310.402820430388 117.059318659407 3829.96931385856 16 19 12
3.80140870343726 130.370485341643 3726.22657367498 17 20 13
13.2935161973589 129.678350746018 3728.99604169051 16 18 13
32.6839894295408 128.326074458897 3733.62093262375 11 14 7
48.0006566079512 128.063871246261 3723.64112198642 11 14 7
103.957347233989 129.478983198018 3647.02931258327 10 13 6
57.4558549944646 124.570289111235 3773.88803945537 8 11 4
125.450481144781 125.603742696314 3692.44315290707 12 15 8
131.132228349881 124.642750650877 3703.38217305238 14 17 10
143.601796812673 124.22598322993 3698.7241271485 13 16 9
150.899630879094 123.391902553588 3706.00078045433 14 17 10
180.158602412845 124.38169556761 3661.73788965934 13 16 9
193.972647429249 124.11355707977 3653.30785366316 12 15 8
206.560798333143 123.751839454025 3647.6185955452 12 15 8
208.341268273488 122.464774052591 3667.76908355099 13 16 9
229.295385199059 122.840636697743 3641.72597551112 13 16 9
247.812471654562 123.027966737543 3621.17092340842 14 17 10
252.641164532637 122.009048217851 3633.9226032434 14 17 10
264.253096727415 121.598364753661 3629.99632573521 14 17 10
268.394560246518 120.507001493967 3644.62817388772 13 16 9
279.976000537877 120.099127804773 3640.68927189961 13 16 9
302.509056016702 120.732847617851 3608.81040433934 14 17 10
302.288787544487 119.223998083359 3634.62585188835 14 17 10
306.526163098043 118.125812982281 3649.29658585298 13 16 9
312.977147651286 117.234270653555 3658.38840761051 13 16 9
308.414037398816 115.242834330022 3696.47491910952 13 16 9
329.153035737448 115.765053983806 3668.1857282156 13 16 9
329.350157806096 114.224146158859 3694.17067446236 13 16 9
327.228270324366 112.421767515988 3726.77056625062 13 16 9
318.687161525288 109.919178154351 3777.27556621597 13 16 9
329.639528344624 109.435791377881 3775.24040270995 15 18 11
26.6263599118595 122.372427109424 3676.19003735856 14 15 7
21.5297882387058 120.581758094642 3709.74328531293 19 20 14
23.360291486096 119.30449831671 3728.83514898354 11 14 7
32.835850251238 118.616583516887 3731.59814177747 11 14 7
51.0716706689192 118.628861468624 3715.24602369249 12 15 8
91.1823204624789 120.426666216496 3650.5563882866 14 17 10
100.815631652142 119.793327996027 3652.30403210256 11 14 7
71.1030799654147 115.904482105908 3741.71827427336 9 12 5
113.917313041342 115.094572156824 3716.98324626567 10 13 6
116.868727920322 113.863048626444 3734.37073894693 12 15 8
135.382059169664 113.987923308416 3715.97251329575 12 15 8
176.951490118644 113.213557159257 3691.81175521493 11 14 7
188.874125096777 112.799268596015 3688.01130639203 10 13 6
212.287627711761 113.466500864209 3656.48841440865 11 14 7
233.123008982456 112.412698805009 3655.22271272119 12 15 8
252.360456270204 112.747512741784 3632.80033822382 12 15 8
254.989895705795 111.47718294481 3651.13682483601 13 16 9
262.904077181236 110.717795032757 3656.50485041122 14 17 10
280.426239149102 110.923549825141 3637.70443705201 14 17 10
284.628460413569 109.794779923135 3652.36116911807 11 14 7
310.371605251851 110.876537090952 3612.0686030657 11 14 7
312.737956834101 109.561679862147 3631.37771291588 12 15 8
301.90760341677 106.836196868081 3685.27299319848 12 15 8
338.403354851041 109.124667313495 3615.87931024333 13 16 9
322.47681278887 105.8075682425 3683.89907235739 13 16 9
323.415034554787 104.274792016405 3708.0261494817 12 15 8
331.790330393901 103.547116933838 3712.5015712571 12 15 8
333.936728076331 102.11823567839 3733.8803611132 13 16 9
328.616169467195 99.8206815292486 3775.97799721926 16 19 12
3.65453126849702 107.928066049298 3769.492623915 11 12 4
25.426977826063 108.273297934408 3745.93895744188 11 14 7
61.6623627854385 109.892687189565 3690.47046016584 11 14 7
93.5469865535987 109.710853956713 3666.69964793941 12 15 8
97.4722914642874 108.56735639332 3681.24411293735 11 14 7
99.4217688676249 107.234891551353 3700.38482406818 10 13 6
103.077514934971 106.044026364812 3715.89957100045 8 11 4
116.858004212844 105.779711262236 3708.5344704597 7 10 3
144.705591344663 102.183970877388 3741.41472250404 11 14 7
163.815464136188 100.875391072106 3745.92541186937 11 14 7
182.781156631095 101.16984950948 3725.55118517533 11 14 7
197.794667509512 101.086252024984 3714.36846676999 12 15 8
243.033285994013 102.54937134007 3653.91551995858 12 15 8
259.196811699681 102.651887366691 3638.88153393379 11 14 7
242.533443396457 99.2708101963738 3705.52463710701 11 14 7
280.138928267917 101.685252381228 3636.57932254084 11 14 7
317.735234368394 102.580529275168 3591.37738615464 11 14 7
283.283830917245 95.4256059435767 3731.76311416179 11 14 7
306.011952448321 96.3231811000462 3698.88241937156 12 15 8
322.044416615885 94.7806037359373 3709.70103284379 12 15 8
332.169558351517 94.2573832153316 3709.48910719399 11 14 7
337.911300027578 91.4572982282667 3748.5171708137 15 18 11
-1.53104758717926 99.184090006319 3755.59163540751 7 8 0
52.055436176915 100.968797202066 3686.64832417772 10 13 6
56.3892626833169 99.8309421166501 3700.27934576876 9 12 5
63.6858528737192 98.9617763398314 3707.55601860004 10 13 6
79.9822181336289 97.3767711898188 3718.48180534925 10 13 6
99.5591997430867 97.6921236715642 3698.35492692336 12 15 8
148.301123275633 97.7775886356864 3658.75071850811 8 11 4
156.894759052914 92.2018913509592 3735.63683863238 12 15 8
158.87216919997 90.7502009219124 3755.8683141479 12 15 8
203.617127268289 92.2367316666357 3698.45199192976 13 16 9
231.038864198925 93.5868816270589 3656.67916808664 13 16 9
252.545076100807 92.6741314400262 3653.52613832938 11 14 7
253.024264980548 91.0549284700496 3677.46801137562 9 12 5
275.787164866755 91.9842531509323 3645.67970835954 9 12 5
291.384114833753 92.1154822546095 3631.49491033122 13 16 9
290.119395158743 90.2756929792902 3660.12665706458 13 16 9
290.077215301497 88.5549591676982 3686.0160746859 12 15 8
287.281711716229 86.4774590165049 3719.42411756724 12 15 8
288.930353126819 84.9108260540085 3741.68147891945 11 14 7
304.498282416699 85.0455349895692 3727.48490424804 11 14 7
313.637638227685 84.3957094573023 3730.11122491072 13 16 9
44.5648103540739 92.2517106964582 3678.2871979532 11 14 7
72.8223640254364 93.4422012816056 3640.09068222861 11 14 7
66.5758805275762 91.2461580710908 3676.41809330023 10 13 6
100.920970612845 88.2879553266931 3693.58302417997 10 13 6
111.848076838726 87.7927499850076 3692.61678778977 9 12 5
148.033956992816 88.3549147948083 3657.63515792518 9 12 5
176.688680011855 89.8150758684505 3615.28191943165 11 14 7
184.939530774718 89.0850958991148 3619.70697174619 12 15 8
171.996878820894 86.0034356161135 3673.82876238673 12 15 8
172.911803239741 82.7189147046379 3720.61619869785 11 14 7
183.3495269331 82.1898181498689 3720.53087981081 12 15 8
231.244008971225 86.0089804310042 3629.84766400843 14 17 10
254.132885206565 83.5984333577693 3647.76445901072 11 14 7
262.782244056147 82.9136839086465 3651.27171345282 11 14 7
285.48122658645 83.9527107097059 3619.4566992392 11 14 7
281.549440883522 81.7271395177972 3654.56392260517 15 18 11
282.895276521926 80.1288063193084 3676.69866309433 15 18 11
290.860459781762 79.3499105648838 3682.08748679547 13 16 9
286.610092437044 77.001104076127 3719.22401185797 12 15 8
285.755377721914 75.0553456880342 3748.02282714346 12 15 8
276.529476400097 71.981627346469 3799.33369660473 11 14 7
312.613371129322 74.872950923938 3730.84775169001 14 17 10
342.674912262656 75.1840845902226 3704.17717612993 12 15 8
44.7352659367894 82.7198357302348 3676.27058971347 13 16 9
59.9555915287111 82.6704768416741 3666.25015774717 13 16 9
69.6645686488744 82.0519458351112 3668.02832592862 11 14 7
104.070899900169 80.7857602579056 3661.46990538039 10 13 6
112.794478934304 78.3859868336201 3688.75579020517 9 12 5
113.614409104204 76.770485510553 3710.67772541917 9 12 5
122.944137926381 76.1063990028414 3713.38123486203 9 12 5
179.21386605251 80.8567413218918 3607.74101430762 10 13 6
154.046524759051 74.4882363246327 3714.11897530228 10 13 6
178.16520358161 75.594700595659 3681.79946677594 10 13 6
183.477106744445 74.4762488904784 3693.66874132885 10 13 6
194.997225930613 74.1045894324806 3690.78380173488 12 15 8
213.488469619948 71.0134598460304 3720.95071982068 10 13 6
258.348020113707 74.8901558688274 3635.51160892314 10 13 6
276.648116439193 75.4532445822869 3614.86585090309 11 14 7
274.840347726239 73.4300216081905 3644.35817666893 12 15 8
282.359219491499 72.6031820567845 3650.64546354664 15 18 11
277.853260728453 70.17504813991 3687.67935995828 15 18 11
274.616760853482 67.8788307152228 3721.989569748 13 16 9
297.224237460864 67.1752287980286 3716.04391011144 11 14 7
294.995764472282 64.954756929923 3748.60407244099 11 14 7
293.62862431857 62.8211950623248 3779.35445007637 14 17 10
325.622349161737 65.3974893364269 3721.08221616815 13 16 9
354.503973778839 67.6012666225839 3670.1842325185 13 16 9
63.1354108546582 71.8266769298629 3680.56656377796 14 17 10
47.0915433199659 68.2850267327957 3738.83047870402 13 16 9
68.9586252936769 69.0332495498492 3714.2332667368 12 15 8
95.597563615029 70.3655101497659 3678.6169921829 10 13 6
128.141534833748 72.4325324167333 3629.20264611051 11 14 7
138.486858462049 71.9305872680203 3629.07970929034 10 13 6
104.067619001672 66.078819572712 3730.62866005093 9 12 5
106.242734149243 64.5414533936958 3749.86228340492 8 11 4
160.442446774707 65.7721230029153 3697.35487194183 9 12 5
154.070122928707 63.1497050923818 3736.87124460721 10 13 6
200.259812136078 67.183872599803 3651.96924665029 11 14 7
200.106576365361 65.35169460032 3676.73547786428 11 14 7
180.929888094657 61.0192651978573 3747.7627217181 11 14 7
186.841239808003 59.9094766470393 3758.79557771538 10 13 6
239.253837734863 64.9746471603281 3655.90673591006 10 13 6
261.817806604389 66.1529376027425 3625.11506540956 10 13 6
274.505038632055 66.0300178001831 3618.38504914554 12 15 8
276.032822047765 64.386879293057 3639.51499047158 13 16 9
280.965156903949 63.1956640116388 3652.309940173 15 18 11
276.09204176983 60.6174789489701 3690.27512305679 14 17 10
281.194072730946 59.4133718921727 3703.13887922711 11 14 7
301.105161079239 60.322467308165 3677.74847990375 11 14 7
303.516588833313 54.7686889683568 3751.05223621185 14 17 10
326.701304594827 56.2209189312727 3716.1943355508 13 16 9
357.664957086789 58.9003947542943 3659.66238128437 13 16 9
354.863620646537 56.480947577745 3694.14971971916 15 18 11
-15.9181689520373 56.5871426947805 3802.95472238873 12 17 11
70.412263846044 63.1669232538691 3663.07965057874 16 19 12
46.8206152053463 58.5658326965788 3737.71564252424 15 18 11
56.2874839117415 57.8946712214375 3740.4749897892 14 17 10
83.0080227005106 59.3386142363577 3704.8909081652 11 14 7
116.04480638272 61.6089154930466 3654.59574943127 11 14 7
92.7773620190773 56.9000600284849 3730.44263436772 10 13 6
95.3189515021056 55.3694015751324 3748.74552437565 10 13 6
100.74750943445 54.1906193213544 3760.66223168229 9 12 5
120.159834654791 54.8058379052277 3740.46641214563 8 11 4
131.922441917224 54.4522519155391 3737.67951726684 9 12 5
137.359381504412 53.2736519944506 3749.59987409076 9 12 5
177.606584268287 56.7159195426227 3679.55876549354 11 14 7
156.908552231174 52.0538756945919 3753.20895083349 11 14 7
183.631727809009 53.7495004875228 3714.38734749071 11 14 7
173.353754580726 50.4179550016825 3764.19538659361 11 14 7
208.984800054117 53.3981389492656 3703.07758413738 9 12 5
237.835928724307 55.5063825969502 3657.56227495699 12 15 8
252.904292160808 55.7222928123352 3645.32043040783 13 16 9
250.362375670844 53.4370712723316 3676.67536432187 14 17 10
260.192941419339 52.9078182235995 3677.4230208065 14 17 10
277.981900453958 51.5839238033046 3683.55661390087 11 14 7
279.07427135082 49.7581127207353 3706.66951789904 9 12 5
300.081845434597 50.9144537562406 3678.48426495769 9 12 5
325.92320181503 52.8486888673833 3637.14619437035 11 14 7
295.062397509847 46.094107765271 3744.45852046542 12 15 8
296.141264775769 44.1876667546231 3768.64511900865 16 19 12
341.024242695841 47.1044352142061 3702.6428596401 15 18 11
28.4506907930455 50.2962196646612 3729.26166331494 14 17 10
43.3622579240247 50.3091103502347 3720.19455354001 16 19 12
56.5385948640991 50.1171813392567 3714.7421608369 18 21 14
53.1192106464755 47.8144513310263 3745.74168975653 16 19 12
61.7744108686176 47.039159803128 3750.33106098329 12 15 8
86.3692940084102 48.341733191647 3719.28168590693 10 13 6
98.9968848271223 48.1088648153006 3714.68648545931 10 13 6
99.8780505943702 46.3230516582092 3736.63450545088 10 13 6
103.141129516778 42.8902129091898 3777.90045380908 9 12 5
121.342919834402 43.4161145172101 3760.45185590656 8 11 4
145.672947391553 42.8557279995899 3753.0449431468 10 13 6
209.071314410156 45.9676949420206 3676.19667253076 10 13 6
214.783543012857 44.8295922522873 3687.14937682879 10 13 6
223.561386635651 44.1341550985305 3690.70873485678 14 17 10
248.113535501082 45.7869057134781 3655.32391292689 16 19 12
251.56221496442 44.3151134697885 3671.83575754953 15 18 11
242.48472184205 40.9236468736684 3719.97270045612 14 17 10
268.239498388984 42.8245745037543 3680.75744305494 12 15 8
268.546167438483 40.831699533774 3705.7111045173 11 14 7
317.396982399251 42.363897297506 3657.50878280416 14 17 10
304.689319310858 38.2340983686474 3717.12821854971 15 18 11
309.922925670007 36.9658580113538 3730.0457347811 17 20 13
331.666465121788 38.4155713656252 3698.91982089994 16 19 12
323.322627623595 34.8832626203092 3748.43343424212 16 19 12
316.054729117691 24.6848518252055 3881.50787261488 12 18 14
61.6863085156243 41.1966419274517 3701.78970603162 21 26 20
73.9508712347583 40.9278516228452 3698.12659849572 22 24 19
70.155532070088 36.5354697251041 3753.80413279186 12 13 5
92.6303491953064 37.6687730418042 3727.29219617089 10 11 5
104.038657046768 37.2922473497224 3725.44082998638 11 12 6
97.7664835847574 34.4269862631107 3763.92052814906 11 12 6
142.835758917513 36.8632454916668 3708.78619452801 9 9 7
191.907880313523 40.0446843828158 3642.32021008321 8 9 4
196.716762109749 38.7784128221153 3655.06574341987 9 10 5
175.719791293627 33.6336090257066 3729.67735789456 11 12 7
214.921657671647 37.5114441218314 3660.2885066477 15 16 11
213.733720734642 35.3066521060937 3687.87530064651 13 14 8
231.971596724683 36.0720000583432 3668.28162512619 16 17 11
250.834080433719 36.964960658098 3646.78226529803 16 17 11
263.961033662483 36.9864922661162 3639.15038599281 13 14 8
251.375195154813 30.82474238764 3721.49106365451 8 11 4
269.383840304062 29.4898332772674 3727.71394681791 13 16 9
311.010171561254 32.1197709767875 3672.26267237679 17 20 13
324.280736083757 32.2203869396485 3663.6095326875 19 22 15
315.603035001932 28.5791163495644 3712.98905015346 20 23 16
330.299868095606 28.9209653215704 3700.59607824114 16 19 12
348.040834001325 29.8175347312959 3679.72140457566 14 17 10
31.0155067470845 27.3529476017814 3767.1560920444 20 25 19
56.7127117774724 28.9585065978983 3734.39312647055 0 5 0
67.8317205922066 26.5198795221119 3757.25464320246 16 17 9
111.435034218545 28.8013124443853 3706.92222353884 11 12 6
108.716479188095 26.3702410370323 3737.12767788935 11 12 6
127.281992443224 27.0845635508041 3718.74585528285 10 11 6
165.53914170155 30.7970543879637 3654.37030318999 11 11 11
160.89851678925 28.0634369221333 3689.19411619886 11 11 11
182.249194949109 29.2874113958605 3663.30514454174 9 9 7
182.83897884368 27.3250798363535 3686.21558940509 10 11 6
188.941161350417 26.2025843285693 3696.24699961288 14 15 10
212.381895484811 23.6152828716708 3714.38857772567 17 18 12
234.007942280434 25.0017425712651 3686.45225300118 16 17 11
246.499157846171 24.9243487542173 3680.72159135338 12 13 7
276.717241340014 23.5369109922555 3681.09953479377 13 16 9
292.319693273245 21.8491578264069 3692.82394788987 18 21 14
310.81721263553 20.6625734098891 3697.08577499061 22 25 18
303.280442297571 17.0697481469671 3743.69019838671 19 22 15
325.777102771833 18.845934725883 3710.70886978992 15 18 11
400.481298974747 21.3350905650182 3641.67965184833 14 16 11
29.5737377459204 19.4423315901256 3745.05458405781 14 20 18
96.3506193925612 23.1523836121641 3668.49090865579 13 14 8
90.4641890496289 20.2342020567392 3704.96957631525 21 22 16
93.7061926447094 18.6590229328495 3721.39852298486 17 18 12
104.69694536677 18.2544670090191 3720.45711228642 16 17 11
116.064103154373 17.9143121063226 3718.58906627795 13 14 8
128.99718431287 17.8260745960941 3713.03739507593 11 13 8
150.998350807591 19.179669798646 3686.332010912 10 10 8
155.499844711373 17.7880664222463 3700.03284318932 10 10 10
153.403874256535 15.3230279552223 3729.41156972254 8 8 6
195.389628079481 19.9776929372424 3654.67090056813 7 7 5
165.86349777583 13.0188189096803 3749.57844858496 8 8 6
210.018165973534 11.5860710258649 3743.73164156399 13 14 8
212.206987877011 9.72295912118021 3764.05183466715 15 16 10
250.482193524519 14.1105325281509 3694.28392136662 18 19 13
284.104444311489 15.5818065813433 3660.41527881499 19 22 15
294.93234515172 15.2894175464776 3658.32827220347 22 25 18
295.262472525702 13.105657036485 3683.29287863587 21 24 17
307.89454141779 13.1404877714581 3676.53958872886 18 21 14
302.677524341411 9.89439526024127 3716.52846421811 17 20 13
318.150868383167 10.4560319767228 3702.29035665247 14 17 10
76.3224666571873 10.608186062468 3711.18431676612 11 14 7
100.42944318713 12.2703416379246 3681.01373158902 17 18 12
104.017116536153 8.59596717379407 3720.25506319648 18 19 13
106.547227629079 6.84583858494939 3738.55496920923 14 15 9
96.7839804169301 3.0735989690823 3785.33833314696 11 13 8
100.745699422828 1.50068731305439 3800.97986216623 10 12 7
143.002672979718 6.27016771519903 3727.42668861123 8 10 7
153.899105733306 5.88847693214434 3726.44691511307 6 8 5
193.559184648732 10.3811946271348 3657.23893023955 5 7 4
179.867756927434 5.85857374092971 3714.30515061264 5 7 4
202.177917512491 -1.61186910954375 3787.04931130977 15 17 12
231.620904546565 1.37292180056728 3739.60912389252 19 22 15
267.790685205625 5.66166198173384 3674.38404320324 20 23 16
276.119638672008 4.90685888155412 3678.84090690264 22 25 18
285.180773719222 4.28767364584509 3681.43558151272 22 25 18
296.042313035661 4.0095211906121 3679.36208697293 19 22 15
291.453723201299 0.799436130266284 3717.44726176808 14 17 10
294.95758904926 -5.75040488162779 3789.04327213112 12 15 8
322.453208768805 -7.72183868481402 3798.03312351768 16 19 12
340.65149099993 -9.05624554305365 3804.33278558745 14 16 15
18.9657699000811 -1.60650594625059 3764.65461708992 0 3 2
18.9286863664464 -3.79584647297201 3788.39151934788 5 10 6
