ply
format ascii 1.0
comment KinectMotionCapture
element vertex 754
property float x
property float y
property float z
property uchar red
property uchar green
property uchar blue
end_header
-70.0086427095714 889.586262285373 2862.2855592221 180 176 173
-78.19811389979 884.233963626985 2845.59807803643 157 152 149
-74.1400015873985 882.949092082362 2839.44225497072 237 229 226
-73.1789323217491 880.651879734051 2830.68426694076 255 252 249
-75.3400708352032 877.34570885037 2819.34495666893 246 238 236
-75.9897711703252 874.550477344469 2809.33947046991 242 233 234
-68.8898889466909 874.284236990377 2805.83430984557 250 245 249
-67.2448100519771 872.251238809231 2797.80469932854 243 241 246
-61.7087300064449 871.480474465247 2793.01137433316 250 247 254
-58.526408308694 869.954678772593 2786.29293079547 255 250 254
-50.6381372578115 869.938258561076 2783.4260872676 255 254 255
-44.3151800017003 869.417997020743 2779.27238511753 255 254 255
-33.2452197417101 870.401484628816 2778.93505227414 255 254 255
-18.9771570796369 872.382685159556 2781.11238740822 255 254 255
-7.04854801957877 873.606987786068 2781.35221765798 255 253 254
2.52238817244743 874.076928207408 2779.67063339761 255 253 254
8.11961415498264 873.295773345504 2774.82437835158 255 254 255
18.5208349112242 874.0105504951 2773.74483093918 255 254 255
30.5513824140426 875.219867307873 2773.89640458491 255 254 255
42.6143048309839 876.424666680319 2774.02026251484 254 250 251
53.0953636453368 877.127711542436 2772.8712771004 247 246 244
61.1738841939826 877.082855493487 2769.83972175932 254 254 252
-110.75803435334 874.151775901237 2847.41715375476 203 204 208
-102.9072810244 874.135856908981 2844.58282493714 222 223 227
-100.405606379423 872.357648674335 2837.13269743312 209 209 209
-100.224615761254 869.827777813929 2827.72844734171 250 246 245
-98.5326476820982 867.80351862135 2819.65845516709 240 236 235
-94.545872280376 866.533583995571 2813.56436557442 239 235 234
-91.3418214587431 865.014204251753 2806.82704704851 243 239 240
-90.4784995409997 862.746145294343 2798.15359124378 250 245 249
-83.4157067542138 862.479427992338 2794.68026494531 250 249 255
-80.2458722814077 860.963877695691 2787.9725781439 248 248 255
-71.6136434758958 861.194278300688 2785.78258115591 254 254 255
-68.4548638569824 859.679879657687 2779.08478404383 253 251 254
-60.5915915284005 859.658719231904 2776.23932301101 255 251 252
-51.928098119745 859.883973403599 2774.02257672954 253 251 252
-40.0875923128998 861.09906109592 2774.3388289487 255 251 252
-26.6301188879483 862.805045201442 2775.89725344807 255 251 252
-17.1043724635518 863.267836553131 2774.25488310979 253 251 252
-4.37312441049986 864.716325306869 2775.12084543421 254 252 253
3.6034732270096 864.678068915953 2772.17758757783 255 251 252
17.1955521435607 866.364488228388 2773.61947143965 252 250 251
27.6176001348678 867.059632528514 2772.52199953534 255 253 254
44.5005705272732 869.719852656832 2776.39859821301 255 254 255
55.7936790827953 870.651669638745 2775.86818954786 255 255 253
67.9232686831814 871.82483167115 2775.93415413148 246 246 244
71.9774929000243 870.541262262462 2769.78169258007 244 244 242
-130.733638273558 865.625020995652 2850.22916513967 181 180 178
-126.714559576712 864.358161921594 2844.10705719034 234 234 234
-121.180982372834 863.590908606178 2839.31587874623 238 239 243
-113.357120065695 863.570406662942 2836.50488704144 243 244 248
-110.115381082301 862.055293640212 2829.73487518258 245 245 247
-107.654062990262 860.293120135927 2822.31962224814 245 245 247
-107.518819728779 857.788176709718 2812.95517701758 249 247 250
-103.553926373684 856.526638613851 2806.87999897155 248 246 249
-100.37151166088 855.018377043028 2800.16136119282 249 247 250
-98.7534763854407 853.016830247425 2792.15530205977 251 249 254
-92.4891205927825 852.500328508884 2788.05236754087 248 247 253
-87.0011199450009 851.73633852091 2783.30067078971 245 245 253
-76.0398004473797 852.697604752231 2783.05732928235 254 255 255
-71.3225414964409 851.684891453919 2777.65201292499 252 252 254
-63.4656293662452 851.656405356937 2774.8124274881 254 254 254
-57.9614252755469 850.888975617213 2770.04670892022 255 255 255
-46.1365827113776 852.084434021767 2770.37666423309 255 255 255
-35.8639037479933 852.784962076367 2769.40862094743 253 253 253
-25.5672364723956 853.482020044024 2768.41980861557 252 252 252
-12.8579718965378 854.908975901629 2769.30496434357 255 255 255
-1.70883370045205 855.842335510243 2768.89932996763 255 255 255
12.6695317626777 857.747298070081 2770.9815557232 251 251 251
27.0922514647016 859.64592806051 2773.02537910083 252 252 252
43.9726567059608 862.268286264062 2776.90444643342 253 253 253
56.0709277807363 863.424129184621 2776.99798365004 252 252 252
65.7755218961462 863.846882929022 2775.20054352119 251 251 251
73.0685147972472 863.5391255497 2771.52827596277 251 251 251
81.9942745155777 863.714844701651 2769.08421951897 250 250 250
46.9455246299848 850.822640143136 2733.37799636656 242 244 241
-147.605717676267 858.134347240863 2855.63756992709 189 189 187
-149.632889536187 854.894237247374 2844.1820333779 233 233 231
-143.3712750816 854.378965292175 2840.08178241906 238 238 238
-137.106265454715 853.862734817821 2835.97827944073 239 239 239
-130.0761834322 853.592360287488 2832.53364394921 241 241 243
-124.565320183465 852.827746691534 2827.76213540102 242 242 244
-119.820568026265 851.816698400246 2822.33266339142 244 242 245
-115.847702622101 850.560157396621 2816.25085881547 246 244 245
-112.653128615865 849.059001696446 2809.52163609385 248 244 245
-110.24292979594 847.313953037149 2802.15057910059 250 246 247
-106.302473171982 846.060856083558 2796.09652654898 248 246 247
-103.921941136638 844.319323605598 2788.75116003934 248 246 249
-96.8922027055186 844.0460986142 2785.30652530904 250 248 253
-89.854619434822 843.771539912338 2781.85541532962 250 249 255
-80.46420796249 844.227083206765 2780.3300761136 251 250 255
-72.6214560414995 844.19259911189 2777.50280270619 253 253 255
-65.55283156366 843.912901865007 2774.02482149468 254 254 255
-60.0525363187865 843.145878763114 2769.26248822895 254 254 255
-49.0230213467697 844.077539822292 2768.96023109493 253 253 255
-40.3414912133231 844.277825563645 2766.72769801896 254 254 255
-29.2621075104669 845.202111977592 2766.38226565129 255 255 255
-17.3584009095951 846.364095322351 2766.64439910088 253 253 255
-4.62452925385914 847.762846856691 2767.50872526581 253 253 255
9.74573284538449 849.638957622937 2769.59816145847 253 253 255
25.7647890905299 851.990599734024 2772.90228430175 252 252 254
43.4448112371868 854.816111804434 2777.41023935051 252 252 254
55.5416434561082 855.950290045214 2777.50516406288 250 251 253
63.6288220931145 855.879175692477 2774.46627459987 251 252 254
68.4863065087553 854.846979157212 2768.93954604376 253 255 254
80.6507292362579 855.971254165031 2768.97563629319 253 255 254
89.5894699162438 856.133906664808 2766.52041345555 254 255 255
100.177129929834 856.772253308724 2765.27976770891 253 255 254
-156.931927246702 853.12813795701 2867.72346947846 242 242 242
-153.652212794539 851.626714978429 2860.92045420398 240 240 240
-150.385233526907 850.126647749364 2854.1284681864 238 238 238
-150.15113682481 847.648694974481 2844.67816822553 240 240 242
-145.403676669412 846.64155610797 2839.24663927624 241 241 243
-140.660770450194 845.634671209896 2833.8190557414 240 240 242
-133.639190232674 845.359790133553 2830.38150275954 242 240 241
-128.899358045919 844.352660472188 2824.95658518521 245 241 242
-126.459992965876 842.615421638219 2817.56019813807 246 242 243
-122.502979392587 841.366442869442 2811.49176839741 246 242 243
-117.015913623657 840.603896278793 2806.74087258611 246 242 243
-113.843589103656 839.113522152874 2800.03086442909 246 242 243
-109.910472714051 837.866825671986 2793.98344796006 246 242 243
-105.210847292605 836.862992503658 2788.59304216023 247 243 244
-98.9605809075398 836.343020648272 2784.50265743662 247 243 244
-91.1477246445438 836.30495710303 2781.7013188655 248 244 245
-84.1049922673043 836.023754035415 2778.24547351318 247 245 248
-75.4871728349889 836.222978119523 2776.0681676715 248 248 250
-69.2105088364769 835.698133761865 2771.9549347614 250 249 254
-62.9304857505542 835.172455517004 2767.83848030026 251 250 255
-55.0673600057294 835.126005178042 2764.99362570896 251 250 255
-46.4007466233669 835.317400497555 2762.77407912749 253 252 255
-34.5428019589926 836.464167308158 2763.07597469586 254 253 255
-25.0406341518512 836.888670600248 2761.4539733874 254 253 255
-9.93290839159799 838.982196546322 2764.22639084641 254 253 255
5.2230456709772 841.068786114043 2766.9567365373 253 252 255
22.8337065801179 843.863298084194 2771.52532585805 252 251 255
36.4845789816211 845.459216558383 2772.91683774083 251 250 255
49.369755498057 846.811601039965 2773.65032300407 247 248 250
59.0583202375989 847.209145504168 2771.86693946822 248 249 251
65.5263418917196 846.655236982412 2767.58803833624 250 251 253
75.2464803021646 847.048110169439 2765.77731903491 251 252 254
88.2436276046006 848.384337424973 2766.4138598924 252 253 255
99.6443182048612 849.242895639108 2765.79036520788 252 253 255
107.79977893759 849.153482935254 2762.6924117719 255 255 255
-165.97369144934 845.638812294015 2870.31546353091 195 195 193
-159.69980399858 845.118032604088 2866.20429530255 223 223 223
-157.176046401958 843.382663346327 2858.73475011294 235 235 235
-153.16342043653 842.134242116466 2852.61843101303 243 243 243
-152.179038439172 839.918008081795 2843.8393967462 236 236 238
-146.67831745244 839.155838310682 2839.07666302501 241 241 243
-143.454933794362 837.668708736497 2832.32237905293 246 246 248
-139.483421022677 836.424185159134 2826.2413534661 242 240 243
-135.520430280054 835.180472136069 2820.16802448861 245 241 242
-132.331320915368 833.697000154022 2813.44342357731 245 241 242
-126.853683410846 832.93614248519 2808.70068863741 245 241 242
-121.376587668655 832.17499845928 2803.958425118 245 241 242
-116.671346711715 831.173642891573 2798.5631360768 244 240 241
-111.970584451737 830.172673128864 2793.17204189606 244 240 241
-106.49923387035 829.411284747523 2788.43475949745 244 240 241
-100.251126641382 828.888706935913 2784.34594756585 245 241 242
-93.9993436473405 828.365356869405 2780.25427023362 246 242 243
-86.962836854795 828.079542569062 2776.80385070022 245 243 244
-78.351569986034 828.268831896524 2774.63260409122 244 243 248
-71.2957452612866 827.979757273171 2771.16546213859 247 246 251
-65.8073296373067 827.214334017775 2766.41341500026 248 247 252
-55.5819398830462 827.872483237862 2765.48663358784 249 248 253
-46.1243391675579 828.289993148274 2763.90330549696 251 250 255
-35.0593561557728 829.178033744298 2763.57090511251 253 252 255
-26.3536709198462 829.352549280937 2761.31760293255 254 253 255
-8.8570602072231 832.122394403907 2765.98488798704 254 253 255
6.30105614965037 834.176017119233 2768.71388867861 252 251 255
19.9037471024637 835.751535370832 2770.14729334879 251 250 255
30.3313326638168 836.379939356814 2769.04545431238 250 249 254
44.0064412127872 837.945046273414 2770.41615951466 247 248 250
55.2978507232016 838.800056254691 2769.88740567141 248 249 251
62.56751397795 838.478912130708 2766.23544550249 249 250 252
73.0928235241026 839.093197301232 2765.04899706608 251 252 254
84.456049814376 839.937936746521 2764.45806359163 251 252 254
98.2956334783411 841.47933651037 2765.6863659227 252 253 255
105.630197516186 841.148651382823 2761.97790022534 253 253 253
113.792756724317 841.049898652522 2758.87385480918 255 255 255
-170.532146290085 839.612730051988 2876.95232661319 243 243 241
-169.48085894038 837.405271965408 2868.11524620424 225 225 225
-163.215044417639 836.882764818827 2864.01108626674 235 235 237
-159.197157240516 835.63938412612 2857.89017442273 219 219 221
-155.940671069808 834.156959170806 2851.10716882705 225 225 227
-154.960950058888 831.957641876926 2842.33206478381 232 231 236
-150.979532481812 830.717892793967 2836.24242340728 237 236 241
-147.765506224783 829.240167914474 2829.49618888839 251 250 255
-143.803364652073 828.002438095231 2823.42355714568 242 240 245
-139.087309687802 827.003758334663 2818.01887787632 242 240 245
-134.375737792429 826.005405081696 2812.61839764098 242 240 243
-128.901910732344 825.245060571175 2807.87896202497 240 240 242
-124.197545859049 824.246899378529 2802.48472713016 240 238 243
-119.497820207515 823.249063526031 2797.0945111074 239 237 242
-115.575925856938 822.014695534379 2791.05642578121 238 238 240
-109.337456745288 821.490960369554 2786.97597505201 238 236 239
-103.872542907922 820.730079517226 2782.24426832201 238 236 239
-96.8497630756695 820.441105605744 2778.80608242572 239 237 238
-89.8195671533992 820.150751444385 2775.36116216884 240 238 241
-81.2149729161691 820.329980215796 2773.19576416209 237 236 241
-72.5948081268846 820.506670677434 2771.01657153366 241 240 245
-67.1082392258575 819.741376350666 2766.26612418103 242 241 246
-59.2540443521674 819.67971993457 2763.42910883252 245 244 249
-51.3881934466731 819.616194352197 2760.58200289452 247 246 251
-43.510614894303 819.55084984521 2757.7247439701 248 247 252
-30.8484988012339 820.88606171099 2758.65135948621 252 251 255
-16.5547960136916 822.682975205534 2760.80798109936 252 251 255
-0.617692658340552 824.939954943076 2764.18374887251 250 249 254
9.76024404211406 825.559033411542 2763.12468720519 249 248 253
22.5733454181394 826.872436903605 2763.92089518111 248 247 252
37.8397410782352 828.877641794524 2766.55636005723 247 248 252
51.5389425445276 830.411836670212 2767.90638337286 245 249 252
62.039267597513 831.013317273827 2766.74167286864 247 251 254
71.7515267221906 831.379763823363 2764.93795407278 250 251 253
85.5531050655518 832.899392930076 2766.19933805569 250 251 253
94.4993669336194 833.02773582862 2763.73781866107 252 253 255
105.097491958412 833.615207155834 2762.48843218638 252 252 254
111.619579999634 833.047609611651 2758.16275847851 255 255 255
123.077234776956 833.859630248542 2757.49019245884 255 255 255
-170.647810533097 835.006278982708 2887.66914489024 117 117 115
-170.31010247666 832.573180930775 2878.12875058457 219 219 219
-169.255276822599 830.381475487932 2869.28850132253 230 230 232
-164.4838198738 829.380806496807 2863.83613156488 225 225 227
-161.217738392743 827.905712935274 2857.04476186122 235 235 237
-158.716802487564 826.194856358657 2849.59483820911 216 215 220
-157.741769249395 824.012399526749 2840.8236879708 220 219 224
-154.522231470938 822.54249612489 2834.07262573481 247 246 252
-152.832492837299 820.601599295263 2826.00402571057 237 236 242
-148.121594355282 819.606668160709 2820.60379145853 241 240 245
-144.177734303343 818.376430779918 2814.54695641581 241 240 246
-136.419223574617 818.323707804886 2811.79281606614 240 239 244
-130.182562882229 817.798778914495 2807.71394049429 238 239 243
-126.248683560945 816.568845392069 2801.66543862772 238 237 243
-123.094281902318 815.10525863686 2794.97079127605 236 235 241
-117.634188265849 814.345625789988 2790.24325430032 234 235 239
-113.724291413828 813.11804592716 2784.21583916298 235 234 239
-107.492478197681 812.592152927084 2780.14117132048 235 234 239
-101.257100540566 812.065480467497 2776.06341909978 235 235 237
-92.674995297302 812.23719789949 2773.91756178613 236 236 238
-84.8604909721602 812.173558359802 2771.11464500055 237 235 240
-75.4637513572209 812.573116466357 2769.58449925412 240 238 243
-69.1960674344632 812.040656005035 2765.47878353815 241 239 244
-61.346322417215 811.971454338478 2762.64567393358 243 241 246
-52.6937827470642 812.131927363988 2760.43852592159 245 243 248
-42.4388428420581 812.75274042298 2759.48637427061 247 245 250
-28.1832480827715 814.525262100627 2761.6761835412 251 249 254
-18.6677344145179 814.906646626957 2760.04289430588 251 249 254
-4.33597318334744 816.667990361363 2762.16644427803 250 248 253
6.83451154410353 817.502178236238 2761.74295073137 250 248 253
19.6397288351422 818.792127848917 2762.54582859602 249 247 252
33.2867410508313 820.306522124928 2763.94121451944 246 247 251
47.7816137440206 822.044424434758 2765.92385733834 244 248 251
62.3206664807965 823.7760553237 2767.86793285154 243 247 250
72.8458621009462 824.357478328545 2766.68179610654 245 246 250
84.2085722471388 825.163900247674 2766.09155829125 246 247 251
92.3364595784202 825.053587678892 2763.01763914507 247 248 250
101.293702601772 825.169372786894 2760.54668336324 248 248 250
109.447071264792 825.055269291629 2757.45070319622 253 253 255
119.255751767718 825.394260371691 2755.56390595097 254 254 255
-166.36089556345 831.776089381026 2902.50136756449 123 123 123
-171.171910591633 827.706070316185 2888.17070678352 229 229 229
-171.576492870744 825.056289182945 2877.95182543266 219 219 221
-171.268244913509 822.645783166491 2868.43681885695 223 223 225
-167.996647539089 821.178570379989 2861.64061726262 225 224 229
-165.488169020442 819.47787454553 2854.1837748016 222 221 226
-161.49186389049 818.247880419778 2848.08148214834 221 220 226
-159.012886704989 816.550521023344 2840.65050344582 219 218 224
-156.550947517007 814.855074645956 2833.23396427891 219 218 226
-154.10575206326 813.161605938498 2825.83224020581 225 224 230
-151.677465240482 811.469995138723 2818.44515941165 241 240 245
-146.978666964674 810.479230973232 2813.05570135405 240 239 244
-139.991249487011 810.186493330303 2809.64787415779 236 235 240
-132.996009584151 809.892424995488 2806.2335911202 237 236 241
-126.761835712764 809.364776814282 2802.15688858657 236 235 240
-123.606642113416 807.909168040399 2795.46150313389 229 228 233
-118.146275132462 807.149558267984 2790.73372909115 233 234 239
-114.23574262 805.927222669086 2784.70572902109 232 233 238
-107.227162085614 805.629538949316 2781.27959109358 233 232 237
-102.547218054145 804.638499263333 2775.90647647264 234 234 236
-94.7487039212076 804.569250141467 2773.11777082448 234 234 236
-89.2870833334585 803.807914503466 2768.38892141933 236 234 239
-81.471290976812 803.735679749214 2765.5852594606 239 237 242
-74.4309596096233 803.432043284002 2762.13164051896 240 238 243
-67.3828238596794 803.127138442881 2758.67158097021 242 240 245
-57.1629642169822 803.736686205965 2757.74990764291 244 242 247
-46.9192146634589 804.342657361625 2756.80755124769 246 244 249
-33.4710337115198 805.85843680759 2758.37526239838 250 248 253
-24.7657220755726 805.999945490722 2756.12249791618 250 248 253
-11.2493685889863 807.505765518194 2757.63118601793 250 248 253
3.90979075474451 809.460854792792 2760.35992121445 248 247 252
18.3139266507708 811.181730115627 2762.4210036994 249 247 252
29.5410674577332 811.988503397199 2761.94826642656 245 246 250
42.410996079397 813.244608241873 2762.69559148271 243 247 250
59.3640464601948 815.627220315358 2766.51324822256 243 244 248
69.8820863170901 816.193258072779 2765.33341333157 243 244 248
81.2373947622302 816.9815731014 2764.74970816973 244 245 247
86.9120493742268 816.187355817404 2759.83642759222 245 246 248
97.4915910246854 816.744452287457 2758.60334482586 248 248 250
106.455735786335 816.848228986167 2756.12648487417 247 247 249
121.187149023093 818.522334497227 2757.90420739361 251 251 253
131.020946030981 818.843989621603 2755.99575310813 255 254 255
136.745765132681 818.042417748255 2751.03904082218 243 241 244
-175.025292520292 821.870542472837 2895.5184839042 187 187 187
-174.66321942047 819.472550179755 2885.95674405344 223 223 223
-173.586506734483 817.310894457856 2877.09732979117 224 224 226
-173.280674574218 814.919817469204 2867.58429117295 227 227 229
-171.508194654519 812.996740455856 2859.44354531628 221 220 225
-170.506488308372 810.844190082968 2850.64939825477 219 218 223
-167.273900894373 809.389477053563 2843.8869269966 219 218 224
-161.791883353036 808.630305193079 2839.14038479728 217 216 224
-155.554310685206 808.101780087618 2835.06074208709 215 214 222
-153.862053619626 806.187672532738 2826.98978565219 219 218 224
-152.190981211688 804.276036433889 2818.93685919361 240 239 244
-148.254106881138 803.057557031037 2812.88568722187 240 239 244
-141.26867941832 802.759659941584 2809.4799337892 236 235 240
-134.275608097548 802.460434011372 2806.067563761 234 233 238
-127.27508460187 802.159703199333 2802.64842890377 234 233 238
-123.3484609154 800.941308967228 2796.60645649465 233 232 237
-116.340956139865 800.638859455449 2793.18128184845 231 230 235
-113.198324088367 799.192488021832 2786.49672408261 226 225 230
-106.185618815282 798.888761486269 2783.06736576625 226 225 230
-103.058469618366 797.44393617653 2776.39621752808 231 230 235
-96.0408544868692 797.138949561197 2772.96261182629 232 231 236
-90.5811074083878 796.377686573006 2768.23538578819 232 230 235
-81.9830723919632 796.524719321018 2766.07556601207 235 233 238
-74.9429190990623 796.215597309543 2762.62213696029 236 234 239
-67.8949794658501 795.905269238133 2759.16228253563 237 236 241
-58.4669059797562 796.272341291864 2757.60518910722 240 239 244
-47.4333178027777 797.088232812015 2757.30015176954 242 241 246
-36.3717110972934 797.900051603733 2756.97085615747 244 243 248
-25.2821618503116 798.707688127959 2756.6173688415 246 245 250
-10.9685754403341 800.411653207467 2758.75704339957 246 247 251
5.79265673911777 802.783649246225 2762.74134017436 245 246 250
17.7916238183258 803.800433082148 2762.92153332687 243 244 248
25.7969688708664 803.691232721098 2759.95381877127 243 242 247
38.6571074375359 804.924162563045 2760.70977939458 242 241 246
53.9809064344676 806.822742593566 2763.29586615424 241 240 245
68.5420092234748 808.491180676714 2765.22155509839 242 241 246
78.2673944374102 808.814597943669 2763.40673827998 241 240 245
84.7512953575822 808.243916514466 2759.11386719335 240 239 244
92.8734844149473 808.117722985108 2756.04498985501 241 240 245
102.646240317287 808.434303877294 2754.18947497096 242 241 246
117.367438866592 810.079782043725 2755.97623643308 243 242 247
130.48603714899 811.275748822997 2756.50842025212 251 250 255
143.64083958018 812.466600390154 2757.00925778075 252 251 255
125.383863113015 805.250385381705 2734.50259187079 229 231 230
-179.630874104328 815.788165924943 2902.19655821734 199 199 199
-176.290002288636 814.329469923917 2895.34025878574 222 222 222
-175.928233662218 811.950682209673 2885.77865838688 220 220 222
-175.595844057601 809.575289840351 2876.24218432747 223 223 225
-176.038034719408 806.97375141464 2866.05558689976 220 220 222
-173.522546765588 805.294471347797 2858.59284584746 218 217 222
-173.273362791605 802.929348424539 2849.12873806549 217 216 221
-170.04597737466 801.483600247633 2842.37071747268 219 218 224
-164.569791943811 800.72515392011 2837.62922547168 217 216 224
-159.094152647228 799.966361938113 2832.88820906473 213 212 220
-155.135041230877 798.751056108997 2826.81774284659 214 213 219
-154.224735442073 796.625285044045 2818.10232689006 236 235 240
-150.291086398703 795.412831606256 2812.0542268551 242 241 246
-144.83810526583 794.655593879113 2807.33283902146 241 240 245
-137.853504591802 794.351976979105 2803.92752374802 233 232 237
-130.861108278891 794.046973108394 2800.51577621459 233 232 237
-126.171820910908 793.061382392394 2795.1345280786 230 229 234
-119.17058217689 792.754386982441 2791.71481389334 229 228 233
-113.71024142755 791.994421425647 2786.98706489198 224 223 228
-105.921416992102 791.910727166826 2784.20685125777 224 223 228
-102.791413731592 790.473602129211 2777.53317940215 227 226 231
-95.7719145515101 790.162852258411 2774.09797807377 229 228 233
-90.3098948768735 789.401402988605 2769.368783502 229 227 232
-82.4948521430113 789.312860376139 2766.56587694361 232 230 235
-77.0279182380271 788.55021032396 2761.83243081286 234 232 237
-69.9844638640257 788.234894678421 2758.37618073034 235 234 239
-61.3518624773137 788.365377169738 2756.18682379753 238 237 242
-50.3255776000002 789.163268319861 2755.88823313503 240 239 244
-41.6555915437873 789.288035216556 2753.66619508975 241 240 245
-28.1890369907347 790.746604300955 2755.21835190448 243 242 247
-13.0845828480597 792.64408431135 2757.99487537458 244 245 249
6.07246976381015 795.645233390869 2763.86833415275 243 244 248
18.0720781524797 796.640012521834 2764.04811405033 242 243 247
29.298832374999 797.408690373941 2763.57595870345 241 240 245
42.1675207753682 798.61573580795 2764.32467661019 240 239 244
55.0724357389094 799.817663011265 2765.04202881873 238 237 242
68.013434035477 801.014371500563 2765.72814012294 239 238 243
76.1117842438259 800.883543296534 2762.67995480473 238 237 242
82.5914450947951 800.310618233787 2758.39077327729 236 235 240
91.5262090137943 800.396613014648 2755.93949398528 238 237 242
102.115176519852 800.919442809874 2754.69846353997 239 238 243
119.298078605953 803.193008838958 2758.31760616599 239 238 243
128.304574019231 803.26880445554 2755.80422070036 247 246 251
145.58034361126 805.529347098512 2759.34327162562 249 248 253
152.156455199359 804.942534576667 2754.97058276851 248 248 250
-189.742026142815 805.504322230616 2893.82324330487 229 229 229
-184.948181736554 804.513132299853 2888.35109259575 210 210 210
-181.641640757401 803.066844886785 2881.52446852622 220 220 222
-179.091286455933 801.394547119697 2874.03146231168 215 215 217
-177.303253536752 799.497005282358 2865.87738615559 210 209 214
-177.031377437974 797.148289382166 2856.39350397548 218 217 222
-174.540057180996 795.482602126486 2848.95130634013 220 219 224
-171.313660605636 794.045273606862 2842.19440376512 221 220 226
-165.839223496351 793.287062728446 2837.45442557155 221 220 226
-161.12113358955 792.30278103116 2832.04788924454 216 215 223
-155.649797299044 791.544269110635 2827.31060059282 213 212 218
-152.458533650159 790.109972985707 2820.58381382519 216 215 220
-150.041917383418 788.45227241007 2813.20662858234 229 228 233
-146.114467762725 787.245662099529 2807.1635484334 234 233 238
-138.365977560838 787.161111664865 2804.41829947726 230 229 234
-131.373683335207 786.850731786948 2801.00667526321 230 229 234
-126.683952671951 785.867776249431 2795.62502583124 230 229 234
-120.454859522154 785.332009029439 2791.55277955321 229 228 233
-114.222255504018 784.7953497923 2787.47749605969 224 223 228
-107.209857178816 784.480705424449 2784.04847453391 223 222 227
-103.302930319785 783.274523384537 2778.02317942497 222 221 226
-97.0638252154124 782.736112540512 2773.94258806963 223 222 227
-90.0391545144088 782.418715285379 2770.50263196055 226 224 229
-80.6536375772664 782.76522846449 2768.98255704481 229 227 232
-76.7532802844277 781.558673548379 2762.96295843128 230 228 233
-71.2846871606931 780.795500615845 2758.22807758427 233 232 237
-65.816770285565 780.032059437703 2753.49378460448 235 234 239
-54.0092128909011 781.033022012557 2753.84029744573 240 239 244
-43.7589649234753 781.588629842373 2752.89231948436 240 239 244
-30.2982548743334 783.020737806821 2754.44971340943 241 240 245
-12.0054950160284 785.765281167461 2759.75068772311 239 240 244
3.94984636578721 787.842242263313 2763.11181446845 239 240 244
16.7467990019539 789.035173650926 2763.92279979991 237 238 242
29.5799290005982 790.222933547604 2764.70246242231 238 237 242
43.2558477577847 791.624022900284 2766.0735282259 237 236 241
54.5454168943271 792.364419050161 2765.54711220132 235 234 239
65.052112016915 792.882818073126 2764.37741889953 235 234 239
73.143851844562 792.74461580736 2761.33501081998 232 231 236
82.062232779267 792.822097284738 2758.89798641575 231 230 235
90.9961966340447 792.897240642035 2756.44747088565 232 231 236
99.9460211253136 792.970128251103 2753.9832229891 233 232 237
113.016936038337 794.123589619505 2754.55701113445 232 231 236
124.477727017966 794.839370024564 2753.88235049461 240 239 244
140.917401141343 796.847152810868 2756.82413692088 244 243 248
157.409503052005 798.847575636973 2759.72052999213 245 245 247
174.783242212028 801.056156020285 2763.17468837523 241 243 242
-194.329727844052 799.435684841449 2900.48541593798 117 118 112
-193.214221863485 797.319228924522 2891.59208523702 213 213 213
-187.688730345747 796.557136780353 2886.80788150321 216 216 216
-183.646058156734 795.344733029027 2880.66528686716 213 213 215
-181.098662571469 793.683732999972 2873.17477186868 213 213 215
-177.822885524568 792.24895461127 2866.37473742627 216 215 220
-176.054762190583 790.367186902662 2858.23749989371 219 218 223
-172.808669416006 788.935687505711 2851.46317262916 220 219 224
-171.078228663518 787.058358016206 2843.35888269755 220 219 225
-166.354837770319 786.076618477139 2837.94805085468 221 220 226
-163.902899840006 784.426056231065 2830.539889287 218 217 225
-157.679706791623 783.89104589727 2826.47306744714 215 214 220
-153.732064165557 782.687824553694 2820.41246333402 217 216 221
-148.269754833767 781.929689900937 2815.68299622718 225 224 229
-145.099238353019 780.505673599958 2808.97412516241 233 232 237
-137.346900315392 780.412520338259 2806.22559689526 232 231 236
-130.350637503926 780.096096477095 2802.81057213038 234 233 238
-127.196154383964 778.673221348123 2796.11559036089 233 232 237
-123.282730259856 777.472572132077 2790.08462798593 230 229 234
-116.282081309866 777.154539518091 2786.66581202189 220 219 224
-108.498009927179 777.055196321364 2783.88981943487 218 217 222
-102.258392850564 776.514179113255 2779.80848571124 222 221 226
-96.795373827443 775.752774918193 2775.07842467614 224 223 228
-90.5508693067945 775.210500648893 2770.99286297487 225 223 228
-81.9503798613543 775.32450500549 2768.8311298817 228 226 231
-76.4790253970617 774.561020085222 2764.09385770326 229 227 232
-71.0081952073587 773.797485997461 2759.35704025107 231 230 235
-67.1184992942053 772.597419500683 2753.34695570625 234 233 238
-57.6915233578861 772.923475366344 2751.79076383676 239 238 243
-49.038833169873 773.028914926387 2749.5841574966 239 238 243
-32.4065553335671 775.304890721575 2753.68053033653 239 238 243
-17.3147108856129 777.138770774658 2756.46807969876 237 238 242
1.82814476406534 780.049329842043 2762.35474603275 237 238 242
17.8295333452745 782.084277761288 2765.67623426166 235 236 240
32.2741796140589 783.679446058223 2767.70301953507 237 236 241
44.3431797303955 784.62062421947 2767.82300246364 236 235 240
53.2097704032979 784.694802144932 2765.43120346084 233 232 237
63.7131838260592 785.197212111528 2764.26414262288 233 232 237
71.8024418906844 785.051139663015 2761.22393657553 230 229 234
79.9032974878475 784.903325698755 2758.17368981493 229 228 233
88.832565548385 784.968202162508 2755.72731082821 228 227 232
97.7777607407622 785.030836119799 2753.26745726818 231 230 235
110.02193692947 785.94668635568 2753.23577292378 230 229 234
123.121211615332 787.07153559553 2753.78516604194 237 236 241
139.556419116908 789.044527181065 2756.73104929772 242 241 246
156.870951435239 791.223173092531 2760.2367183548 243 242 247
175.071191548628 793.606576035218 2764.29696218379 240 242 241
152.609068411766 785.571611105612 2738.82341817839 243 245 244
-202.202956385326 789.914986378702 2894.13756521828 178 179 174
-198.158572401163 788.708759917708 2887.99344687884 212 212 214
-192.644992217269 787.948451549384 2883.21955556731 207 207 209
-187.131910875566 787.187671385345 2878.44609967748 213 213 215
-183.848567019619 785.760497571759 2871.63945753185 217 217 219
-180.578018756087 784.334627756739 2864.84389733615 221 220 225
-178.81470394495 782.467161666318 2856.71073484834 223 222 227
-174.824533442769 781.265720997657 2850.61357427037 224 223 228
-173.097066858193 779.40236400802 2842.511456102 220 219 225
-169.130488289172 778.203321980418 2836.43472795724 221 220 226
-165.928156768673 776.784662773602 2829.69824693983 225 224 230
-158.951781777727 776.467421640526 2826.30014944696 221 220 226
-154.245935372951 775.489661770864 2820.90449825448 220 219 224
-149.544736933809 774.512108646555 2815.51287428118 226 225 230
-145.611901045061 773.315612356233 2809.465060121 241 240 245
-136.328652628316 773.652063495193 2808.03369021016 237 236 241
-127.793324848278 773.766818524731 2805.92843021022 229 228 233
-124.629792552233 772.350929135065 2799.22555992678 203 202 207
-120.707578305648 771.154366123052 2793.18695235801 206 205 210
-116.020187613026 770.176516606652 2787.80729797556 216 215 220
-109.010096042078 769.851463268148 2784.380343247 220 219 224
-103.548287950126 769.090521581875 2779.65132877239 219 218 223
-96.5273858646509 768.763151771843 2776.21470368026 219 218 223
-90.2806356615797 768.217902392166 2772.12753035695 224 222 227
-82.4627629395205 768.10446301989 2769.32201676485 226 224 229
-77.777072411501 767.125045882075 2763.94384613439 227 225 230
-72.3081786022668 766.361652797255 2759.20870609905 228 227 232
-67.6298749660584 765.38275137395 2753.8369346114 230 229 234
-61.3721562384058 764.834565381576 2749.73995799006 233 232 237
-48.7575017617856 766.004737062171 2750.70909517249 233 232 237
-33.7181503811261 767.813467675576 2753.54230513198 234 233 238
-17.8321276894602 769.829577430946 2756.96390719591 234 235 239
-4.29463105801409 771.196009607661 2758.45517301078 234 235 239
14.0972289514441 773.839174328783 2763.67091059745 234 235 239
27.7273210468239 775.192238241867 2765.08200722209 235 234 239
40.5912546423362 776.326503566121 2765.83531790603 234 233 238
48.6404770057676 776.178097469839 2762.82982736207 230 229 234
59.9432924269623 776.878322686483 2762.2921906151 230 229 234
68.8364255086316 776.937585422397 2759.87716749052 226 225 230
80.1891264006187 777.630695480898 2759.29665483214 226 225 230
89.9363195422978 777.896200335644 2757.46331157275 225 224 229
99.7034252033502 778.158866079596 2755.61304332742 229 228 233
109.490175906807 778.418684340689 2753.74545095662 229 228 233
122.587796957268 779.51926283389 2754.29643461506 235 234 239
137.370894123577 781.03591404256 2756.0303811228 239 238 243
157.159083732499 783.808280250668 2761.35829329838 241 240 245
171.214243841846 785.100745986345 2762.40136087413 244 245 247
186.140529349736 786.597297595065 2764.01164665813 239 241 240
-194.324359582561 787.604967192685 2912.46772080523 124 125 120
-198.317386747957 783.973915027322 2898.74849689701 207 207 205
-194.996812316401 782.551249217158 2891.90955646129 207 207 209
-193.16649197033 780.690112446844 2883.71859236656 208 208 210
-189.134764103925 779.490119556608 2877.58508763277 213 212 217
-186.597410196812 777.852270422025 2870.10312609931 217 216 221
-182.58721651263 776.654339166247 2863.98827245585 223 222 227
-180.07960045047 775.019656465778 2856.53206526296 227 226 231
-176.839890197581 773.605365537543 2849.76315844807 222 221 226
-174.364042944996 771.974242556608 2842.33446335729 224 223 228
-170.398993418641 770.780833892321 2836.25870847159 219 218 223
-167.19781563646 769.37047458054 2829.52317365713 224 223 228
-161.737839064194 768.613552376608 2824.79572058012 225 224 229
-157.796834323602 767.422266219489 2818.74110793347 225 224 229
-153.103529990402 766.448448887288 2813.35598634467 229 228 233
-147.651463475134 765.691394219252 2808.63539005676 240 239 244
-137.60765698575 766.231169012507 2807.86676045618 234 233 238
-129.074618665312 766.335475052919 2805.76386803572 213 212 217
-125.1429205599 765.143503680134 2799.71701071167 194 193 198
-121.991502078826 763.737090764729 2793.02457849931 207 206 211
-117.305725841867 762.762213433411 2787.64630416377 219 218 223
-111.073585737938 762.217112835918 2783.57147746159 216 215 220
-105.615534517795 761.456796865592 2778.84571514817 221 220 225
-97.8190948648132 761.338840228622 2776.05912315227 223 222 227
-90.7926466361872 761.005056521595 2772.61804809357 225 223 228
-85.3263315899451 760.242609584401 2767.88513703374 224 222 227
-80.646634317584 759.266612362141 2762.51182329941 224 222 227
-74.3956099822127 758.71731398065 2758.42097166964 225 224 229
-68.1413249608176 758.167075191476 2754.32698446711 227 226 231
-61.88367285593 757.616143407392 2750.23008338292 229 228 233
-50.8585104789954 758.33771108507 2749.93296020984 233 232 237
-36.6212204665306 759.902796858808 2752.13997905229 234 233 238
-19.9455857040083 762.096279411441 2756.19930744408 228 229 233
-4.81382932712648 763.858969562039 2758.95272501523 231 232 236
12.7729733885578 766.2479115431 2763.54462119345 233 234 238
25.5951534698577 767.363605862842 2764.33424148954 235 234 239
40.0657686830601 768.894971507881 2766.33893198816 233 232 237
49.7311451045599 769.158880958539 2764.57682807211 226 225 230
61.8471088990113 770.049598341738 2764.65643287987 225 224 229
69.9332818734968 769.887472669758 2761.61900481633 226 225 230
79.6599807735272 770.142464981675 2759.80380828722 224 223 228
89.4063116001549 770.394431918543 2757.97130015332 223 222 227
99.1725593180921 770.643619042014 2756.12186285992 225 224 229
108.137902004125 770.681359625562 2753.64439253978 229 228 233
119.586672752555 771.341567519344 2752.98051037763 228 227 232
132.712519089582 772.413551995464 2753.50721545561 233 232 237
149.180910520479 774.310989765277 2756.42482659767 238 239 243
166.530376330442 776.408336717024 2759.90074436116 231 232 234
184.766923573054 778.704783871721 2763.92976745904 239 240 242
-197.780868693523 779.416825365206 2910.22330185624 195 195 193
-198.106814867171 776.910638884154 2899.93501775646 212 212 210
-197.729388540933 774.6258598294 2890.3592370879 208 207 212
-196.642564425695 772.561894114044 2881.49042585277 210 209 214
-192.618103269952 771.368531339651 2875.36349198784 216 215 220
-189.345232559868 769.95911688532 2868.56581221309 218 217 222
-185.340419567401 768.767419783224 2862.45558181107 221 220 225
-183.584539611109 766.928405019377 2854.32899452674 222 221 226
-179.603372124431 765.738994000702 2848.23924372063 218 217 222
-175.630717922942 764.550512131118 2842.15718117675 226 225 230
-170.914173272549 763.577816908471 2836.75190909837 217 216 221
-167.712073990008 762.175657674711 2830.01552244971 220 219 224
-164.522844378274 760.774872301936 2823.29028150468 226 225 230
-162.105480320535 759.161087356358 2815.91216355012 228 227 232
-158.182797557538 757.977358972245 2809.87338224547 238 237 242
-150.453255396088 757.863321196958 2807.14474731577 215 214 219
-141.181732601346 758.174260696745 2805.7233902262 196 195 200
-130.355861555802 758.908474216491 2805.59891806812 171 170 175
-125.656118518538 757.935129466857 2800.20852827356 214 213 218
-119.418635537555 757.387273206199 2796.12908856456 215 214 219
-115.497571470814 756.201547026003 2790.09172318791 214 213 218
-110.034585270046 755.440925771409 2785.36168552764 216 215 220
-105.349798400881 754.468255498961 2779.98393889809 220 219 224
-99.110551956811 753.918866451083 2775.90329617759 222 221 226
-93.6494512717152 753.157540942986 2771.17489732511 222 220 225
-88.1890448776694 752.396009505256 2766.44710157407 222 220 225
-84.3006257413297 751.212980657566 2760.43769774038 222 220 225
-76.4825477607154 751.082707825357 2757.63243083739 223 222 227
-68.6528629489906 750.950512566632 2754.81711633404 225 224 229
-60.8116117629782 750.816460215944 2751.99178887236 228 227 232
-49.7835361007999 751.518591754494 2751.69226659692 231 230 235
-37.1358590037874 752.634970023414 2752.63313046992 232 231 236
-19.6649313478949 754.999670572905 2757.32530129977 226 227 231
-4.53307479958642 756.72967158031 2760.07915938805 229 230 234
9.84506766290494 758.244445877153 2762.16410685595 232 233 237
21.0514847515357 758.920583662632 2761.71017809596 233 232 237
34.7039221650558 760.215962223189 2763.10228103271 232 231 236
48.3965403710314 761.505510372504 2764.45959561356 226 225 230
62.1293032845758 762.789352742526 2765.78215230697 225 224 229
69.4049417262925 762.412009222258 2762.12537740222 224 223 228
79.9449769928122 762.860043488781 2760.92724296466 221 220 225
90.508754013376 763.304640872722 2759.70855296656 220 219 224
102.732873813795 764.157856319392 2759.69465808981 223 222 227
110.887436029262 763.977657411569 2756.59807172791 228 227 232
119.053689806718 763.795764211081 2753.49136284803 228 227 232
131.353392002675 764.638202000609 2753.41202783178 231 230 235
150.296649275856 767.115663034776 2758.15092335426 237 238 242
170.132879211811 769.78861624096 2763.43784145033 232 233 237
191.69894505344 772.860671303883 2769.8696996558 235 236 238
209.179028690003 774.901561630099 2773.23277209432 239 240 242
-198.306980678008 772.110360055074 2910.72664810127 211 211 209
-197.162343503659 770.055736012789 2901.80766767547 203 203 203
-196.042758215127 768.004126428795 2892.91038108582 209 208 213
-196.424970435457 765.526499738171 2882.67099523585 212 211 216
-194.619269796041 763.695545235255 2874.50085883113 217 216 221
-191.349512173825 762.29487420304 2867.70582062394 219 218 223
-188.092588137529 760.89545239986 2860.92189765193 219 218 223
-184.848306004102 759.497455866781 2854.1492381486 219 218 223
-180.868457834596 758.313791936512 2848.06059360084 216 215 220
-176.146518168352 757.343686095168 2842.65094420189 228 227 232
-170.676595647827 756.586262861758 2837.91487386071 216 215 220
-167.471593100999 755.19185716036 2831.17592060545 210 209 214
-164.279411024283 753.798878580189 2824.44807006469 216 215 220
-161.100098618373 752.407273861003 2817.73136522755 227 226 231
-154.890080886188 751.862397752844 2813.67571132544 228 227 232
-147.150598549834 751.73887679983 2810.93852234008 194 193 198
-140.164405239557 751.402549422652 2807.5323541491 173 172 177
-131.636629142128 751.485803257464 2805.43384359245 175 174 179
-126.169489201468 750.72564067736 2800.70020276429 212 211 216
-119.16058353448 750.385116755519 2797.27437615108 210 209 214
-112.917522569977 749.833395218462 2793.19012685034 210 209 214
-109.771790655439 748.443498184725 2786.50251636627 213 212 217
-104.307122821541 747.682351031198 2781.77102458196 216 215 220
-99.6224488377333 746.712173491027 2776.39367515409 214 213 218
-93.3798339420084 746.159314303292 2772.30981984921 219 217 222
-88.7005158853897 745.189259192213 2766.93711180261 219 217 222
-83.2405304379091 744.427544899307 2762.20968208599 218 216 221
-76.2063623975759 744.080841894777 2758.76168419352 218 217 222
-69.1644752600693 743.732941886047 2755.30731915154 219 218 223
-59.7405992524616 744.004978693712 2753.75416414652 222 221 226
-49.5032102379094 744.480775489078 2752.81816419215 223 222 227
-38.4463813286842 745.159631664765 2752.4938712689 223 222 227
-24.1707272201905 746.65924551281 2754.66806283004 220 221 225
-9.05137518447185 748.35839013379 2757.43264346616 222 223 227
6.91821828157346 750.256228697848 2760.78257813629 228 229 233
21.3326781144199 751.735831873458 2762.83659145647 231 230 235
34.9853901495081 753.003925242187 2764.22863317756 232 231 236
49.4860892543008 754.471113727693 2766.20766475557 224 223 228
62.4112395985206 755.522876046976 2766.90845130452 220 219 224
71.3125159895469 755.548284375191 2764.48658945841 220 219 224
81.0434712745338 755.775313296048 2762.66756945809 219 218 223
87.5301420567158 755.184818036334 2758.37274153945 215 214 219
97.2924020400567 755.407211902956 2756.5266186671 217 216 221
106.254274905614 755.423681092142 2754.05229360425 224 223 228
114.409807172431 755.235147140514 2750.95492047526 226 225 230
127.522170110568 756.259960557884 2751.49361776934 228 227 232
144.801682124642 758.290912399658 2755.03059724416 228 229 233
167.107303838425 761.525522381953 2762.14366330438 232 233 237
189.494110240018 764.748921865596 2769.18675183467 221 222 226
206.96741919411 766.752577057162 2772.5559374186 241 242 246
-204.689775325585 763.101648556286 2905.7301888088 209 209 209
-201.357630005303 761.702516782997 2898.88106696676 210 210 210
-200.982885955934 759.456426104413 2889.30736042233 209 208 213
-198.422700350441 757.849158219004 2881.80541166796 211 210 215
-194.398833193913 756.666774722633 2875.67892149751 213 212 217
-191.126073906021 755.27396374326 2868.88123070544 213 212 217
-188.610633178379 753.671382025595 2861.41771806571 212 211 216
-186.111958599351 752.070780996438 2853.96903992757 210 209 214
-182.13325555171 750.892803006053 2847.88166656591 221 220 225
-177.413046037171 749.925602847784 2842.47318240989 230 229 234
-171.944840679961 749.168530639696 2837.73859812122 219 218 223
-167.986263525898 747.99206531038 2831.66865879285 204 203 208
-162.523346298041 747.234806970087 2826.93865912212 209 208 213
-157.060993246894 746.477265291295 2822.20915027966 227 226 231
-150.077915210872 746.136724020791 2818.80539400214 201 200 205
-144.61268708317 745.37795674469 2814.07340116939 178 177 182
-139.148139576009 744.618861925584 2809.34200037741 165 164 169
-131.383581322859 744.482981035205 2806.58315728632 189 188 193
-123.607375781776 744.345112383758 2803.81423195285 204 203 208
-116.590462568788 743.998060431971 2800.3815072135 204 203 208
-111.11201100118 743.235655863913 2795.63807671981 209 208 213
-107.95933686219 741.853028315841 2788.94440205382 211 210 215
-103.265344043709 740.884590102708 2783.55896438609 212 211 216
-98.576325914884 739.916500210893 2778.17752069073 213 212 217
-93.1107199396006 739.154567968559 2773.44522087296 216 214 219
-87.6458038834311 738.392489093988 2768.71351998306 216 214 219
-82.1815148751739 737.630195234048 2763.98236397123 216 214 219
-74.3560233114353 737.482575078521 2761.17078386036 216 215 220
-66.5188981302718 737.333088775296 2758.34913256778 216 215 220
-59.4615569462871 736.977418360462 2754.88142330065 217 216 221
-48.429721208429 737.640896032562 2754.57889251048 217 216 221
-38.9609630307772 737.892575695525 2752.98696843022 219 218 223
-26.2823254362439 738.955438261973 2753.90134451025 217 218 222
-11.1690016531498 740.622898722404 2756.67167087659 218 219 223
4.79417951205274 742.486267999401 2760.02738668018 227 228 232
21.6133191423995 744.544784337062 2763.96320882925 232 231 236
34.4606637976312 745.583309942064 2764.73151813978 233 232 237
47.3439312610897 746.616556368198 2765.46841055755 222 221 226
59.4537080481561 747.442733462326 2765.55411160253 217 216 221
69.1599335216448 747.65979805415 2763.75659038783 220 219 224
79.6997783204527 748.075160121497 2762.55883275214 221 220 225
87.0001964310738 747.683280771663 2758.8806746102 214 213 218
95.9436690182223 747.691508329413 2756.42235113601 215 214 219
104.08301503785 747.497129457146 2753.3390450845 221 220 225
113.87774344248 747.7011972744 2751.46489941761 225 224 229
124.516361329966 748.102239355713 2750.18162438947 225 224 229
144.265265121868 750.694847973598 2755.54475182843 225 226 231
165.739134082108 753.676375000703 2762.05710700891 231 232 237
188.950144145143 757.044941140847 2769.70814878873 219 220 225
203.092161264388 758.216118017526 2770.67672022679 232 233 237
218.108480554708 759.580091352615 2772.209514093 237 238 240
-199.802555746056 759.729164376804 2921.36660435732 132 132 130
-200.823339167717 757.073923543665 2910.35826567984 205 205 205
-200.413586292268 754.842581179373 2900.75412015804 211 211 211
-200.03299834119 752.614807182489 2891.17522980139 208 207 212
-197.467585831615 751.01779455143 2883.66868424707 208 207 212
-193.439050141946 749.840209781475 2877.53780108242 209 208 213
-190.903353062945 748.246360565953 2870.05699046088 208 207 212
-189.12883290108 746.446134759134 2861.91368017411 207 206 211
-186.629022042144 744.856339874867 2854.46394715724 207 206 211
-182.649602975118 743.683774984866 2848.37591811881 203 202 207
-177.178475559463 742.926728461954 2843.63880101062 222 221 226
-172.460355019781 741.962205075954 2838.23211009864 222 222 224
-166.992404409912 741.204747971873 2833.49774910279 206 206 208
-160.012151756797 740.85999816153 2830.09678447049 208 208 210
-152.265862689656 740.720109903495 2827.35380190743 173 172 177
-144.50790829214 740.578171568416 2824.60072186778 135 134 139
-142.076285171119 738.994445548928 2817.21005028794 164 163 168
-138.13253420216 737.823487971699 2811.15261014391 183 182 187
-131.897552690746 737.268722360951 2807.07538332125 193 192 197
-122.584222338529 737.532372995085 2805.61841206474 194 193 198
-117.104861634653 736.770325081645 2800.87419127884 194 193 198
