ply
format ascii 1.0
comment KinectMotionCapture
element vertex 756
property float x
property float y
property float z
property uchar red
property uchar green
property uchar blue
end_header
-89.5256176650898 1091.79528002 3517.07268508435 130 110 99
-84.1840388326145 1090.35405299359 3509.80576415228 126 97 81
-83.4002003101006 1086.96639120097 3497.23804087547 139 106 87
-78.0892023765376 1085.52776319934 3489.99729315311 111 75 59
-76.0563651883697 1082.70169257342 3478.99021597034 104 72 57
-70.7716005828045 1081.26536204091 3471.7725062415 107 84 70
-66.8114163472291 1079.27520140038 3463.05929399382 61 42 28
-68.1487733731045 1075.07258528217 3448.36558545232 30 22 9
-58.9396696668518 1075.29973578395 3445.67561131308 27 20 10
-48.3855236833235 1076.07632163436 3444.46311758743 22 19 10
-17.1507186909876 1085.40300634634 3466.29447513826 18 21 14
-101.048892236813 1043.68300164987 3347.39567548547 14 21 14
-56.6274426813065 1054.88910307414 3371.0190707974 18 21 12
-2.13534119402103 1073.5135616957 3417.62658398835 13 19 9
-54.573882916507 1048.76053409875 3348.10513849676 10 16 6
-81.3664653733728 1090.59802713178 3541.76939777742 135 124 120
-86.9469916195347 1084.46386366349 3521.50214034981 124 106 96
-84.8327935343103 1081.64797586122 3510.42447876813 130 104 89
-79.4984906916643 1080.2124974003 3503.16351143428 132 103 85
-74.823983400317 1078.50215562986 3495.15293286982 131 96 76
-76.0462168682734 1074.31862765858 3480.35900339809 133 98 79
-73.3819985797535 1071.78887569051 3470.12634175357 133 104 86
-69.4266446610317 1069.81026483929 3461.41724127221 110 85 65
-61.5275222783405 1069.47783083601 3457.21977941017 50 31 14
-64.8748044186753 1064.48876828797 3440.30282776176 52 36 21
-51.0172474190496 1066.61911606447 3442.83531194391 39 27 13
-45.774423928751 1065.19026807986 3435.65359008728 35 29 17
-77.8262047151914 1041.56411621189 3361.68877468843 16 16 4
-76.8075705553528 1038.52370431089 3350.23855627727 14 12 0
-73.116154941816 1036.57455223737 3341.7583452314 26 26 16
3.82793598976994 1063.95961130548 3412.51990714218 13 15 4
-58.215927929802 1091.94313269105 3570.65940143008 134 123 119
-85.0160193165044 1076.83095411132 3525.17131769204 119 102 94
-82.8917354083374 1074.03281172481 3514.08479937435 125 99 86
-77.5483298735669 1072.60143725987 3506.81591581605 131 102 84
-70.258028804735 1071.98817346205 3501.82470018252 137 101 79
-76.6901540930003 1065.65693615043 3480.97325491354 139 103 81
-72.7129529567088 1063.68714298786 3472.24547703743 132 101 80
-68.7520310624135 1061.71876365517 3463.53179980385 128 100 79
-60.8486935357178 1061.38025246428 3459.33072390531 76 53 35
-61.5410759645485 1057.51537765573 3445.39874948436 57 36 19
-60.2866684344385 1054.46844807375 3433.744535566 38 22 6
-52.4058767125046 1054.13079506148 3429.56267985298 40 27 11
-45.8527343347215 1053.25084857993 3423.88853787933 34 22 6
-33.9392961350335 1054.53033552023 3424.1414751762 24 15 0
-19.3048396158879 1056.88360479018 3427.32240895472 23 15 2
-27.5415319684811 1050.06777364664 3405.39166526071 19 13 1
-45.6417993490583 1035.93291837176 3360.29699452397 23 19 7
-9.25548717011981 1046.88195613474 3386.91629986959 24 22 10
-67.6008118147653 1075.67025894459 3547.13859673587 126 113 105
-77.7158451575755 1067.74668967807 3521.54969786366 102 83 69
-70.4050458803476 1067.12848725657 3516.54043218567 115 89 72
-69.6038944646737 1063.81107595057 3503.95724797715 144 108 86
-73.4135434704051 1058.61128962365 3486.11915093381 151 115 93
-71.3892047509508 1055.84265650076 3475.11906748289 140 105 83
-68.7359528033138 1053.34627851911 3464.89537898309 143 111 90
-62.1496824244363 1052.46468528966 3459.19253445108 118 87 66
-61.5179161661725 1049.16651436527 3446.75635328166 109 81 60
-57.6048151089781 1047.21329632125 3438.08371032813 90 63 44
-53.0422298818434 1045.52940563695 3430.16996723601 83 58 38
-46.4885719733426 1044.6493897281 3424.49537888325 68 43 23
-37.2554776114473 1044.83799872753 3421.78517644317 51 28 10
-25.3186943433525 1046.09192212717 3422.01772986965 47 26 7
-11.3273907872844 1048.14087628635 3424.4345030237 43 25 11
0.681171640522837 1049.38377789293 3424.60522980673 39 21 7
-34.7391947419298 1031.98592601909 3373.36990422005 32 20 6
-67.6132345584017 1067.12375015167 3548.52800643627 125 115 105
-64.7786601082405 1064.62277551743 3538.14718899239 102 84 70
-67.8107994001529 1059.71799134509 3520.9565455836 112 89 73
-68.2993822197244 1055.88929184633 3506.84801181176 146 114 93
-71.4458104046689 1050.99842417442 3489.75665202821 151 119 98
-69.4115183690971 1048.2474722292 3478.74751159313 147 115 94
-67.4056486361998 1045.4998311797 3467.76329984756 145 114 94
-63.4502103564549 1043.55333015228 3459.05423368786 133 102 82
-60.8340309541253 1041.0766168984 3448.8625498677 132 101 81
-56.9153547476242 1039.13368929299 3440.18532356241 121 93 72
-52.3475488312881 1037.45735982229 3432.26700651446 112 85 64
-47.1244940796396 1036.0468044144 3425.10230039784 97 70 51
-38.5614140585093 1035.95992784366 3421.6510322387 90 63 44
-24.6125433802611 1037.9856337923 3424.10504965501 85 59 42
-14.6611835088417 1038.4198901897 3422.09365423806 56 34 20
-4.68921676239864 1038.85085464935 3420.06473494651 48 26 12
-2.83076500703894 1036.11600003339 3409.20821280455 39 23 8
-45.056596056356 1067.8538875897 3576.61348778564 101 93 80
-71.9035894972113 1053.17088163888 3531.16327469449 107 95 79
-60.6759541076016 1054.13227429578 3530.68910681169 104 91 74
-68.2982036333062 1047.42125869799 3508.22512422637 143 120 106
-73.3981997494211 1041.77793808917 3488.86176977358 145 121 109
-74.6414427883515 1037.72701284265 3474.08519078324 138 114 102
-73.3050826433317 1034.73647840751 3462.35958014582 141 118 104
-70.6831531808163 1032.27611822944 3452.16280657348 143 114 96
-67.4245598163004 1030.08134009752 3442.73575340649 133 104 88
-62.196378504026 1028.67706328068 3435.56687874292 141 114 95
-56.3110701933422 1027.53567260005 3429.15000585307 142 115 96
-51.0973368614236 1026.13188204964 3421.99333510954 139 112 95
-43.8834965944692 1025.51434080703 3417.06810300645 156 129 112
-31.293653713206 1026.98890168783 3418.05677284082 157 130 113
-22.7081512872118 1026.88948355664 3414.58615164704 128 105 89
-13.4348749274982 1027.04882429256 3411.84099617136 128 105 91
-10.92152587914 1024.59679875492 3401.73827913817 121 103 89
-86.6318435990618 1035.11896771096 3501.69825574184 104 95 80
-87.1702967255814 1031.35657106264 3487.63251671347 134 117 109
-87.753682737429 1027.59956684601 3473.60568768882 134 115 108
-87.0723628376511 1024.37015683738 3461.12579551182 147 128 121
-85.7709242606908 1021.40586216761 3449.4299671055 174 156 146
-83.1840140070201 1018.96652931482 3439.26372519547 210 192 182
-74.0114225382524 1019.13344081999 3436.60578787507 218 198 191
-64.8223921533306 1019.29741983742 3433.93362135774 218 198 189
-57.6123495817789 1018.67895276807 3429.01168685315 217 197 188
-54.4011414129653 1016.50231595851 3419.62590209513 210 190 179
-49.872066198267 1014.8460541805 3411.74102429929 206 186 177
-39.3137353319095 1015.52158745029 3410.52555820852 205 183 172
-30.7508428747476 1015.41706971843 3407.07456693297 186 164 151
-20.8250523647386 1015.82692251052 3405.08549153661 176 154 143
-12.2335847663568 1015.71717913925 3401.60976702132 169 152 142
-1.59146272716493 1016.37867336128 3400.32176708258 162 149 140
-134.031032996337 1014.67920005001 3474.09867358542 117 114 99
-132.689092241729 1011.73480493819 3462.36792704912 100 94 80
-119.057605075932 1013.72088772119 3465.09697341014 97 86 80
-113.187862798742 1012.591773991 3458.69351260608 135 124 120
-109.280009256487 1010.68623559316 3450.02542440992 175 161 158
-104.73378797186 1009.04071991344 3442.12561586398 230 216 213
-100.856456900082 1007.13791464088 3433.48396487937 241 228 222
-94.3603163094791 1006.26839944004 3427.85916080862 233 220 214
-82.5774942850375 1007.45939605116 3428.22556574621 230 215 212
-70.7616604452874 1008.645609791 3428.56370466285 233 218 213
-64.232571206519 1007.76950144374 3422.91038553816 235 220 215
-59.0374952307671 1006.37906290476 3415.76979927448 237 222 215
-55.1885732846307 1004.47601127241 3407.15277309664 237 222 217
-48.0007449942383 1003.85574494014 3402.25010416728 239 222 215
-36.7700307869296 1004.7703710711 3401.77357081076 248 229 222
-23.4851149768258 1006.44773234668 3403.48174267409 243 224 218
-8.12758360858634 1008.88516927317 3407.35867695387 228 215 207
0.490373401625721 1008.76299537937 3403.86007366329 202 192 183
11.8458000831847 1009.65807152906 3403.27557420697 163 158 152
-159.806607911798 999.527536135679 3458.16038462287 88 88 80
-153.996241385207 998.411067552143 3451.80798946239 181 180 175
-146.897013882086 997.808384718724 3446.9823155914 225 224 219
-140.441945337399 996.947694491822 3441.39305295311 222 216 218
-136.588400983691 995.06088605648 3432.77159959931 229 223 225
-127.531369748045 995.224278740899 3430.21416080161 225 219 221
-117.803535795387 995.640549115683 3428.39661988287 228 222 224
-109.368086757141 995.542354984549 3425.05604742231 224 218 220
-102.896023581567 994.676022439409 3419.45209148892 225 219 221
-90.4781264501944 996.103792465631 3420.59009609115 230 226 227
-77.3606457167695 997.780646299905 3422.44339324205 228 224 225
-66.1963523035527 998.687988267048 3422.0244763768 227 223 224
-59.6708230398533 997.811760485297 3416.3742435844 224 222 223
-57.1583168029841 995.411590102706 3406.27192102353 226 222 223
-50.6450942933325 994.535582422 3400.63235351096 226 222 221
-38.0754638494589 995.938846034056 3401.63900419942 235 226 227
-23.4441900716149 998.095556113058 3404.82365476984 230 221 222
-8.76363581260886 1000.2449929641 3407.96595481942 231 225 225
0.533268743524662 1000.36695665106 3405.2005621408 230 226 225
11.8898927786719 1001.24288763491 3404.61514895624 235 234 232
20.5423981218877 1001.10641939125 3401.08669401136 225 225 223
-195.699849013372 987.235888578171 3456.26595113022 117 117 105
-187.382834348046 987.151308622317 3453.02794177755 120 120 112
-179.053306977877 987.064504586047 3449.77910162592 186 185 180
-171.995287929611 986.465732234083 3444.98880375112 230 229 225
-163.644842030013 986.374733685894 3441.72185993867 223 223 223
-159.158475297272 984.756202739382 3433.87375462255 225 225 225
-154.035984230427 983.392629075503 3426.79622173625 219 214 218
-148.271540272304 982.282943815377 3420.48358536042 223 217 221
-136.640729490086 983.453651724068 3420.98219088977 221 216 220
-124.977152632107 984.619325917309 3421.45211398925 229 224 228
-113.936964806606 985.527032446619 3421.14076153543 223 218 222
-108.135031018331 984.409745465825 3414.79599614843 224 222 225
-101.676730732227 983.544607641919 3409.20396126423 223 221 224
-92.5684577303527 983.686824414583 3406.60193109347 223 223 225
-79.456513763863 985.336516937613 3408.46020316526 224 224 226
-67.6366297123732 986.477150828188 3408.79512697636 226 227 229
-61.1331190033648 985.603169684411 3403.16396389849 228 229 231
-53.95899009218 984.979298626617 3398.27319207221 230 230 232
-40.0534496689477 986.860623210752 3400.76538546003 237 232 236
-25.4279673918498 988.985617245472 3403.95557676592 236 234 237
-10.7533646271798 991.103217629669 3407.10324149066 236 236 238
-2.81864914868279 990.71530435233 3402.87497380733 232 232 234
10.5717288759357 992.321990212193 3404.492195757 230 230 230
24.6860686449581 994.171684385565 3406.8039357253 233 233 233
29.9397794895104 992.777900749244 3399.61255018955 227 227 225
-216.168403132042 981.119534467994 3472.72315597332 103 105 94
-207.241320147962 981.284954650729 3470.2780193451 164 164 156
-199.564660470275 980.941338236148 3466.27344636812 222 221 216
-197.600513756834 978.319964527909 3455.32426373487 228 227 223
-193.113891185522 976.712118751965 3447.4758674341 225 223 224
-184.800870144403 976.619273356277 3444.24137305933 221 219 220
-177.117062122747 976.272059271856 3440.23062766867 210 208 211
-170.712593117278 975.419500857144 3434.68516877545 227 226 232
-166.89146542192 973.560196281243 3426.0919493918 217 218 223
-159.846940253197 972.958629935208 3421.31336525258 224 219 225
-151.498122950629 972.857670063452 3418.04789755333 225 220 224
-140.528743042746 973.757245981378 3417.79796955344 224 219 223
-130.184596370386 974.401857360882 3416.76834497698 235 233 238
-121.784162936887 974.291970023107 3413.45819757194 224 222 227
-116.004060142515 973.180317932979 3407.13231737783 225 224 229
-109.567794761149 972.318087696822 3401.55936209636 228 227 232
-99.8201146733688 972.701802162917 3399.72483078205 228 229 233
-87.3944334184431 974.078219505225 3400.85642137127 226 230 233
-75.5983216643581 975.200293969891 3401.21175423971 227 231 234
-65.7745820814286 975.571751455794 3399.31169436541 228 232 235
-56.6009479424796 975.691571784379 3396.65315847728 229 232 237
-42.703220021544 977.544005404152 3399.15231045582 233 234 239
-29.4349852880642 979.141988293497 3400.87545478177 232 232 240
-15.4490682611432 980.981250054116 3403.29857095905 234 235 240
-4.81164719045646 981.578101435515 3402.01506440592 230 233 238
5.16942306064916 981.924096847594 3399.97848986835 229 230 234
18.5848666117425 983.499380366771 3401.5741901132 232 233 235
28.617087608362 983.837191931673 3399.49364993029 229 231 230
35.92198019652 983.187386554028 3394.48970857997 229 229 227
-227.100182978073 975.411644772277 3487.52846877273 104 106 95
-222.572939844251 973.809766822591 3479.64482649868 109 110 102
-217.428438923009 972.45991510347 3472.54781244905 223 224 219
-210.397625332468 971.862612960053 3467.7814005082 226 226 224
-204.629425752367 970.763261321718 3461.46544203768 219 219 221
-200.135839651626 969.163281023983 3453.61095922716 217 216 221
-196.929170615723 967.064508667812 3444.2286041352 217 216 221
-191.824281007733 965.716697724662 3437.16590941029 216 215 220
-186.085670998705 964.61871816382 3430.87590390636 217 216 221
-178.42001504227 964.267780369768 3426.88091569282 220 220 222
-172.037413294434 963.417448217626 3421.35439551157 221 221 223
-163.711412401061 963.312135180885 3418.10873182292 223 221 224
-154.723193616182 963.452673757206 3415.61076783208 224 222 225
-143.762908926627 964.334430739326 3415.36883845198 226 224 227
-136.043174642357 963.973036168043 3411.32704636806 227 225 228
-127.003344098482 964.104587980947 3408.78440684499 229 227 230
-120.578936356075 963.244793037351 3403.22171322467 228 228 230
-111.514336043032 963.371691572233 3400.65763500567 230 230 232
-103.095323073717 963.249181337274 3397.3314658458 230 230 232
-93.3357884034138 963.616986533789 3395.48676283117 229 230 232
-82.889437870814 964.227472666608 3394.36877562782 230 231 233
-71.7502934318954 965.079692694369 3393.9720134741 231 232 234
-59.9120610889137 966.173000850195 3394.29134083338 232 231 236
-48.0412197283204 967.261116783313 3394.58212291787 231 230 235
-34.7887953227941 968.834040551461 3396.31913300708 231 230 236
-19.4661067365653 971.13489832901 3400.22715181473 230 229 234
-8.83959566838355 971.71692993823 3398.95319738541 229 230 234
0.450280849753071 971.806723048738 3396.19410462608 230 229 234
11.1216700176628 972.381333474499 3394.88130082406 232 231 236
22.5021047483578 973.195429273895 3394.27565074733 232 232 234
37.3445843069917 975.221552339098 3397.27840339579 232 232 234
48.1036424575678 975.782140462128 3395.88970460013 232 232 234
51.2883557858097 973.66839675215 3386.52616081109 231 229 232
-226.043470049593 971.077007178307 3503.84431964273 117 117 105
-223.982669471277 968.484140261813 3492.81149441873 211 212 206
-221.950203930608 965.894430519768 3481.80320773179 217 218 213
-219.317057324067 963.556044998017 3471.59592145872 205 205 205
-215.445861122501 961.716407422445 3462.95917845839 209 209 211
-209.69133247067 960.621531860234 3456.65504006771 223 222 230
-203.940472580137 959.526513824559 3450.3543979604 215 214 222
-200.742699480149 957.44245157553 3440.97934246115 217 216 224
-193.728998581964 956.842243927315 3436.22778153362 219 218 224
-188.635284581888 955.500669027735 3429.17473270007 219 218 223
-180.975691705899 955.145098116265 3425.18502959901 220 220 220
-174.598743985177 954.295527400498 3419.66340503216 222 222 222
-166.926632852176 953.936930943864 3415.66255600055 224 222 225
-158.596461145441 953.822252950144 3412.4133380032 224 222 225
-148.950506777155 954.195854473067 3410.66735707143 225 223 226
-139.937739546931 954.320870294128 3408.14821664847 225 223 226
-130.25259455836 954.687876461216 3406.36831053548 226 224 227
-122.520402415875 954.31795495097 3402.31546051999 226 224 227
-112.800240253456 954.67886792039 3400.50524324783 228 228 230
-104.383365657744 954.548501144084 3397.1809784038 230 230 232
-95.9543004930556 954.415691928403 3393.84584786968 231 231 233
-86.8466581094456 954.52400047865 3391.24489951741 232 232 234
-77.0547769713157 954.872477984536 3389.37228590035 233 233 235
-63.2216907482683 956.674531544772 3391.92810713886 232 231 236
-47.9993424094371 958.955006721884 3395.92322652537 232 231 236
-34.746323638962 960.500722010224 3397.65989776874 231 230 235
-22.1287266091994 961.798092647848 3398.62534476934 230 229 234
-10.1523846112279 962.84824803733 3398.82524715735 230 229 234
-1.54511326375495 962.686012080885 3395.33616511792 231 230 235
7.0743296932223 962.521358435163 3391.83654917372 233 232 237
17.7591101967809 963.077075673784 3390.51194553522 233 232 237
34.646923806295 965.79430650543 3395.7075533767 232 231 236
51.5959121468681 968.502617898915 3400.84988116521 232 231 236
62.3910134171246 969.041284481614 3399.4300845543 232 231 236
57.9724201547003 964.300668707363 3382.11680594986 232 232 234
-232.906552034693 960.155894009134 3496.63001331568 98 98 86
-227.115581499687 959.061462829525 3490.2946020682 230 231 225
-224.462652200021 956.737480701531 3480.07007608956 215 216 211
-222.462811003234 954.170429811548 3469.08991926421 216 216 216
-218.598683345318 952.342501481541 3460.45891143569 210 210 212
-214.117555172388 950.761146698363 3452.61510566519 216 215 221
-207.10816189673 950.160081896062 3447.86728386332 224 223 231
-202.005844234648 948.82405557955 3440.80674197171 219 218 226
-196.272234982293 947.73285786768 3434.52102685678 219 218 224
-192.466065554665 945.909463317483 3425.94053964357 221 220 225
-186.746517803867 944.818639938188 3419.66669419895 221 221 223
-179.740082728127 944.214679781697 3414.92145513725 222 222 222
-171.434781486546 944.095805473468 3411.69382045822 224 222 225
-162.467671406792 944.217388224506 3409.21427497508 224 222 225
-152.181082747178 944.821422888002 3408.23480093529 224 222 225
-141.869918004027 945.421407022332 3407.23373665522 224 222 225
-130.878239210352 946.259553208823 3406.96519498851 225 223 226
-121.830694172548 946.367668670954 3404.41602090439 225 223 226
-112.766673456743 946.472966466915 3401.85258501649 225 225 227
-106.994552070721 945.369156382514 3395.53357177949 226 226 228
-97.9078697690374 945.470144698853 3392.95052220608 227 227 229
-89.4705104622728 945.32737754191 3389.60858288144 231 231 233
-80.3530474736212 945.422783308499 3386.9988907553 232 232 234
-67.8696705113904 946.715974106368 3388.08101371122 233 232 237
-52.661688069843 948.9629912331 3392.08880134628 232 231 236
-36.0525696436231 951.681201604701 3397.52564246041 231 230 235
-22.7621205071147 953.194029019241 3399.23008457437 230 229 234
-10.7868389531114 954.222528653815 3399.43104641712 230 229 234
-2.85989294466837 953.813324160703 3395.20965078036 230 229 234
5.07529334224444 953.402373385744 3390.98143982686 230 229 234
16.4396601670362 954.180605355277 3390.38994878025 228 227 232
30.5777019364259 955.905935622286 3392.68163574124 227 226 231
45.4491240487633 957.862226274998 3395.65975535385 228 227 232
54.1559855655005 957.674780784135 3392.0845182934 231 230 235
60.7976024234884 956.773756726362 3386.3338288908 232 232 234
65.3554995707992 955.161642164841 3378.42368401492 233 231 232
-244.920095983551 950.620266896822 3496.51734126384 118 120 109
-232.91779751364 951.968304157742 3498.01607683477 222 223 215
-233.994684492415 948.198119290377 3483.09349186284 222 223 218
-228.853900638946 946.865738137778 3475.9999018326 223 223 221
-227.493280277617 944.07618607754 3464.25164611004 206 206 206
-223.642046025547 942.260855715858 3455.63204733751 217 217 219
-219.806926602607 940.44709670085 3447.02640568426 215 214 220
-211.544089148525 940.329569364519 3443.8355671678 210 209 215
-203.905522361498 939.967907028639 3439.86412760639 221 220 226
-198.175478776611 938.879742419182 3433.5811678162 220 219 225
-194.372122371723 937.067625986259 3425.00304566844 221 221 223
-189.941947817297 935.498043869964 3417.20332694343 222 222 224
-182.298384466689 935.133073647761 3413.22757811596 221 221 221
-173.999341810998 935.006837787228 3410.00541568134 224 222 225
-164.389552127828 935.358578233569 3408.29060612956 224 222 225
-153.456579879576 936.186822129456 3408.0726961902 224 222 225
-143.801248310769 936.531253854599 3406.3187767227 224 222 225
-132.159428920145 937.590266464628 3406.80824897092 224 222 225
-123.771568450899 937.448895407824 3403.50920302121 224 222 225
-116.690258767298 936.827403692656 3398.69886553763 224 224 226
-110.927679691866 935.727573563369 3392.38809717401 225 225 227
-103.842168233667 935.104198493089 3387.57413006555 226 226 228
-94.0900515080094 935.431583641396 3385.73643388594 230 230 232
-82.3146437818036 936.468653221065 3386.11026251332 231 231 233
-71.1759252056718 937.263222527683 3385.71455856114 232 231 236
-55.306517259607 939.713379366661 3390.47100945848 232 231 236
-40.0534810133322 941.918337440231 3394.44001988526 231 230 235
-25.4231692847173 943.878570778151 3397.6267774725 229 228 233
-14.8109425909961 944.413658969554 3396.36550801849 229 228 233
-7.57402110008965 943.764263981222 3391.42047700202 229 228 233
-0.332949785649905 943.113733464963 3386.47217205543 228 227 232
9.64805519349321 943.403923755287 3384.43601571 227 226 231
25.1382444041601 945.57257239023 3388.19971242424 226 225 230
39.3053926106273 947.263522984772 3390.46671008398 227 226 231
51.4466664565099 948.243535618896 3390.52379912496 230 229 234
58.7748502539123 947.577658165816 3385.49977459385 231 231 233
71.6613446596281 948.783503361611 3386.23306717329 237 235 236
85.9770840795773 950.451426447505 3388.37110919325 230 230 230
-237.489005386953 945.346395783881 3507.31437614115 133 134 126
-239.77519074559 941.122659972165 3490.79635081999 216 217 211
-240.245186017466 937.628197203765 3476.6695406901 218 219 214
-234.495736948492 936.543946821156 3470.36973610504 205 205 203
-231.892239791387 934.258623206988 3460.18811974589 227 227 227
-226.791064237076 932.935506454428 3453.12848410584 211 211 213
-224.228099963179 930.654122113805 3442.98165801407 219 218 224
-216.612272432349 930.29061144184 3439.02993936063 202 201 207
-208.351332858032 930.164536428604 3435.84080119394 221 220 226
-200.716696696591 929.797272849701 3431.87248923037 223 222 228
-195.636572188855 928.473899189263 3424.83141646667 219 219 221
-191.207359618866 926.912531258046 3417.03247830003 218 218 220
-184.210751259804 926.304362755747 3412.29546816423 219 219 221
-175.915909439068 926.17042833631 3409.07699663111 222 220 223
-165.661634625056 926.746835538534 3408.12570918945 222 220 223
-154.731609220021 927.556372601476 3407.91047460578 222 220 223
-145.732027193759 927.650466244129 3405.40296264951 222 220 223
-134.750491326877 928.451868591899 3405.14313481019 223 221 224
-127.026016054912 928.066659596189 3401.09738785989 223 221 224
-118.634063561111 927.91581442067 3397.79485659794 224 224 226
-113.536273885488 926.583272431179 3390.73821669642 225 225 227
-106.456438657721 925.95804899267 3385.92949687122 226 226 228
-98.0419608551188 925.801992200798 3382.60716037303 229 229 231
-85.6103365814609 927.053824470879 3383.73440724866 230 230 232
-75.1502957091743 927.595813595857 3382.60499799812 231 230 235
-59.9648968739404 929.775146522195 3386.63279825183 231 230 235
-45.3997732508742 931.712441366592 3389.87652086817 230 229 234
-29.4343180910377 934.110138508822 3394.5500641331 227 226 231
-19.510815735281 934.39669439171 3392.56377092931 227 226 231
-11.6060130611553 933.979594888439 3388.36193438905 227 226 231
-1.64787894793061 934.260049592093 3386.34566413204 227 226 231
10.3823189885199 935.235460405443 3386.49937198906 227 226 231
23.1310260842963 936.438362490846 3387.35210885416 227 226 231
35.228396600782 937.403267606417 3387.44734838591 228 227 232
47.3585373010423 938.363182846896 3387.51453266883 228 227 232
57.444945586417 938.622709617469 3385.38721818958 229 228 233
73.1044960001186 940.730222973374 3389.00451961967 238 236 239
87.4247257969274 942.367478475235 3391.1388683953 232 232 234
98.9970378463036 943.074588103505 3390.36760462258 236 236 238
-246.805545253538 933.558365828979 3496.93882858963 201 203 198
-245.384289401697 930.806183582895 3485.13809126345 213 213 211
-247.740724679556 926.629135435964 3468.68033602231 207 207 205
-240.134285689855 926.264014596779 3464.73676518886 216 216 214
-236.917420067379 924.234272992014 3455.34480951497 210 210 210
-229.308271090946 923.867529585215 3451.39890035288 213 213 215
-226.117285769998 921.840037906957 3442.02967699985 219 218 223
-217.871250258241 921.708282419574 3438.85317801666 209 208 214
-210.248933877851 921.337909267263 3434.89587971311 221 220 226
-202.618159331905 920.965738293125 3430.93126206339 226 225 230
-196.900860361465 919.88402102772 3424.65930670968 218 218 220
-192.472605403978 918.330926578977 3416.86114492785 215 215 217
-184.18834050982 918.190930798763 3413.65188007495 219 219 221
-175.891557307222 918.048710183489 3410.43177957114 221 219 222
-165.635935139893 918.608467238387 3409.4794322233 221 219 222
-156.657286094614 918.695199308033 3406.99011133726 222 220 223
-147.661949182525 918.779107332517 3404.48666028994 222 220 223
-137.995351253973 919.094092647157 3402.72285116411 223 221 224
-128.96508887956 919.171897628106 3400.18885299824 223 221 224
-121.236320135521 918.780061920681 3396.13942768263 223 223 225
-114.821529760155 917.920005121973 3390.58507147684 223 223 225
-109.069787275154 916.82636538026 3384.2836554618 224 224 226
-100.661380408849 916.663183506513 3380.96694254587 227 227 229
-88.2373433988941 917.891462037668 3382.10060269164 228 228 230
-76.4454843158369 918.882202176498 3382.46078806547 231 230 235
-61.264208088347 921.026637687002 3386.49238766762 230 229 234
-48.049854045197 922.468746838613 3388.26324239031 229 228 233
-32.0928075469142 924.829488782798 3392.94431321505 227 226 231
-20.1434246126073 925.796178099668 3393.16780734195 226 225 230
-12.9179880893884 925.143022136806 3388.23307064386 226 225 230
-0.236019944559018 926.331773798512 3389.1434287389 225 224 229
9.74831880958194 926.594408885333 3387.1048769621 226 225 230
21.8099460623011 927.543047667809 3387.23120187158 226 225 230
32.5288076390926 928.027544044485 3385.87783596768 227 226 231
48.100667208375 930.113091058082 3389.57128454708 226 225 230
57.4989065556899 930.129482562016 3386.71874547288 226 225 230
70.38289937659 931.286737647736 3387.45452113093 238 236 239
81.9115832839996 931.981397575272 3386.72115211142 231 231 233
95.5627074771242 933.356062622026 3388.11387948508 233 235 234
96.653685280371 930.622308935161 3376.59928659779 232 234 233
-255.072237776546 925.519766341296 3501.50912120998 167 169 164
-253.63697845548 922.788035768895 3489.69611404631 204 206 203
-251.612283167729 920.295729308826 3478.69393094118 211 211 211
-250.863874909233 917.335635335633 3466.1541456976 208 208 208
-243.891724332685 916.73094025838 3461.43831149315 224 224 224
-238.171199435681 915.655398228253 3455.16383561011 213 213 213
-229.933960764559 915.517962711743 3451.99531348447 201 201 203
-226.741485525946 913.50392443117 3442.62471158789 230 229 234
-219.129763432458 913.129985278438 3438.67630332853 213 212 217
-213.418275836473 912.053145096084 3432.40966881119 218 217 222
-203.880775480144 912.376892567139 3430.75769641257 228 227 232
-196.243527663762 911.997801324548 3426.78751299019 217 216 221
-191.167699951145 910.685045000051 3419.74978009982 216 215 220
-184.810851093171 909.838121142332 3414.24555878805 221 221 223
-178.453803768321 908.990511808889 3408.74116989981 222 220 223
-166.907810369786 909.999151963387 3409.3143399074 221 219 222
-159.883444745541 909.379759576776 3404.5533442832 224 222 225
-150.243966294005 909.685483896077 3402.81341610722 223 221 224
-141.238702308573 909.756474798656 3400.30112909904 222 220 223
-131.560203737081 910.055484754519 3398.52710877893 225 223 226
-122.519735266688 910.1204992031 3395.98466301864 221 221 223
-115.445645646215 909.491116671332 3391.18063455598 221 221 223
-107.704352548615 909.090767266712 3387.12040910192 222 222 224
-101.284884431576 908.228643241343 3381.56201192497 226 226 228
-88.8621254469339 909.432660328043 3382.69693699598 228 228 230
-75.733245850309 910.8605293987 3384.54196776988 229 228 233
-57.1941304520993 914.114786649063 3392.27295118031 228 227 232
-45.313349006622 915.07023356138 3392.5559775345 227 226 231
-32.724456704031 916.249204542165 3393.54738669949 225 224 229
-20.7761455901219 917.194179750036 3393.77195051963 224 223 228
-9.47441945630212 917.906169579967 3393.23518166218 222 221 226
3.21875612545153 919.069000557947 3394.13630934833 222 221 226
11.8479723134017 918.861589505621 3390.62849966261 223 222 227
22.5458305348822 919.333164372737 3389.29342185342 223 222 227
31.2054689489756 919.120278931294 3385.75927960496 224 223 228
46.7732317337108 921.17098493758 3389.45650478538 225 224 229
57.5525252771643 921.629496770814 3388.05092870427 226 225 230
70.4371626843048 922.762149408107 3388.78598958789 230 228 231
79.8799097337142 922.76035241031 3385.89530746326 232 232 234
95.6189071105706 924.785003686725 3389.44428630303 230 231 233
103.712423854634 924.324501726168 3385.07885023127 219 220 222
-258.793047269504 915.945310618159 3498.1795033787 189 191 188
-257.365991647509 913.23648341681 3486.37345824149 207 209 208
-254.727975313879 910.99715255744 3476.16130932423 207 209 208
-253.985507522542 908.062411926336 3463.62650860677 207 207 207
-246.395365676854 907.688406906397 3459.69712066355 227 227 227
-238.168980900938 907.544805359754 3456.53773044221 213 213 213
-229.929819567356 907.398906509861 3453.36759671852 198 198 200
-226.733830281711 905.397989148241 3443.99386404719 226 226 228
-220.387968107861 904.555718850976 3438.49913513427 218 218 220
-214.677857153241 903.48169905455 3432.23367552531 216 215 220
-205.142918232835 903.792197317074 3430.58400907048 224 223 228
-198.147932133665 903.177300491048 3425.84844860534 217 216 221
-189.864084219324 903.02167068915 3422.63964647268 217 216 221
-183.500593869899 902.173792525569 3417.12967492548 219 218 223
-176.49046181395 901.554961809957 3412.38132791973 222 220 223
-166.882701772892 901.852539061189 3410.66862851058 221 219 222
-159.855984481794 901.230194980495 3405.90561373923 223 221 224
-149.562523337667 901.750900743849 3404.92072304344 223 221 224
-142.51693043674 901.124779243445 3400.1416880932 222 220 223
-132.840975258727 901.410477674803 3398.36995848265 224 222 225
-124.461607782046 901.236774012159 3395.07848323097 221 221 223
-114.087777352866 901.744081217061 3394.02402040998 220 220 222
-107.003074364281 901.109855855184 3389.21082434135 220 220 222
-99.9142477599282 900.474356525679 3384.39406244205 224 224 226
-90.1538014913048 900.745524643879 3382.54951103591 227 227 229
-76.3596072252501 902.373254903169 3385.13985543798 229 228 233
-57.8235545534658 905.578937727073 3392.87380818699 228 227 232
-44.597776715285 906.965131775036 3394.63512382716 227 226 231
-34.0312105247027 907.441692069956 3393.41380923469 223 222 227
-20.0547051225533 909.041995676803 3395.8463157474 222 221 226
-8.74974506692894 909.734446300824 3395.30687054823 221 220 225
5.30858030265025 911.322413593235 3397.66854069382 221 220 225
12.5795139626641 910.65624355246 3392.69445432343 221 220 225
21.910152406631 910.662216080229 3389.90057489728 222 221 226
31.2570140283532 910.665285174073 3387.09265307415 222 221 226
44.067192375663 911.784991232336 3387.89264970832 223 222 227
54.8396763470782 912.228131082223 3386.49307533889 223 222 227
66.3299820967804 912.89059048311 3385.79317870837 228 226 229
76.4575641272942 913.102412458324 3383.6304865925 229 229 231
95.6744390746831 916.207005788576 3390.77500126581 231 232 234
109.367486192126 917.520869847619 3392.13178652597 234 235 237
123.101204632788 918.828418231699 3393.45336141412 217 221 222
-229.502011542984 922.026394787312 3550.83057496857 186 191 185
-262.512076947054 906.396344061629 3494.84786223416 208 210 209
-261.093195774496 903.710356406067 3483.04875418527 201 202 204
-255.977679491544 902.409502379278 3475.97654465722 211 212 216
-251.493488208332 900.879057531561 3468.1297540813 211 211 213
-243.893052549983 900.49821658669 3464.19148841759 215 215 217
-236.284055952756 900.11574363787 3460.24581325587 229 229 231
-228.666676429192 899.731341030664 3456.29256930196 215 215 217
-226.094934571601 897.514050526738 3446.13772003323 202 202 204
-222.279777951884 895.756518170111 3437.54901650895 229 229 231
-216.573092645694 894.685774361007 3431.28650480413 214 214 216
-206.404750023395 895.211412676602 3430.41002686548 215 214 219
-199.411534039797 894.593999470817 3425.67601692934 214 213 218
-189.845734013485 894.885512047786 3424.00004058529 220 219 224
-183.479705235634 894.037292030213 3418.48787110615 215 214 219
-177.759720121514 892.961381293464 3412.21354994871 218 216 219
-170.098932196658 892.565525707914 3408.22307210154 217 215 218
-161.779594789908 892.394396857707 3404.98361038437 221 219 222
-151.490940271171 892.89934112552 3404.00298789846 221 219 222
-144.44930651192 892.270915961842 3399.22708389357 221 219 222
-137.40347488927 891.641206831496 3394.44754976971 224 222 225
-128.378116066499 891.686315583515 3391.91801356069 222 222 224
-116.694191304522 892.628890578697 3392.37206160158 220 220 222
-104.977554039416 893.566319300793 3392.79747437531 219 219 221
-97.2155014666916 893.151616155149 3388.71934895057 223 223 225
-89.4452346540233 892.735088151337 3384.63411577394 226 226 228
-77.6547253497335 893.660532284444 3384.99557865644 229 228 233
-59.7946482761547 896.594167341284 3391.99361024544 228 227 232
-43.8832884778413 898.84745791467 3396.71497566279 226 225 230
-34.6628944880649 898.860993313531 3394.01691557303 222 221 226
-22.7187632446877 899.763054070226 3394.24538032391 221 220 225
-10.0628592617467 900.882576330176 3395.17909328602 220 219 224
4.6727059364482 902.663349190386 3398.27578681626 220 219 224
12.6269748590926 902.216471930397 3394.03126906097 220 219 224
21.9593940327045 902.211365247535 3391.23591800598 221 220 225
31.3080376157315 902.203295078707 3388.42652387564 221 220 225
42.7406838736117 902.855995118978 3387.77698155297 222 221 226
52.8190965970703 903.062341792392 3385.65694172298 222 221 226
64.9978570043421 903.927017923161 3385.68260271003 226 224 227
76.5137000923994 904.56633562161 3384.96072190923 227 227 229
95.0320838417351 907.401973280825 3391.38881046536 230 231 233
111.521491779168 909.568074995001 3395.60972576883 233 234 236
124.56051063964 910.628037734605 3396.21176524286 222 226 227
-264.377315416843 897.557356036557 3493.87528657952 206 207 209
-264.199062401137 894.437584872903 3480.50744921893 199 200 204
-260.954881441597 892.460397785648 3471.09147780598 211 212 217
-254.613855113439 891.621773047615 3465.60091667104 211 210 215
-247.021565841129 891.236519661066 3461.66974036567 204 204 206
-238.165844332372 891.303096344565 3459.28709580151 226 226 228
-233.070578152641 890.007903852193 3452.23240107891 223 223 225
-229.246255179467 888.260635193861 3443.63568623758 196 196 198
-224.804452081689 886.740929265555 3435.82556543713 219 219 221
-215.924774655789 886.801786747075 3433.42250999192 215 215 217
-208.304094540154 886.409034669482 3429.466459401 210 209 214
-201.314699587811 885.789381283852 3424.73577580641 209 208 213
-191.75353869942 886.067864573386 3423.06390480006 218 217 222
-181.527800704117 886.567627857339 3422.13784789942 212 211 216
-174.507007390741 885.941769763313 3417.37999042339 216 214 219
-168.777787811213 884.866793506131 3411.09797488026 216 214 217
-160.452396661006 884.686585097449 3407.85332500181 220 218 221
-151.462533640528 884.727610969391 3405.35458073767 221 219 222
-147.035069145514 883.203248563499 3397.55691789373 222 220 223
-141.307374355049 882.125782774238 3391.27624007231 225 223 226
-132.950763387917 881.938675067905 3388.00457556396 221 221 223
-119.959751087432 883.306061189025 3389.96949281004 220 220 222
-110.901750996823 883.334497426978 3387.41177327921 220 220 222
-99.1697629390256 884.247461406407 3387.82403950127 222 222 224
-92.069888476904 883.604447938655 3382.99806623118 224 224 226
-78.2811094540419 885.172901532881 3385.59348833345 228 227 232
-60.4238926903791 888.060749553595 3392.59429575699 226 225 230
-42.4969860378037 890.938373925252 3399.53476669834 224 223 228
-32.5961151200187 891.16062787172 3397.56882116633 220 219 224
-21.3215076427455 891.81973726602 3397.05589968982 219 218 223
-10.6969925629192 892.254418264755 3395.78463009098 219 218 223
4.0367194700579 894.002802729946 3398.88313970373 218 217 222
11.3083090982231 893.331214479667 3393.9085198923 219 218 223
19.9535433577731 893.096434171146 3390.38700412163 219 218 223
28.61091331118 892.859420668676 3386.85498438002 219 218 223
40.7253324856902 893.712378235315 3386.93617264996 220 219 224
50.7993238636351 893.905688487659 3384.82036494824 220 219 224
63.665841892413 894.967360842507 3385.57159050237 222 220 225
74.483659310141 895.370320336973 3384.13298437524 223 223 225
95.0867502848491 898.812773457245 3392.72034819505 227 228 230
111.575977739186 900.940811872147 3396.94166658083 222 223 225
130.927672509966 903.927658109503 3403.97009107126 220 224 225
144.725833490631 905.171432641368 3405.23622454978 221 225 226
-266.459111558451 891.824710811038 3506.30351981105 191 196 190
-268.709996315766 887.826004254828 3489.75343999468 203 204 206
-267.922557707116 884.95976561957 3477.17921755877 205 206 210
-265.308240966114 882.772493536264 3466.98727258814 201 202 207
-257.109533422946 882.609226028039 3463.85231416804 205 204 209
-248.898171853404 882.443655521244 3460.70640297193 189 189 191
-242.555964088225 881.603554181524 3455.21482741147 196 196 198
-237.472001116001 880.315355747609 3448.17019977628 219 219 219
-231.133242946391 879.474521246703 3442.68161885519 204 204 204
-222.893874544563 879.30272368444 3439.51147348232 182 182 182
-214.6420798843 879.128571714491 3436.33025756838 219 219 221
-208.927618828542 878.061511741006 3430.06098247056 204 204 206
-202.577478460642 877.216629163045 3424.56256242074 199 198 203
-193.660615857678 877.259700909208 3422.12707698512 210 209 214
-183.439711274082 877.7436464188 3421.20531187571 204 203 208
-175.131196600363 877.558823880964 3417.97531934572 207 205 208
-168.753558095641 876.707722868151 3412.45310596791 212 210 213
-161.076018666813 876.298053301108 3408.44819850506 217 215 218
-153.390293669125 875.88654054028 3404.43589274655 218 216 219
-148.311786614825 874.591351546927 3397.39603925053 220 218 221
-142.585606576145 873.516642660164 3391.11634094129 224 222 225
-132.257009391513 873.981593581555 3390.10135786901 220 220 222
-122.563771803935 874.222946668959 3388.31525184467 220 220 222
-111.525774536742 874.899607922772 3388.00729520561 220 220 222
-101.123174860107 875.352616573068 3386.92824889973 221 221 223
-89.3635404910547 876.239400067592 3387.31672272029 222 222 224
-77.5709315762576 877.121106279118 3387.67696473057 225 224 229
-62.3938590775999 879.089144274749 3391.7133509159 223 222 227
-45.146430461632 881.703396963538 3397.92088016525 219 218 223
-33.2288175751452 882.566172685285 3398.17289941009 218 217 222
-19.2490958370506 884.076273771924 3400.60320272341 217 216 221
-9.9742196219097 884.059213935745 3397.85780367562 218 217 222
4.76190160201462 885.77471807094 3400.95475373418 217 216 221
12.7205161305661 885.316356298386 3396.70654390597 217 216 221
22.7411404088893 885.505213464575 3394.63670473101 217 216 221
29.3483935887773 884.610434141898 3388.91575909737 218 217 222
41.4660347957838 885.441420967535 3388.99461259972 219 218 223
52.2343000898986 885.836059981646 3387.59869348333 219 218 223
66.4917725621916 887.303148853838 3389.78885448475 222 220 225
78.0140990729827 887.903445928574 3389.06160712304 223 222 227
96.5350045944064 890.646100069304 3395.48811250418 226 227 229
113.727321489223 892.949950767703 3400.4224751166 224 225 227
136.58972613088 896.957798870345 3411.01804492676 221 225 226
151.811128443749 898.599722865629 3413.6945457106 218 222 223
-264.017845489554 884.537903301022 3510.85174083919 206 208 203
-268.105676390999 879.907279216229 3491.92780498639 208 208 210
-267.930697874101 876.842265792015 3478.56245092011 209 209 211
-264.691798686528 874.892918444755 3469.15087700657 203 202 207
-257.112089344028 874.498998908659 3465.23066033541 200 200 202
-250.148916996363 873.881679237393 3460.52268969233 190 190 192
-245.062525574987 872.599060294763 3453.47560556488 181 181 183
-239.98382192401 871.316900010869 3446.4354972451 201 201 203
-231.126105188993 871.360032045783 3444.05127526853 200 200 202
-221.618480317405 871.620910039721 3442.42560442218 186 186 188
-213.995737454601 871.217482171769 3438.46815066638 211 211 213
-207.639228140519 870.37240062609 3432.96421171128 210 210 212
-201.282453116422 869.526624548952 3427.46004695634 196 196 198
-191.718233851525 869.777507640348 3425.78570399511 204 204 206
-182.133433866156 870.024878264159 3424.09323023171 201 201 203
-174.464363678731 869.612097344463 3420.09568352645 203 203 205
-167.434593519719 868.9790417079 3415.3300921359 202 202 204
-160.400564196245 868.344574076819 3410.56081832417 208 208 210
-152.058843034247 868.145218694179 3407.30213871039 209 209 211
-146.319600353466 867.07224623642 3401.01142280045 214 214 216
-139.928617499107 866.216653242149 3395.4776725033 221 221 223
-131.563998629327 866.012237946934 3392.1991794115 219 219 221
-122.527162819053 866.02238459189 3389.6599222402 219 219 221
-114.797645630418 865.596372858601 3385.61006968225 219 219 221
-103.739999171305 866.250625489382 3385.2852275907 219 219 221
-90.6554574996039 867.54882343648 3387.16952790996 220 220 222
-76.8618302284092 869.056797824243 3389.76113976789 219 219 221
-63.6931981702822 870.342353696149 3391.5726378476 218 218 220
-47.1224881869361 872.698357124182 3397.04543156261 217 217 219
-33.1874324575825 874.185189111753 3399.51459929554 216 216 218
-19.2073304101457 875.665236009534 3401.94476773297 215 215 217
-9.93051434145897 875.637157616237 3399.19807425776 215 215 217
2.7643818802594 876.677147682757 3400.09819110271 212 212 214
10.7190094602236 876.213873196969 3395.85346874066 214 214 216
21.4197154595555 876.603679242192 3394.51645252406 217 217 219
27.3388964215373 875.495515054764 3388.07000568128 219 219 221
41.5170654608543 876.944755825588 3390.32870196189 217 217 219
52.9775081171628 877.535840244214 3389.65515125948 216 216 218
67.2372427150494 878.97247953137 3391.84323339657 218 219 223
76.678646901184 878.916546621264 3388.95406598187 221 222 226
97.2851637626091 882.249725198207 3397.53916856429 225 226 230
114.478989456173 884.512448252328 3402.47217444192 221 222 226
140.846159083962 889.514812929368 3416.64052935529 219 220 222
154.674232144312 890.700062740009 3417.88111620082 220 222 221
-236.7487401255 889.316583819985 3561.2936336306 209 214 207
-260.964155771478 877.442928691821 3516.19117006741 207 209 206
-269.352237008588 871.316211381496 3491.74033782938 205 205 207
-267.939445302536 868.717878752563 3479.94593973324 203 203 205
-264.697040811802 866.781533729463 3470.53124339206 198 198 200
-256.492526685546 866.601075428872 3467.39136359445 196 196 198
-248.900094832793 866.19933414358 3463.46017055147 199 199 201
-242.552893033022 865.358500363504 3457.96427122796 189 189 191
-236.20532712185 864.517078572449 3452.46806012632 190 190 192
-227.964517214996 864.329217045025 3449.29676944412 211 211 213
-220.344210359824 863.921423919712 3445.34113983783 185 185 187
-213.985465089174 863.076580229928 3439.83526135749 200 200 202
-206.98918891854 862.44835690705 3435.09898460992 198 198 200
-199.988730609022 861.818949310695 3430.35877521353 198 198 200
-189.777688175437 862.272064096728 3429.44575776789 206 206 208
-182.115070541427 861.85539894779 3425.45351337966 194 194 196
-174.443859771718 861.436880111018 3421.45414853664 198 198 200
-168.70642348841 860.368881931101 3415.16496606288 199 199 201
-161.674149933043 859.732015760409 3410.39722958108 206 206 208
-152.683166816062 859.739953392824 3407.89772890166 206 206 208
-144.982603119664 859.314966333846 3403.87296473624 210 210 212
-136.618183318963 859.103092076102 3400.59469251902 216 216 218
-128.89911426303 858.674153407473 3396.55359918701 218 218 220
-121.831250956872 858.029282654784 3391.75538317167 218 218 220
-111.450593210416 858.453147269942 3390.69554357945 218 218 220
-102.372927371739 858.445698266588 3388.12101157515 218 218 220
-88.6179198187929 859.929469519862 3390.74625336797 218 218 220
-79.4930582627442 859.914227329808 3388.13086563903 216 216 218
-64.3221925086137 861.812315742149 3392.17308470798 216 216 218
-47.7539488356395 864.127868828996 3397.64827818206 215 215 217
-33.1465688320196 865.797209200075 3400.8567965133 215 215 217
-19.165915805671 867.247380779981 3403.28699650315 215 215 217
-11.2438739142124 866.784460087807 3399.07019952317 213 213 215
1.4478577555268 867.800405081893 3399.97353052459 212 212 214
10.7649995999179 867.754537207275 3397.19168501352 214 214 216
22.1513202730437 868.338596072624 3396.58242402398 216 216 218
28.76165543005 867.44340169543 3390.85880981955 218 218 220
40.8792026802849 868.230744155195 3390.93802757419 217 217 219
55.1006089233601 869.643380614194 3393.15948581301 215 215 217
65.9043889855333 870.000022172322 3391.73334650789 215 216 220
75.3433059415536 869.933502741207 3388.84608795301 219 220 224
91.0679915370061 871.74784481433 3392.40883413703 223 224 228
115.229867451529 876.06249822436 3404.52295463705 220 221 225
140.194640790202 880.571299986277 3417.26317786568 218 219 221
152.6156453133 881.312602988967 3417.07936111827 217 219 218
158.02098930882 879.967050436632 3409.7565526544 221 223 222
-253.926755826287 874.86510259641 3540.54551560396 210 215 208
-269.585884571573 866.179862114702 3506.5332638862 207 209 206
-273.063929774998 861.859881035226 3488.40205274812 204 204 206
-271.040927611278 859.50134875363 3477.40047027443 201 201 203
-265.323237111587 858.446587423827 3471.12800089312 197 197 199
-257.741391549654 858.04142103041 3467.20600556371 198 198 200
-250.150975750271 857.634441722276 3463.27659384918 197 197 199
-243.805369743348 856.793762963862 3457.78207665213 188 188 190
-237.459410832213 855.952497703759 3452.28725738087 179 179 181
-228.590080949192 855.972147439638 3449.89312203738 225 225 227
-219.704020086132 855.989064899778 3447.48450305732 219 219 221
-210.166261815159 856.217940137894 3445.83323740209 188 188 190
-203.792396936442 855.370461405926 3440.31427128911 188 188 190
-196.779345497465 854.736543223726 3435.56317620347 188 188 190
-187.838851249224 854.743674724586 3433.10744126515 186 186 188
-180.167778529425 854.320443471639 3429.10822661152 188 188 190
-174.423844966796 853.254722063602 3422.81308244584 187 187 189
-168.683673517958 852.189050412536 3416.52151422984 189 189 191
-162.298251187668 851.336062733767 3410.99256655626 193 193 195
-153.307568738017 851.333321232771 3408.49339567708 194 194 196
-146.913659114796 850.477932947832 3402.95710731764 200 200 202
-138.553456959834 850.258362395117 3399.68254055777 203 203 205
