ply
format ascii 1.0
comment KinectMotionCapture
element vertex 755
property float x
property float y
property float z
property uchar red
property uchar green
property uchar blue
end_header
-186.757816930567 660.961999923368 2614.26838380117 189 187 190
-181.67018844634 660.250611163913 2609.86336313811 186 184 187
-177.387881410819 659.350191393357 2604.83430757514 190 188 191
-171.496947662598 658.827506305928 2601.05507143291 192 190 193
-163.176174151317 658.869169532655 2599.13624696647 172 170 173
-154.028816882578 659.096603336827 2597.8233652332 186 184 187
-144.861814571435 659.32118965814 2596.49315937446 171 171 173
-135.674935271104 659.542761995048 2595.14606045826 136 136 138
-123.200694739659 660.510302287897 2596.23789699769 129 129 131
-111.509205125012 661.285794158802 2596.68647101167 116 116 118
-100.606777042603 661.870162846631 2596.49661511617 131 131 133
-95.4378706917569 661.146031688902 2592.02123057567 151 151 153
-91.0946342285537 660.235969192124 2586.93942777276 136 134 137
-89.2376045719803 658.769187105503 2580.04570368964 139 137 140
-85.7389109035753 657.675734912603 2574.37382398142 170 168 171
-83.0802539919917 656.39826399184 2568.1076503861 186 184 187
-76.2681002044832 656.047107516478 2564.85242459821 150 148 151
-72.7896459725654 654.956358802278 2559.19775410563 140 138 141
-66.8078863869539 654.419944907782 2555.33988490845 142 140 143
-64.1799732595469 653.146734071236 2549.1003304505 174 172 175
-56.5164670779463 652.977990346797 2546.42928577407 188 186 189
-50.5279571400958 652.440749455132 2542.56588667577 154 152 155
-42.845241087865 652.269396511589 2539.87789350894 131 129 132
-36.8455195885566 651.730705628171 2536.00478634331 140 140 142
-30.8423679414651 651.191530604772 2532.12839376969 158 158 160
-21.4291908515007 651.381429352941 2530.58535967069 173 173 175
-11.9962211170508 651.56864039897 2529.0248724788 157 157 159
0.879248678272049 652.480192493657 2529.76962751097 152 152 154
11.218005841851 652.842387866634 2528.74650427825 159 159 161
21.5805946100796 653.201411490775 2527.70243037733 158 158 160
29.3821099406899 653.014441182713 2524.91188631949 165 165 167
40.6504948819193 653.548567728594 2524.40516803062 177 177 179
52.8130653478045 654.259360819773 2524.44585858773 175 175 177
66.7434549276984 655.325910937282 2525.59853320501 162 162 164
73.7553054978797 654.94887905934 2522.17039071082 162 160 163
84.2624123289122 655.288919306945 2521.00118082298 167 165 168
93.9199137849269 655.446633157583 2519.24659057272 167 165 168
104.473511107542 655.780793974257 2518.03743931645 165 165 167
114.17316053312 655.933228700546 2516.24603660199 174 174 176
122.132981477479 655.726376404376 2513.31841221426 179 179 181
133.633173707979 656.230482835744 2512.61097274665 147 147 147
151.350620445947 657.975630724835 2515.77054598447 146 146 146
191.278304904878 664.150957598927 2532.73441506118 154 154 154
237.582064526713 671.54521867901 2553.42778452806 148 150 149
252.02496596322 672.543766115215 2554.13668735627 153 155 154
-176.209516883465 672.399110535466 2692.39320804972 190 192 191
-188.276772404315 667.516832465197 2673.77002166954 196 197 199
-198.069990313829 663.212518821182 2657.14219805755 198 199 201
-203.199963187591 660.048107158154 2644.40569753257 199 198 203
-202.045832624194 658.394310636365 2636.79915234502 197 196 201
-198.52979460227 657.306106000176 2631.11189014503 196 195 200
-195.022444808632 656.218913959101 2625.43246729598 201 200 205
-189.927254489497 655.506926039114 2621.02089640137 201 201 203
-185.633292404156 654.607968663346 2615.9814139986 195 193 196
-181.343912343801 653.709530780261 2610.94621514809 185 183 186
-177.059243674981 652.811667501221 2605.91509610653 177 175 178
-171.166305682781 652.286077507672 2602.13414163786 179 177 180
-162.035456520367 652.502379867179 2600.83564020576 149 147 150
-151.263662241862 653.086495127622 2600.7590109659 157 155 158
-139.651367880287 653.851669986042 2601.27597769401 171 171 173
-129.636417186223 654.242621095013 2600.53332282962 149 149 151
-117.147311640614 655.183688246511 2601.61276238641 136 136 138
-107.078597040394 655.566979685791 2600.82355804689 105 105 107
-96.9862115534124 655.946761703325 2600.01354452726 125 125 127
-92.6298184700825 655.037682148532 2594.92033203929 132 132 134
-88.2781772351096 654.129242532337 2589.83123400227 138 136 139
-87.2391455518349 652.489090079345 2582.3243607374 149 147 150
-83.7339081254931 651.400266156472 2576.64677932766 186 184 187
-79.4066393166233 650.494966842591 2571.57846988632 181 179 182
-73.4177028851986 649.954913750493 2567.71471935383 133 131 134
-70.7657092772429 648.686544592423 2561.45426210363 137 135 138
-66.4521681147097 647.783295856731 2556.39815313185 150 148 151
-62.9825824737664 646.69937078922 2550.75112514845 191 189 192
-54.4744326144917 646.703103891604 2548.67014065419 184 182 185
-48.4802280562024 646.162319136104 2544.80151327514 138 136 139
-43.3277607437672 645.440581507035 2540.34036153 130 128 131
-38.1756925182195 644.718957509773 2535.87955495147 147 147 149
-30.4760574231198 644.537323502947 2533.17727957643 163 163 165
-21.0618642123026 644.713371475265 2531.63345452233 171 171 173
-11.6279636425802 644.886803117153 2530.07224983293 153 153 155
1.24778452587426 645.773884164855 2530.8169221621 150 150 152
10.729902049067 645.940904439723 2529.21428316466 154 154 156
20.2317138153569 646.105130491972 2527.5942770526 158 158 160
28.892034339262 646.088669971853 2525.38153162877 168 168 170
40.1589349755067 646.603892722555 2524.87622233744 174 174 176
55.7822497004894 648.003670183584 2527.20625581555 172 172 174
66.248130719031 648.332636214719 2526.07316509528 156 156 158
73.259404128037 647.950232422319 2522.64555765756 161 159 162
82.8934596212862 648.097247873733 2520.91104267903 166 164 167
91.6739693081592 648.065260045299 2518.59422560485 166 164 167
103.973728371241 648.736258263652 2518.51626774535 165 165 167
112.794381656281 648.699163667047 2516.16468986368 172 172 174
120.751362207554 648.484489485382 2513.23957803275 176 176 178
129.602224594208 648.443865558957 2510.861839707 149 149 149
150.844336378668 650.852741153131 2516.25551708559 153 153 153
198.737909078055 658.496059974811 2538.21584625682 162 162 162
241.498832699798 665.065491324666 2556.69190494669 140 142 141
254.169576160763 665.687165064627 2556.29240568567 158 160 159
-185.322833090238 663.441892642753 2685.79327364392 190 192 191
-192.692441755032 659.738698089236 2671.03102364636 195 196 198
-201.704100336647 655.672937490853 2655.04750951447 197 198 200
-204.469640568949 653.101273142326 2644.22761182953 198 197 202
-202.524186482147 651.64655946954 2637.25748442358 195 194 199
-199.801669311232 650.378933332034 2630.93589705163 193 192 197
-195.499712142072 649.482215182487 2625.88978602492 199 198 203
-190.404407565073 648.770241818306 2621.4781160046 199 199 201
-186.910282193325 647.690018630253 2615.80979456617 194 192 195
-181.820358698564 646.978440570605 2611.40278596165 188 186 189
-176.731120750981 646.266775176116 2606.99637211145 173 171 174
-170.029699769304 645.921548329295 2603.83708400248 170 168 171
-160.895785285883 646.123821519617 2602.535701143 147 145 148
-150.121136221401 646.688628291459 2602.456722677 141 139 142
-135.256112821934 648.161181767068 2605.44352291301 145 145 147
-121.971898329103 649.262682233737 2607.15603422561 143 143 145
-109.464058077836 650.176613137541 2608.21941158316 136 136 138
-101.013292583464 650.177893629875 2606.18818007359 104 104 106
-94.1880113416205 649.814429294179 2602.92165600441 124 124 126
-91.4686775015601 648.545075958468 2596.60283893202 127 127 129
-87.1128626927322 647.63886673405 2591.50979354269 142 140 143
-86.0685986382821 646.01168587367 2583.99861665024 155 153 156
-81.730110892245 645.107832307777 2578.92088949716 184 182 185
-79.058067020032 643.844907469672 2572.6430186829 165 163 166
-72.2346224547796 643.481368854333 2569.37777149583 137 135 138
-70.4129055279026 642.041342808196 2562.51479635788 144 142 145
-66.0971415902805 641.140609378094 2557.45674452779 159 157 160
-61.7860846722573 640.240509849435 2552.40276833308 191 189 192
-54.1157201472839 640.05453126603 2549.72557545341 174 172 175
-47.2765638501107 639.688898924807 2546.44703942377 132 130 133
-41.2750247975664 639.144431544155 2542.57207883842 135 133 136
-34.4225948160637 638.777071501976 2539.282049225 153 153 155
-25.864315179887 638.763154268299 2537.15772982582 168 168 170
-17.2903006496208 638.747117992658 2535.01978615979 170 170 172
-8.70025184225609 638.729064325828 2532.86827359505 149 149 151
2.47128869763191 639.237965789867 2532.445657289 148 148 150
14.528024212777 639.919152959312 2532.57795513638 153 153 155
21.4612126472749 639.541216485088 2529.21799780446 158 158 160
31.847481513684 639.864375421667 2528.15394742819 168 168 170
41.3942186146738 640.00913680874 2526.49512904525 173 173 175
57.8845166864506 641.550954712952 2529.39605733983 171 171 173
68.3551707633248 641.862988910405 2528.25893935704 154 154 156
74.5023343724163 641.299808343235 2524.25788199603 160 158 161
81.5249638137701 640.910545347516 2520.8204763247 166 164 167
89.4288520435404 640.694217921779 2517.94139223026 166 164 167
103.473955488213 641.691242136717 2518.99509074718 164 164 166
114.048974176451 641.989880142133 2517.76760301205 170 170 172
122.888793682361 641.939484776865 2515.39949926714 174 174 176
129.0996698537 641.369101324606 2511.34326661318 150 150 150
154.756488128759 644.591299536799 2519.52190871411 153 153 153
206.193996061848 652.792229924249 2543.70064301026 163 163 163
248.964980790291 659.245744083189 2562.1687325236 140 142 141
259.872413656713 659.5000123753 2560.65310147575 164 166 165
-184.243991259086 656.930644063926 2687.54691744751 189 191 190
-195.534888999486 652.353336866701 2669.57243403925 194 195 197
-203.76112374318 648.520241315888 2654.23023354494 193 194 196
-204.159140101907 646.524641139054 2645.32468303807 194 193 198
-202.21086790898 645.080484920283 2638.35172915284 190 189 194
-198.69153164471 644.002967186461 2632.6618545091 188 187 192
-195.977143455933 642.744520424444 2626.34725333558 196 195 200
-193.275672507389 641.487723417432 2620.04383730801 198 198 200
-188.987011502608 640.595191329303 2615.00922341912 190 188 191
-183.09895752773 640.065378350753 2611.23252946887 186 184 187
-178.011636286906 639.354120797488 2606.82777425449 181 179 182
-170.50641274647 639.184385636567 2604.2939252571 167 165 168
-162.989622831746 639.012793383683 2601.75006330136 163 161 164
-148.169136833192 640.459073878118 2604.77532044035 133 131 134
-130.051071996367 642.617113193225 2610.2315097693 136 136 138
-115.125701644049 644.048482486718 2613.16627200665 129 129 131
-103.417604858389 644.756589436281 2613.6005731317 114 114 116
-96.5879384560804 644.387204675117 2610.33028665083 111 111 113
-92.2120821886128 643.481133284044 2605.22018522859 125 125 127
-89.4859564668504 642.219159510142 2598.89543356845 129 129 131
-86.7727884421434 640.958900825798 2592.58190169629 153 151 154
-84.072392241556 639.700422028481 2586.27942808946 172 170 173
-80.5563861624323 638.620995018232 2580.5921366962 162 160 163
-77.04891415161 637.542829329911 2574.91254942614 131 129 132
-71.0523258704945 636.996303856317 2571.04189318884 150 148 151
-69.2257272764421 635.566609501192 2564.17461998486 164 162 165
-64.9058859803842 634.668029591084 2559.11270469395 172 170 173
-58.9129006041809 634.122101352192 2555.24548286658 175 173 176
-52.0758246697577 633.751247395057 2551.96846828548 140 138 141
-44.3880993722381 633.554838430708 2549.27661130218 133 131 134
-38.3784868987194 633.006611109323 2545.39499307003 141 139 142
-31.5185439257353 632.632737499721 2542.09817837208 165 165 167
-24.650772524351 632.25792164989 2538.79490011243 173 173 175
-15.2225393294749 632.404838374501 2537.23877935785 166 166 168
-4.9212959650875 632.723068955965 2536.24845557625 149 149 151
3.6937054613988 632.690643572907 2534.07509329583 150 150 152
11.4675555470773 632.48275582553 2531.30866324572 153 153 155
19.253159511246 632.27340493792 2528.53205516782 158 158 160
30.4952216614782 632.753855176778 2528.04849961187 169 169 171
41.7653039714834 633.230561841463 2527.54068223473 173 173 175
59.1203668594842 634.909231630721 2531.01477736079 169 169 171
70.4610140066557 635.376495108321 2530.44586009494 153 153 155
77.4831080461467 634.981473060529 2527.0086402816 160 158 161
83.6420385221182 634.414274695371 2522.99772570239 165 163 166
93.2980072565846 634.531210621693 2521.24441264611 165 163 166
105.600411289074 635.158255505017 2521.16444711526 163 163 165
114.425202526706 635.09868530524 2518.8094283638 169 169 171
123.266109148171 635.037244253227 2516.44045395309 173 173 175
133.886178979182 635.313825545321 2515.17406170122 150 150 150
166.618733383196 639.829860168715 2527.79824287511 147 147 147
223.388006719182 648.903017306989 2555.2902886557 160 160 160
259.090281976766 653.88440361285 2569.30758865907 143 145 144
269.131273758689 653.950288620564 2567.22120861214 169 171 170
-187.083616992604 649.50280288554 2686.08615760662 189 191 190
-195.234183671665 645.70583895593 2670.67813874704 195 196 198
-202.667378257933 642.09876119758 2655.97037811397 193 194 196
-203.849314971504 639.941580237962 2646.42206573173 195 194 199
-201.897907994788 638.508043105511 2639.44664151761 192 191 196
-199.96368061447 637.076647663042 2632.48577808614 189 188 193
-198.842019942534 635.468208248846 2624.9073973183 193 192 197
-196.145975134835 634.220406280117 2618.60862603398 198 198 200
-191.063258694988 633.510247951733 2614.20785484312 193 191 194
-183.575519804459 633.335172101973 2611.68919502808 184 182 185
-177.684176853393 632.802071598873 2607.90967170718 175 173 176
-170.983265103711 632.446253592531 2604.75089359886 161 159 162
-161.851006375988 632.621771045622 2603.4511192202 162 160 163
-145.408263032419 634.389708144274 2607.71537603398 140 138 141
-124.848834658108 637.034406328388 2615.02217688591 131 131 133
-109.097294671225 638.608132355514 2618.56320660158 119 119 121
-99.8227053515248 638.763276462974 2617.14051671548 103 103 105
-94.6196088834652 638.034960073695 2612.63552549184 121 121 123
-91.8779966868999 636.779165004524 2606.29731110918 123 123 125
-88.3269740305499 635.700621615958 2600.57966386389 128 128 130
-86.4333742264183 634.272713560614 2593.65430672754 164 162 165
-82.0775324338419 633.372122256104 2588.561517059 179 177 180
-78.5549847827491 632.297293867183 2582.86852605101 152 150 153
-75.0409668280225 631.223786097588 2577.18323499264 134 132 135
-70.7034860360287 630.325585413805 2572.10602845917 155 153 156
-67.2049788316005 629.254166500391 2566.43416758977 165 163 166
-62.8787927006775 628.357516828768 2561.36674049443 191 189 192
-56.8799587371394 627.808016244798 2557.49447263508 163 161 164
-50.8776902538823 627.258090818242 2553.61891519419 133 131 134
-44.0291939777318 626.880361250857 2550.33236225938 138 136 139
-37.1732777943281 626.501610236554 2547.0390693304 141 139 142
-30.3094413390403 626.121934556406 2543.73923312179 165 165 167
-21.7406919655412 626.084838723968 2541.60598942284 172 172 174
-12.3050913844609 626.217191307366 2540.04389297866 164 164 166
-1.99713072087837 626.518116195238 2539.04754370088 147 147 149
5.77033749982458 626.302883497739 2536.286692638 148 148 150
12.6927738858051 625.915435848714 2532.93611612566 154 154 156
22.1995025972856 626.038277131765 2531.31211649481 159 159 161
31.7264324743989 626.158509919366 2529.67094020355 168 168 170
43.8620754203307 626.785593145208 2529.73519673927 170 170 172
59.490240835939 628.086593864062 2532.0616660252 166 166 168
73.4327097618706 629.042494462199 2533.20458805073 151 151 153
79.5933702538587 628.472016664702 2529.19187974241 157 155 158
84.8866490345492 627.732603295105 2524.60879617556 165 163 166
94.5457712519593 627.835542572933 2522.85315609374 164 162 165
106.850274276337 628.440364246208 2522.77119978528 161 161 163
116.555547145499 628.537387776881 2520.97559760891 165 165 167
125.401566726874 628.464239099237 2518.60226747776 170 170 172
139.551557794433 629.392940954106 2519.56549885238 148 148 148
182.009199983198 635.66036733984 2538.30637946123 160 160 160
233.491309185772 643.571550525392 2562.44833380303 150 150 150
265.661484821805 647.792056916204 2574.23860302781 129 131 130
274.827957853737 647.675991832801 2571.58780247188 160 162 161
-191.488777557603 641.733643526317 2683.33799308279 190 192 191
-194.148503892392 639.229952774059 2672.42594221884 196 197 199
-199.999639268029 636.020985655651 2658.99089597879 194 195 197
-202.750688340947 633.529503645284 2648.15791870159 197 196 201
-201.585690660372 631.929181448652 2640.54192359085 197 196 201
-199.648303895919 630.508431722624 2633.57856833593 183 182 187
-196.932460308768 629.266347486385 2627.26259968675 183 182 187
-195.02714359409 627.849677137737 2620.32701426225 193 193 195
-189.140552980411 627.315060736913 2616.55161978605 191 189 192
-182.448930834361 626.955411197225 2613.40060262669 182 180 183
-175.74965027637 626.594662655167 2610.24327028084 182 180 183
-170.654551246017 625.882357655233 2605.83178056418 172 170 173
-161.520901027423 626.044235522309 2604.53120402808 160 158 161
-142.649229134431 628.297811250875 2610.65685682712 153 151 154
-118.837410635234 631.587262815415 2620.43419074813 138 138 140
-103.88599173169 632.949736157939 2623.34650670446 98 98 100
-97.0459816299831 632.568358542754 2620.06733268151 97 97 99
-91.8346727553221 631.839055948611 2615.55522986051 128 128 130
-89.9042240075629 630.417234389024 2608.59789497956 122 122 124
-86.3466575932761 629.343319270485 2602.87454603275 133 133 135
-84.4461118131292 627.925494845648 2595.94310322714 182 180 183
-78.4317099725338 627.371270466883 2592.05705722663 172 170 173
-74.8982824062994 626.300658303371 2586.3549243967 134 132 135
-71.3738936449331 625.231151383317 2580.660303149 142 140 143
-70.3549491019411 623.648641912112 2573.17078211553 161 159 162
-66.0198628969417 622.753578361047 2568.09563072797 171 169 172
-60.8529989952569 622.029991750807 2563.62201292289 180 178 181
-52.3331826563598 621.988706293178 2561.53120839278 146 144 147
-47.1593232824454 621.264207535206 2557.05153327121 127 125 128
-40.3009995236578 620.87976473043 2553.7565060059 144 142 145
-35.1242262804679 620.15487355728 2549.27430787195 143 141 144
-29.9479866104391 619.430114127405 2544.79257135134 167 167 169
-22.2264818621363 619.212896937755 2542.07157134168 170 170 172
-12.7919119813003 619.331883995393 2540.51045485139 161 161 163
-1.63238730067583 619.78527224555 2540.09861284949 146 146 148
6.13650800282972 619.561762727473 2537.33657851664 148 148 150
12.2035989359541 619.000652230596 2533.40490960797 156 156 158
19.9919138355833 618.774647218506 2530.626059784 162 162 164
28.6527297344747 618.714552795573 2528.41316774964 168 168 170
42.5063870551132 619.655315294108 2529.63316408103 168 168 170
58.1301076429277 620.924276641059 2531.96369347491 164 164 166
72.9352815755955 622.020069032087 2533.68123243133 153 153 155
79.9646303090236 621.613252783417 2530.23811665355 157 155 158
87.0016383952699 621.205592442932 2526.78805219626 161 159 162
97.5385769216364 621.459952669637 2525.5938568273 162 160 163
106.349440122351 621.380339840795 2523.25103988282 160 160 162
116.053628718639 621.463885288073 2521.45646482303 165 165 167
124.898632835873 621.380033967441 2519.08408418455 168 168 170
146.97669576174 623.763046244398 2525.07664112801 153 153 153
192.093552267605 630.407425963012 2545.48002505319 158 158 158
242.704610806511 638.010872444439 2569.05568358416 143 143 143
268.680762497923 641.001184557327 2576.95905056252 130 132 131
277.854235669542 640.873217585112 2574.30225985844 155 157 156
-196.675457533488 633.814864457047 2679.94459267827 190 192 191
-201.700886644158 630.814153574456 2667.11610401806 196 197 199
-202.056756769685 628.870697599487 2658.17368596022 194 195 197
-205.599053874618 626.2321559105 2646.70420387172 197 196 201
-203.647962728428 624.8207071689 2639.7285947531 198 197 202
-200.920423437202 623.585581633987 2633.40244392424 183 182 187
-198.205850586902 622.352052593839 2627.08752123048 179 178 183
-193.111941182741 621.640806095238 2622.67705574649 189 189 191
-188.018699283316 620.929409945821 2618.26716978259 193 191 194
-180.521601685323 620.736964364596 2615.74051099569 183 181 184
-175.423676811944 620.024608178056 2611.326572351 180 178 181
-169.520666960981 619.484598860346 2607.53729719074 170 168 171
-157.961016714311 620.148888613691 2608.1005462035 150 148 151
-135.843420281393 623.042728640413 2616.70236511587 147 145 148
-110.394182070489 626.610728449125 2627.70520526101 132 132 134
-97.8636099354562 627.424013498999 2628.74953226546 95 95 97
-92.6393165774257 626.693052094116 2624.22618607514 112 112 114
-89.8691926410127 625.450005775416 2617.86317693049 121 121 123
-87.1119411160746 624.208603174564 2611.51131411622 124 124 126
-84.3676451022244 622.968945311968 2605.17066900315 136 136 138
-80.8121586558186 621.900931859698 2599.44940010917 178 176 179
-76.4397553160507 621.003567574515 2594.34191952837 156 154 157
-72.8997818059112 619.937613329728 2588.63408291014 138 136 139
-71.8590659563656 618.36574384795 2581.12530744247 147 145 148
-70.0071574882975 616.965548425195 2574.23590610712 165 163 166
-64.0015124916329 616.409838409195 2570.35745960497 193 191 194
-57.9924178665632 615.853633883438 2566.47602639032 144 142 145
-50.3033273758784 615.632757223836 2563.78314469631 129 127 130
-45.1233712908641 614.907437412568 2559.29819065654 133 131 134
-39.943993607769 614.182255381731 2554.81373704567 147 145 148
-33.9207540713442 613.624198079269 2550.9203714468 152 150 153
-28.7404710692161 612.899013900094 2546.43513317731 170 170 172
-21.0154749292704 612.673271829361 2543.71116229446 167 167 169
-10.7277322584256 612.944371370546 2542.73252994671 155 155 157
0.436699839387877 613.378077125609 2542.31687756583 146 146 148
8.21085146036715 613.145693015167 2539.55002938844 151 151 153
15.1404312161789 612.746443960653 2536.1933379341 159 159 161
23.7947559845395 612.676294481742 2533.9861371529 165 165 167
29.8832541534999 612.109897846907 2530.03626359061 168 168 170
41.1509609731988 612.529822957741 2529.53087308218 167 167 169
56.7700313796609 613.766690505095 2531.86532541116 163 163 165
72.4377648412058 614.997056665165 2534.15795736313 157 157 159
79.4666796436041 614.584968985361 2530.71525184797 159 157 160
86.5030635539488 614.171913118878 2527.26576334951 157 155 158
93.5475601670173 613.758086330114 2523.80956378844 157 155 158
103.224135912005 613.83152448243 2522.03867176209 157 157 159
113.797787432141 614.064950906939 2520.81279157336 162 162 164
125.274491370549 614.45741875094 2520.1264336736 164 164 166
152.636258891699 617.7602121141 2529.47364997771 161 161 161
208.354183843517 626.220487430471 2556.55733229767 152 152 152
250.143957977104 632.067715953159 2574.5565401767 136 136 136
273.472506352229 634.510310430281 2580.78813121107 135 137 136
279.989964509687 633.887560176888 2576.46651226796 156 158 157
-204.991762674891 625.236078871157 2673.9746687552 190 192 191
-206.110083479432 623.136362911529 2664.37053029048 194 195 197
-206.474683698915 621.213276149538 2655.43554692587 193 194 196
-209.235846951618 618.778041907414 2644.61097148489 195 194 199
-205.709460602264 617.722151814712 2638.91484613134 197 196 201
-202.192166630408 616.667254407831 2633.22627952272 186 185 190
-197.093259374421 615.955634271831 2628.81148464209 177 176 181
-191.995102722782 615.243965505423 2624.39734065235 179 179 181
-187.696887484847 614.361584993072 2619.3543799837 199 197 200
-181.800877219289 613.82025039187 2615.57086469073 186 184 187
-175.901540327061 613.278288130313 2611.78447015811 168 166 169
-168.387867343267 613.075166366623 2609.24351407046 159 157 160
-154.402977485455 614.225785653797 2611.67198295252 139 137 140
-129.041371132751 617.73815514794 2622.75113726487 140 138 141
-105.201403382146 620.898503995963 2632.50490980668 116 116 118
-92.6581866946532 621.685562797536 2633.53844726975 97 97 99
-89.0507556951174 620.616190940228 2627.7718494541 123 123 125
-86.2698118466785 619.379891893148 2621.39941858029 118 118 120
-83.5015755129787 618.145356326164 2615.03830585172 128 128 130
-81.5682482693809 616.745043257239 2608.07802118655 145 145 147
-78.0042029568926 615.68135675425 2602.34930597696 167 165 168
-74.4491002338532 614.6188523665 2596.62801845809 143 141 144
-71.7306050313988 613.39093342986 2590.30965976712 146 144 147
-70.6845966801453 611.832237044425 2582.79652724884 152 150 153
-67.9959552446099 610.608368502775 2576.50401764407 174 172 175
-61.1504946648171 610.214916180222 2573.21988222741 190 188 191
-54.2973445148336 609.820480431512 2569.92940386934 133 131 134
-47.4366204907013 609.42499475464 2566.63236776586 131 129 132
-43.9287137060576 608.368966087578 2560.95194470041 139 137 140
-37.0610477823248 607.972455705339 2557.64889844314 148 146 149
-32.7183714561778 607.082089110588 2552.56713798837 158 156 159
-26.6876990241105 606.520455703454 2548.66735320492 169 169 171
-20.6537779452596 605.958332656266 2544.76444036258 162 162 164
-10.3649547785114 606.213109672785 2543.78529279339 141 141 143
0.799907728197269 606.627751350805 2543.3690753845 145 145 147
9.42985469154989 606.549955641398 2541.18305327092 151 151 153
16.36307774735 606.144856125801 2537.82324194866 159 159 161
24.1622624164117 605.901098226732 2535.03508594397 163 163 165
32.8335546105283 605.817914151133 2532.81326334949 166 166 168
42.3829974681711 605.89437028807 2531.15254240973 166 166 168
57.1395390626712 606.936967867006 2532.91289297825 162 162 164
71.940166116605 607.97354630753 2534.63475658578 154 154 156
80.70547733224 607.87788020674 2532.33152520971 160 158 161
87.7456628814048 607.459004695326 2528.87909491853 157 155 158
95.6662000751778 607.199532873173 2525.98586014532 156 154 157
103.598542534102 606.938680819722 2523.0824022684 155 155 157
113.296102871002 606.995848499786 2521.29342757502 161 161 163
124.771237218845 607.369483920318 2520.6085521304 163 163 165
159.173840326214 611.878379497485 2534.43212558213 157 157 157
221.076480746929 621.294947916085 2565.41286853828 145 145 145
261.118907184437 626.710040193833 2582.28252846978 135 135 135
275.601433621578 627.511615521868 2582.9583632698 134 136 135
281.23566241571 626.72727402056 2578.08005720641 159 161 160
-204.694211574298 618.582029005929 2675.08314980193 190 192 191
-208.947692490638 615.824331735663 2662.90758754502 194 195 197
-209.317050339262 613.921116898184 2653.97628350518 192 193 195
-210.504387986977 611.852486361334 2644.43207849776 194 193 198
-207.770576946551 610.633344214728 2638.10038814568 196 195 200
-202.67078952658 609.921994805829 2633.68482864097 188 187 192
-198.366662994286 609.042111949978 2628.63672825614 177 176 181
-193.270402820994 608.330818357518 2624.22422558122 177 177 179
-189.773044662023 607.28369606128 2618.5528876753 204 202 205
-183.881187548821 606.740375609084 2614.77298493712 194 192 195
-177.985800641359 606.196452275529 2610.99034221892 164 162 165
-167.25586687346 606.654006230155 2610.95081510867 162 160 163
-150.040114388086 608.441334361509 2615.86789681863 145 143 146
-123.86144580605 612.051166998809 2627.56181874921 145 143 144
-99.2000369643709 615.313719151341 2637.92653287602 108 108 110
-89.8957507718174 615.410764526211 2636.47816461116 108 108 110
-86.2794817516011 614.345853936239 2630.70419316903 109 109 111
-85.1246938462808 612.786020121882 2623.09646935892 123 123 125
-83.1713045907807 611.394106410059 2616.11905731172 135 135 137
-80.4135144710423 610.169219745394 2609.7666206543 175 175 177
-76.8451414903852 609.110467702879 2604.03380701087 143 141 144
-73.28530257803 608.052976982293 2598.30869749064 134 132 135
-71.3897424204637 606.668851202479 2591.38135753527 148 146 149
-70.3409209553931 605.123407821107 2583.86538539748 155 153 156
-63.4908900899891 604.724122168056 2580.57764206298 194 192 195
-55.7997118945215 604.486735201564 2577.88305786739 164 162 165
-50.6043194149504 603.759546149314 2573.38473666233 132 130 133
-47.0853007109806 602.70747066491 2567.69465688026 136 134 137
-42.7349130206363 601.81887247287 2562.60651676251 138 136 139
-36.7056289119079 601.254649072643 2558.70763655918 153 151 154
-31.5166382008716 600.52844192858 2554.21485763422 165 163 166
-27.1741764568376 599.64103090805 2549.13357952613 169 169 171
-21.1404455571871 599.076328424113 2545.23084823374 159 159 161
-10.0029204330729 599.4757276385 2544.83842388853 140 140 142
0.310577574631488 599.71086267511 2543.83801702828 147 147 149
8.08563037648202 599.462180188628 2541.07080889175 156 156 158
17.5846281266598 599.531745854184 2539.45385519028 164 164 166
27.1036007127123 599.598703561376 2537.81992099305 166 166 168
38.3628741858906 599.981616912354 2537.32207980631 167 167 169
47.0632758413019 599.883673224534 2535.07512263806 168 168 170
60.9653875821148 600.736165668704 2536.25369377396 163 163 165
74.041463656275 601.424784201938 2536.82602074859 148 148 150
81.0753722340838 601.00121454886 2533.37906135226 160 160 162
89.8576508754747 600.892513851381 2531.06120816292 159 157 160
98.6558994845836 600.781812169645 2528.72952619494 155 155 157
109.219088193503 600.983859957743 2527.51291783512 153 153 155
117.176843306775 600.711530853635 2524.5875082688 159 159 161
130.417499060773 601.378442085254 2525.01701327018 163 163 165
167.469486754891 606.265786692166 2540.51191563955 149 149 149
229.379923298299 615.506856776967 2571.48703864951 137 137 137
267.665670804621 620.502028630729 2587.23515919152 138 138 138
278.615671565309 620.651774253676 2585.68362584197 133 135 134
281.591853103573 619.400351022892 2579.14207344974 165 167 166
-205.179720009919 611.754125537316 2675.54820239903 192 194 193
-206.292324337006 609.697588434773 2665.93914497061 192 193 195
-208.22513098344 607.478585427154 2655.71846277236 191 192 194
-210.195492644611 605.264490294692 2645.53029905212 194 193 198
-207.458850509671 604.053350944348 2639.19610303035 195 194 199
-203.149592259649 603.175831187073 2634.14353948837 194 193 198
-198.05034715671 602.464494926657 2629.72844994412 186 185 190
-194.545708305962 601.422171144224 2624.05077050645 177 177 179
-190.250810005602 600.54607623061 2619.01064401598 186 184 189
-185.159877341919 599.835290500319 2614.60275559417 205 203 208
-175.251768727785 600.112084526086 2613.95344434159 163 161 164
-164.514855928164 600.549774573705 2613.90799697231 158 156 157
-145.679451578327 602.623695269006 2620.06624832371 138 136 137
-118.684194600109 606.325485447319 2632.37538423718 143 142 140
-95.635500340812 609.194400231673 2641.49329407096 131 129 130
-87.1350390557253 609.113501597338 2639.41952195607 116 114 115
-84.325511852366 607.89000154239 2633.02223392334 114 112 113
-83.1633266796756 606.343027429318 2625.40833081738 123 121 124
-81.2030811056763 604.961209422316 2618.42491073206 154 152 157
-77.6171703915116 603.905754789953 2612.67687513732 166 164 169
-75.6867807703991 602.527957529243 2605.719306225 139 137 140
-72.1226590186332 601.475407306288 2599.99013708651 142 140 143
-70.2222150079241 600.101642866184 2593.05849697833 148 146 149
-66.6795872074832 599.052039406017 2587.3482538378 172 170 173
-58.9885212156736 598.806650549443 2584.65350323276 171 169 172
-51.2856501518009 598.559604253513 2581.94884700053 142 140 143
-45.2422363678209 597.990865193809 2578.03806487421 137 135 138
-43.3838994836746 596.622868959617 2571.14256763518 141 139 142
-39.8628321299062 595.576199020471 2565.45099269947 146 144 147
-34.667251591431 594.849104414388 2560.95250788498 160 158 161
-30.3159389740149 593.963226254177 2555.86354847381 170 168 171
-25.1234877047346 593.236672843849 2551.36777240245 165 165 167
-18.2361283517851 592.826918211635 2548.04742745243 150 150 152
-10.4911630840672 592.574203025662 2545.30632339522 142 142 144
-1.03069166612846 592.635534841849 2543.7231307191 145 145 147
7.59557007682865 592.536616518656 2541.54043959356 156 156 158
16.2376137286007 592.435602765039 2539.34408329882 164 164 166
25.7532881379792 592.48941822798 2537.71277739909 166 166 168
37.8692747386675 593.010507341778 2537.7950731531 165 165 167
50.0170210762834 593.527267183927 2537.84955414247 166 166 168
62.1971084291029 594.039663866396 2537.87634779771 162 162 164
74.409226677365 594.547724702976 2537.87509170807 150 150 152
83.1807959130288 594.429477144842 2535.56658260951 156 156 158
94.5791241213074 594.774911666475 2534.94877606219 160 160 162
102.51624531299 594.496865273676 2532.04097219272 151 152 154
112.214030322976 594.526716799175 2530.25229528931 149 151 150
120.179172557909 594.245278283963 2527.32054206833 159 161 160
135.18278472801 595.194963614388 2528.86703424898 157 159 158
175.761160203475 600.598693542284 2546.59550238522 145 147 146
240.326675972014 610.124741957474 2579.23762425751 131 133 132
272.440548878275 613.943897998502 2591.07929384222 127 129 128
278.082692688878 613.158221082192 2586.19413620308 135 137 134
-201.753474115457 605.749030965953 2679.23440047591 192 194 193
-203.638707176432 603.548324197517 2668.97236598104 192 193 195
-207.134193714705 601.024268867107 2657.46156961738 191 192 194
-209.886996418043 598.670192297088 2646.62922188401 198 197 202
-208.728726882855 597.139772806057 2639.01828981461 200 199 204
-205.213855754902 596.10205964456 2633.33171181755 191 190 195
-199.323806633679 595.554513411295 2629.55371902702 187 186 191
-195.023977597213 594.680786465959 2624.508988033 175 175 177
-190.728804386773 593.807499122945 2619.46860507496 179 177 182
-184.837007272761 593.259066483251 2615.68878746734 190 188 193
-174.927835457377 593.519578002825 2615.03866021107 176 174 177
-161.775598161895 594.422992332191 2616.86684450758 156 154 155
-139.707487125184 597.095450090149 2625.51298875419 142 141 139
-111.892328244267 600.883107823899 2638.43387515291 138 137 135
-92.8839989748842 602.88643038332 2644.44270373852 102 101 99
-86.0019103581262 602.472766587602 2641.12726796934 107 105 106
-84.0025656587229 601.096851813319 2634.10992101354 117 115 116
-82.8375137995856 599.563243261947 2626.49313112537 133 131 134
-80.0552891710184 598.351684377701 2620.11942983652 166 164 169
-75.6436065073367 597.460550628372 2614.97817959262 153 151 156
-73.7063113670313 596.092902332722 2608.01455965306 139 137 140
-72.6113268567863 594.568729857109 2600.45843850871 142 140 143
-70.7100292092258 593.205929398206 2593.52598747591 173 171 174
-66.3377532098712 592.320072660826 2588.41885820928 186 184 187
-58.6449651241852 592.066449337055 2585.72298387598 145 143 146
-51.7740883976616 591.653584575767 2582.41694516446 136 134 137
-45.7309074356718 591.082301765169 2578.50638131689 137 135 138
-41.3594687644241 590.196415822891 2573.39966246903 143 141 144
-38.6714676274549 588.997635987904 2567.10754525861 151 149 152
-34.3132700441084 588.113645268997 2562.01260616933 170 168 171
-30.8032635185249 587.07415409461 2556.33057153241 178 176 179
-24.7653404439498 586.503676947202 2552.42424415129 154 154 156
-17.0285392616925 586.244006540861 2549.6902612704 140 140 142
-8.43054449585834 586.138115463287 2547.5321153336 149 149 151
0.183140335306753 586.030111380903 2545.36038394553 154 154 156
7.95898955182706 585.765212259866 2542.59259061198 157 157 159
17.4581463632202 585.807799980851 2540.97598937703 164 164 166
27.834696544125 586.001873354896 2539.92088349964 165 165 167
37.3755441005401 586.038846520248 2538.26818377988 163 163 165
49.5216607827293 586.534117093313 2538.32421650119 162 162 164
63.4277845108908 587.331722536262 2539.49966597259 158 158 160
78.2402616766777 588.276987872812 2541.21216588625 147 147 149
87.0211730772867 588.146672737215 2538.89563779574 148 149 151
97.5579738360279 588.319336836003 2537.70209122788 156 157 159
105.502732331687 588.032229422638 2534.78804206101 151 152 154
115.207346092391 588.047515009099 2532.9932253087 148 150 149
124.055941250408 587.908593832069 2530.61808904014 157 159 158
140.823733624408 589.130019111783 2533.28057920074 158 160 159
185.809448305826 595.179326785987 2553.80180005353 158 160 159
250.386037491271 604.521178963807 2586.43520228072 131 133 132
275.444576604996 607.051805670251 2593.81361496415 129 131 130
280.208370533481 606.114839548341 2588.36747422548 140 142 139
-191.813221613095 602.87238507943 2697.10457758991 190 192 189
-202.240381114288 598.905535837717 2679.70076629236 192 194 193
-204.123671893602 596.729330431274 2669.43688958273 191 192 194
-207.616867504765 594.235119265702 2657.92391419926 190 191 193
-210.367526817404 591.908271737917 2647.08953226726 198 197 202
-208.417813724511 590.55243323275 2640.11475720124 200 199 204
-203.315478732633 589.841249770952 2635.69698854904 189 188 193
-196.624942778814 589.450627897923 2632.54742904588 187 186 191
-192.31642981598 588.578658151225 2627.49547550689 176 176 178
-188.012887170868 587.707096023241 2622.4475117667 172 170 175
-182.112803976632 587.1550245191 2618.66085140829 179 177 182
-172.999194779301 587.239092129227 2617.37783384523 188 186 189
-157.428695722738 588.591576078776 2621.07721189682 167 165 166
-132.125583835758 591.840231576043 2632.20908985129 147 146 144
-105.103909287092 595.391241653376 2644.49599025285 111 110 108
-92.5663646607187 596.081719347885 2645.53506974315 95 94 92
-84.8697550037425 595.820365083643 2642.83593321333 107 105 106
-82.0507414964084 594.612235849538 2636.43032345667 114 112 113
-80.0616419019273 593.248697657814 2629.42146058816 148 146 149
-78.9083390270591 591.730467376196 2621.81506982824 162 160 165
-74.4922752499972 590.841648095035 2616.67000731809 143 141 146
-72.5502524094122 589.484359971642 2609.70190706374 143 141 144
-70.624971671795 588.129378672437 2602.74861835638 146 144 147
-68.7167685050416 586.776727178594 2595.81011629634 183 181 184
-64.3381881276448 585.892866014252 2590.69750986729 180 178 181
-57.4711031170714 585.475241905972 2587.39478841296 139 137 140
-49.7631703486077 585.211494391705 2584.68585324373 136 134 137
-43.7140806687504 584.636840739759 2580.77018994114 140 138 141
-39.3362927907015 583.752944333363 2575.65795511528 145 143 146
-36.641679087063 582.561568208811 2569.36005857941 154 152 155
-34.8011520432481 581.218240362315 2562.48015343025 173 171 174
-31.2907345557152 580.1843231432 2556.79772647846 177 175 178
-24.4076948791978 579.764490509775 2553.48119085298 151 151 153
-13.2797878304904 580.108353027964 2553.09746271861 139 139 141
-2.97339005028396 580.295696919174 2552.10351956856 150 150 152
3.95086892150598 579.870335417761 2548.7516090383 155 155 157
10.8825029717905 579.443958506587 2545.39299732945 157 157 159
19.5330570113352 579.320209681289 2543.18941209955 165 165 167
29.0571389734167 579.345936362845 2541.55131660053 166 166 168
38.6009882318481 579.368971009645 2539.89610551969 162 162 164
50.7495973183865 579.842167246521 2539.95012102681 161 161 163
65.5214529760193 580.762997746484 2541.69767188722 157 157 159
79.4719021384744 581.527475437345 2542.83491758011 146 146 148
89.1238400905596 581.536043445687 2541.08611588746 149 150 152
98.7955280443398 581.541959437745 2539.31989783072 156 157 159
108.487423721657 581.545355880448 2537.53649685321 154 155 157
118.199026757878 581.546135992722 2535.73571624042 151 153 152
127.930830959733 581.544307609546 2533.9177589672 156 158 157
149.973846104184 583.621440194644 2539.94267519061 160 162 161
203.772570369806 591.03008445939 2566.04977506853 154 156 155
258.67678625886 598.556007150108 2592.52152203781 127 129 128
279.331108450186 600.285402924251 2597.10579995868 133 135 134
283.218811483946 599.202270820323 2591.09636946345 151 153 150
-194.644187476826 595.494759998617 2695.63598652704 190 192 189
-204.291495412851 591.742380003812 2678.87812095255 192 194 193
-207.744892096892 589.273081516377 2667.33048897362 191 192 194
-210.457946285216 586.968717288658 2656.46336763633 189 190 192
-210.848288440324 585.145364253052 2647.55004945557 192 191 196
-208.107304053899 583.958732431083 2641.21193103896 195 194 199
-203.002779565479 583.247463708079 2636.7922652239 192 191 196
-198.69330321163 582.378396218017 2631.73914235975 187 186 191
-193.592355170585 581.667130051211 2627.32257636363 180 180 182
-189.290322769635 580.798757872387 2622.27621644823 172 170 175
-183.392484571778 580.244451289293 2618.4912008794 173 171 176
-172.676689726504 580.628474974444 2618.46472047243 182 180 183
-153.084297326136 582.726811076973 2625.28996573048 152 150 151
-122.128179695442 586.997864047156 2640.77901238123 184 182 183
-98.3191228537317 589.849799840779 2650.56157504314 92 91 89
-89.0072799394064 589.892139587575 2649.10701158973 103 102 100
-83.7387603036888 589.15618034179 2644.54536528098 109 107 108
-83.3589356574724 587.491469407069 2636.28674871753 110 108 109
-81.3708905821167 586.139144424505 2629.27904268962 160 158 161
-79.3998334201085 584.789137172989 2622.28604567787 140 138 143
-74.1628726753838 584.057128579887 2617.75172699399 135 133 138
-71.3950286845884 582.864214599766 2611.39036910135 148 146 149
-69.4648619078597 581.519624288971 2604.4327781544 167 165 168
-67.5517256872698 580.177387395078 2597.48993295242 184 182 185
-63.9978515836601 579.143045252635 2591.76952783012 155 153 156
-57.9599906942434 578.567426269031 2587.86328766635 141 139 142
-50.2526437651549 578.295732903629 2585.15491175447 134 132 135
-43.3686693043676 577.870496651994 2581.83791644629 148 146 149
-38.151452886912 577.14087756951 2577.32069539646 153 151 154
-34.6131835630534 576.108577060166 2571.61380226785 163 161 164
-32.7657553719809 574.775338881333 2564.727850265 178 176 179
-29.2490333789877 573.746149785199 2559.03961282052 173 171 174
-22.3601321267464 573.320190148943 2555.71835197264 150 150 152
-11.2275098986006 573.644493636532 2555.33066376577 140 140 142
-1.76543011969876 573.665006027902 2553.74634157629 149 149 151
5.16227117045709 573.233798935109 2550.3911698317 154 154 156
12.9511080378792 572.951011424224 2547.61223555149 158 158 160
22.4624119791299 572.96492466635 2545.9852917738 166 166 168
31.9933697066559 572.976109020411 2544.34101552353 166 166 168
42.4037465868441 573.133160850392 2543.25714624335 161 161 163
53.6993935204144 573.435270009857 2542.72830248424 160 160 162
69.3408680319196 574.473434550194 2545.04493948335 157 157 159
80.7027674980088 574.766561494814 2544.45873047786 147 147 149
88.6225218267906 574.466382676255 2541.56643802422 151 152 154
97.4235608214213 574.311857791512 2539.23262150427 156 157 159
107.983862556399 574.448958559424 2538.01893624684 156 157 159
118.568203435552 574.582971654892 2536.78443540727 153 155 154
129.176572529039 574.713748834424 2535.52912941947 153 155 154
157.363757351128 577.76088472592 2545.48552890561 157 159 158
217.32871473254 586.038481881762 2575.50627470625 154 156 155
263.436394242699 591.954718904315 2596.37917148664 128 130 129
281.44794303005 593.201292006032 2599.28706668393 136 138 137
-198.253963220483 587.97543679962 2693.52007531633 190 192 189
-206.341911504202 584.589033556414 2678.05512239924 192 194 193
-210.581053056105 581.993860356059 2665.86576302688 191 192 194
-212.512283502416 579.87360697793 2655.64307477927 189 190 192
-211.329252314521 578.381555770012 2648.01074778083 190 189 194
-207.007725312423 577.514129197297 2642.9471695535 192 191 196
-202.69086780686 576.647263840276 2637.88795042281 197 196 201
-198.378799865807 575.780833899545 2632.83287975834 188 187 192
-194.867854976418 574.76017807392 2627.14959424141 181 181 183
-190.567515758809 573.894938397982 2622.10468157018 174 172 177
-183.071347679159 573.646594482767 2619.57919065283 174 172 177
-171.552713893328 574.165375059838 2620.17893300961 167 165 168
-147.134032952333 577.135711067265 2630.75560618774 125 123 124
-115.361369729342 581.471397051833 2646.85976547182 145 143 144
-93.9630318198685 583.800058773001 2654.76539309731 106 105 103
-86.2606358924785 583.521973344508 2652.06103430445 105 104 102
-81.7961840071737 582.632716010115 2646.8740349202 105 103 104
-80.594414332726 581.135685928856 2639.22549886514 114 112 113
-78.5975129394107 579.793224997538 2632.20973731598 148 146 149
-76.6174903213055 578.45305935318 2625.20890584731 137 135 140
-71.3722253264955 577.720082129599 2620.66739584814 137 135 140
-69.4181585593232 576.38341199891 2613.68903859743 159 157 160
-66.6564781979133 575.199622318855 2607.33296381824 178 176 179
-63.9077533475909 574.017577377056 2600.98810674024 166 164 167
-60.3430868003878 572.987493183033 2595.25863534039 142 140 143
-55.1258550811578 572.258081641436 2590.74139968309 141 139 142
-47.411091310336 571.977342494946 2588.02633843194 138 136 139
-40.5193471178489 571.54573001252 2584.70265013614 155 153 156
-36.130805067061 570.666186537795 2579.58138158796 159 157 160
-32.5859384126361 569.638626856114 2573.86873959512 168 166 169
-30.7317370026774 568.31558540251 2566.97685092497 179 177 180
-25.5224826164193 567.587278123485 2562.46652235325 170 168 171
-19.4688976970814 567.006936512541 2558.54668421029 144 144 146
-8.32955392522194 567.311261053993 2558.15329966395 140 140 142
0.290670007357718 567.170089948102 2555.97643103762 154 154 156
8.07508455244177 566.879791168072 2553.20106290351 157 157 159
14.1652309481466 566.294607850822 2549.24988250202 161 161 163
22.8242527326734 566.148159639697 2547.03910506576 165 165 167
30.6419628126875 565.853548811888 2544.23522194975 165 165 167
44.4860664899167 566.578151224558 2545.46489949003 158 158 160
57.50906748866 567.151749668126 2546.08397387333 158 158 160
71.4315230911571 567.865680536274 2547.24581013553 155 155 157
77.6059477451563 567.269424572683 2543.22133897641 147 147 149
84.6515256382587 566.817454390356 2539.7644494012 151 152 154
94.3129102579654 566.797839113803 2538.0073270577 148 149 151
104.865796001012 566.919709452023 2536.80016820061 154 155 157
117.189579535663 567.326106808368 2536.70278657538 154 156 155
129.545715015357 567.728289248525 2536.57770718212 146 148 147
157.73004451471 570.705106298662 2546.5373526598 149 151 150
219.44405183074 579.101084150737 2577.68788864757 149 151 150
262.022352494064 584.321590319244 2596.33097428859 131 133 132
280.912507158626 585.67318602676 2599.79993051397 144 146 145
-200.303413760678 580.785108127594 2692.69616401802 192 194 191
-208.391968480385 577.445437881796 2677.23143388981 194 196 195
-214.199861746368 574.576152804495 2663.75702252376 189 190 192
-215.351726233715 572.634921570774 2654.18093058967 190 191 193
-212.598295214015 571.463591271571 2647.83192507436 196 195 200
-208.278253855732 570.599381278136 2642.76992917726 192 191 196
-204.75501019433 569.58311766164 2637.07595541092 210 209 214
-202.828277846243 568.263483314767 2630.12117949146 217 216 221
-197.735142048345 567.55371838084 2625.71137491925 213 213 215
-191.046723549132 567.147272288434 2622.56375323144 209 207 212
-181.151004102224 567.345068108788 2621.92569202576 204 202 207
-167.221550713187 568.294876750087 2624.40319543308 158 156 159
-141.186867331748 571.500465313298 2636.22453402418 162 160 161
-107.791953209962 576.045897007868 2653.56779272991 135 133 134
-89.6096791543992 577.716828601622 2658.97148609118 101 100 98
-84.3258783935106 576.979350399164 2654.39660492484 103 102 100
-82.2917390160418 575.643065540066 2647.34884336805 101 99 100
-79.4604868378963 574.458470240869 2640.932473415 118 116 117
-75.0095268431803 573.573814586755 2635.75713811827 135 133 136
-71.3818430395996 572.540880810016 2629.97275034971 139 137 142
-69.4037461676449 571.212053450568 2622.97351452209 140 138 143
-68.2650334292765 569.737259218587 2615.37948809123 171 169 172
-65.4987064086492 568.561227829951 2609.01933561155 185 183 186
-61.9188209910302 567.534581418652 2603.2763356799 148 146 149
-58.3477646527864 566.5091539759 2597.54098032977 132 130 133
