ply
format ascii 1.0
comment KinectMotionCapture
element vertex 783
property float x
property float y
property float z
property uchar red
property uchar green
property uchar blue
end_header
125.646263713479 493.338687956203 3735.04837921859 171 171 173
135.811773321463 492.413287345924 3735.93465479365 160 160 162
145.962400882263 491.488751987811 3736.81489817467 211 211 213
160.772158119272 489.702678101236 3726.64165103787 204 204 206
179.375873845899 487.205617362695 3707.22082960807 160 160 160
194.392960739608 485.361494715406 3696.05290340682 152 152 152
206.655647618573 484.022329026872 3691.31834136671 180 180 180
217.355454556516 482.970719136302 3690.26403327058 190 190 190
228.406780243868 481.849945064027 3688.2737687323 188 188 188
239.053371709605 480.801963104604 3687.19814379565 197 197 197
250.046424787314 479.685208100942 3685.1842546264 192 192 192
262.116659346734 478.359786116346 3680.3714086031 176 176 176
273.407791787567 477.177816896903 3677.39989582247 168 168 168
285.027426957878 475.928507011875 3673.48309375424 188 188 188
295.521630995778 474.891094490115 3672.34543088577 194 194 194
304.194966200896 474.202696988276 3675.86242083591 158 156 159
310.728967314032 473.929575985501 3684.98342517291 163 161 164
318.001195031899 473.515613058843 3692.24652627131 158 156 159
327.050676432798 472.755532315907 3694.83755035195 168 166 169
335.397013882824 472.132861840785 3699.30045117411 188 186 189
344.094460745006 471.441089503033 3702.827229344 194 192 195
351.416210858977 471.022052319774 3710.11042017182 164 162 165
359.781685581741 470.396993466942 3714.58134487017 169 167 170
365.780571709346 470.246161884889 3725.64237430033 199 197 200
371.819560488556 470.091839220376 3736.71966747195 220 218 221
378.89965346284 469.731747328833 3744.98363161368 143 141 144
389.316195154502 468.697005891216 3743.81450356437 150 150 150
404.964594442792 466.591518821699 3727.50987441441 172 172 172
416.592968282399 465.296262769424 3722.51789346105 145 145 145
429.469235547654 463.737918971537 3713.71768006358 142 142 144
440.031762240586 462.649574678639 3711.52951568703 146 146 148
451.200265576061 461.431006288687 3707.42956329068 164 164 166
460.115830656235 460.677605206084 3709.96631497014 162 162 164
467.771977593583 460.187652021884 3716.30663008737 156 156 156
476.06434930653 459.565042935719 3720.74768009894 159 159 159
483.744227839512 459.072656612727 3727.09762241393 163 163 161
-17.2009360738667 500.460293839952 3834.67414257297 133 133 131
-7.01784879998812 499.58267515171 3836.64598119009 201 201 201
1.91050194688591 498.918914046588 3841.34484653579 141 141 141
13.7323214304259 497.757867390696 3839.66685474169 165 165 167
25.5241748379891 496.598920484404 3837.97697120636 200 200 202
49.1027965682183 493.396606272561 3809.78694654915 148 148 150
78.5782255816307 489.152930079577 3767.80923964004 182 182 184
98.1430445595475 486.612112856495 3747.69908563837 219 219 221
113.178007200948 484.850597982686 3737.61657919993 172 172 174
123.766688330673 483.861848231604 3737.59586595719 144 144 146
136.704119094516 482.457175655976 3732.05593409852 162 162 164
148.022168345006 481.333531175109 3730.17368580155 213 213 215
165.545270852853 479.105882365587 3713.55022853614 213 213 215
180.634028963788 477.300330602155 3702.41102914708 147 147 147
194.103303613228 475.775785122592 3694.92947220695 152 152 152
205.983391604291 474.52991487413 3691.11809957235 184 184 184
216.684437365531 473.491910505469 3690.06418994087 193 193 193
226.606129531868 472.591879424505 3690.85155326402 187 187 187
236.887117340251 471.624847601986 3690.70609255556 198 198 198
248.635669870902 470.388223497456 3686.8411348335 196 196 196
261.082365066583 469.019472064014 3681.10223534141 210 210 210
270.91011892853 468.125727434887 3681.85177328642 195 195 195
281.08704999302 467.165809501171 3681.66386959039 173 173 173
289.796336388274 466.474922310539 3685.19543479432 162 162 162
299.583226529961 465.583538953833 3685.92815218365 163 161 164
308.641256471359 464.826203107938 3688.52261670231 175 173 176
318.402379258352 463.936323265523 3689.24488967572 191 189 192
327.796317915429 463.113540699902 3690.89704918263 198 196 199
335.085275032612 462.686790266589 3698.1670208223 200 198 201
342.047656344304 462.32385048248 3706.38308870403 164 162 165
349.378984447127 461.893169788444 3713.67050307299 159 157 160
358.096236252653 461.199350133329 3717.20531564249 193 191 194
364.440383958485 460.9610505292 3727.32799388426 204 202 205
371.828852024943 460.524966459399 3734.63832754995 184 182 185
378.569322755137 460.216433623101 3743.84319838675 117 115 118
390.309924431326 458.937750589457 3738.89653207176 157 157 157
404.963512030228 457.083794501515 3725.42388582478 171 171 171
417.241399465577 455.685569559804 3718.53779529559 145 145 145
428.815363585227 454.419356650174 3713.52356409232 143 143 145
439.379300002954 453.347623032169 3711.33584459897 156 156 158
450.230944174376 452.21463105087 3708.18575766556 164 164 166
458.833408453481 451.52729059183 3711.67404446687 157 157 159
466.80788505766 450.965901094304 3717.06498233928 154 154 154
474.48070838643 450.466377568689 3723.41212215004 157 157 157
483.093456602856 449.777385467132 3726.90458536384 163 163 161
491.093411859585 449.213200254384 3732.30586055323 164 165 160
-17.4987121311492 490.306971387963 3833.55146919958 137 138 133
-10.6600386245146 489.983529829497 3842.7962146501 181 181 181
-0.468061818112542 489.110198144835 3844.77162008175 175 175 175
11.7780077292202 487.896357043565 3842.18699616218 212 212 214
26.4503635655469 486.277008014373 3834.11446872782 188 188 190
50.4335314840467 483.103246611428 3805.00921739528 157 157 159
75.8550254920274 479.673158005403 3772.17278721438 212 212 214
96.2429532234255 477.067513461154 3750.2387792124 148 148 150
110.888562540075 475.413497538321 3741.07687692357 135 135 137
125.463629189918 473.764747224167 3731.88611526942 200 200 202
137.203102914742 472.588890820695 3729.09608637043 228 228 230
149.299774272599 471.348949597716 3725.37236186893 208 209 211
163.305681310786 469.779936293427 3717.0296124984 154 155 157
177.633286515694 468.149626251731 3707.73851568307 161 161 161
191.505066066501 466.590666329922 3699.34164006613 196 196 196
204.164352059158 465.233963941725 3693.68846852922 208 208 208
215.253859727798 464.143424769848 3691.71369165938 210 210 210
227.06756850496 462.924174048768 3687.87498355522 208 208 208
237.341972712673 461.968662635497 3687.72676987186 201 201 201
248.71251938598 460.819495146464 3684.78716272415 198 198 198
258.938728187264 459.867219347909 3684.61941053649 174 174 174
269.878749192672 458.787124399732 3682.58377118299 159 159 159
279.694664010139 457.90233316765 3683.32819049177 151 151 151
288.771235329426 457.14684589684 3685.93014827151 160 160 160
298.202094234036 456.327524722147 3687.59697306259 166 166 168
309.764002280214 455.126081291383 3683.65643487538 163 163 165
319.867703900559 454.181902966355 3683.43876179337 167 167 169
328.895259064446 453.429223183816 3686.02085199845 164 164 166
335.47238930115 453.118971419465 3695.15960045362 178 178 180
341.732908323854 452.869006071711 3705.24850645619 196 196 198
348.028589002917 452.615985939365 3715.35167231919 212 210 213
355.042721154859 452.234773682857 3723.58908947704 190 188 191
362.760117958643 451.726533107447 3729.95434284546 158 158 160
370.828945037995 451.154714895501 3735.38330437826 147 145 148
378.907351280727 450.581848393935 3740.81640961887 134 132 135
390.642323536578 449.328538003561 3735.86727167368 158 158 158
404.305007698942 447.709305049287 3725.22831815253 158 158 158
416.258819391246 446.402712729683 3719.28912524003 146 146 146
427.837205007223 445.161130510166 3714.27675480198 152 152 154
438.405190545984 444.105833754659 3712.09029295562 179 179 181
448.304301503782 443.17427278422 3711.78994415169 148 148 150
456.600863586485 442.546878383257 3716.23272708572 133 133 135
464.901718444423 441.918889825323 3720.67725263762 151 151 151
473.51812756763 441.230160605934 3724.17119613411 158 158 158
481.20754465584 440.72107328568 3730.52512713167 161 161 159
490.442202415953 439.911926440728 3732.11269157482 164 165 160
-21.1602838554712 480.686766290502 3839.69401469278 141 142 137
-12.2148370659594 480.01593666618 3844.40011290923 177 177 175
-4.09454258547481 479.475745374951 3850.92873887527 150 150 150
9.82268088270111 478.017576952214 3844.70685826726 137 138 140
24.9157926880061 476.36770791404 3835.72611513899 162 163 165
49.3190860228827 473.226794296456 3805.71191249567 143 143 145
72.72458560869 470.230062573442 3777.45023364732 186 186 188
92.3279075111054 467.82895511322 3757.35461024557 135 135 137
110.999222904337 465.566886654016 3739.03844363523 155 155 157
125.572074038937 463.956727547055 3729.84674965035 220 221 223
138.888821131488 462.544026634454 3723.38139577322 205 206 208
149.008959527235 461.646325413716 3724.2490909115 181 185 186
162.624928534777 460.176638171428 3716.82677089557 164 168 169
175.792818301673 458.77490902432 3710.30106257704 216 218 217
190.060050303467 457.187573754036 3700.98545256824 216 218 217
202.344050932641 455.920847198407 3696.25871401943 216 218 217
213.822587706998 454.783163794522 3693.36274425367 216 218 217
224.510849797605 453.77335002088 3692.30370215387 211 213 212
235.548731265544 452.702821897451 3690.30761329564 192 194 193
246.928490619994 451.572157466019 3687.37159604924 186 188 187
258.272715184378 450.444069284989 3684.42117149037 141 143 142
269.948684364865 449.256682938001 3680.52645207438 139 141 140
280.489729669613 448.257232744137 3679.40772438603 138 140 139
289.556678642197 447.505292836571 3682.00550203105 144 146 145
297.899006185198 446.876045449054 3686.46708634796 152 154 153
308.38893417581 445.879843620763 3685.32737977236 157 159 158
318.853189219316 444.885446237595 3684.17752195139 181 183 182
328.235813918949 444.074728656776 3685.8247518411 197 199 198
335.511041032858 443.627232804358 3693.08932154417 213 215 214
341.76538717548 443.358613225416 3703.17586958524 213 215 214
348.054813435445 443.08695485212 3713.2769015775 208 208 208
355.405090455218 442.632720902965 3720.57190952963 140 140 140
362.775221556469 442.176644959686 3727.87497022074 149 151 150
370.501974467095 441.659309407107 3734.2440807481 150 150 150
378.912028884661 441.022101299761 3738.73289031108 139 139 139
389.980422279113 439.912070922806 3735.67064678902 138 138 136
402.987926859723 438.451718456721 3726.92282770482 138 140 137
414.948901174855 437.172289353642 3720.98658622441 151 153 150
426.210232218597 436.013519435824 3716.92402308108 170 172 171
435.822465693184 435.148900381711 3717.58582035499 172 174 173
446.694967936769 434.053239403499 3714.44415297521 132 133 135
455.6322434664 433.307119960114 3716.98938264272 144 144 146
465.505560533547 432.388392177832 3716.67849280283 156 156 156
473.489129798109 431.815552475422 3722.07319901855 163 163 163
481.173125411302 431.29892952278 3728.42499201725 152 152 150
489.177915991368 430.723905812416 3733.82804992118 159 160 155
-12.6232393159773 469.19110194384 3819.50241513858 136 137 132
-16.2793509089438 470.415335819392 3851.45816953681 174 174 172
-5.64513127805366 469.487485276132 3852.53424105514 172 172 170
9.10572099406282 467.933364508276 3844.49300186004 143 145 144
25.4335258539458 466.134035633704 3832.77662842561 102 102 102
49.02061385395 463.21936574278 3804.58785143562 155 155 155
69.9974091934581 460.691197620012 3781.81287637 143 143 143
92.0365733427311 457.988508031185 3756.23243086397 199 197 198
110.309827023432 455.853866847232 3738.83293416081 222 220 221
126.875172639535 453.974256198023 3725.05547429924 128 128 128
137.809299433554 452.960489867448 3724.09601103835 124 126 125
148.325679311685 452.009528758087 3724.04547987602 113 117 116
161.16368853357 450.694402265268 3718.46461420325 119 123 122
174.726638885829 449.261583231819 3711.02054785779 108 110 109
188.999454731598 447.712247012085 3701.70665345892 111 113 112
202.053258364261 446.34924506063 3695.13471615645 115 117 116
213.910954965181 445.170753112812 3691.3137666972 119 121 120
224.973004383277 444.115032572735 3689.32735103362 127 129 128
234.129321219127 443.36004168983 3691.96159344656 135 137 136
244.39826003409 442.426667428654 3691.81074184419 125 127 126
255.016759367771 441.435352241783 3690.72331308325 140 142 141
268.182045846331 440.032012398178 3683.11775477693 135 137 136
278.731905521992 439.045642249912 3682.00249682185 157 159 158
289.256362061553 438.06103611004 3680.87668271936 171 173 172
297.23638281091 437.487760236606 3686.26995547244 161 166 162
309.156685796012 436.272085473857 3681.39557136102 171 176 172
317.483517719688 435.640858223664 3685.85063939153 188 193 189
327.224032811996 434.777373340839 3686.56436838851 180 185 181
334.50117274774 434.318826330434 3693.83005357093 143 145 142
342.145511843373 433.800936801771 3700.16579952643 130 132 129
349.115533329948 433.39620596613 3708.38527762571 135 137 134
355.768437285221 433.046356622333 3717.5550064625 131 133 130
362.790913968737 432.636946818857 3725.79575876535 164 166 163
370.175202362344 432.168670282832 3733.10490134773 168 170 167
378.91720314377 431.472605876257 3736.64975161714 163 163 161
389.982189204345 430.382263159318 3733.58572203605 120 122 117
401.340376986161 429.238519438704 3729.56226160649 128 130 125
413.311121574038 427.986022478854 3723.62977190212 162 164 161
424.906234523902 426.793093219899 3718.62354824054 177 179 178
434.846081331215 425.881004799475 3718.33954549737 182 184 183
445.084188925186 424.915090081024 3717.09790628261 125 126 128
454.029510837546 424.171321942954 3719.64637605133 145 145 147
463.597258284924 423.318028214805 3720.29007540456 160 160 160
471.59084498238 422.739179384998 3725.68888315556 158 158 158
478.975563386272 422.268273933567 3732.99796254598 152 152 150
486.686263506007 421.741316018795 3739.36064634672 158 159 154
-16.9997043638006 460.287038373102 3851.24327325093 163 163 161
-5.53305918824321 459.24680272429 3850.49962354685 173 173 171
8.38888656172521 457.848379979361 3844.27920210139 160 162 161
22.6662776558142 456.394284821752 3837.12456902682 151 151 151
43.0071521963544 454.050884106994 3816.24807270075 142 142 142
66.0513578912756 451.302323012237 3788.91729281538 134 134 134
90.9394215120682 448.271174880119 3756.94066472661 214 212 213
111.623703899026 445.845196488106 3734.04622143838 117 115 116
125.393533622477 444.429924672174 3726.68578608409 160 160 160
135.542861026373 443.546453897467 3727.56519178243 165 165 165
148.428426678973 442.255206045301 3722.00340037854 177 181 180
163.215965401924 440.676826577907 3711.81932562891 217 221 220
177.151719604264 439.220161358883 3703.44732030342 222 224 223
189.479987849849 437.999596090394 3698.738412736 221 223 222
201.762854968828 436.782364289578 3694.01084008018 217 219 218
214.000176106365 435.56851685112 3689.26480052604 219 221 220
223.925148085669 434.701117717262 3690.053244481 216 218 217
233.084419324145 433.948627519275 3692.68866415616 186 188 187
241.8659580315 433.253091883229 3696.24951904422 158 160 159
253.979122338379 432.048139684136 3691.45314184392 145 147 146
266.41417496952 430.790179146121 3685.70868859501 137 139 138
275.87760853895 429.985388051202 3687.38859250345 136 138 137
286.055861717512 429.069265502367 3687.20114939153 114 116 115
295.49357855603 428.266088049147 3688.87088577309 96 101 97
306.70843832302 427.185609262765 3685.86772145642 67 72 68
315.402917101265 426.495342322924 3689.39328645961 42 47 43
324.097137009671 425.804841844418 3692.9187484184 66 71 67
332.091376295295 425.224063778008 3698.31757779428 80 85 81
340.442751104053 424.587529635251 3702.78262329018 56 58 55
350.17794520232 423.732127196018 3703.49439381814 61 63 60
357.501767361485 423.258260602534 3710.77883919439 50 52 49
363.826293160606 422.945061969874 3720.89414037912 40 42 39
369.174278723881 422.790698484919 3733.84952505831 99 101 98
378.253663654432 422.040801522955 3736.45257967633 90 90 88
389.652327322956 420.916287370231 3732.44510466562 130 132 127
400.021002727498 419.954852482356 3731.25629747806 152 154 149
411.017842760784 418.88897201024 3728.16474786186 169 171 168
422.627588049925 417.719854925394 3723.16426824118 161 163 162
432.903126422048 416.765161930897 3721.93744219962 158 160 159
442.194250170063 415.969967375233 3723.54776356739 132 133 135
451.157741933668 415.227763423069 3726.10357832427 142 142 144
461.37273210583 414.277279317995 3724.85246206908 156 156 156
470.002487937736 413.588299641279 3728.35181145193 151 151 151
478.012883367842 413.002640043632 3733.75721933712 154 154 152
484.498656152692 412.673686839437 3743.9381849279 162 163 158
-7.50014007606303 449.303534353108 3853.01495810076 178 179 174
6.43166413378782 447.934362618542 3846.79856378785 175 175 173
20.3082406481698 446.56934231039 3840.55977670494 161 160 158
36.9887434436462 444.81046533595 3827.90683618594 113 112 110
62.1023115890831 441.868928335762 3796.02083405643 126 125 123
89.4385494951584 438.604062743124 3758.5641198494 30 26 25
107.728779575555 436.594368511935 3741.17054970658 64 63 61
123.51291888228 434.929959222019 3729.23302728092 198 198 196
134.857909106579 433.88640228763 3727.36108015194 192 192 190
148.925276874148 432.455474114683 3719.04216914842 234 236 233
162.926936456385 431.029527717718 3710.69661560487 189 194 190
178.415393947987 429.387558438117 3698.63920361424 111 113 110
190.733030458556 428.192528446475 3693.92554055552 86 88 85
204.537383297088 426.781496979765 3685.49998585573 16 18 15
215.992732204923 425.703304758189 3682.59417655986 9 11 8
226.656739505483 424.736573906819 3681.52473008376 20 22 19
233.540867849074 424.314059887676 3689.70982267513 30 32 29
241.569148917567 423.727187046812 3695.12273875142 37 39 36
251.089136278911 422.92390785526 3696.82552943043 56 58 55
260.9667391001 422.067584263603 3697.59470999868 47 49 46
266.080194452251 421.906935308946 3710.45518269619 28 30 27
279.224994088774 420.570867704285 3702.84081950718 37 39 36
291.2279826126 419.398519665058 3697.99984300742 33 38 34
306.046608294023 417.806929979677 3685.67083899046 33 38 32
314.03105358889 417.221951512244 3691.06573468664 27 32 26
324.846220914248 416.216545782506 3688.97897683717 21 26 20
331.429792758439 415.840104668768 3698.12083515088 22 24 19
339.433609044307 415.252958410974 3703.52384768213 25 27 22
350.20720068654 414.250189107554 3701.42023614921 17 19 14
361.634897512346 413.146418399807 3697.42435922889 15 17 12
364.183598793918 413.382653386289 3717.87460969652 17 19 14
377.589926447534 412.608355297314 3736.2553325463 4 5 0
392.977977783208 410.89610322364 3720.9211178809 10 12 7
398.700687708475 410.65954935852 3732.94978341484 43 45 40
408.395234962288 409.814246958376 3733.64476254085 114 116 113
419.697380801639 408.718968435501 3729.59824377215 141 143 142
431.280512463483 407.576752037081 3724.58678458212 146 148 147
439.621034179536 406.936071515911 3729.04746716596 137 138 140
448.282982179644 406.245228739228 3732.55986505184 154 154 156
456.944158011763 405.554237923608 3736.07195141445 160 160 160
466.228565403883 404.764731181096 3737.67951026514 157 157 157
474.264126413213 404.171847352785 3743.09516227309 152 152 150
482.308922754067 403.578047084188 3748.51481777436 159 160 155
-9.05210542445545 439.288448775886 3854.62036343879 182 183 178
3.64596316185928 438.112252745186 3851.13965725069 122 121 116
16.3041560529338 436.939042076743 3847.64252582082 130 129 125
29.3308119247566 435.714656922174 3843.2164194178 102 98 95
58.9623994440549 432.283225334913 3801.2955261641 87 84 79
81.8837014697622 429.7309628842 3773.91349556206 73 70 65
99.8207126159956 427.834189148152 3757.45486180768 31 27 24
117.64640066342 425.94597587016 3740.95134645849 48 47 43
134.568949525824 424.172597017485 3726.23890231367 44 45 39
136.440894296207 424.417488994568 3746.41481601192 53 56 49
190.444782391422 418.621412137815 3692.80256926065 42 44 39
193.518198197258 418.705070356042 3710.22949053527 30 32 27
198.190657538109 418.574880790161 3723.9902415627 27 29 24
205.566404720648 418.078085746057 3731.2958848051 34 36 31
257.09040504833 412.539752535437 3679.91401983872 31 33 28
247.785678278857 414.34208653534 3728.99839799945 33 35 30
274.202171904975 411.726228840324 3713.8208809059 32 34 29
278.308535822911 411.682675951647 3729.50938350457 29 34 28
307.889853828166 408.076900884913 3678.93847835588 30 35 28
330.780446636834 405.392414174183 3645.07165271938 32 37 30
327.360581556919 406.401073428079 3680.36163454012 31 36 29
331.468545117364 406.35654199326 3696.05079223984 30 33 26
323.124185990443 408.08098505174 3745.52434963265 29 32 25
350.257182898561 405.880775253626 3754.36936889364 24 27 20
375.272415989439 402.852744808049 3712.73416222246 6 9 2
393.315571587039 401.373692405429 3717.8933028458 8 10 5
395.06956162236 401.687816237156 3741.2576144042 11 13 8
404.460326569221 400.896792538769 3742.90799094818 112 114 111
414.490035821835 400.011477535495 3742.66016993838 141 143 142
426.432931250547 398.844021746719 3736.71575971752 126 128 127
435.765820815485 398.057010119416 3738.34292974481 126 127 129
446.039773980595 397.130044333346 3737.11525169947 139 139 141
455.028554626351 396.391659546495 3739.68153402421 151 151 151
464.635972725612 395.560597742572 3740.3411272319 148 148 148
472.059567233451 395.054452667009 3747.6662143886 155 155 153
480.424025689891 394.408363836727 3752.13662978285 163 164 159
-11.8539918799316 429.417618538102 3858.95527280089 191 192 187
0.0307429245733903 428.365669911358 3857.30192804197 194 193 188
11.4743127298602 427.367422491877 3856.54835979778 134 133 128
24.5282989512434 426.165454927195 3852.1331493408 88 85 80
48.9133666380441 423.533982972742 3822.10744860599 85 82 77
76.3410431164744 420.509286162697 3784.68593681633 57 54 49
193.244890047971 408.658598102661 3684.30178349187 42 44 39
188.370338801687 410.166870605685 3745.97099041037 25 27 22
234.400491954238 404.659660850578 3658.91910218483 39 41 36
240.482176156016 405.20373318002 3719.63742178215 32 34 29
279.342708117343 401.478006104248 3698.71770997056 26 28 23
294.945557926499 399.880222211171 3684.54840619377 25 30 23
324.416371223737 396.442978334021 3633.9317382764 23 28 21
327.638958899253 396.471285997778 3651.41947772818 28 33 26
331.29032183261 396.446450223568 3668.00267714539 35 40 33
315.737528891267 398.98719267861 3736.12936679342 39 44 37
327.324258027782 397.915489831745 3732.19763786535 37 40 33
361.002767567557 394.350707125103 3695.15326436542 23 26 19
367.856755255385 394.391285090593 3731.37345542173 21 24 17
398.386947235362 390.735756433789 3673.63520552305 5 6 0
394.406163867763 392.25997576531 3741.06046980564 19 21 16
403.469834345531 391.519543044115 3743.6570900165 140 142 139
412.852918667822 390.734672100746 3745.30431009371 146 148 147
424.805546205033 389.594196310957 3739.36363583372 118 120 119
434.786662493717 388.723625431864 3739.09602812005 134 135 137
444.429342261986 387.898661607281 3739.76985230712 140 140 142
453.111186366838 387.206571268077 3743.29031544128 156 156 156
462.417110963366 386.426901959592 3744.90625466424 148 148 148
469.852739545958 385.909083166452 3752.23656004286 159 159 157
479.151905472482 385.129605622133 3753.84976127461 166 167 162
-12.5744742638447 419.272608941874 3858.74045098609 146 147 142
-1.10244796648162 418.285870415522 3857.99831734002 189 188 183
9.93317320118514 417.349730754245 3858.15816818764 183 182 177
23.8122201589235 416.074507640191 3851.91970073152 79 76 71
52.2694833914654 413.059749196558 3812.75685526712 85 82 77
80.8925498287707 410.01538696648 3772.58281581951 51 48 43
151.498559189373 403.39184980238 3732.1720285651 22 25 18
217.980667461713 395.723195352421 3599.47310991989 26 28 23
233.894315876853 394.154989449498 3585.42942210752 30 32 27
219.403780910428 396.278027583501 3644.27959083823 18 20 15
225.797701123221 395.86958336421 3653.34490312246 22 24 19
208.971024352018 398.681027362145 3744.68907688722 29 31 26
238.066469677283 395.499297116111 3698.23397820917 27 29 24
253.904510438387 393.935960663978 3684.15964048329 27 29 24
256.751541115423 393.969966432527 3702.57434174228 27 29 24
269.924290390502 392.731107033294 3694.97055835256 25 27 22
281.582593640662 391.676980993557 3691.06793327606 25 27 22
301.859390181546 389.550196373054 3664.76955238661 23 28 21
318.032643443188 387.926959039424 3648.67377757704 22 28 18
314.534352252505 388.754977163845 3683.93311720414 22 28 18
309.089276832319 389.834427975205 3724.8756751871 21 27 17
322.431240410999 388.564818251016 3716.26183040787 20 26 16
346.498283364051 385.942108500644 3678.55538306203 21 24 15
377.944268525677 382.377522542528 3620.10817665509 16 19 10
355.19851993772 385.654740428822 3709.05222966317 16 19 10
354.365414180363 386.173013077076 3738.91992572273 15 18 9
359.757226325284 385.90572725006 3751.89391139544 13 16 7
377.609957266849 384.050486975391 3730.00654042636 14 15 7
393.412203753214 382.873935415527 3741.80797415522 4 6 1
402.47876988676 382.136262082089 3744.40574588123 122 124 121
411.214404739302 381.440851476384 3747.94801367542 126 128 127
422.53122833919 380.410970752468 3743.90694213066 129 131 130
433.806855182689 379.384195000034 3739.84890954921 122 123 125
444.405836203727 378.443319755469 3737.67413027056 160 160 162
454.028197355388 377.628319447156 3738.33965207273 146 146 146
461.758988606707 377.060362353947 3744.71078139315 141 141 141
468.263949523386 376.654232721943 3754.89984387254 159 159 157
476.033606630235 376.082822759205 3761.2867358748 156 157 152
-11.2105650860077 408.894503524984 3853.97679620601 129 130 124
0.249777273274798 407.922224568449 3853.230079443 182 183 177
9.62667186797139 407.182194981931 3857.03232697136 187 186 181
28.8253589347323 405.340388653698 3838.92624672302 75 74 69
58.8829720938215 402.274150370288 3796.09652925538 68 67 62
89.0865000068497 399.182614665733 3752.24701801728 27 24 19
172.735882297187 391.242856486272 3680.44532767174 38 41 34
216.242469250726 386.894878106444 3625.80850339259 24 27 20
220.276454754616 386.737877709915 3640.38949501452 19 22 15
225.133949812411 386.4885083443 3653.14726090212 21 24 17
207.316795016437 388.844347737757 3721.4373361075 26 29 22
259.547392415571 383.776395608295 3668.18038565097 20 23 16
261.97976033103 383.812687576722 3687.50598370502 20 23 16
271.453694424514 383.034763296577 3689.18993555826 20 23 16
283.825577630125 381.919202925926 3683.41882610125 20 23 16
303.727373486047 379.92378895064 3658.04667970282 18 23 16
312.359565437227 379.2390023363 3661.54698367087 19 24 17
305.687126098621 380.346300646289 3705.22906126376 21 26 19
318.668570178112 379.154809846507 3697.54746071223 21 26 19
329.483672555055 378.215673130454 3695.4604314911 23 26 19
355.941741491363 375.430433603899 3651.17089690394 23 26 19
373.842174084583 373.646574993977 3629.3022989427 28 31 24
356.939279898098 375.981341439403 3702.27820133036 26 29 22
357.786648878326 376.222148396625 3727.43385767066 24 27 20
379.039444895473 374.037433671105 3696.1367932175 20 23 16
409.501266040563 370.745632753289 3638.36784626765 20 21 15
389.442723844902 373.838883265419 3751.05809615926 23 25 20
398.535045573694 373.102135753544 3753.66628912615 8 10 7
410.876313418878 371.973069398101 3746.80407795451 118 120 119
422.515313701482 370.926469413544 3741.81451482756 127 129 128
434.107945359847 369.883371271881 3736.80615082958 118 119 121
443.111311475627 369.153051369427 3739.37827757835 168 168 170
453.054808647181 368.307682748673 3739.09524712395 142 142 142
460.787710130074 367.731570884041 3745.46729267316 154 154 154
467.604332209725 367.268309605416 3754.70391222565 162 162 160
475.373596196405 366.688988039199 3761.09070502414 160 161 156
-9.4275562726136 398.49947389445 3848.30415204193 131 132 126
0.36077918477373 397.716070725998 3851.19450968232 176 179 172
8.08494727951259 397.149670761875 3858.64175367427 171 172 166
21.1523574674224 396.020348990152 3854.23117062454 60 61 55
100.928028135049 388.084963354818 3723.68031869752 46 45 40
132.506966898237 385.707758527371 3748.35208749085 27 32 25
149.738975512035 384.118501522235 3732.68473767398 26 31 24
197.027428787068 379.558699509687 3669.87046769076 43 46 39
205.021285819852 378.947580054283 3675.26962950117 26 29 22
217.221916768699 377.885011269753 3670.50758769816 24 27 20
215.7346118099 378.292976378782 3699.03217385883 27 30 23
240.090509919892 376.17063545026 3689.48995880476 22 25 18
279.679060937839 372.143625777446 3616.00210020207 22 25 18
269.05807618429 373.542803433196 3667.79327228587 21 24 17
263.462515577155 374.404192511457 3707.59748735944 22 25 18
282.434252958971 372.600215115387 3685.0839974821 22 25 18
306.320384503647 370.256537193884 3649.45980168807 29 34 27
306.802024327395 370.72079386395 3700.358879219 21 26 19
319.419623179662 369.602001336042 3693.60847464503 19 24 17
339.703872017691 367.639659380661 3666.23305656401 22 25 18
342.046966456383 367.64567503619 3686.60180327483 23 26 19
353.476060922672 366.652767930769 3682.60565193338 17 20 13
363.147032016764 365.852648684028 3683.29074276307 19 22 15
373.824996083722 364.940395116731 3681.14772621661 20 23 16
393.945710029802 362.979621125718 3652.62727398625 22 25 18
390.05103398004 363.682780214087 3690.96374824144 24 25 19
395.341906486483 363.368475214864 3703.89722056091 30 32 27
388.115016558676 364.453211062748 3752.74953121886 22 24 19
396.884586844864 363.755717049281 3756.3055550218 21 23 20
410.212736763411 362.546812222932 3746.60684891929 96 98 97
420.884237082958 361.634024684429 3744.46121929458 149 151 150
432.165833792296 360.651339035316 3740.40526967862 175 176 178
441.815729903724 359.851359815359 3741.08208356206 149 149 151
451.765315029649 359.016789538744 3740.80117900228 154 154 154
459.815838177856 358.396839293763 3746.22335145705 169 169 169
466.94439101493 357.881918996537 3754.50785298505 158 158 156
474.713220040158 357.294681669834 3760.89452967003 164 165 160
-4.50348021271285 388.010245754819 3860.0874260744 167 170 163
4.48188072826516 387.308777157819 3864.80966025701 159 160 154
18.3880546175152 386.121659270971 3858.58150849001 45 46 40
33.4601534002814 384.8180867036 3849.58963250469 35 36 30
153.115149903486 373.87147124429 3698.5258982797 29 34 27
161.593804373402 373.208864923097 3703.04293325681 27 32 25
183.703478128618 371.187060666275 3675.32800215302 29 32 25
188.598814449604 371.063940376383 3712.91426342442 29 32 25
240.464988260248 366.237983807297 3636.8514118031 37 40 33
217.849524154764 368.691917848471 3717.22347674353 30 33 26
268.973399440244 363.740476655489 3616.04663695423 34 37 30
275.31119815689 363.286169774669 3625.08957366805 32 35 28
266.550688018717 364.354885771861 3672.24198840509 30 33 26
265.724258001598 364.627378548052 3699.95637685573 26 29 22
285.773015558719 362.791303142547 3674.64252646785 26 29 22
302.050545957551 361.333608559512 3658.58746073819 21 26 19
304.944100380338 361.231202974734 3677.02203309368 19 24 17
324.308618748995 359.456894013668 3652.50947906808 16 21 14
332.553914069566 358.810584942683 3656.93164782072 15 20 13
334.481877248723 358.808164217809 3678.21118290933 21 24 17
337.20336336936 358.726759937796 3697.65473498542 22 25 18
336.549276505562 358.992361711631 3726.51776433531 27 30 23
355.617801150378 357.240831297362 3701.88519188909 26 29 22
374.192584668531 355.536273403664 3678.13115925703 26 29 22
385.848884443299 354.539159390226 3673.14848270849 26 29 22
391.075073178556 354.202795982229 3686.05593222319 26 27 21
392.349947436386 354.27494902083 3710.30689540775 12 14 9
389.764666252145 354.748415206627 3745.93885096302 14 16 11
395.889532609225 354.324423210723 3757.0529593786 15 17 14
408.571342014479 353.221448841958 3749.24962516269 196 198 197
418.928469413697 352.358294622232 3748.05514010223 193 195 194
429.259456085977 351.497086517128 3746.85031332183 161 162 164
438.609693641802 350.737338608214 3748.48404354984 144 144 146
448.580392581103 349.912372849162 3748.2118722507 169 169 169
458.216884158635 349.121725105479 3748.88293077657 176 176 176
466.284169356155 348.495087343497 3754.31168352957 160 160 158
475.901135607455 347.705734564419 3754.9750838 159 160 155
-6.88215936560899 378.020649036089 3863.51552392789 152 154 149
4.1748703525113 377.126008921738 3863.68372839093 128 130 125
16.441610266853 376.119731561644 3861.10590048021 72 74 69
126.888429100443 366.542643568213 3733.27572099173 30 32 27
167.452518403835 363.149359407711 3711.96469675648 27 30 23
182.53277655875 361.871855746403 3700.81805333468 33 36 27
199.838525721007 360.386554335498 3684.10070721936 27 30 21
215.148217250987 359.205819640419 3696.78180600681 22 25 16
254.477567880424 355.667230930903 3625.342913189 27 30 21
265.700081618951 354.741653266015 3622.341673803 27 30 21
266.478677333192 354.789591805238 3645.31332993751 28 31 22
273.640127612249 354.242937948246 3652.53258379545 29 32 23
276.788695251065 354.071502703341 3669.99186705465 34 37 28
289.116044580129 353.042208266482 3664.20207227372 36 39 30
299.223039882831 352.220035593384 3663.98506523737 28 33 26
301.769844018056 352.106316416328 3683.35813475107 28 33 27
311.889138936485 351.282892803254 3683.14611722393 27 32 26
329.067054890028 349.795724295197 3664.21941021175 25 30 24
328.551839897265 349.971171227889 3692.06054300581 20 22 17
322.935094112069 350.628934831286 3734.01559728955 18 20 15
337.960354709893 349.343240511716 3720.68913154199 22 24 19
353.581529061928 347.999778020089 3705.44651141272 21 23 18
363.981748747876 347.14809392884 3704.26938717395 21 23 18
385.19551891991 345.272621930146 3672.95417745654 21 23 18
390.419894216182 344.909039686485 3685.86109903398 22 23 18
396.028120284687 344.509686981357 3697.84490206135 10 15 9
393.40352894897 344.89285794617 3733.46136840092 18 23 17
395.222407650047 344.856006128051 3756.85461322092 15 17 12
404.972320543255 344.065510497822 3757.57159408238 7 7 7
416.000346169498 343.152786333146 3754.49151040916 0 0 0
424.74536571231 342.457304677177 3758.03757853662 86 84 85
435.400311022288 341.579116578273 3755.88498365129 118 114 113
444.444490497817 340.854477221147 3758.4735923838 122 118 115
454.109580427751 340.070096722273 3759.1561826763 124 123 119
463.758619152176 339.286890794159 3759.83226504628 136 135 130
475.241322302283 338.327029996314 3754.77901808291 136 135 130
-8.01712544130595 367.902705649033 3864.21174081307 139 144 137
1.3932292608223 367.159158327428 3868.02756276578 174 179 172
15.3141614411771 366.031041230229 3861.80468209003 13 18 11
58.1089879088694 362.440270160681 3790.69052331514 24 27 20
125.149334591342 356.833715998618 3687.33187898042 38 41 34
170.708455220434 353.109427780202 3654.02028175304 27 30 23
171.404167960394 353.219510672485 3725.50761851838 31 34 27
238.908289665377 347.551754097227 3612.62717233769 26 29 22
244.459393637963 347.132021598853 3623.50919336228 28 31 24
253.067215790376 346.45026414388 3626.99960721096 33 36 29
260.177262820883 345.896915699416 3634.19809900024 31 34 27
268.423391662962 345.246042438353 3638.62063983517 32 35 28
281.107087979429 344.213866586137 3631.89634112621 33 36 29
290.800167521603 343.43825985364 3632.590197712 31 34 27
292.463175078046 343.352985031634 3653.76308215426 29 32 25
300.010783328337 342.761904655557 3660.06021724125 23 26 19
314.039600965981 341.612844336325 3649.56568756792 24 27 20
320.144854079681 341.145677541015 3659.59337382977 27 30 23
321.327200723653 341.102920045916 3682.72919331152 28 31 24
324.725656995465 340.869678936779 3700.29012318256 25 28 21
326.803564545024 340.7507926367 3721.6312524636 23 26 19
340.759807060868 339.606886605354 3711.10755579518 20 23 16
352.919589106892 338.617535824096 3705.2496114444 20 23 16
370.833112452082 337.130322992102 3683.38380811538 20 23 16
370.307075800572 337.236961565848 3712.3001462149 20 23 16
391.782871952209 335.440216281856 3680.01136686653 20 23 16
386.023386637054 336.000635419998 3724.06723828194 16 23 15
384.457316274984 336.199123543642 3756.87701046647 11 18 10
383.376616978607 336.35653475799 3788.80506639776 17 22 16
406.271455531249 334.498803309643 3780.82688928095 17 13 12
419.584019142798 333.407261322766 3771.12072558809 64 56 53
431.550232195354 332.432118376113 3765.1842988293 111 102 97
440.304026601541 331.735971392216 3768.73392487989 130 121 112
450.62480037864 330.903278659282 3767.52474683171 135 128 118
461.230456603856 330.045463958489 3765.35204071975 106 102 93
2.73714293459637 356.840448080222 3863.25536174833 186 191 184
44.1300265665647 353.585366082128 3795.88651160263 14 19 12
86.758191285156 350.23337937835 3724.70306274381 35 40 33
106.689527390469 348.663501918137 3703.65514133282 37 40 33
129.70483503716 346.85147729249 3675.22675399757 36 39 32
142.542174211008 345.838457947505 3669.64306991072 37 40 33
168.446426060502 343.79961619667 3633.75487803703 38 41 34
187.81493996908 342.268297266743 3636.21436137652 29 30 24
161.416472162541 344.334576652312 3722.60982464618 31 34 27
174.984158782787 343.263730164093 3715.16493232892 31 34 27
225.047793074137 339.328634788738 3620.0242109221 34 37 30
243.222405954923 337.896297876188 3600.4215784684 33 36 29
248.359354309425 337.487023139778 3612.21463968865 30 33 26
249.770173917816 337.369970063245 3633.28565588478 33 36 29
258.770532686039 336.657260857164 3635.85643149552 31 34 27
271.859131641068 335.623726935553 3628.2170199252 29 32 25
278.234375270846 335.11677942306 3637.27551682116 27 30 23
282.804873946324 334.751272605163 3650.99651111035 26 29 22
296.543527795356 333.666495071094 3641.46307429508 26 29 22
302.247907367833 333.211804720973 3652.40716327051 28 31 24
311.227454485424 332.500116733885 3654.96950465053 27 30 23
323.770553568374 331.50887852418 3648.18796881989 27 30 23
323.501216736936 331.522245788812 3675.05081909231 27 30 23
324.413850734736 331.442733584259 3699.15652056517 25 28 21
331.724728104486 330.861376539642 3706.43653943605 23 26 19
336.281664129237 330.495789412223 3721.23110828255 22 25 18
355.355262637052 328.992144520098 3696.59871130289 22 25 18
361.634919071928 328.491299466399 3706.69726750808 21 24 17
376.427638806846 327.323150587891 3693.27549942077 21 24 17
381.367587732356 326.92708231897 3707.14657037738 20 23 16
371.854597764829 327.653835891735 3790.67895247631 11 19 8
367.404722297226 327.982691224625 3862.23909224507 24 20 19
400.094412203049 325.412113715491 3796.73574732332 26 18 16
415.059655381164 324.229891388217 3782.30513128754 31 17 14
428.014841346507 323.205073217503 3773.5328275348 62 47 40
437.107841631021 322.482625681603 3776.14118685419 100 88 74
447.136264541519 321.686860058562 3775.89216625368 117 108 93
456.832338863275 320.917031025631 3776.58719161115 109 103 91
52.0445700689707 343.03657570377 3776.51449687784 28 33 26
77.0982130556557 341.171706480191 3744.59607062713 12 17 10
90.2005399436989 340.165318744807 3739.11988515246 14 17 10
110.099603291788 338.672075729997 3718.05831586211 24 27 20
140.668282690244 336.415571626689 3672.19244905277 18 21 14
150.283191126453 335.660814170661 3673.93356204872 22 25 18
169.372016148018 334.228411137083 3653.62227998307 26 29 22
178.513749996352 333.507900814231 3656.25035649425 29 30 24
198.18280709477 332.035395522733 3634.01643674383 38 41 34
218.87247055379 330.491051940644 3608.9598733753 31 34 27
227.855049496418 329.782880112161 3611.52315844177 25 28 21
237.215042576194 329.047743777042 3613.16090928996 25 28 21
242.765864100895 328.583886946559 3624.04289317726 22 25 18
257.037131109226 327.499007539497 3613.6463002922 22 25 18
261.48637378933 327.113122419297 3627.31835334839 24 27 20
263.385330104333 326.907904736282 3647.50861553854 26 29 22
277.37238867241 325.772054983894 3662.89053103481 32 35 28
295.158425464087 324.438658513763 3643.13007415569 32 35 28
289.639700634302 324.756864282148 3682.96951667352 26 29 22
304.097490193321 323.659604308088 3671.56973114802 24 27 20
310.975346861757 323.098904565584 3679.75307456604 19 22 15
326.741750036172 321.909956519949 3664.56808538249 19 22 15
340.294333387291 320.878065628245 3654.95890907222 20 23 16
341.893847233556 320.689627798937 3677.18567545114 20 23 16
341.952464971125 320.530824814508 3731.15487861016 22 25 18
356.870948292658 319.402529890426 3717.78398645408 20 23 16
367.286637979504 318.591306499659 3716.61281922819 18 21 14
397.546069228359 316.387486297689 3659.83274481343 18 21 14
358.242662618242 318.980790436412 3827.30991983354 24 25 17
370.507430757901 318.037906601906 3821.4941314028 20 19 14
410.763198045801 315.055258219257 3763.37285088906 20 4 4
417.283059353857 314.51550662951 3773.56895924956 136 115 110
426.708813751622 313.772858768469 3775.23339332564 140 117 111
436.123716881012 313.030993854912 3776.89317063883 124 105 91
445.527603037544 312.28990671734 3778.54873858884 111 93 79
454.297745100817 311.592860555894 3782.10499050569 115 103 91
73.5504553510764 331.591295035173 3750.78439698697 27 32 25
92.7549656684055 330.215782375059 3731.59858923586 27 30 23
158.013575118851 325.73148048394 3630.74670738722 21 24 17
152.793107715491 325.942963766469 3666.39223135486 14 17 10
132.72732960129 327.110251898637 3737.01780265931 20 23 16
213.911844085954 321.618486165165 3595.1506839473 29 32 25
219.76720854883 321.114464777905 3605.07747140946 23 26 19
229.289053508251 320.244820589466 3630.51735421261 25 28 21
250.851546722763 318.733783920768 3602.5770020986 27 30 23
236.077703668697 319.411806647028 3688.29541838199 27 30 23
244.100735599198 318.764546181008 3693.70666684116 31 34 27
255.093643519801 317.928287096016 3691.69059281623 32 35 28
276.711333056142 316.418263396425 3662.69377348114 32 35 28
295.232098172337 315.107165892552 3641.07276037102 31 34 27
299.121783304174 314.723304019483 3656.67611071092 24 27 20
289.764390605471 315.174418651398 3706.82821482722 22 25 18
309.242225842919 313.804640470018 3682.35847576736 20 23 16
332.824341386608 312.179184215648 3646.60574212016 21 24 17
354.079785579715 310.703216717816 3616.38318592735 25 28 21
334.592034842475 311.782676681344 3694.79563359928 25 28 21
331.130420606357 311.853199105311 3731.1543732202 25 28 21
330.947251298113 311.716070924691 3759.13231819776 23 26 19
342.525005947388 310.84417668591 3755.19569829505 22 25 18
362.209892231121 309.46908561718 3728.6519594964 20 23 16
381.731864569803 308.106830930843 3702.04216069729 19 22 15
375.149567913417 308.208276930519 3777.05611170859 19 19 9
384.317693292681 307.486325721255 3779.69488488552 19 14 8
414.311018282334 305.327452593489 3750.85753755609 22 4 4
419.187894556904 304.869855637157 3765.78234535647 146 121 116
426.359440962433 304.27097700562 3774.08489105758 142 115 108
433.872146142369 303.650789636667 3781.44718013125 123 99 87
440.776232672126 303.067151142584 3790.7201258475 108 89 75
448.021367537668 302.462208924925 3799.0527701825 126 109 99
58.0403003763956 322.858985598532 3759.67497636785 21 26 19
72.0412081298816 321.853316870959 3752.40499819394 25 30 23
77.056546270142 321.371336753376 3765.22817952887 22 25 18
151.86889574311 316.838932056584 3619.69493643052 26 29 22
152.541397796103 316.615341399467 3641.54662873923 27 30 23
133.013718543863 317.555971674938 3710.23391695875 24 27 20
136.788187030457 317.146366316775 3725.79081202243 25 28 21
159.493104157029 315.647343515998 3697.23412006569 31 32 26
189.829789543084 313.71461677944 3650.19331546042 33 36 29
191.087479201449 313.256549920692 3696.01904587179 31 34 27
213.315933641196 311.794979543078 3667.2694108902 32 35 28
234.606247882356 310.390564335568 3640.29711264313 28 31 24
250.885441427039 308.878648088582 3674.950972433 30 33 26
265.160238104049 307.875873388064 3664.55492912798 29 32 25
275.314963407572 307.105391379817 3664.35685583026 24 27 20
283.623928908855 306.438324196742 3668.80496152962 22 25 18
296.288270838114 305.528735836436 3662.07189718639 24 27 20
302.056622344194 305.00297308446 3673.04242665474 24 27 20
317.516878302077 303.940147711111 3658.81133279628 25 28 21
341.753537940233 302.395712929317 3621.16538901637 26 29 22
333.69935496493 302.631371141469 3668.61010497725 25 28 21
341.276782439386 302.004763715143 3674.91958294258 24 27 20
334.976649547148 302.135502199233 3718.75980683983 22 25 18
334.410774635076 301.948671059764 3747.66198190326 21 24 17
338.772793123388 301.491076853747 3763.45713554973 20 23 16
354.750044692495 300.4039435017 3747.277937519 18 21 14
353.425076334868 300.251376671786 3779.10918295744 17 20 13
387.72183654965 298.183123497453 3711.01604029995 19 20 12
378.793314552414 298.43610519648 3764.57997458057 25 25 15
383.31506351949 297.965504659412 3780.43990055269 24 19 13
403.598746399786 296.656645450945 3750.90142658496 17 2 0
409.751678624322 296.099443785843 3762.02816559131 36 17 13
418.841968326259 295.386453884209 3764.6353557287 147 120 111
427.287700132968 294.707351705036 3769.13892835987 159 131 120
434.153349309331 294.110594888672 3778.39666772342 131 105 90
440.734356436566 293.527772012567 3788.61786006228 116 95 78
67.6776541763311 312.747023575847 3712.94613476774 99 104 97
65.9751186070652 312.58875948506 3740.30905929596 36 41 34
73.7987942417362 311.935756818711 3746.71844146856 37 42 35
112.079690838702 309.717632861483 3684.55507323532 35 38 31
118.937723865481 309.118403474058 3692.73093947179 32 35 28
143.457260471079 307.617311434549 3660.59349999281 26 29 22
163.79647639137 306.334292097644 3637.55067841457 25 28 21
146.394047426968 306.967340013691 3701.70624166569 15 18 11
162.355388693625 305.906691059572 3688.75708257825 22 23 17
179.397695397536 304.794262004975 3673.00905234727 33 36 29
187.794963884268 304.117975818049 3677.49298117847 29 32 25
204.605172993462 302.764003180023 3686.46745221797 29 32 25
241.175383627604 300.692067504547 3622.53152312603 32 35 28
243.736133886454 300.308399129091 3640.83347732448 34 37 30
247.12905342707 299.881356723867 3657.31482622981 27 30 23
258.796542816393 299.047401735261 3653.41425171954 35 38 31
267.090307321264 298.378934902163 3657.85621325192 39 42 35
277.96375237949 297.585170668624 3655.7914474595 36 39 32
288.441300960139 296.811407212498 3654.64529975268 32 35 28
290.550532904648 296.440578945437 3674.92195634118 29 32 25
305.717947556873 295.442117731684 3661.65087061627 29 32 25
329.377602595515 294.042116942574 3625.92782327124 31 34 27
332.937135417541 293.601440702605 3642.47673605663 31 34 27
330.926157270928 293.421156289399 3674.03043107485 27 30 23
334.317761586325 292.982359575687 3691.59040191919 25 28 21
335.005146169525 292.667311283537 3716.68549493983 26 29 22
344.088154218128 291.958385665605 3719.28944875457 25 28 21
354.53527610386 291.186554650666 3718.13096684678 24 27 20
364.276823313268 290.447961145963 3718.84416709808 23 26 19
366.918271777522 290.034394752603 3739.33663833482 22 25 18
371.324583828063 289.537481629115 3755.15002415806 21 24 15
387.758331388391 288.494664917554 3736.99744870432 29 31 20
405.064038994488 287.416647949013 3715.96150885801 20 11 6
398.023937470078 287.430666198703 3764.89756456698 18 5 0
411.031539889214 286.546076874788 3756.14542096925 60 41 35
418.496256894382 285.908349392253 3763.48815569308 148 121 112
426.939246132097 285.226982115453 3767.99089227283 149 123 110
433.167214725512 284.641895571734 3779.14796710749 131 108 90
440.063958750681 284.026382444774 3788.41843872314 128 107 90
80.4967432516879 302.137151703777 3706.34925195411 31 36 29
109.37157293496 300.230221432952 3688.92504261082 31 34 27
120.680389525555 299.419104326391 3687.03668720285 31 34 27
119.528059788524 299.159340786167 3713.54409014957 21 24 17
158.748019222353 297.12103360731 3647.4440890554 21 24 17
159.177463929057 296.792105555066 3670.27723296225 17 20 13
168.761872472814 296.061195959153 3672.00555878061 18 19 13
178.727214745049 295.314129414999 3672.80943629345 28 31 24
