ply
format ascii 1.0
comment KinectMotionCapture
element vertex 761
property float x
property float y
property float z
property uchar red
property uchar green
property uchar blue
end_header
201.77902777146 663.834278610345 3111.85543041742 180 180 180
209.204400749001 663.261372573288 3114.86625389367 176 176 176
215.73462171403 662.978180320579 3119.67031421262 179 179 179
223.166686238788 662.403937147391 3122.68385718414 176 176 174
228.827876071627 662.408035927997 3129.29149164274 170 170 168
235.390751128615 662.121090918782 3134.10880181746 169 167 168
241.08882282768 662.12149052892 3140.73139752156 144 142 143
248.549169646669 661.543362759744 3143.75642123817 177 175 176
255.144648450076 661.252644508727 3148.58670381283 185 183 184
261.320572903561 661.104351123229 3154.32509762668 161 159 160
266.656825252715 661.241465617095 3161.87922434328 158 156 157
271.593822550912 661.519491779197 3170.34943558474 147 145 146
276.561820843662 661.794673245937 3178.83222047166 105 103 104
283.661513626877 661.352217031163 3182.78899770982 98 96 97
292.437185259465 660.337861312486 3183.11321197336 138 136 137
302.028351194402 659.039116634837 3181.61189618999 154 152 153
312.832219511159 657.314809661005 3177.36839624049 151 151 151
322.366079687378 656.019618905515 3175.84385082293 145 145 145
333.097355328532 654.300077007614 3171.57092249449 134 134 134
342.168796624949 653.150228985181 3170.93711065449 143 143 143
351.622823550095 651.85983897792 3169.38020492981 177 177 177
360.252083874197 650.853735691039 3169.64507573881 181 181 181
368.071770793831 650.130655619946 3171.73788427637 184 184 184
375.097150525497 649.689394664894 3175.66456362577 190 190 190
380.558755052722 649.810301249853 3183.26956740428 189 189 189
387.604931540402 649.366525853311 3187.2046862719 189 189 189
394.269149129332 649.062166817107 3192.06316131466 190 190 190
400.559067108728 648.896652612134 3197.84784083008 191 191 189
406.864363093698 648.729501603883 3203.63875919773 197 198 193
414.703446622658 648.001542728006 3205.73920103868 190 191 185
-102.113787230814 705.434256451581 3251.74428408597 213 217 216
-93.074434616053 704.529444548188 3253.25349597207 170 172 171
-84.0438593618542 703.624974815976 3254.75889414684 124 126 125
-68.9465716031015 700.958880058545 3245.78754454651 128 130 129
-41.8279914573017 694.778220919733 3215.81671740221 170 172 171
-13.396361623653 688.172537362356 3183.14433192935 166 168 167
5.35383592137695 684.361131515652 3167.02946398623 180 180 180
19.0318754233931 682.018592476474 3159.63889185321 176 176 176
30.1823025600918 680.409587767289 3156.61338807608 182 182 182
43.2629693217173 678.220219763636 3150.05859109394 194 194 194
55.3119905136767 676.325616693089 3145.24147016564 202 202 202
67.3165257422919 674.4342039795 3140.40657022991 204 204 204
76.3753204481017 673.416395863017 3140.84544519172 188 188 188
86.8631741538692 671.96458675794 3138.62954398841 185 185 185
97.800229533868 670.370000970877 3135.51779543106 206 206 206
109.655022356475 668.488604422238 3130.6219327078 190 190 190
122.412210076694 666.321696923287 3123.93599110501 186 186 186
133.231007168436 664.735135556438 3120.77629978017 190 190 190
145.42065019302 662.719005984883 3114.93822863174 192 192 194
155.697196380625 661.281338117942 3112.63666332201 193 193 195
166.407623478093 659.702017740308 3109.43303886818 196 196 198
173.857738680629 659.128436609348 3112.45388541337 196 196 196
181.76714140179 658.411255239776 3114.58271730738 191 191 191
191.495290089805 657.122215240726 3113.13704853969 189 189 189
201.199171186598 655.83459523454 3111.68128600622 182 182 182
208.624910869592 655.261391151635 3114.69226021802 179 179 179
214.706940114282 655.11488806583 3120.3926229559 178 178 178
222.141907493139 654.540175800542 3123.4073448281 171 171 169
228.248281884283 654.390907028976 3129.11758570675 167 167 165
236.132887667827 653.672935159596 3131.23664071441 174 172 173
242.260994728285 653.521167460038 3136.95569993835 169 167 168
250.582663522038 652.660818173268 3138.17373247989 150 148 149
255.863830296726 652.789206027448 3145.70562158251 162 160 161
260.31014891043 653.19709569347 3155.05498430826 177 175 176
264.364611738938 653.742620873146 3165.3234523016 152 150 151
268.885620553486 654.143875661315 3174.70310685201 152 150 151
274.288324017723 654.261050324658 3182.28429029362 116 114 115
280.137349247735 654.235562337531 3188.96820223576 98 96 97
288.513976444752 653.367840106291 3190.20854293101 130 128 129
297.711465278694 652.220827547753 3189.62574535547 147 145 146
308.952899198468 650.376728591937 3184.48125524469 155 155 155
317.277722820903 649.511730396479 3185.70085761806 147 147 147
327.223591332266 648.090099564565 3183.26528169949 131 131 131
337.949651254192 646.392281078954 3178.99007690568 138 138 138
348.635681534109 644.697131383949 3174.69838693767 172 172 172
358.881379223608 643.143362850889 3171.30640315722 180 180 180
366.309241438409 642.560904636149 3174.31830691093 183 183 183
373.737428106524 641.977942506758 3177.33034585303 189 189 189
379.203547353532 642.084742895297 3184.93728453077 188 188 188
386.255035713252 641.637647508106 3188.87457930243 189 189 189
392.924458659124 641.327292409592 3193.73495017938 189 189 189
399.988948866833 640.878294742893 3197.67778095264 189 189 187
407.441067854466 640.291135120728 3200.69954173751 197 198 193
415.652938465276 639.429382776831 3201.87312840609 145 146 140
-102.234703953405 696.632232426961 3250.68323455925 207 211 210
-94.7317655952189 696.166076923271 3254.80346271303 183 185 184
-85.6956024256179 695.266299801861 3256.31134505307 174 176 175
-72.1096303558468 693.069869340385 3249.96093892151 132 134 133
-45.4747204547321 687.135345418804 3220.87147684787 182 184 183
-18.0223787069165 680.927188168996 3189.95718770057 152 154 153
3.24722705974723 676.45612913107 3169.47311237636 188 188 188
16.9354895000975 674.145358123649 3162.08643864575 175 175 175
30.0706146672292 671.981808052359 3155.55323856742 180 180 180
43.6425191260625 669.679299452078 3148.11938968621 196 196 196
54.2220735280736 668.237560142511 3145.94054111997 204 204 204
65.7450182342356 666.512596596888 3141.98793786515 203 203 203
74.8097662700451 665.502207254792 3142.42916705589 187 187 187
86.2665990038163 663.781699133519 3138.45001898666 188 188 188
97.2053361885945 662.205809572583 3135.33880966787 203 203 203
108.109730443574 660.632312169041 3132.21367700779 186 186 186
119.927174356743 658.777785145594 3127.30248831156 184 184 184
128.873259806777 657.774794718315 3127.69561577877 189 189 189
141.085394456058 655.784141080347 3121.86645822948 190 190 192
153.713994305158 653.65584489427 3115.12815964385 192 192 194
164.897349292106 651.953871070872 3111.03788465756 195 195 197
173.735950586885 650.957722680877 3111.38744068968 194 194 194
181.184784286409 650.383645319972 3114.40777212465 191 191 191
190.458341434764 649.248120409567 3113.8556869984 190 190 190
198.352214190971 648.533897543019 3115.97846572133 187 187 187
205.790965374003 647.959423478942 3118.99471782359 183 183 183
212.782175885804 647.524187260839 3122.90751663166 181 181 181
221.562626878179 646.53022507815 3123.23351144673 172 172 170
226.782106631678 646.651126626129 3130.7404806549 168 168 166
234.231600888007 646.074247229819 3133.76110078331 170 168 169
239.928830832806 646.052357268139 3140.38352461595 161 159 160
249.132773531347 644.919060094461 3139.80323620566 166 164 165
254.851667285473 644.894676660438 3146.43445046132 164 162 163
259.730122010679 645.144852729023 3154.88116932512 154 152 153
262.499039497339 646.08258254285 3167.86283795376 157 155 156
266.175422139715 646.739719772465 3179.05644333465 154 152 153
271.167179772438 646.97975343005 3187.54911462111 134 132 133
277.031001599707 646.942004669196 3194.23911053415 107 105 106
285.005550882368 646.215711222908 3196.39464610379 111 109 110
294.637500920455 644.940843759808 3194.90966253257 131 129 130
305.483301511645 643.256851125477 3190.68283509273 144 144 144
315.468306501022 641.848916668637 3188.26300144253 143 143 143
324.199759453194 640.85241057779 3188.56917657979 135 135 135
334.943103561863 639.175076277987 3184.30055753986 135 135 135
347.257358267203 636.955979698545 3176.35686292747 168 168 168
358.3104518645 635.148919751488 3171.13583440651 176 176 176
365.341043652622 634.702045334032 3175.06466662923 181 181 181
371.586599055365 634.525311083529 3180.83146909599 188 188 188
377.062303800796 634.617543751258 3188.44239929361 188 188 188
384.514246685667 634.031713155645 3191.46407870205 188 188 188
391.191303104701 633.715223981855 3196.32758681291 188 188 188
398.263636548261 633.2627655454 3200.2736194886 188 188 186
404.958815854691 632.943943887668 3205.14448310798 195 196 191
412.804130151722 632.220955459146 3207.24766729478 193 194 189
-104.926167468721 688.544214797168 3253.9702747854 206 210 209
-97.9249120782766 688.215932476443 3258.96539538236 151 153 152
-89.3846964859606 687.461798761861 3261.35017626189 185 187 186
-76.7946996609985 685.576609407728 3256.75202118809 185 187 186
-50.1319493014629 679.74087146441 3227.67308274838 138 140 139
-18.6380845352843 672.508953425202 3189.77170068948 173 175 174
3.63523420884415 667.829537141823 3167.53798465567 186 186 186
16.3279864891441 665.832576068392 3161.90347359478 174 174 174
27.4892183162125 664.260434044679 3158.88206515126 178 178 178
40.5823634385212 662.129644290291 3152.33187656195 196 196 196
54.1101452025976 659.862706741514 3144.87963586826 204 204 204
65.6323965854697 658.159371885719 3140.92684517872 202 202 202
75.1793782423997 657.017397082134 3140.48551659071 185 185 185
85.1887863302687 655.737042863199 3139.15340470249 191 191 191
95.6528508013756 654.318979197362 3136.92761562507 203 203 203
104.658415509407 653.32006342706 3137.3447949384 184 184 184
115.071354042232 651.905297758231 3135.09853755878 182 182 182
124.983778540197 650.631043300624 3133.72711146637 187 187 187
139.559946676573 647.973469846778 3123.46589148386 189 189 191
153.128716467921 645.597890901226 3114.9522618813 191 191 193
162.922666528 644.331737765065 3113.53280492106 194 194 196
171.308604966711 643.480732443601 3114.7767889626 192 192 192
179.685152693251 642.630196724228 3116.01722443829 190 190 190
188.508778542367 641.642407943055 3116.36065365482 190 190 190
195.957127642425 641.06735278231 3119.38079629035 188 188 188
202.50410099521 640.766066072496 3124.19177668368 182 182 182
211.304923204755 639.778948234993 3124.52596778224 181 181 181
220.091388918608 638.792489626912 3124.85434104046 175 175 173
227.089385946402 638.352949831394 3128.7699202808 167 167 165
234.093234200711 637.912528021446 3132.68787532681 165 163 164
239.787389517632 637.879757887686 3139.30939395964 164 162 163
247.682306448439 637.165128938548 3141.43234131293 159 157 158
252.105696104644 637.536458964929 3150.77269737805 159 157 158
256.99596957643 637.76908089981 3159.2243346243 160 158 159
260.204066636487 638.540200309582 3171.30627867427 152 150 151
264.740806819691 638.901473816314 3180.69260579181 159 157 158
269.313514945986 639.259533579742 3190.09377766097 140 138 139
275.605327948796 639.075284281631 3195.87910923832 119 117 118
281.912806869671 638.889399843555 3201.67105345557 102 100 101
290.314246815997 638.029928044293 3202.92163534806 117 115 116
300.77173495577 636.499997612641 3199.61522333678 142 142 142
311.604855362867 634.838325200132 3195.38283537233 144 144 144
321.173620247334 633.580712465417 3193.87239501969 137 137 137
331.93413420683 631.923806219968 3189.61057309185 131 131 131
344.266336193403 629.736134679536 3181.67390701347 164 164 164
355.336797150873 627.952296615367 3176.45973439828 172 172 172
362.780702806257 627.36835809254 3179.47814524795 176 176 176
370.620268875088 626.651234822663 3181.5789575615 186 186 186
377.669408464804 626.199125003178 3185.51533934083 187 187 187
385.114165050813 625.613803988452 3188.5341052052 189 189 189
390.620302893955 625.688896103533 3196.15723024302 188 188 188
397.307639964543 625.365609388743 3201.02520966704 187 187 185
405.153431007501 624.645691545878 3203.12856361069 192 192 190
411.85385515696 624.320446850736 3208.0015995148 193 194 189
422.340823738783 622.680126710145 3203.62915250651 146 147 141
-110.191256021996 681.129495401445 3261.60472418798 215 219 218
-101.631712451216 680.376460515877 3263.99732250048 204 206 205
-92.5665065127788 679.484639405921 3265.51664652128 165 167 166
-80.9756607917056 677.899854309432 3262.66953876271 127 129 128
-56.3051347631591 672.717111503113 3237.09450305589 156 158 157
-23.2684796509819 665.19589058819 3196.58355430383 164 166 165
1.52788848395957 659.903049266464 3169.98124032269 183 183 183
15.7206874785838 657.51876165682 3161.72059896711 170 170 170
25.8950602297938 656.240670167161 3160.45526295354 174 174 174
39.4874916362367 654.001577069062 3153.02898738947 195 195 195
53.0203112240917 651.766812944979 3145.57879983576 203 203 203
65.0336689287523 649.947603614429 3140.74666754968 198 198 198
74.5817291277349 648.816183506268 3140.305695654 182 182 182
84.1106698211598 647.685829879927 3139.8569743221 190 190 190
95.536993020835 646.010484299296 3135.86487361199 200 200 200
102.634587987964 645.564996269061 3139.82082443958 181 181 181
110.686306367352 644.846367251564 3142.00754713644 181 181 181
122.034809524731 643.175986270999 3137.9841572378 186 186 186
137.565035412164 640.286473594844 3125.95285578755 189 189 191
152.077161199409 637.674293077592 3115.6653614447 191 191 193
161.410895004407 636.556625738363 3115.13750606563 193 193 195
169.802576427919 635.710455596071 3116.38377875176 190 190 190
178.643895423261 634.72963367447 3116.73431899117 187 187 187
186.558143328779 634.01917637228 3118.86531892601 188 188 188
193.560637246635 633.577815782072 3122.78273272646 189 189 189
200.117699336772 633.269961366592 3127.59784775961 182 182 182
208.929551375937 632.28997965413 3127.9364506683 179 179 179
218.61958017031 631.042670263308 3126.47477389208 175 175 173
224.7353301939 630.86734349844 3132.18900841048 166 166 164
230.867044292272 630.690393273233 3137.90971897525 149 147 148
237.453312565471 630.378401735476 3142.73669074362 159 157 158
244.050524978086 630.065189871421 3147.56784573984 162 160 161
248.924155616729 630.282781622675 3156.01285834535 156 154 155
254.691006233841 630.231913625288 3162.66369074144 154 152 153
260.050154928197 630.311682085181 3170.22752269358 154 152 153
265.861324290018 630.256525707383 3176.89633194073 154 152 153
269.576066026236 630.860531443783 3188.10587136966 141 139 140
275.020732581387 630.93236426382 3195.70413182228 127 125 126
279.23603886276 631.397264939549 3206.03859253047 100 98 99
285.571708958601 631.200329992363 3211.84203491493 107 105 106
295.22971149404 629.950178132762 3210.36741247811 141 141 141
307.738234194251 627.782788739546 3202.50198367656 144 144 144
319.369921223174 625.88181920971 3196.43712720975 137 137 137
330.140007093374 624.246002765273 3192.17902102592 127 127 127
342.07939258146 622.220969488856 3185.16088171509 160 160 160
353.162145918139 620.460755388805 3179.9515071341 173 173 173
361.014672289023 619.745653879729 3182.05755165789 172 172 172
368.862537607851 619.03044886222 3184.16145251269 184 184 184
375.526393257148 618.704808321183 3189.01994231666 186 186 186
382.591210476826 618.248198594861 3192.96270596555 189 189 189
388.885352925452 618.049682052954 3198.74934608741 188 188 188
396.351230491917 617.461731244889 3201.77668362051 187 187 185
403.05144209198 617.131417006933 3206.64992911718 189 189 187
409.381603607897 616.928701779524 3212.45118492953 190 191 186
417.994105437409 615.95240954972 3212.70904438291 163 164 158
-114.430332250129 673.391561052312 3267.4991750927 178 182 181
-104.828395462476 672.366795684716 3268.15801717629 157 159 158
-95.7500036685133 671.479005438904 3269.68290673044 135 137 136
-85.6661700500996 670.319757678025 3269.45881940265 123 125 124
-63.9961357237506 666.039430202241 3249.13542907709 129 131 130
-27.399639279019 657.702498228159 3202.51984631511 170 172 171
0.918055699382192 651.55300206643 3169.79761442249 184 184 184
15.1137175814091 649.203725648156 3161.53786685449 171 171 171
23.8058154010041 648.343856239243 3162.90587985149 175 175 175
34.4567202904422 646.945211376086 3160.75559394885 188 188 188
51.4410406614665 643.798866485918 3147.15737550267 204 204 204
63.4613924174932 642.003456377687 3142.32815189346 199 199 199
74.4687888901649 640.479517542675 3139.24409123588 183 183 183
83.5143181859552 639.493958131431 3139.67760791714 187 187 187
94.9424931557619 637.84010478772 3135.68609407036 194 194 194
101.086539453795 637.658740379539 3141.41183131386 175 175 175
110.566602974728 636.541853264455 3140.943217888 179 179 179
123.329763840815 634.493432382804 3134.25853944692 186 186 186
138.853431924523 631.650730446758 3122.22448520222 188 188 190
151.025361925772 629.744109326671 3116.3784121317 191 191 193
159.43439442258 628.902118254949 3117.63193569503 191 191 193
167.834321132057 628.060525263095 3118.88151214559 187 187 187
176.684159251203 627.086978608949 3119.23544657343 184 184 184
185.97622820791 625.982146585946 3118.69062410375 185 185 185
192.524876085912 625.669584377446 3123.50211073915 185 185 185
199.535778745272 625.224234590736 3127.42321664314 184 184 184
207.450704369466 624.515044082397 3129.55422415297 179 179 179
216.700602285095 623.411969125214 3128.99231360892 179 179 177
223.26757359822 623.096574920958 3133.81149796592 179 179 177
230.2868966058 622.648979353089 3137.73577300521 163 161 162
237.312022055397 622.20059530005 3141.66240338875 160 158 159
242.597635837523 622.273367819171 3149.19651460231 147 145 146
247.475480979133 622.473978018637 3157.6433623458 147 145 146
251.953230583827 622.801847860884 3167.00605778595 157 155 156
259.896732291886 622.087339327769 3169.14893308578 179 177 178
265.704941944256 622.021269199039 3175.81662669075 180 178 179
269.415743663926 622.600690348768 3187.02475717932 176 174 175
272.330595856027 623.434683278965 3200.06630003541 155 153 154
276.138815774236 624.005728630286 3211.31393794986 117 115 116
281.657464625771 624.05699505037 3218.94230919877 101 99 100
291.33699381185 622.818761212043 3217.47656964174 89 87 88
302.224718831961 621.196429021452 3213.26599251077 121 121 121
315.114505128521 618.935227745704 3204.47658034155 128 128 128
326.315118508512 617.191224685284 3199.31506080984 128 128 128
338.277431997042 615.19441777197 3192.30573370956 159 159 159
348.180072242671 613.840202152524 3189.85214398298 163 163 163
357.654270021223 612.615426859929 3188.30316517909 165 165 165
366.707707963579 611.519458739661 3187.66165551338 179 179 179
375.741238670479 610.424684701649 3187.01181927146 183 183 183
382.01975564475 610.219455915122 3192.79218362624 187 187 187
388.313713357909 610.012645131177 3198.5788118181 186 186 186
395.394303540953 609.551163874343 3202.52825597973 186 186 186
402.863293630837 608.962428481957 3205.55685969849 185 185 183
409.190838269559 608.751647008563 3211.35685986918 184 184 182
417.045708262055 608.035463177198 3213.4638615125 194 195 189
-116.612386387325 665.079154416914 3269.91536423748 185 186 188
-105.977510921412 663.794371133548 3268.83679046483 164 165 167
-96.3861703131861 662.778006958386 3269.49127855156 160 160 162
-85.7939723325609 661.495952809029 3268.39514705431 133 133 135
-67.1495495165064 658.087124114527 3253.31346561637 129 129 131
-34.0445853625244 650.833966872351 3212.82814286269 168 168 170
-2.68988328965891 643.997673877615 3174.86741608346 186 186 188
13.0154733776648 641.284915218774 3163.9847494701 168 170 169
23.199705483588 640.03275709488 3162.72346609824 169 171 170
33.852098870786 638.650074072476 3160.57366189141 185 187 186
48.3921910798784 636.214506762469 3151.37496041843 198 200 199
60.4272883357522 634.442262683715 3146.55127433908 194 196 195
70.964355705077 633.067551091546 3144.35471502196 180 182 181
80.9900499260079 631.826070679893 3143.02915984752 188 190 189
93.3891794750248 629.930679479727 3137.27499314736 184 186 185
101.446003665138 629.216792097224 3139.46348998402 169 171 170
112.819916902647 627.58809425475 3135.4500725003 176 178 177
125.57021569943 625.570575048147 3128.76020929859 187 189 188
138.266029041986 623.556840051007 3122.04799941198 189 190 192
148.105747586063 622.327762875647 3120.6470499881 188 189 191
156.063944180135 621.619836513534 3122.79556802574 190 191 193
166.32691437641 620.263308922607 3120.4881480985 188 188 190
176.101301893707 619.038187805913 3119.06045939152 182 182 184
186.308055795309 617.685252787127 3116.72999342688 185 185 187
192.851392676516 617.367397327165 3121.5396270252 186 186 186
201.212600975856 616.532518264643 3122.77347577556 187 187 187
207.767788535883 616.213036472428 3127.58791995707 184 184 184
215.673822068899 615.506667105483 3129.71556296514 179 177 178
220.466947147586 615.698692248409 3138.12791600015 181 179 180
227.498963860088 615.247186427136 3142.057617496 170 170 170
235.415019266454 614.538892713968 3144.18907564918 167 167 167
241.580626043341 614.341623285055 3149.92366313381 154 154 154
246.894152461207 614.397838073703 3157.46920147926 149 149 149
251.802245611677 614.57907536694 3165.92844326896 150 150 150
259.314909418906 613.994411576734 3168.97469930537 160 160 160
265.549050771637 613.790217879263 3174.73708843913 170 170 170
269.679827366364 614.218274206745 3185.03734571858 168 168 168
272.1664422386 615.149053458261 3198.98383006847 161 161 161
275.551978591216 615.821890156682 3211.13836298928 110 110 110
280.65372747093 615.985542865609 3219.67614790052 103 103 103
289.509779340374 615.01252010142 3220.03259426097 89 89 89
297.9399890076 614.165957475166 3221.29446973543 118 117 115
309.220978464824 612.440608081771 3216.1650952927 128 126 127
321.268924649062 610.467646489169 3209.19051675081 130 130 130
334.472278040495 608.122982688423 3199.44989016046 154 154 154
345.198862640799 606.533382569586 3195.17382031295 158 158 158
355.486670492237 605.071321730701 3191.79819151994 166 166 166
365.739314461387 603.611598539531 3188.40830740094 179 179 181
374.776453951521 602.527412421117 3187.76010930283 184 184 186
381.839147766859 602.065351974482 3191.70205451529 184 185 187
387.742056502658 601.974384168967 3198.40827982702 185 186 188
394.051248801914 601.757639066318 3204.20115169448 186 186 188
401.525709817682 601.168470222729 3207.23197383788 188 188 190
409.000327921636 600.578780836463 3210.26286353075 189 189 189
417.231446363736 599.742307691082 3211.44430912721 195 196 191
425.076951324358 599.029172627567 3213.54723859997 174 175 169
-116.735107154 656.224969233415 3268.85397963344 202 203 205
-106.614142651096 655.084443085431 3268.64504166001 195 196 198
-97.5319213489747 654.206457010201 3270.17115021543 158 158 160
-87.9510984905194 653.198428037535 3270.8213165611 172 172 174
-71.8194744024561 650.49729695995 3260.11115447785 154 154 156
-39.1865528939939 643.508517357021 3220.51150922835 170 170 172
-8.79956930347259 637.058063505417 3184.31416626394 182 182 184
8.42914012110563 633.997233300878 3170.81425103917 166 168 167
21.1092285625678 632.109111649029 3165.17378750635 167 169 168
32.7553113702812 630.48315472138 3161.27029155482 184 186 185
45.3417761314103 628.601643720856 3155.59187034903 193 195 194
56.9041738983154 626.981534498831 3151.65470381885 184 186 185
67.4578026338184 625.621680216456 3149.46473746741 176 178 177
79.9111458555384 623.749520663933 3143.73234541036 198 200 199
91.8353818398698 622.009223155751 3138.8635302399 179 181 180
101.806323883038 620.7846934142 3137.51567781445 167 169 168
113.177156954642 619.17776441846 3133.50059096487 176 178 177
124.508459880728 617.573603251468 3129.46973488608 187 189 188
136.739568794295 615.716958743047 3123.64724412954 187 188 190
145.651559436071 614.755524050311 3124.02625186888 187 188 190
155.013879847877 613.667661726932 3123.50974509083 188 189 191
164.818962274866 612.453976765913 3122.09439785276 186 186 188
174.599632006929 611.241802130266 3120.66941186586 179 179 181
184.81287037509 609.904582571247 3118.34145229697 179 179 181
191.815719224277 609.454137780928 3122.25907866237 182 182 182
200.180070327008 608.624234715005 3123.49441942145 183 183 183
205.838996441052 608.550863688331 3130.10172451634 182 182 182
213.306362776283 607.972119999937 3133.12959505393 182 180 181
218.997315545032 607.895524136257 3139.7498919582 181 179 180
226.034610239703 607.440616759184 3143.68149902802 184 184 184
233.956165063084 606.734392519858 3145.81542539676 180 180 180
239.689926088051 606.653299180374 3152.45308915086 175 175 175
245.444613309114 606.570249017081 3159.09924060596 174 174 174
249.49365021133 606.983675048951 3169.3667701822 168 168 168
255.300358925859 606.895786007003 3176.03402144947 150 150 150
260.701345286889 606.930097594541 3183.61513772766 149 149 149
266.128397440252 606.961990795564 3191.20656896499 164 164 164
269.473786467771 607.610750388448 3203.34502901569 167 167 167
274.9652459673 607.636788100897 3210.96283994154 128 128 128
280.899077663765 607.536974284173 3217.68165279169 112 112 112
289.337157277978 606.695556530686 3218.94667575529 108 108 108
294.88591317477 606.715948899071 3226.58772837735 120 119 117
303.322407365887 605.873849778296 3227.85211457893 125 124 122
316.218480822957 603.682775848007 3219.06471649036 131 131 131
330.66411923268 601.0066003539 3206.5929134297 148 148 148
343.419019670455 598.825784767734 3197.74827762858 162 162 162
354.513606579244 597.137948505972 3192.54314577296 163 163 163
365.166666042996 595.575179532041 3188.23735997143 163 163 165
374.992266337038 594.258420209455 3185.75229340478 171 171 173
382.050069075659 593.793878020729 3189.69227706581 187 188 190
387.170373372537 593.934869990307 3198.23774669646 185 186 188
392.707294172825 593.952015704013 3205.8740319804 184 183 188
400.954228150525 593.120541540099 3207.0615860579 183 183 185
408.429235313399 592.530821329425 3210.09263351162 187 187 189
415.147501972025 592.181592112964 3214.97333274418 193 193 191
420.748461154377 592.191936092678 3222.63534104486 191 192 186
-119.433398324562 648.016864370594 3272.13916561875 186 187 189
-109.30128048115 646.886005046482 3271.93467028212 181 182 184
-99.1880512855248 645.756343354016 3271.72251798787 141 141 143
-89.6013915765375 644.755652720032 3272.37499201043 127 127 129
-75.4819353272766 642.607597043714 3265.16141503915 132 132 134
-47.3478384105166 636.897239979219 3233.44058240513 172 172 174
-14.9132103934069 630.057322066828 3193.75952119233 173 173 175
4.83523234486327 626.410785841789 3175.88996971455 167 169 168
19.5130039516658 624.04121782132 3166.74625617283 168 170 169
31.6583873993446 622.309695285358 3161.96717276093 186 188 187
43.269599758057 620.707661818399 3158.0493766779 193 195 194
54.8413942483919 619.108417172733 3154.11585666678 180 182 181
65.404058536116 617.763926792132 3151.92943229235 178 180 179
78.3496059901427 615.79229856985 3145.31827604997 202 204 203
89.8010619957479 614.201338232591 3141.33571181809 174 176 175
101.213019602156 612.613202984983 3137.33739077687 165 167 166
111.161084483804 611.403492474381 3135.97990599823 175 177 176
122.029531174737 609.945252090188 3132.83934480691 187 189 188
133.80324066332 608.239625321228 3127.90931972814 186 187 189
144.597812717893 606.786430908622 3124.73880897192 186 187 189
155.357980451188 605.335543853188 3121.5543506602 187 188 190
164.697007401214 604.259838404852 3121.02832037842 185 185 187
174.016726240048 603.185274157308 3120.49446372897 178 178 180
183.317251886116 602.111817531705 3119.95257026949 176 176 178
189.870549521274 601.781666000096 3124.76633010751 181 181 181
197.791112344428 601.079824234487 3126.89982160442 180 180 180
203.909240099842 600.871133349355 3132.61527174055 181 181 181
210.49048538135 600.537756798333 3137.44011460114 181 179 180
217.082576381906 600.20312700268 3142.26961554247 179 177 178
223.685542121772 599.867366629352 3147.1035281583 183 183 183
230.738946745661 599.407805542976 3151.04169329837 184 184 184
236.92429980104 599.192084904401 3156.78441576665 181 181 181
242.69123906606 599.096826127312 3163.43562052566 175 175 175
248.479102426013 598.999580804835 3170.0953123602 170 170 170
253.858559495117 599.022028942495 3177.66780150207 168 168 168
259.264059014889 599.042120319058 3185.2505956851 169 169 169
264.695441173479 599.05973721597 3192.84414554796 186 186 186
269.309406570013 599.317218161895 3202.26252732753 181 181 181
275.216930590587 599.208669178425 3208.97075459596 130 130 130
281.97849997615 598.856696593253 3213.8690075904 117 117 117
288.75081438968 598.503429792856 3218.77136375393 123 123 123
292.652728518843 598.991285717216 3230.05756834495 134 133 131
298.236824360188 598.994591679475 3237.71305937092 138 137 135
310.35074689309 597.076572965821 3230.76452050741 123 123 123
326.044914713857 594.084829475075 3215.56394843802 147 147 147
340.835164483098 591.339708290251 3202.1533905258 155 155 155
353.540096908391 589.197970036426 3193.28822683428 162 162 162
364.197713132318 587.656663730403 3188.98386612501 161 161 163
372.845908948703 586.712811433546 3189.25593193539 169 169 171
380.305296409437 586.125912809319 3192.28063369532 186 187 189
385.821141811199 586.131248776177 3199.9084752141 186 187 189
391.36263984538 586.134199090404 3207.54646415838 183 182 187
399.999060001 585.189606026201 3207.81376770181 183 183 185
407.476982624952 584.599595052907 3210.845997809 187 187 187
413.440538683135 584.48014552305 3217.5772519029 189 189 187
418.672393750794 584.593679278133 3226.16809577751 196 197 192
429.164289416053 583.061677030784 3221.79656546381 139 140 132
-125.043236085378 639.146937572374 3263.46165029697 208 209 211
-118.524699182429 638.906552909027 3269.33946349536 208 209 211
-110.963784708535 638.413806460543 3273.48336732048 177 178 180
-103.907072935856 638.04562342956 3278.50124425091 145 145 147
-93.2835343240988 636.800986769329 3277.41751873918 161 161 163
-80.1571645887227 634.933726511675 3271.95759322239 148 148 150
-52.4976996782949 629.455129742247 3241.12189413581 146 146 148
-18.5294189983605 622.373263689772 3198.82695028403 179 179 181
4.22597663323265 618.045001694375 3175.70669674888 165 167 166
18.4113754316002 615.837256760835 3167.44146373426 164 166 165
31.5469542460425 613.881900801861 3160.9068692799 184 186 185
43.1573355614931 612.301506936024 3156.98882991761 187 189 188
53.2654517696658 611.094298988908 3155.69612982041 170 172 171
64.3197107234799 609.642109243105 3152.63075683804 184 186 185
78.2355842764992 607.453656014034 3144.25624873186 203 205 204
88.7259445174855 606.130251191971 3142.04064636402 166 168 167
96.7992823510084 605.422318260937 3144.23578432499 164 166 165
105.818676095863 604.469350634834 3144.65821464312 173 175 174
117.186542547513 602.905570506638 3140.64185679999 188 190 189
130.395069491686 600.856017425056 3133.05870437256 187 188 190
142.60889354574 599.054600632237 3127.22879648762 187 188 190
153.843223196902 597.500174964346 3123.15829963411 184 185 187
162.725980734626 596.556209597701 3123.52533868363 184 184 186
171.594525800121 595.612981713923 3123.88661761373 180 180 182
180.448805406559 594.670525399112 3124.24211471207 176 176 178
187.469574121028 594.212623465077 3128.16705322731 176 176 176
194.496152205899 593.753927082977 3132.09460716378 179 179 179
200.629139614124 593.535630464916 3137.81614667709 181 181 181
207.672698404381 593.074906722145 3141.75033412138 185 183 184
215.166769099913 592.493270208001 3144.78903899243 186 184 185
222.661666344147 591.911179663285 3147.82808196863 175 175 175
229.278104134324 591.5682302881 3152.66724658648 173 173 173
235.031109905317 591.463250547058 3159.31314068111 177 177 177
241.239680343511 591.236843575551 3165.06534470298 183 183 183
247.032197807297 591.128051385936 3171.72700847335 184 184 184
252.41615006082 591.13622096059 3179.30116868467 174 174 174
257.399038100102 591.260782483738 3187.79112398277 171 171 171
262.837391761321 591.263978985724 3195.3876058604 155 155 155
267.457935742954 591.501481601236 3204.80880269285 162 162 162
274.630723673914 591.026693605287 3208.79542070548 179 179 179
281.809142479435 590.551041052981 3212.78432517249 165 165 165
287.33590580961 590.545768508086 3220.4166676929 147 147 147
289.182739267471 591.596414838885 3236.26081679981 145 144 142
292.32859768815 592.288901616824 3249.39722224874 151 150 148
303.664570485851 590.632541274498 3244.28958725351 138 138 136
321.825972913623 586.990266205733 3223.61954856617 133 133 131
339.052648334031 583.591554977262 3204.72707288998 157 157 157
352.566283899711 581.251355978282 3194.03297814567 155 155 155
362.435224707773 579.964368493085 3191.56523418422 161 161 161
371.879960143985 578.795546610822 3190.00390217468 167 167 167
379.342251394963 578.208388036685 3193.0297816291 177 178 180
385.63795180942 577.968143892549 3198.81736884415 181 182 184
390.789941593958 578.073126388706 3207.37568342011 181 181 183
398.27568782528 577.482854222281 3210.41108323037 184 184 186
405.380204961317 577.007402505052 3214.37032113833 184 184 184
410.595961163696 577.106131971416 3222.95475890872 183 183 181
415.842335765653 577.202022580622 3231.55135814377 189 189 187
425.230098103637 576.034456772546 3229.96694860899 175 176 170
-127.234097494949 630.798496305516 3265.87454657213 201 203 202
-119.16149706927 630.180169708922 3269.14777214025 197 199 198
-113.13994756825 630.052305210682 3275.90231392563 171 173 172
-105.565308361936 629.555148389698 3280.0520654538 142 142 142
-95.4436158396614 628.445593773403 3279.84293026795 140 140 140
-80.7907835808144 626.23820491518 3271.76695505673 153 153 153
-55.6384969263462 621.475109565384 3245.30499186351 151 151 151
-19.1445054380319 613.925002157441 3198.64194165391 177 177 177
3.61700545281529 609.678148922287 3175.52354708777 163 165 164
18.3007771713217 607.384051062762 3166.3816909056 162 164 163
30.4501555343404 605.700809988683 3161.60385904635 182 184 183
43.5362374347772 603.778755531935 3155.04897122525 184 186 185
53.6404361751399 602.585182615393 3153.75483884978 166 168 167
65.1767081244008 601.031497681517 3149.80633345626 188 190 189
77.156367612998 599.360238601234 3144.9596928048 201 203 202
86.2098536865534 598.41308799847 3145.39588277427 163 165 164
93.8158935690108 597.826734814653 3148.4799589283 165 167 166
102.848762255495 596.880619927796 3148.90779321311 172 174 173
115.649464533378 594.978485639028 3142.23720621167 189 191 190
127.925191236895 593.199751086737 3136.43219034651 188 189 191
140.151391966217 591.424521951836 3130.60709519454 189 190 192
151.397682033449 589.890787631795 3126.54128419414 183 184 186
161.216667413091 588.7162603711 3125.13126935858 183 183 185
170.091052991322 587.780514562141 3125.49511358545 183 183 185
178.951262586092 586.845538647135 3125.85295499473 179 179 181
185.522206289755 586.50239790063 3130.67370082924 177 177 177
193.008989039864 585.922085998027 3133.70944482254 180 180 180
200.496657628992 585.341375143493 3136.74555050974 181 181 181
207.985182411981 584.760237797708 3139.78200609646 182 180 181
215.029534029295 584.296128253061 3143.71679744082 185 183 184
222.079846424206 583.831223092583 3147.65375106587 197 197 197
229.136000475962 583.365496451967 3151.59307616307 192 192 192
235.760624055465 583.015795955585 3156.43586354733 186 186 186
240.657066018598 583.131545100397 3164.89088423599 185 185 185
246.449094327774 583.011523870215 3171.55243506419 180 180 180
250.972965443775 583.238364320182 3180.93457055334 164 164 164
257.241576776841 582.997725908824 3186.71119257936 159 159 159
261.402951844164 583.334769792393 3197.02452881348 168 168 168
268.137966594031 582.974290822997 3201.9120944998 177 177 177
273.625083298715 582.958984189244 3209.52820321105 196 196 196
280.806085062056 582.480192551025 3213.51843451938 194 194 194
284.262342585013 583.036182816449 3225.70248760601 173 173 173
286.533926660613 583.932390613264 3240.64097769269 142 141 139
288.053095804668 585.052313682989 3257.43074088087 149 148 146
298.600186107487 583.647538867244 3254.15965950627 145 145 143
315.986174550473 580.302497264551 3235.3312817451 133 133 131
335.259955735151 576.396178574311 3211.87695707134 153 153 151
349.196415122187 573.981345354732 3200.27581826563 153 153 153
360.671586114888 572.254530431136 3194.14626951824 159 159 159
370.519535901474 570.985136356609 3191.6698930874 165 165 165
378.770552765976 570.170907473465 3192.85922680891 177 179 178
385.066029230137 569.92240208226 3198.64678596607 180 182 181
390.217213042158 570.010890453647 3207.20489923044 180 180 182
396.167000121438 569.871221633549 3213.93073161887 182 182 184
403.281920700581 569.392141608164 3217.8939520824 178 178 178
409.265053643421 569.249059182433 3224.63305462281 186 186 184
415.268572434313 569.103943191451 3231.38042666279 185 185 183
425.031567327255 567.838106386499 3228.86988285974 187 188 182
-132.017779665045 623.034402982332 3272.62775403037 211 213 212
-120.313650874142 621.572902721862 3269.82532209362 198 200 199
-112.7504088482 621.073600296876 3273.97047524716 194 196 195
-105.69146911151 620.693350718005 3278.98908849906 153 153 153
-97.0963352478864 619.953217195267 3281.39599928061 183 183 183
-82.4356291958219 617.780412635687 3273.32294997303 160 160 160
-59.2842969800873 613.586002474849 3250.36199380022 141 141 141
-22.262872211533 606.070677395243 3202.83316858515 170 170 170
2.51019423363341 601.42899472491 3176.2167415361 160 162 161
18.1907075938761 598.935281271873 3165.32235574045 163 165 164
30.3397310443292 597.27631294049 3160.5439389723 175 177 176
44.4068254685313 595.147639976586 3152.23020600928 173 175 174
52.5523329987936 594.440021148155 3154.4548198158 169 171 170
64.0928419997595 592.907574279736 3150.50812622235 194 196 195
72.6958878571211 592.083721812664 3151.83980971104 196 198 197
82.7313782480934 590.907936295081 3150.51772298719 159 161 160
90.8308651928027 590.202773483303 3152.7234275416 161 163 162
102.254463460073 588.678214382824 3148.72933783177 172 174 173
114.584564897932 586.922638941462 3142.94616237224 184 186 185
125.924351990482 585.403918479852 3138.91783662866 195 196 198
137.692401266183 583.77151215008 3133.98522200529 188 189 191
148.485457501063 582.374752335793 3130.81341251899 183 184 186
159.243916066582 580.980399447466 3127.62783366375 184 184 186
167.66649496359 580.167820932249 3128.88661912956 183 183 185
176.537702641658 579.239923881384 3129.24885992913 183 183 185
184.02900470801 578.659283809877 3132.28643624904 182 182 182
191.068496494796 578.193532326971 3136.21901510129 179 179 179
198.113916772737 577.72701226031 3140.15400018333 177 177 177
205.16520150907 577.259693381065 3144.09162302442 178 176 177
212.667444595152 576.676901286862 3147.13364559759 174 172 173
219.728009389277 576.208135266771 3151.07477961084 162 162 162
227.234379164917 575.624358685559 3154.11848051357 160 160 160
234.304097427575 575.154209916182 3158.06333118236 152 152 152
240.074576328277 575.025071116674 3164.71648314271 151 151 151
245.001347371211 575.121326793924 3173.18367438991 155 155 155
248.669386698259 575.555442872271 3184.37559206095 168 168 168
254.947888094313 575.305622347323 3190.15628810144 186 186 186
261.24222751601 575.054158460621 3195.94340930274 206 206 206
268.819254377824 574.462333030692 3199.01577976804 206 206 206
273.038863484218 574.771928669242 3209.35290260295 205 205 205
278.968325592578 574.627832772117 3216.07053911043 173 173 173
281.186523855438 575.492733333727 3230.9876509594 130 130 130
284.295450048612 576.127777733019 3244.10928098162 144 143 139
287.460623408356 576.758007118113 3257.25372158029 144 143 139
296.788184170142 575.707389547943 3256.7228585607 152 152 150
313.782286118585 572.538631142377 3238.81328069423 134 134 132
332.670137051516 568.821926613077 3216.28032373722 147 147 145
346.622736799553 566.449690282369 3204.68539717673 153 153 153
358.906797353662 564.527149544556 3196.72697212706 157 157 157
368.369493385107 563.384167994823 3195.17245914629 164 164 164
375.847706229857 562.795568654346 3198.20479606203 179 181 180
382.158179484293 562.537536329222 3203.99849952508 181 183 182
388.484074920784 562.277953364955 3209.79845907399 178 178 180
394.441058556033 562.126655796207 3216.52729343978 180 180 182
402.7089305965 561.314892705559 3217.72317578626 173 173 173
409.070809505272 561.051293204224 3223.53773523287 189 189 187
415.071382915191 560.8954416554 3230.28399608152 182 182 180
425.207543418079 559.536972541124 3226.84618115253 192 193 188
437.537725402982 557.527261750205 3217.82828292585 158 159 153
-138.878427929925 615.69618002726 3282.85201719793 216 218 217
-123.530278804231 613.428911705656 3273.97921659527 210 212 211
-113.900215691748 612.456433747773 3274.64905050455 203 205 204
-104.794876513352 611.601811713846 3276.18434223152 186 186 186
-97.7324376687072 611.215122554655 3281.2046782843 155 155 155
-87.1166452261407 610.010581724759 3280.11751248799 134 134 134
-66.9595982540747 606.59480695645 3262.41165286579 119 119 119
-27.8874703499441 598.769421723224 3211.40000321855 178 178 178
-1.58705550753147 593.869881847746 3182.16726156435 170 170 170
15.1061473622693 591.186258196377 3169.52672976989 163 165 164
28.749790771653 589.203372818661 3162.11924759896 177 179 178
42.8247631913992 587.109343596561 3153.80844179051 172 174 173
52.4406183279034 586.057703280942 3153.39431487649 169 171 170
62.0373432241617 585.007369402042 3152.97243236106 196 198 197
70.6486259628345 584.187975199087 3154.30741711231 194 196 195
79.7315663219749 583.254301767661 3154.75543076042 158 160 159
89.7567369715822 582.092394942296 3153.42906044957 161 163 162
101.184778785741 580.589068374991 3149.43635173708 173 175 174
113.046514191452 578.974350845863 3144.54127866236 185 187 186
123.451896857913 577.704632766468 3142.29086254469 194 195 197
137.572563497227 575.526909878286 3132.92012700781 188 189 191
148.830104159184 574.035562093105 3128.85855001526 182 183 185
160.048266082817 572.546980968908 3124.78075065299 184 184 186
167.082457419941 572.07961162923 3128.71145288011 182 182 184
175.954524890211 571.159566792255 3129.07398228582 183 183 185
181.624463280898 571.029611955777 3135.6861750635 187 187 187
189.127018462845 570.447512448037 3138.72831875246 177 177 177
196.180131649686 569.977364193433 3142.66644613958 173 173 173
203.686935368002 569.394240656937 3145.71031779273 169 167 168
210.749211052925 568.922733411734 3149.65242253785 166 164 165
217.817472958275 568.450398646861 3153.59670010712 165 165 165
225.771920594027 567.754181129343 3155.74386869474 167 167 167
232.846813591261 567.280633570307 3159.69084033886 165 165 165
239.492203804038 566.917511880252 3164.54213771506 165 165 165
244.418117052646 566.997128098219 3173.00910776997 174 174 174
248.514774118568 567.295657498755 3183.29678929885 206 206 206
255.645615022358 566.816392105737 3187.26645719428 206 206 206
261.081991094819 566.777902016447 3194.86245433322 211 211 211
269.07936585801 566.07583805684 3197.02679089904 197 197 197
271.612772376228 566.803795895676 3210.99375818648 160 160 160
276.294704228883 566.977555404015 3220.44029368913 147 147 147
277.278708067339 568.13453196571 3238.09215674447 148 148 146
281.643158164676 568.409548660312 3248.48818677123 145 144 140
288.097646650435 568.134935645452 3254.34032666004 143 142 138
299.047804407551 566.659632353406 3250.15417089032 155 155 153
330.480679150993 561.110655903326 3219.76776684755 145 145 143
343.647590861125 558.99797663646 3210.0103696721 148 148 146
355.5523407134 557.215090768077 3202.97637122594 161 161 161
365.428670069092 555.976295201946 3200.51125355357 169 169 169
372.922457524013 555.386342362091 3203.54990677798 174 176 175
380.416486217756 554.795981864668 3206.58866076822 175 177 176
386.362706153928 554.634896937333 3213.31321117389 174 174 176
393.098441708287 554.257389860738 3218.20094055071 175 175 177
401.754017689946 553.34358809988 3218.47576676295 177 177 177
410.015056646184 552.537471824502 3219.66909686717 183 183 183
417.13560791315 552.05154964728 3223.63464901803 186 186 186
425.758512619249 551.139200624396 3223.8962358505 190 190 188
434.737986593633 550.121481391112 3223.22418559201 184 185 180
-135.886797376008 606.108332758659 3276.58380906328 182 184 183
-127.264684107911 605.371351893366 3279.00161971862 141 143 142
-118.132390967874 604.519914420725 3280.54780077593 134 136 135
-106.964037225523 603.211631040615 3278.60634133891 210 210 210
-98.8768139967924 602.5901434073 3281.88551153636 183 183 183
-89.2697012524917 601.626447680042 3282.54598643697 113 113 113
-72.6256422423777 599.071269837696 3270.96339120046 124 124 124
-32.5136063178719 591.185534576959 3218.21563410615 170 170 170
-5.1882921602362 586.158216233558 3187.24096194897 176 176 176
12.0201149015819 583.408873863841 3173.73046544823 155 157 156
25.6787946047061 581.457369750784 3166.32909073141 178 180 179
40.7512564924983 579.171860426344 3156.26573920772 165 167 166
49.3987477460536 578.355306108434 3157.61536300502 164 166 165
59.9809691376583 577.089689587432 3155.43651654783 198 200 199
66.6667582967941 576.723551906856 3160.30393680554 185 187 186
75.7682120473739 575.79630213969 3160.75939770528 155 157 156
85.3339400258222 574.758077929085 3160.32487296906 159 161 160
99.6390430381713 572.605039866348 3151.02888453754 174 176 175
111.981109008519 570.9027334227 3145.25014966812 186 188 187
124.744536203605 569.092768202236 3138.56377163287 192 193 195
136.985018279242 567.397703082778 3132.74385127564 187 188 190
148.244412812494 565.927877256097 3128.6828617719 181 182 184
159.001065121281 564.571445971046 3125.49626414066 183 183 185
166.037991988437 564.100756957078 3129.42784190023 183 183 185
173.99711935677 563.408831209135 3131.57687274803 184 184 186
179.218558157517 563.377124009371 3139.08553466673 197 197 197
186.278333850654 562.903752558285 3143.02664131304 172 172 172
193.794697436186 562.31990149948 3146.07438920323 165 165 165
201.311923519068 561.735713114164 3149.12248886935 156 154 155
209.275507001593 561.041885551945 3151.27308115496 156 154 155
215.905898053565 560.675229905169 3156.11833226346 159 159 159
223.868448553924 559.980791345038 3158.26876815964 160 160 160
230.075301842425 559.72099144041 3164.02027280253 176 176 176
238.039348580877 559.025776799008 3166.17132039742 191 191 191
244.70059496052 558.655391356245 3171.02909288071 203 203 203
250.081889264819 558.607940635262 3178.60259849386 211 211 211
256.344603085445 558.342454293245 3184.37702099934 210 210 210
261.347538165328 558.398358739651 3192.87561360433 191 191 191
268.072204342513 558.021573814834 3197.75911282146 175 175 175
271.026343090706 558.609075742467 3210.81843086087 160 160 160
274.871962381684 558.977655268642 3222.08274615262 148 148 148
276.688433549768 559.876604353854 3237.9157516069 153 153 151
280.639033966907 560.236238773093 3249.22264081565 147 146 142
287.9158558778 559.740087505352 3253.25154337878 141 140 136
298.457947148934 558.392914483852 3249.97800132571 157 158 153
316.658744330244 555.032650252736 3229.32177573019 150 151 146
328.692056605889 553.270542645742 3222.33967380648 143 143 141
341.069878742122 551.406715611213 3214.41876712445 147 147 145
352.5924819218 549.758245201476 3208.30782950405 156 156 154
362.880292965968 548.429245714367 3204.93119343498 168 168 166
369.994868580043 547.943229103947 3208.89432680202 170 172 171
377.114764616232 547.456462197889 3212.85962005739 171 173 172
385.014266300358 546.759516976399 3214.98454693359 175 175 175
393.678212722288 545.853629911992 3215.26270228665 175 175 175
401.944929194287 545.0528919877 3216.45829041042 176 176 178
409.062993128502 544.564745945028 3220.42285231413 181 181 181
