ply
format ascii 1.0
comment KinectMotionCapture
element vertex 754
property float x
property float y
property float z
property uchar red
property uchar green
property uchar blue
end_header
-37.9897511125327 854.797671278934 3012.08895879314 236 237 241
-25.3780608293024 856.0510647274 3013.06012586939 235 236 240
-16.4586259004214 856.149903397432 3010.62204953539 240 241 245
-3.78455418150736 857.393698120251 3011.53921057905 241 242 246
10.4252301660548 859.090442675584 3013.76890090491 243 244 248
26.9350182678316 861.4674137367 3017.97078554876 242 243 247
40.486004327196 862.921319553785 3019.4497927602 241 242 246
55.5892036223318 864.826035124654 3022.22735696516 239 240 244
69.9827996142348 866.49545038269 3024.29790822636 238 239 243
85.1808904932398 868.386009378613 3026.9933182197 238 239 243
98.1412868839398 869.586992407007 3027.66258879935 239 238 243
108.081259925388 869.873426173772 3025.66202065156 239 238 243
115.742743560881 869.475800083012 3021.67095127989 239 238 244
125.716383915966 869.756823725993 3019.6415530318 239 238 244
139.560908259934 871.166587063483 3020.86642610523 239 238 244
156.534703699086 873.474721621079 3024.66658497349 241 240 245
171.242122988628 875.097262586159 3026.46543804897 244 243 248
-167.17577944669 868.246157707735 3138.52911820513 226 228 227
-171.670163897367 863.930011749741 3122.60204084494 205 207 206
-172.035916745503 861.022888052133 3111.02759583182 210 210 210
-168.2361139966 859.51999366329 3103.77381087098 223 223 223
-163.043817819016 858.484268525249 3097.95691179157 208 208 210
-159.969563999477 856.750279571773 3090.0102227938 211 211 213
-160.44502888681 853.855715171925 3078.53078776405 236 236 238
-158.831761601489 851.662164111037 3069.20652902689 227 225 228
-155.11134749947 850.167086574998 3062.0215024065 208 206 209
-149.978002427017 849.136366048957 3056.25566593886 245 243 246
-144.849101127467 848.105704996983 3050.49368066354 242 241 246
-137.574333332248 847.768101176867 3046.83708735231 232 231 236
-130.291550126292 847.429020902868 3043.17387187679 224 223 228
-119.396397734401 848.240619375634 3042.98884962912 241 240 245
-109.918850703278 848.587434591317 3041.38900696574 236 235 240
-101.146381799811 848.700915187315 3039.07821648854 232 231 236
-94.5392321064298 848.122738357672 3034.67856983043 235 234 239
-87.1992082365756 847.772955088381 3030.9658111697 234 233 238
-81.3138243691358 846.963413762538 3025.8699832721 231 230 235
-73.96263954386 846.610847624111 3022.14725353034 230 229 234
-65.8682723910693 846.485406604102 3019.10248556046 228 227 232
-57.0249586495413 846.585873020741 3016.73037564784 227 228 232
-49.6443348836117 846.227807452022 3012.98248126734 233 234 238
-40.0318233549677 846.551176811758 3011.26581195245 236 237 241
-28.1691331825193 847.553495642558 3011.56421493205 234 235 239
-17.7651743844507 848.096629604848 3010.48340661251 238 239 243
-5.09452266494703 849.316451346101 3011.4036872381 239 240 244
7.6121825318225 850.530616994059 3012.29244015781 240 241 245
25.6168512229902 853.323180497975 3017.84280226963 239 240 244
36.9030738293028 854.072531166517 3017.31922877759 238 239 243
51.9961574587455 855.945971065794 3020.10576326073 236 237 241
66.3797984371732 857.586903667029 3022.18512745827 235 236 240
82.3275203972029 859.671358588471 3025.55280967018 237 236 241
92.9947493242942 860.174306557075 3024.24407607292 237 236 241
104.449721666931 860.898056907375 3023.57440700946 237 236 241
114.400815149156 861.168942014022 3021.56461664449 236 235 241
126.675588950709 862.108638465328 3021.50625772515 236 235 241
139.752603151322 863.267147278279 3022.07472669114 235 234 240
153.637735438032 864.643714585255 3023.26461851208 239 238 243
172.982024174609 867.576170932257 3028.97623814146 235 234 239
179.200085846712 866.710209466416 3023.59243203651 241 241 241
-178.158750480528 856.953960123211 3128.27113705438 207 209 208
-173.630566532675 855.687108742256 3121.70776923458 204 206 205
-172.601710781997 853.266631878956 3111.56825059368 210 210 210
-170.901616565739 851.079952417297 3102.16869130639 216 216 216
-166.417073296786 849.817323576507 3095.64343658232 222 222 224
-164.054228274649 847.865225245418 3086.99118812981 204 204 206
-163.831226203084 845.226085506124 3076.22828790746 202 202 204
-162.932941102178 842.82025836713 3066.20184461145 248 246 249
-157.090233544566 842.022153510734 3061.14293169695 232 230 233
-149.822877142999 841.681355762182 3057.49278280374 207 205 208
-146.120551087181 840.19578073892 3050.32337216663 248 247 252
-140.280973842493 839.396360747517 3045.26718092897 238 237 242
-133.004315356526 839.052655657189 3041.60930393734 222 221 226
-121.395558644158 840.073961003182 3042.12767714124 243 242 247
-111.199923194176 840.635268967239 3041.22731238759 237 236 241
-103.154667168445 840.511052061473 3038.22510286453 239 238 243
-96.5513857983953 839.930761193224 3033.82882272032 235 234 239
-89.2154245256576 839.5760753984 3030.11961702702 234 233 238
-81.1407979632381 839.446166419094 3027.09198788887 232 231 236
-75.2534585634841 838.635822763214 3021.99447026024 230 229 234
-68.6316161132967 838.050756571729 3017.58213350492 228 227 232
-61.2689037681999 837.690312267384 3013.84977901094 224 225 229
-51.6812046802277 838.003945773774 3012.15436310597 231 232 236
-42.073357167201 838.314408968737 3010.44181989333 235 236 240
-32.4457607290451 838.621591487596 3008.71186532344 233 234 238
-23.543303495122 838.701119858274 3006.28894481197 237 238 242
-9.39378491006337 840.346812957271 3008.57120045513 238 239 243
6.29910445640336 842.433607353495 3012.15974007587 238 239 243
22.7960019541023 844.736139201333 3016.37327983758 238 239 243
35.5821813681163 845.914052737834 3017.19370002396 237 238 242
52.1822233131086 848.201376471309 3021.31793933467 235 236 240
65.808566361155 849.589559481509 3022.73205782078 234 235 239
80.9945754441745 851.416649282512 3025.43835082294 235 234 239
91.6588805537151 851.903582194996 3024.13225518141 235 234 239
103.110759128012 852.608705385152 3023.46538830264 235 234 239
114.590638743072 853.309518657289 3022.77427984373 235 234 240
129.169655265648 854.891142458138 3024.68468935696 235 234 240
142.253421223002 856.024248557579 3025.24747094292 235 234 240
153.829367268214 856.71056737793 3024.47319218034 237 236 241
170.077026383545 858.715164322259 3027.58142556031 233 232 237
182.49721910392 859.611284829957 3027.39762472306 236 236 236
-183.956804490788 850.204975385885 3134.66351333499 227 229 228
-182.890791706362 847.799676168564 3124.49169100582 201 203 202
-177.677972898459 846.768433443662 3118.65697517888 206 208 207
-173.167615348541 845.508953322907 3112.10901037299 210 210 210
-173.566069748066 842.654681505552 3100.5625664884 212 212 212
-169.788878401326 841.170664374534 3093.32857283032 218 218 220
-168.136896921455 839.005735301575 3083.97057363799 211 211 213
-165.097363133653 837.297681738197 3076.05380967775 214 214 216
-162.074706747739 835.591339907693 3068.15134736345 244 242 245
-156.227455906434 834.792683086589 3063.08850019842 246 244 247
-149.668085362907 834.21970533445 3058.73054726958 202 200 203
-143.819498647246 833.419670885693 3053.66655118129 220 219 224
-137.971280659437 832.619087232356 3048.60287824153 234 233 238
-130.686562215669 832.268764970739 3044.93774276136 238 237 242
-122.673383987356 832.141921234508 3041.96335324026 237 236 241
-113.203073614963 832.462582586175 3040.36995232682 238 237 242
-106.611425796667 831.88170252374 3035.98375921806 223 222 227
-99.2893233140899 831.524032333222 3032.28658477531 231 230 235
-92.6883557305613 830.940759326657 3027.89232939737 232 231 236
-81.698986952667 831.698647508725 3027.6259944654 232 231 236
-75.0784786470624 831.111605086326 3023.21482686716 231 230 235
-69.9240000777048 830.077379732432 3017.4306959495 230 229 234
-63.3004324538753 829.488847355933 3013.01688638513 219 220 224
-51.5002613418121 830.457328282645 3013.3700116649 227 228 232
-39.6680289752704 831.420810527081 3013.69506518172 233 234 238
-33.0051076722069 830.825361404494 3009.2471911897 230 231 235
-24.848292180113 830.672346797315 3006.148475677 233 234 238
-8.4608755709592 832.952994461571 3010.45736378295 235 236 240
8.73225840233127 835.446432317941 3015.38947416174 234 235 239
25.9863735187418 837.93096131435 3020.26910323433 233 234 238
38.0279765124736 838.862534357382 3020.41289447525 233 234 238
53.1232431895758 840.670404335173 3023.19796172724 232 233 237
63.7225655910596 841.150997251881 3021.94823001789 232 233 237
78.9022882430572 842.946213609503 3024.65986272364 232 231 236
91.0847780427702 843.856559735741 3024.68199536949 232 231 236
104.826259062683 845.200311920343 3025.99660754965 232 231 236
114.014446154876 845.22463018052 3023.32607694963 233 232 238
126.288771741527 846.120789860603 3023.26838863362 233 232 238
136.286364330949 846.357326247686 3021.21851840161 234 233 239
146.303454915394 846.590555865629 3019.15145447156 230 229 234
164.078067085708 848.998101827483 3023.58044889046 235 234 239
182.689018286079 851.614396198395 3028.60646638736 230 230 230
-134.035527845486 858.940181478244 3187.94332905977 215 217 216
-178.6024026952 841.615026701176 3130.07832391847 198 200 199
-179.636415552684 838.552574576861 3117.76082953577 206 208 207
-177.222575104387 836.622615718569 3109.0645535629 208 208 208
-179.72860676977 833.118376258513 3095.37893632799 212 212 212
-175.265088690401 831.869515884403 3088.87150015862 218 218 220
-172.217867898158 830.171925245487 3080.94800579531 222 222 224
-165.657244857238 829.597820638884 3076.58897458401 193 193 195
-161.217192536181 828.350383734927 3070.10186780671 216 214 217
-154.6553561522 827.77489580535 3065.74147839848 247 245 248
-148.089592518337 827.198362208348 3061.37800739041 213 211 214
-141.520263141016 826.620727348772 3057.01113744769 192 191 196
-134.231021233274 826.264825353174 3053.3421174755 242 241 246
-128.370492270033 825.462044786627 3048.26778840688 231 230 235
-123.950914502249 824.21403379288 3041.79874689382 228 227 232
-116.650605861627 823.855024497005 3038.12015512184 229 228 233
-109.342357797275 823.49442920819 3034.43500775606 229 228 233
-100.573494536304 823.575278328559 3032.1275538716 228 227 232
-93.2456877074328 823.210851307935 3028.42547905129 230 229 234
-82.2572833318693 823.949825564921 3028.16010256419 232 231 236
-75.6365527254204 823.360118213376 3023.74875955863 231 230 235
-69.0120586049985 822.769447131139 3019.33447633808 229 228 233
-60.9106471991385 822.61796514498 3016.28377160697 224 225 229
-47.6260106008963 824.003359049212 3017.99407742909 224 225 229
-39.4869020781456 823.845640301295 3014.9104241533 232 233 237
-33.564546426017 823.027886076065 3009.78260470077 228 229 233
-26.8977065512725 822.428817349376 3005.33167330979 234 235 239
-11.2638208886593 824.453431156496 3008.97175649329 233 234 238
4.42269921728755 826.470417628047 3012.56626893816 232 233 237
20.9128476507661 828.697683172154 3016.78614608394 232 233 237
37.4597099445637 830.916771999443 3020.95692027376 231 232 236
51.0426060722171 832.256968403706 3022.40900672185 231 232 236
61.6370272641578 832.72205210735 3021.16362356707 231 232 236
76.8108922346915 834.485441561004 3023.88085508787 231 230 235
92.0330172204986 836.241710706958 3026.55598854567 230 229 234
106.540420075648 837.774372463318 3028.52910098671 229 228 233
115.734320389349 837.787141804414 3025.85369336953 231 230 236
126.478864968628 838.229133628381 3024.47834251477 231 230 236
137.247223471725 838.667439305867 3023.08237516258 229 228 234
147.267741631388 838.886673052271 3021.01243112349 235 234 239
164.270142999218 841.038125696033 3024.78881150783 234 233 238
185.982700615055 844.469861640819 3032.41463015803 235 235 235
201.555197259061 846.174236895324 3034.78673569227 230 230 230
-179.563900758465 836.421120704461 3141.53237900608 216 218 217
-180.558336580979 833.381185750881 3129.18043587276 194 196 195
-181.594009379597 830.346265267643 3116.86420181498 200 202 201
-181.973390333722 827.539070436916 3105.30092122964 208 208 208
-181.690312348842 824.958890499104 3094.48525347998 212 212 212
-177.931555624461 823.49364502524 3087.26711613092 213 213 215
-174.185542080695 822.029614408597 3080.05970036938 210 210 212
-167.628931077121 821.453333034604 3075.70384512772 205 205 207
-163.19214128896 820.211845028679 3069.21952755595 191 189 192
-155.924142303931 819.855232876078 3065.56923970313 216 214 217
-150.784169428705 818.834578943244 3059.79759344882 229 227 230
-142.078711877101 818.916660893363 3057.54508758299 200 199 204
-132.641235501404 819.216270229212 3055.97996597942 220 219 224
-126.774116710723 818.412602200645 3050.89993102127 227 226 231
-122.347596098116 817.169105845119 3044.42484264007 216 215 220
-117.20775824962 816.145513477329 3038.65301694657 226 225 230
-109.899466579084 815.77952256055 3034.96786674954 219 218 223
-101.130964393326 815.849640796557 3032.66079535834 220 219 224
-93.0748369815619 815.698328543315 3029.64933879276 222 221 226
-82.0853305135216 816.418170463411 3029.38313106052 226 225 230
-73.9974017143439 816.261437632006 3026.34414621486 226 225 230
-66.6321184013978 815.884897028377 3022.60966767505 226 225 230
-57.7862250249819 815.941598567202 3020.23560549764 219 220 224
-47.4472175726963 816.430000283374 3019.21144751046 219 220 224
-38.5654794767678 816.480856494735 3016.80635530409 228 229 233
-31.1532584798151 816.095719047746 3013.03124989416 224 225 229
-22.2439889356814 816.14172972011 3010.60232659124 229 230 234
-9.58498624919724 817.265266249678 3011.53332778304 227 228 232
6.10550871197635 819.246204921648 3015.12462866865 228 229 233
23.3503078429815 821.650401353231 3020.01253728482 228 229 233
41.4088528029217 824.26090152341 3025.51738267288 227 228 232
52.7375538027326 824.927817376554 3024.95752580998 227 228 232
63.3372996686101 825.375775187266 3023.70763854512 227 228 232
75.4789545527084 826.248660031389 3023.76509151732 229 228 233
90.6972123648511 827.972774322511 3026.44410067065 228 227 232
103.674432121967 829.048545412216 3027.0996012104 228 227 232
115.157362712417 829.691876283252 3026.40622084884 230 229 235
125.901031926509 830.117696955268 3025.03173349403 230 229 235
138.207002871817 830.965638457049 3024.94692946319 228 227 233
147.459642857477 830.958100800213 3022.22074165081 230 229 234
164.461867366357 833.071571739602 3025.9978369604 229 228 233
190.825451783947 837.721547102569 3037.52474553881 230 230 230
208.742455631666 840.026892531269 3041.83067072185 221 221 221
-180.826440802638 828.390104418854 3141.35513264447 219 221 220
-184.593702347146 824.494762302929 3126.11868129094 196 198 197
-187.027991053309 821.047334760731 3112.37051371187 201 203 202
-187.419317135689 818.266443898016 3100.81773146103 209 209 209
-185.050180354631 816.369132499758 3092.15967469421 213 213 213
-180.597114977109 815.132661173019 3085.66153348876 213 213 215
-177.559890286471 813.458193093916 3077.7462377584 211 211 213
-171.01106089482 812.880406772773 3073.39745238444 208 208 210
-165.874035138506 811.863960251089 3067.62801772705 189 187 190
-157.192644834547 811.939723783142 3065.39672826619 195 193 196
-152.054256417562 810.921955912624 3059.62612110419 237 235 238
-143.351036661546 810.993522029774 3057.37593847194 201 200 205
-134.631968082355 811.062332703443 3055.11172143746 204 203 208
-126.614769389011 810.911112828772 3052.13400519279 188 187 192
-120.745571786931 810.106625867987 3047.05217376078 210 209 214
-114.876828198285 809.301661074332 3041.97073893489 212 211 216
-106.836322057784 809.145565651552 3038.97285288167 213 212 217
-98.7841673268601 808.987160664639 3035.96457002962 214 213 218
-92.1762283128231 808.395006140952 3031.56464532757 217 216 221
-82.6440608237537 808.664077088472 3029.91764942193 222 221 226
-74.5563299842536 808.499286283417 3026.87888837091 223 222 227
-63.5196327783003 809.192471543316 3026.57195146569 223 222 227
-55.4001298010203 809.022323985362 3023.50568707271 218 219 223
-47.2689185732231 808.849940911728 3020.42928920436 223 224 228
-43.5686506805397 807.390334232067 3013.26149417571 226 227 231
-32.456314178213 808.071057359095 3012.88907872843 222 223 227
-23.5493652519301 808.106503466118 3010.46255075991 227 228 232
-9.40070997529485 809.632720143271 3012.7463288737 224 225 229
1.79786234335566 810.300093063618 3012.29925625438 225 226 230
22.7833718105943 813.729132912806 3020.55525113917 225 226 230
41.5918666815136 816.508992626964 3026.73225140079 226 227 231
53.6765144975142 817.368916166654 3026.83951395043 226 227 231
62.7658473317072 817.376364648602 3024.25477320567 226 227 231
76.4240824055991 818.650900561954 3025.64198616265 227 226 231
89.3617222885696 819.708107350613 3026.33191229914 227 226 231
101.572397672824 820.548760695916 3026.32975158386 227 226 231
112.285240429989 820.962982750312 3024.98205778664 229 228 234
124.55593006962 821.794475934061 3024.92793991711 229 228 234
140.704118468713 823.67221533593 3028.12321018232 226 225 231
153.820307543585 824.702561985027 3028.65855537068 227 226 231
173.931134921725 827.614303122751 3035.02949902652 227 226 231
195.665219267017 830.934266970192 3042.63738397251 229 229 229
215.925737761644 833.824389514133 3048.87840953329 218 218 218
-188.308141294405 818.399032120544 3134.67097852512 212 214 213
-187.933969818169 815.852000399542 3123.77645748377 198 200 199
-190.373643633407 812.437995927873 3110.03274078997 201 203 202
-188.679479266083 810.334458534025 3100.63778235323 205 205 205
-185.61155792783 808.668095466824 3092.69614372718 208 208 208
-181.859088947896 807.220083387258 3085.48302900656 205 205 207
-178.822511899934 805.556743779563 3077.56853801147 212 212 214
-172.9810306081 804.76012156201 3072.51067833807 206 206 208
-167.847303596985 803.747016020366 3066.74439668493 208 206 209
-159.170511846707 803.812417480373 3064.51684458947 185 183 186
-153.323908004375 803.013428588396 3059.45456035353 227 225 228
-143.909521482518 803.289580206314 3057.90991907569 232 231 236
-135.906594877186 803.132654634701 3054.94429442292 193 192 197
-127.173770324733 803.188196708664 3052.66855608566 200 199 204
-118.425119363484 803.240986357725 3050.37880275396 190 189 194
-111.104251106429 802.862859342361 3046.68251510671 197 196 201
-103.051619389067 802.696986430469 3043.67418273855 198 197 202
-95.7130179785559 802.315475396408 3039.96286257117 205 204 209
-89.8227264715072 801.505872013039 3034.86278144805 208 207 212
-83.2029277733923 800.908744505364 3030.45229424374 214 213 218
-75.1153724791913 800.735892708078 3027.41373757957 216 215 220
-64.8136715531824 801.197878310375 3026.42208567675 217 216 221
-55.9603390299017 801.231899213893 3024.04172269444 215 216 220
-49.3056087588659 800.627933713119 3019.60131886349 215 216 220
-43.387710305633 799.811438493489 3014.47735446706 217 218 222
-30.789796258206 800.895450446749 3015.46124398554 214 215 219
-21.1327916184403 801.130244821193 3013.70658486006 220 221 225
-6.97774197438594 802.625597387199 3015.98502074598 218 219 223
4.22806523272801 803.27289228541 3015.53180749485 222 223 227
27.469659079733 807.277104252738 3025.79874395318 223 224 228
42.5270483821243 808.960242013565 3028.6174491552 224 225 229
53.8598724596149 809.588515000403 3028.0542690794 225 226 230
61.4376464542152 809.166350282802 3024.13591287331 225 226 230
75.092269163529 810.41430412914 3025.52642904897 226 225 230
88.7871448350719 811.656178300337 3026.88209593184 225 224 229
102.522214969578 812.892100446921 3028.20296339815 226 225 230
115.532708831893 813.913804712425 3028.82997442926 228 227 233
124.744996380875 813.891040649978 3026.13886019169 227 226 232
138.586363200949 815.110910962304 3027.36770051611 224 223 229
153.238770070564 816.531977566204 3029.21554039222 224 223 228
171.800466762922 818.981295104369 3034.28533055569 231 231 233
197.402146704067 823.281347128427 3045.15161577003 230 230 230
223.105066063373 827.566724825336 3055.9299327188 218 218 218
-196.863487026424 810.771528187319 3138.16553247571 232 233 228
-186.804760056715 811.262522516841 3137.38428685714 204 206 205
-186.422396161278 808.736186076866 3126.48253104566 198 200 199
-190.242920123437 804.92377289842 3111.29170676242 201 203 202
-187.848111966286 803.05073159465 3102.61124242038 203 203 203
-186.173064073523 800.965698366993 3093.23273301182 206 206 206
-182.419537875296 799.525808201937 3086.0186493319 205 205 207
-179.38174486544 797.873204122066 3078.10303485244 208 208 210
-173.539826493215 797.076523042237 3073.04479672718 207 207 209
-167.698238855339 796.279347527357 3067.98684846521 209 207 210
-159.729008203225 796.120753875623 3065.05075562833 193 191 194
-153.17065859093 795.534357142234 3060.69345901978 201 199 202
-143.754756551329 795.796830274454 3059.14759282516 241 240 245
-135.749780380306 795.631506362176 3056.18056167444 188 187 192
-126.297965075564 795.887803308134 3054.60329267103 198 197 202
-116.825878066684 796.140913340485 3053.00878961711 182 181 186
-108.055522023694 796.179221902248 3050.70031754869 188 187 192
-99.2692058334232 796.214782225142 3048.3780300556 193 192 197
-92.6439584154859 795.615445972638 3043.96315007553 198 197 202
-88.1985858469387 794.383521735443 3037.47133152603 201 200 205
-82.3021989827066 793.572618391738 3032.36597576152 207 206 211
-74.2107217743748 793.391093904998 3029.32407603265 208 207 212
-63.9057271390504 793.836346899781 3028.32967778129 209 208 213
-56.5206581118756 793.440291513072 3024.5778611952 211 212 216
-49.8657435334993 792.833606313623 3020.13731524217 208 209 213
-42.4674390600135 792.434690538268 3016.37404555441 209 210 214
-28.3823687311715 793.910923817297 3018.7135744345 207 208 212
-20.2063127578893 793.714573271885 3015.59814781028 215 216 220
-7.54118953049066 794.76392497862 3016.52432482877 213 214 218
4.41197172781171 795.600054894743 3016.74570568747 214 215 219
26.1508886421025 799.127143315176 3025.67132077191 217 218 222
38.9472158568243 800.156849339001 3026.48390588303 219 220 224
51.0251981241461 800.974230866922 3026.59690586375 223 224 228
60.1095593744674 800.960610199254 3024.01661069805 224 225 229
75.2775601849027 802.594417192409 3026.73976459477 223 222 227
88.2123902853449 803.603075376444 3027.43244066694 223 222 227
101.183174906965 804.606270452265 3028.09367355146 224 223 228
112.661113334874 805.193284186708 3027.40530052591 226 225 231
121.866835397583 805.160684683484 3024.71994056518 225 224 230
134.931794149855 806.149542570806 3025.29995776381 221 220 226
150.344926013716 807.746722027462 3027.81056959989 219 218 223
166.579273927787 809.540994791202 3030.93170318239 222 222 224
195.263481450588 814.591146845802 3044.4147492759 224 224 224
220.95802163097 818.809884029825 3055.20107610525 213 213 213
-188.480691669462 805.765576695766 3148.13595450277 226 228 225
-188.065305704182 803.257130665789 3137.20546134608 196 198 197
-186.297640026031 801.177530426352 3127.74664156792 199 200 202
-187.333862158636 798.251676755255 3115.43017688199 200 201 203
-185.624111108516 796.178857901375 3106.02150985011 202 202 204
-184.638049740039 793.89709152338 3095.91818379109 204 204 206
-182.279096244675 792.04153700012 3087.26899817128 203 203 205
-179.941109543716 790.188185048235 3078.63765544025 208 208 210
-172.688639625275 789.813302920119 3075.00094557753 204 204 206
-166.842497496517 789.015573931241 3069.93905336113 206 204 207
-158.160261479109 789.05856340941 3067.70692775387 191 189 192
-150.884230720087 788.678711722137 3064.04982906659 173 171 174
-140.03432784414 789.346029838445 3063.90496114117 203 202 207
-129.871519964941 789.799330199981 3063.0334336022 230 230 232
-121.836342374274 789.621315408155 3060.04030803271 190 190 192
-112.350485462864 789.858857093603 3058.43397099259 188 188 190
-106.451791891879 789.049918776739 3053.32660318901 176 176 178
-99.8301124733851 788.448825046961 3048.91451159796 189 189 191
-94.6557711621434 787.430549347002 3043.11306157379 191 191 193
-86.5757661016335 787.243563149657 3040.08114055982 194 194 196
-78.4839363467764 787.054385641137 3037.03898485797 200 199 204
-69.6487504457952 787.070249534636 3034.67446786335 202 201 206
-64.4661679673484 786.048767968226 3028.86589569744 202 201 206
-58.552546044063 785.233986512608 3023.745626818 208 209 213
-48.9504759787298 785.450705189437 3022.03838308092 203 204 208
-37.848677096052 786.076314887538 3021.67545810375 204 205 209
-24.4930871213764 787.315073946311 3023.32521628158 202 203 207
-14.8167736802982 787.52007965335 3021.55401455526 211 212 216
-1.39071505104038 788.748090982315 3023.14276466276 209 210 214
12.0756861979627 789.970010561825 3024.69658784631 211 212 216
29.3328422049255 792.209293170184 3029.57485495961 214 215 219
39.1294175991179 792.395767457564 3027.69953795983 218 219 223
52.7167477512696 793.599604773792 3029.14866488979 222 223 227
64.8317192616918 794.389667362402 3029.22978199137 223 224 228
78.495618403672 795.582017490423 3030.61293377572 222 221 226
90.678803460265 796.361755820425 3030.63499464637 222 221 226
101.369402058869 796.730645388704 3029.30687441657 223 222 227
114.377068096212 797.703863365559 3029.9366506176 226 225 231
122.821894173239 797.457184007596 3026.58859741559 225 224 230
135.889534009136 798.42130715745 3027.16645110438 221 220 225
145.910992999621 798.572585365 3025.09644747982 217 216 221
162.132975131894 800.333310378299 3028.22851632015 218 218 220
192.350880849432 805.709305665055 3043.02666133207 220 220 220
228.908306561459 812.675212631751 3062.90684734141 211 211 209
-200.067148521469 794.586023756395 3137.07736090332 223 225 222
-195.539873970492 793.364329246414 3130.51448867282 196 198 197
-192.405961247795 791.723513568476 3122.51548739413 200 201 203
-190.677908762182 789.665117933042 3113.09086438745 200 201 203
-189.671311975935 787.400288569794 3102.96962979144 202 202 204
-187.296438436351 785.556760896019 3094.30625224993 204 204 206
-184.241527590242 783.92424895949 3086.3756709289 205 205 207
-181.203331157903 782.293389116605 3078.45956588548 208 208 210
-173.953013494635 781.913384883696 3074.8244391382 205 205 207
-165.98784653087 781.739588431854 3071.8919669606 207 205 208
-158.010742800861 781.563585575947 3068.94916305619 195 193 196
-149.310749095743 781.592745340681 3066.70173583958 178 176 179
-137.742501969599 782.447355627013 3067.25661585894 167 166 171
-125.426798708914 783.503820172172 3068.48560163097 183 183 185
-115.943306237563 783.728602898108 3066.88108110157 212 212 214
-107.158843879346 783.743931808643 3064.56053149141 156 156 156
-101.964498110664 782.726794793159 3058.74173550622 170 170 168
-96.0514874773217 781.915389400326 3053.62197457678 172 172 170
-90.8642429393769 780.898190653398 3047.80933388355 178 178 176
-82.7721166739419 780.701367669544 3044.76697072819 180 180 180
-75.3977245731625 780.297587576377 3041.02445827428 182 182 184
-68.7469363279911 779.687745133811 3036.58750922157 179 179 181
-62.0927392400148 779.076822558719 3032.14729708871 189 188 193
-56.9060276548585 778.057000707622 3026.33513532259 202 201 206
-45.823094628898 778.666825930615 3025.98866434536 184 183 188
-36.191420256158 778.865364727934 3024.255879297 186 185 190
-22.8312564710733 780.076199730451 3025.90185413752 195 194 199
-15.3807187246775 779.658414356098 3022.09374978295 203 202 207
-2.70197991190324 780.656945542921 3023.00845500242 197 196 201
8.51721567127539 781.245425772832 3022.54401868503 210 209 214
23.5138861313717 782.839403406091 3025.41561333718 214 213 218
37.8073249430924 784.22469490636 3027.57513106843 214 213 218
55.160900535943 786.4088326785 3032.3701852008 223 222 227
71.0632074292112 788.181887233235 3035.77924816562 220 219 224
80.9533463168988 788.340490209771 3033.82301692972 220 221 223
89.3429143627675 788.094747138449 3030.52316729523 217 218 220
97.7440537095604 787.846906767 3027.21330198886 220 221 225
110.742006426707 788.797036982684 3027.85133117006 222 223 227
121.477380670469 789.142589443543 3026.4845535042 220 221 225
136.846520103967 790.681038558632 3029.03399124789 219 220 224
149.182383268748 791.415841825198 3028.92401169455 215 216 218
163.867605361927 792.742262889388 3030.74433825517 210 212 211
195.634941530055 798.430925976662 3046.84434736385 215 217 216
232.971865646714 805.48861304202 3067.37158022192 197 199 196
-202.012518410399 786.399485283651 3136.16969462774 208 210 207
-196.107886767827 785.598550544953 3131.05712822068 198 200 199
-195.742153702872 783.139827306755 3120.16903329968 200 201 203
-194.714997852817 780.891871887635 3110.02987008051 201 202 204
-191.62753235812 779.26707277407 3102.0710224961 203 203 205
-188.556732076499 777.643979014388 3094.12660820016 205 205 207
-185.502650580585 776.022478050953 3086.19667435538 205 205 207
-183.167961302088 774.196938148402 3077.56800939616 208 208 210
-176.626299985123 773.606560691107 3073.22520292821 204 204 206
-165.840565976566 774.246371474843 3073.13644622772 207 205 208
-155.735514481987 774.67666848372 3072.31512728563 198 196 199
-145.606044623145 775.103220142004 3071.47298385234 184 182 185
-135.452359290279 775.525851917919 3070.60987739823 157 156 161
-121.700137911201 776.964963988317 3073.23782346071 149 149 151
-112.921590416136 776.970871123845 3070.92277704123 196 196 198
-104.846176646769 776.770429992266 3067.89492265263 149 149 149
-98.922049590823 775.958126395718 3062.76553254053 161 161 159
-92.2753457407008 775.348272832464 3058.33180813903 162 162 160
-84.8999459709239 774.940045230627 3054.58845112215 167 167 165
-78.243817866718 774.32786673454 3050.14688895935 166 166 166
-72.3134040664792 773.512560590457 3045.01206935658 170 170 172
-66.3835607235046 772.696732409 3039.87774757244 163 163 165
-60.4542454723545 771.880496257092 3034.74388614813 188 187 192
-53.0548504894384 771.466282419743 3030.97977040847 201 200 205
-43.4353508064866 771.653547584641 3029.25792616763 170 169 174
-33.0564742909041 772.038246979871 3028.19988422383 182 181 186
-22.6536805234798 772.419126540935 3027.12113709078 193 192 197
-13.714093514051 772.395838273447 3024.66638560981 202 201 206
-0.284984529775656 773.569122048756 3026.25284650087 191 190 195
7.95078929424164 773.339359670135 3023.08619229124 206 205 210
19.9466606547052 774.103840766585 3023.2707035425 213 212 217
36.4852526100599 776.057549908764 3027.45036559888 214 213 218
55.3420936421141 778.599101598471 3033.58732225964 220 219 224
73.5116822838124 780.932144060843 3038.99740451731 218 217 222
81.1356529046634 780.481659976415 3035.03919154493 219 220 222
92.5668093003975 781.019018036657 3034.39137244539 215 216 218
100.977911236473 780.761691468902 3031.07293367558 217 218 222
113.220854016591 781.488908907193 3031.04385622882 220 221 225
123.19735394072 781.620169138663 3029.01263444724 219 220 224
137.034331541437 782.73199703832 3030.24597918338 219 220 224
152.451817491127 784.230758315889 3032.75377044186 215 216 218
171.006457762042 786.50699693802 3037.83079821512 205 207 206
206.659452657118 793.083284499883 3057.1738352814 210 212 211
237.033017459535 798.268442070121 3071.83861711536 190 192 189
-196.388840129578 780.477592017429 3143.24411892427 205 207 204
-198.746261268674 777.217197425753 3129.42811548367 199 201 200
-199.07672282107 774.576425695324 3117.82135626863 200 201 203
-197.361828862126 772.552559874484 3108.40791447593 201 202 204
-193.582935071242 771.143290959714 3101.17196087801 204 204 206
-189.816781997653 769.735116798083 3093.94672751086 204 204 206
-186.063230299281 768.328040820978 3086.73240909229 203 203 205
-182.322288043037 766.922183887126 3079.52901183103 203 203 205
-176.480664752718 766.125722204938 3074.47102804216 201 201 203
-167.813472301857 766.138758407257 3072.25213533273 205 203 206
-158.421580653483 766.351286134673 3070.72740345469 200 198 201
-147.588464637002 766.964392302795 3070.59743659854 192 190 193
-136.014463030229 767.774668180899 3071.14730077792 159 158 163
-122.263963752264 769.184128969574 3073.77693158837 174 174 176
-111.335543587606 769.782566109514 3073.56477176983 124 124 126
-102.535402334907 769.773984953135 3071.23078763608 159 159 159
-95.1610638542579 769.361648358518 3067.48837710301 169 169 167
-87.0560010800681 769.14793199404 3064.43491088005 148 148 146
-80.3889016263497 768.532120067552 3059.98386299899 155 155 153
-77.353403187348 766.916752572152 3052.06968049973 150 150 150
-72.1474845849821 765.901530423626 3046.24084151522 149 149 151
-67.6774477364699 764.68712499833 3039.72753202539 154 154 156
-58.0840287637972 764.865446168179 3038.02835083092 202 201 206
-50.6762440296114 764.444854684034 3034.25732023243 176 175 180
-41.7864719157075 764.419232251878 3031.84576023742 169 168 173
-35.0987345304965 763.796845958355 3027.37655180854 194 193 198
-24.700828302108 764.162094692983 3026.3021421694 197 196 201
-15.0224170078741 764.326132971584 3024.52907211546 196 195 200
-1.59677297918437 765.47271725254 3026.11902473431 184 183 188
5.14173685746755 764.841397340246 3021.60586788684 206 205 210
18.6293820251864 765.978411913885 3023.14182838899 212 211 216
33.6603608194492 767.501954289232 3025.98414319694 215 214 219
54.0152755037711 770.390615519283 3033.46693804137 213 212 217
71.4246260817837 772.485100359103 3038.21454645537 211 210 215
79.8021596642355 772.22534769634 3034.9252183054 215 216 218
91.9899304789804 772.939252414376 3034.94373113807 209 210 212
101.162530687211 772.868833844124 3032.28732414766 210 211 215
116.461681020978 774.352690179487 3034.89777772239 215 216 220
127.979596923594 774.857703476592 3034.17497063457 217 218 222
141.061381648103 775.746561152583 3034.74105216211 217 218 222
156.489099816337 777.211246592067 3037.24019560127 213 214 216
179.685262881035 780.603499049994 3046.22689767954 204 206 205
213.807722810359 786.687453028735 3064.25317300477 202 204 203
241.091462616914 791.014598065275 3076.30790265362 172 174 171
-193.282763460336 776.323865368206 3159.1058011413 137 139 134
-193.520301013008 773.696210703799 3147.41841635666 201 203 200
-193.794973710419 771.073018109907 3135.76318902245 199 201 200
-199.642167374483 766.840184324254 3118.36157842452 199 200 202
-198.619568542223 764.631049983154 3108.22611337491 201 202 204
-194.145698622794 763.431361636814 3101.70970177055 204 204 206
-188.982461195146 762.433004057727 3095.91743129865 203 203 205
-184.523518265016 761.234188114331 3089.41395179926 203 203 205
-181.477708317436 759.635098373141 3081.49072646462 203 203 205
-174.927189687518 759.038160529469 3077.14060106947 202 202 204
-167.666837312694 758.639976892541 3073.49689467998 205 203 206
-157.565142387698 759.038289827449 3072.67900776784 200 198 201
-146.728888942182 759.631929670659 3072.54644773144 194 192 195
-135.151745661857 760.420065971306 3073.09404788728 164 163 168
-122.82791693416 761.401873831894 3074.31615928932 169 169 171
-111.183969750226 762.179755940283 3074.80592454809 130 130 132
-103.100680994347 761.96208500601 3071.77135627517 166 166 166
-94.2849475048333 761.940085533084 3069.42394474034 152 152 150
-86.8986113571037 761.520106887965 3065.67150043148 148 148 146
-80.2294172541016 760.901355683542 3061.21834057634 148 148 146
-75.7369962724073 759.690583118263 3054.68560641267 147 147 147
-70.524373927761 758.677093158189 3048.85094582914 146 146 148
-65.3163615552432 757.663864712997 3043.02027917954 164 164 166
-55.7155152015216 757.8274494961 3041.31444038624 195 194 199
-48.2995436063045 757.400305833383 3037.53635639931 168 167 172
-41.6130980002363 756.776057375872 3033.0682796687 181 180 185
-35.6621837213726 755.95541529597 3027.91572614122 201 200 205
-26.0060964586986 756.109606655516 3026.16238444899 198 197 202
-11.1280534471332 757.623622379464 3029.13731592996 188 187 192
5.28918501988951 759.519377837013 3033.42285047085 183 182 187
13.5428002330111 759.27090149606 3030.24053824208 207 206 211
23.3068800395912 759.408094003483 3028.39370568329 210 209 214
35.3447746162083 760.122959319879 3028.54211541408 213 212 217
52.6888479387142 762.186231183645 3033.34650423265 211 210 215
71.6044222590955 764.626608206516 3039.43289474278 209 208 213
79.9837639687939 764.358527407344 3036.14205339047 212 213 215
91.4128658174631 764.858194323684 3035.49625928027 207 208 210
99.823486548603 764.584823180336 3032.17834155732 208 209 213
115.118528270262 766.036594865122 3034.79256412318 214 215 219
130.461798848944 767.481130665993 3037.36471638095 216 217 221
142.782655747402 768.153359866649 3037.26846429238 215 216 220
159.754014694085 769.966983113572 3041.07393940185 211 212 214
182.956631220435 773.298502499157 3050.05575709761 203 205 204
218.63030372541 779.664918994292 3069.38223210588 196 198 197
231.181096688346 780.303547366117 3069.08690389948 167 169 166
-207.568103471865 764.493916469485 3145.09696665436 195 197 194
-201.655756450229 763.69266132309 3139.97771512719 203 205 202
-201.261154883488 761.29604488135 3129.06419638445 198 199 201
-203.666324555651 758.107199122218 3115.28943018839 198 199 201
-202.652155409198 755.91836359459 3105.16113991365 200 201 203
-197.492088205681 754.923906352337 3099.37159191468 204 204 206
-190.940417943075 754.325855237802 3095.02047557211 202 202 204
-183.685194944919 753.924649439137 3091.38123458143 200 200 202
-179.931937246305 752.533542777097 3084.16706750147 200 200 202
-174.079187680108 751.735702474866 3079.09944910286 200 200 202
-167.520562613773 751.134498958051 3074.74232520955 202 200 203
-156.001402394774 751.909880771498 3075.33994850538 195 193 196
-145.870068920429 752.287254451583 3074.49650848407 190 188 191
-131.441019389249 753.838283623529 3077.86067441815 188 187 192
-119.820479977563 754.598156076572 3078.37052922468 149 149 151
-106.734827571263 755.744452880263 3080.25485115352 152 152 154
-99.3556967158384 755.3213124369 3076.50867241903 154 154 154
-90.5280431304387 755.286748497226 3074.15101072669 140 140 138
-85.2968700004566 754.275251737735 3068.30025859472 140 140 138
-77.8968112461995 753.847474120663 3064.53565543421 136 136 134
-73.3952428144531 752.641061265227 3057.9952801086 143 143 143
-66.7166118820162 752.017206473734 3053.53397408556 155 155 157
-62.9571770386015 750.617542610119 3046.31450850304 193 193 195
-53.3487004135913 750.766565538252 3044.60215064054 161 160 165
-47.3941840104404 749.946576192091 3039.44647079273 161 160 165
-39.9665078505991 749.51192752697 3035.65829067152 192 191 196
-34.0090802860056 748.690587951551 3030.50009636497 199 198 203
-24.34744045404 748.830437377223 3028.74203499744 196 195 200
-8.72208195065305 750.503290339906 3032.39178839538 184 183 188
6.9556788561953 752.168405260508 3035.99585746319 192 191 196
14.468306132986 751.719561336193 3032.13413914102 206 205 210
25.7340863129634 752.225113648274 3031.6298636541 203 202 207
34.7743016878908 752.153719285664 3029.08820568039 208 207 212
52.1157968091144 754.17649599059 3033.89509152832 208 207 212
65.7415603362406 755.238736726987 3035.31182442009 209 208 213
77.8928389504792 755.914857064385 3035.36221119837 211 212 214
90.8356109439104 756.775784467185 3036.04896104556 205 206 208
100.768883132385 756.873423452783 3034.05573967563 207 208 212
116.065891286445 758.29227015477 3036.66815570571 213 214 218
132.1768520275 759.892899306704 3039.89748820159 215 216 220
146.037623304806 760.920017796288 3041.11075902206 212 213 217
158.399369548318 761.564402825009 3040.97924709931 211 212 214
182.367616139042 765.024962707074 3050.61989038448 199 201 200
207.976392511971 768.847702237405 3061.48280235032 190 192 191
-208.823438564259 756.517286901586 3144.91343858762 190 192 189
-203.600245426964 755.519298946688 3139.06919995192 202 204 201
-202.518111914426 753.341552081209 3128.88193066334 194 195 197
-204.231033824661 750.381698126364 3115.82894544896 206 207 209
-203.908748160825 748.015601078132 3104.9779077322 204 204 206
-200.1412824719 746.63252210907 3097.75137405668 209 209 211
-193.595514637523 746.03263089191 3093.40538548472 199 199 201
-185.646544029896 745.822149502388 3090.48718899047 201 201 203
-181.194637375765 744.634559369651 3083.98941982803 196 196 198
-174.639704819619 744.031675029785 3079.63519174497 202 202 204
-166.669179458335 743.816494243865 3076.69834342315 190 188 191
-153.023011772594 745.152174708634 3079.41919578592 197 195 198
-140.752322162437 746.093469501806 3080.68762729687 190 188 191
-127.020780260048 747.416394882198 3083.3345654106 185 184 189
-114.672980503857 748.3459876397 3084.53623861578 151 151 153
-102.288559662632 749.270012029247 3085.70652260623 145 145 147
-93.45875101614 749.224917328878 3083.34706128458 145 145 145
-86.0533910784698 748.792315844373 3079.57821016948 142 142 140
-81.5296906044751 747.589308056938 3073.01831462956 134 134 132
-74.1171446395179 747.154541095845 3069.24324915866 146 146 144
-68.876143669212 746.143397619054 3063.38397659494 140 140 140
-62.9113443029024 745.323640377342 3058.21938262931 183 183 185
-59.1386731664603 743.930338481494 3050.98840345013 198 198 200
-52.4486042443004 743.301350148338 3046.51721697575 162 161 166
-45.0203675936405 742.861715334992 3042.72858336736 164 163 168
-38.3212478787973 742.230370280645 3038.24956751724 196 195 200
-29.4025269851472 742.167851991965 3035.81315566035 194 193 198
-19.7271577074747 742.292198405287 3034.04329494863 191 190 195
-6.31802141732951 743.360077393569 3035.64774991725 183 182 187
7.87620347969842 744.610908913096 3037.89381570575 197 196 201
15.3929245300262 744.156183804831 3034.02858727312 203 202 207
26.661783639772 744.642397442529 3033.52176848219 201 200 205
36.4565961395962 744.747821409758 3031.64818914157 202 201 206
53.8017081720259 746.729388423027 3036.45220712238 205 204 209
65.1667507104552 747.200852307883 3035.8621182753 210 209 214
78.831127300588 748.230165667235 3037.24559720765 203 204 206
91.7766252064025 749.066352295411 3037.93014472943 201 202 204
101.713186859674 749.14993192604 3035.93384785426 205 206 210
113.196016470951 749.603377345618 3035.24178547744 210 211 215
131.594644144897 751.728573448638 3040.45501373558 214 215 219
146.98857113615 753.100614340314 3042.98404554141 212 213 217
165.508337631827 755.2081191132 3048.09239306874 209 210 212
185.635524185967 757.676992487772 3054.45171192001 196 198 197
205.835777605468 760.135389286077 3060.74808449403 184 186 185
-213.504484789923 747.572084908371 3141.08843848311 198 200 197
-208.292954585356 746.578482268318 3135.25428011347 200 202 199
-204.464208246809 745.196971873725 3127.97462213181 200 201 203
-202.721863566383 743.235665525442 3118.53729793801 197 198 200
-203.084734688048 740.696992672904 3106.95796765833 193 193 195
-200.007534392845 739.128311950205 3099.00765364273 209 209 211
-194.157075653175 738.332636628367 3093.94200675669 216 216 218
-186.907939372419 737.921411140053 3090.30810627061 200 200 202
-182.457079438765 736.739613467681 3083.81152231599 195 195 197
-175.903985472988 736.134281855832 3079.45890366366 206 206 208
-167.229999483979 736.102985687616 3077.23441002539 204 202 205
-152.877865095655 737.600354820529 3080.66558879686 206 204 207
-139.186804489294 738.8993654573 3083.34745296022 195 193 196
-123.315428877539 740.764289182555 3088.10599073613 179 178 183
-108.100918264212 742.430249919053 3092.11188542994 136 136 138
-94.9814044755795 743.517550029136 3093.96724078164 129 129 131
-85.411263675252 743.648641835229 3092.28854166331 134 134 134
-80.1414928713839 742.637935685839 3086.40433041684 137 137 135
-78.4869078515409 740.680101689003 3077.04273266158 143 143 141
-73.960878876786 739.481810757275 3070.480788361 138 138 136
-68.7172336301249 738.47306593569 3064.61920836457 155 155 155
-61.2933991204727 738.030370908851 3060.83441008029 192 192 194
-56.0530439123208 737.021028900009 3054.97537003544 188 188 190
-50.8171848888734 736.011835506577 3049.1205415453 153 152 157
-44.8516611169945 735.190543439951 3043.95532965703 173 172 177
-35.2045459965793 735.306216362817 3042.20969853057 196 195 200
-21.8447186579041 736.354707574213 3043.85733248595 190 189 194
-13.6287759435771 736.088667672698 3040.70778617832 185 184 189
-7.62880859539106 735.26064102159 3035.51276444467 185 184 189
5.07241904237166 736.109482369863 3036.40894778506 200 199 204
15.5697178819025 736.394512783727 3035.24891081394 202 201 206
28.3372046429231 737.233233192307 3036.08773057448 200 199 204
35.8851525758959 736.767872695398 3032.19519008497 202 201 206
52.4749154518362 738.523735767604 3036.33209802548 205 204 209
66.8564330460497 739.716466788304 3038.41620699384 209 208 213
82.7961891174223 741.271941982252 3041.79422132959 203 204 206
94.9934539209698 741.89785295384 3041.80507558258 203 204 206
102.656642793062 741.414359990752 3037.81308464052 207 208 212
113.379563793992 741.664693722824 3036.45771766758 211 212 216
131.012196849564 743.562842564525 3041.01275588179 212 213 217
145.637014766415 744.719356761944 3042.88653791397 211 212 216
167.228710703044 747.515807783564 3050.62122838799 208 209 211
194.300310598757 751.579397276901 3062.86153516933 196 198 197
-208.593580125497 741.342915898588 3147.45906406285 191 193 190
-206.112932688606 739.583738329643 3138.70377740461 199 201 200
-205.031406143426 737.444318272299 3128.51647032494 200 201 203
-203.9786873173 735.308201129093 3118.35442604074 194 195 197
-202.261655455582 733.366173531859 3108.93891644998 194 194 196
-199.874478860822 731.617285951153 3100.26426213816 205 205 207
-193.324285893028 731.011446728511 3095.9141611744 222 222 224
-188.168899312898 730.024768484111 3090.1289351447 205 205 207
-182.316584796218 729.227705404716 3085.06168878273 202 202 204
-175.761195199533 728.619429645229 3080.70709950273 191 191 193
-164.263368937001 729.333149438531 3081.32392878973 218 216 219
-151.318105782964 730.419183155983 3083.33032163605 174 172 175
-136.203330047816 732.064619879886 3087.42279312982 199 197 200
-121.035639134896 733.70209203043 3091.46945274763 176 175 180
-105.101377578076 735.519740571166 3096.17379135892 128 128 130
-92.6888570906774 736.391053736617 3097.32006194605 122 122 124
-83.1112621229861 736.507465434782 3095.63468164756 131 131 131
-79.9922723802724 734.937348896054 3087.64815651983 137 137 135
-78.3340506546848 732.995374063436 3078.2833039332 144 144 142
-74.5290937290308 731.615809815421 3071.02425247972 144 144 142
-69.2848351706363 730.609856934459 3065.16212281212 169 169 169
-61.8610130907475 730.161773826102 3061.37737021607 186 186 188
-55.1597773045454 729.526430854582 3056.89654619744 158 158 160
-49.187111290407 728.704835679287 3051.72514583523 169 168 173
-42.4808885493828 728.067743155934 3047.24001078074 192 191 196
-32.0897821186676 728.353660159507 3046.17200884226 193 192 197
-17.983170745381 729.558320910464 3048.49431160874 180 179 184
-8.27418354869502 729.65107139822 3046.69551778062 174 173 178
-5.22705060113449 728.085002622544 3038.7712472905 192 191 196
3.01418705405432 727.806535597987 3035.60017298932 204 203 208
14.9995129117335 728.442723425321 3035.79465575047 199 198 203
27.7655969674582 729.257199180288 3036.63484839208 198 197 202
38.3160588018443 729.517822835845 3035.42889129879 201 200 205
57.169433773784 731.782366474801 3041.57033162466 206 205 210
71.5634960191465 732.943524888693 3043.64377228424 209 208 213
86.0018414430304 734.098000985953 3045.67887442284 201 202 204
92.1378849536336 733.247636378914 3040.36605533854 206 207 209
101.316631770635 733.122454791661 3037.70499123993 213 214 218
112.036485916957 733.35695019235 3036.35206954005 210 211 215
133.489426581605 736.11917041714 3044.20756152506 207 208 212
146.586384390741 736.88373483765 3044.76098190531 208 209 213
167.409719087315 739.445634422772 3051.83989771156 209 210 212
-207.79453433017 733.934666703555 3149.46134524703 203 205 204
-207.36903511972 731.621921901851 3138.52050291556 195 197 196
-208.354264582054 728.936051770557 3126.15828595008 198 199 201
