ply
format ascii 1.0
comment KinectMotionCapture
element vertex 754
property float x
property float y
property float z
property uchar red
property uchar green
property uchar blue
end_header
-82.2924036950372 780.714651553652 3506.20258888945 192 192 194
-68.4844404999629 781.834968468933 3508.78428731693 194 194 196
-59.8565881560611 781.48916448622 3505.27855651351 195 195 197
-51.2162934907283 781.141026129391 3501.76205662967 199 199 201
-41.2490989067527 781.154366043388 3499.73966424747 197 197 199
-28.6237798836568 781.890663467514 3500.70236960013 195 195 197
-13.3158784458369 783.346722184781 3504.62867927977 191 191 193
-4.5890980025316 782.984421438325 3501.03731083611 191 191 193
4.81546529543753 782.800540334492 3498.18058833805 191 191 193
16.9068163711024 783.335876378009 3498.28414426665 201 201 203
27.021955087545 783.325339944786 3496.13367810639 205 205 207
41.1877789476836 784.391197372281 3498.40587424399 206 206 208
52.703670965188 784.731556712177 3497.68588829189 203 203 205
71.6817012174133 787.040726414878 3505.04225709974 197 197 199
92.7671934735201 789.876595852041 3514.53901345157 194 194 196
122.777127698916 795.024997975701 3533.48898776968 186 186 188
148.834853637056 799.082568684933 3547.93135542729 147 147 149
169.535510896447 801.697670015711 3556.4395163014 132 132 134
179.341486914634 801.453044999807 3553.23558410503 156 156 158
196.04443950169 802.982663462857 3557.27553701221 176 176 178
214.184974694979 804.858816702559 3562.71407710432 177 178 180
-297.329363520878 790.518505248503 3643.55488374564 24 34 25
-306.740256407117 784.58423661756 3616.01952943992 210 216 214
-302.018046890204 783.166961461007 3607.96570656296 197 198 200
-296.711838170834 781.938123138484 3600.72806589519 192 187 193
-290.815818502621 780.896655035043 3594.30094607312 181 179 182
-283.723801607535 780.228948703885 3589.48194324918 199 199 201
-274.822185943606 780.11956745537 3587.06066078287 178 178 180
-264.69610604363 780.380092087199 3586.22253140805 202 202 204
-254.544773327641 780.636796680932 3585.36253926383 175 175 177
-241.329217705842 781.818149647591 3588.45730311377 192 192 194
-225.018575880778 783.920316207923 3595.48041299092 171 169 172
-204.358247290689 787.309420971809 3607.98861073992 152 150 153
-190.356864705075 788.651349378195 3611.72449045335 167 165 168
-184.313949757708 787.585868944131 3605.17052232609 124 122 125
-184.455442232423 784.676390213714 3590.75519630287 156 154 157
-184.021523836001 781.956422837915 3577.16317382853 165 163 166
-180.517382315439 780.160355662745 3567.52071159163 164 162 165
-173.912051045259 779.284220221266 3561.8013109334 176 174 177
-169.185190037495 777.857575260342 3553.74351715869 175 173 176
-163.841822142405 776.61492938823 3546.47375877092 171 169 172
-157.876073297104 775.555447142412 3539.98631889677 180 178 181
-149.384167791411 775.225675651316 3536.59831421363 181 179 182
-140.245000961728 775.075941161086 3533.97171461614 175 173 176
-133.635437924688 774.195642650866 3528.24867311025 177 175 178
-127.664327605188 773.133042920348 3521.75660645507 185 183 186
-120.415500373097 772.433079876201 3516.80189949988 190 188 191
-108.66347884469 772.999539406112 3517.19904735034 185 185 187
-98.1678206693331 773.19945297602 3516.0409839611 186 186 188
-86.3537663597778 773.75642062029 3516.38442727805 189 189 191
-77.7509804845877 773.40698569471 3512.90044601266 191 191 193
-66.5320179146995 773.775235965343 3512.43763875189 194 194 196
-57.2429785621114 773.599928160517 3509.68130496741 194 194 196
-49.9026884549418 772.883253785437 3504.64711662778 200 200 202
-39.2726485276258 773.061297132918 3503.37272146341 196 196 198
-28.6180489890775 773.235411941928 3502.07674954538 193 193 195
-11.9877446282146 775.013153578111 3507.50163782211 189 189 191
-3.91812276025583 774.463547296656 3503.15780520942 190 190 192
7.48617598891643 774.802406487244 3502.53455087516 192 192 194
15.5823251007905 774.247888049191 3498.16744246472 201 201 203
27.0339580162342 774.579137263268 3497.50352673283 203 203 205
39.1855452459651 775.083103181472 3497.55476158789 203 203 205
52.7170213490438 775.93598382307 3499.05457343783 200 200 202
68.9917311168524 777.489318934378 3503.46554610499 196 196 198
94.8107990233345 781.50413467738 3518.11535982319 195 195 197
128.221197262251 787.440059885275 3540.72986196951 182 182 184
154.974045147513 791.59520438424 3555.89237104119 126 126 128
174.324292227471 793.802288084025 3562.92710317795 149 149 151
187.575565107537 794.421110417185 3563.34803306464 159 159 161
202.927092753382 795.559234522993 3565.91501418093 162 162 164
216.257890251865 796.165790115151 3566.26709671114 177 178 180
-312.123365300703 777.421393875932 3624.70177694009 25 32 24
-314.483029502964 773.788658728628 3606.92034780274 202 206 205
-305.631640937255 773.676879055062 3604.54261450971 200 201 203
-297.358405497066 773.377694029398 3601.34394083128 187 185 190
-289.669728575078 772.892003964923 3597.32955720465 189 189 191
-284.369628704557 771.668120476153 3590.09717918831 195 195 197
-276.671481951938 771.180077144187 3586.07460296831 209 209 211
-265.946700155585 771.608314204293 3586.04004674404 171 171 173
-253.376015733795 772.581902618633 3588.37182909003 201 201 203
-238.941027036072 774.098663639986 3593.05401475271 169 169 171
-222.013178967647 776.338742525927 3600.86485250316 170 168 171
-203.791834474649 778.933936587845 3610.19847548441 161 159 162
-191.015829103991 779.87825719309 3612.35248843998 106 104 107
-186.203862019656 778.45137177913 3604.22124724059 138 136 139
-185.111147302316 775.93537728108 3591.38016143752 164 162 165
-183.435016696831 773.604941553669 3579.3554665602 163 161 164
-179.303218262942 772.002870021427 3570.491310804 170 168 171
-170.819171573594 771.668288044177 3567.11014881153 174 172 175
-167.331048666323 769.886796754205 3557.4817915433 169 167 170
-162.606873209122 768.467939345725 3549.42627496826 175 173 176
-158.524923540766 766.870103492231 3540.60498196879 183 181 184
-148.136423378884 767.071393008317 3539.53978736541 176 174 177
-138.357207451697 767.089349873478 3537.68060843676 173 171 174
-130.466371964407 766.566194274157 3533.49124949267 184 182 185
-125.759012951669 765.146607253081 3525.45031306242 188 186 189
-121.063544405402 763.728044874171 3517.41999139999 190 188 191
-109.95514331847 764.094416498715 3517.05302392426 183 183 185
-99.4622888218561 764.278179060886 3515.89749524309 184 184 186
-87.6514260616554 764.813658177085 3516.24384403678 187 187 189
-79.0508361661551 764.456314581885 3512.7618173543 190 190 192
-66.5333334304439 765.160420574433 3513.81817955993 194 194 196
-57.8954749476606 764.796740466486 3510.303891914 194 194 196
-47.2807864025495 764.961078947853 3509.04257563941 201 201 203
-36.6412106998326 765.121429287003 3507.76003012687 193 193 195
-27.2948599664176 764.92544566203 3504.95384097558 191 191 193
-12.6439385351751 766.133929307437 3508.12792226233 190 190 192
-1.92204830080867 766.281397639068 3506.77411526218 190 190 192
10.8198382018596 766.950973726274 3507.63621974625 193 193 195
18.2612746226032 766.214150231579 3502.51449482779 202 202 204
28.3836133032898 766.175395960165 3500.357971052 203 203 205
39.1978079600857 766.307798524185 3498.92425811764 201 201 203
51.3832768538025 766.784766429906 3498.9466169773 198 198 200
69.0044665267209 768.648517229563 3504.83537286769 195 195 197
94.1429584459614 772.413463768658 3518.75310903078 193 193 195
131.622903133884 779.284442103349 3545.77421056947 181 181 183
160.427620656479 783.878913348808 3563.12585726661 143 143 145
183.211176070983 786.899137599881 3573.7961683633 153 153 155
196.489919660938 787.489647194456 3574.19347186555 151 151 153
207.742244341524 787.557596484457 3572.38043354999 169 169 171
216.949648274496 787.105417254228 3568.37307386683 173 174 176
-315.71728598235 767.924889199321 3621.26167489036 20 25 19
-314.537865910638 765.428777972659 3608.34530959598 191 193 192
-305.091885896372 765.487877082349 3606.77437609546 196 197 199
-296.219599914357 765.361747287806 3604.37893876255 190 188 193
-288.524811370018 764.869604861773 3600.35929978461 183 183 185
-283.817126210051 763.4687182897 3592.31795949145 173 173 175
-277.317327449091 762.61224471234 3586.68990024291 206 206 208
-265.990327082254 763.202128994142 3587.45559293118 161 161 163
-253.419264710871 764.148298528971 3589.7872253697 187 187 189
-237.769579381375 765.989988837967 3596.06132150702 204 204 206
-218.400813150264 768.903264674245 3607.04552441631 164 162 165
-202.614598265291 770.725849707625 3613.20140928307 175 173 176
-191.061119129686 771.283137735379 3613.7710159063 113 111 114
-186.861800725302 769.684669055078 3604.84831481812 149 147 150
-185.149207442789 767.371660385897 3592.79190350021 162 160 163
-182.229469385805 765.4199308657 3582.33371257511 163 161 164
-176.224951999515 764.362975114827 3575.81296975406 173 171 174
-169.600287772708 763.483936644005 3570.07683133911 173 171 174
-166.10469830465 761.714951899017 3560.44160597869 166 164 167
-162.001225872519 760.125677997993 3551.60191845741 177 175 178
-156.023780618508 759.069972645216 3545.10463192389 184 182 185
-146.889941346355 758.8993744066 3542.48246959678 175 173 176
-138.373393234522 758.54921669956 3539.07323838431 173 171 174
-132.388794465391 757.490751386942 3532.56976952672 186 184 187
-127.684470767153 756.079657769436 3524.53140887518 188 186 189
-118.510411289451 755.901307454262 3521.87443648386 184 182 185
-108.034960176994 756.071543920975 3520.73407959074 179 179 181
-97.5346448051799 756.23783301859 3519.57219752934 180 180 182
-88.9487523870231 755.874803324896 3516.10294652483 185 185 187
-78.4050634568252 756.034091205799 3514.90320089656 189 189 191
-67.1857728676572 756.363992348486 3514.44067334583 194 194 196
-59.2007352084116 755.817790092607 3510.16981533616 195 195 197
-51.2072133450858 755.269868591222 3505.89193041546 200 200 202
-37.9518934702734 756.1104137454 3507.63117672902 187 187 189
-24.6554184544747 756.94475772666 3509.33479258635 185 185 187
-9.99614497997081 758.119358853857 3512.50185441655 191 191 193
-0.590484070349895 757.903111172627 3509.64439031525 190 190 192
10.1615017683079 758.029458924812 3508.26463523497 192 192 194
15.6023107140011 756.772710143622 3500.91019706052 200 200 202
26.3871034468521 756.893382132183 3499.5020438449 201 201 203
37.1964757181469 757.010025323098 3498.07261276652 199 199 201
52.0690355717517 758.151988053353 3501.05470761025 197 197 199
67.6660767575563 759.458019035307 3504.73138166077 195 195 197
96.8610691821543 764.176146739816 3523.06722264723 183 183 185
132.305125682472 770.411898823985 3547.8872353229 183 183 185
165.877477556835 776.112339630412 3570.36289237681 127 127 129
186.62525066823 778.557307118588 3578.83131871996 132 132 134
198.54406800701 778.782020570582 3577.76285229716 168 168 170
209.116465926207 778.662975787706 3575.21708179953 153 153 155
218.329937950103 778.20183483915 3571.20452075601 172 173 175
229.630091628863 778.245534535896 3569.34986895366 203 204 206
-308.711661530334 761.694862571265 3632.43367247994 72 74 69
-311.048263865321 758.140624302682 3614.63143061871 194 195 197
-305.145577174331 757.107023919073 3608.19879677817 190 191 193
-300.436200790648 755.714952399274 3600.15593351887 186 186 188
-292.15667519412 755.397613165127 3596.95192557558 187 187 189
-286.260346293549 754.363409529845 3590.52449065677 180 180 182
-277.362009548092 754.221255229736 3588.10657802999 177 177 179
-266.637406377644 754.610807681945 3588.07211179159 198 198 200
-252.25251321511 756.063432114222 3592.79844817482 164 164 166
-234.170399907696 758.574035314739 3602.25361149295 174 174 176
-214.182070548558 761.605698102868 3614.0229949781 133 131 134
-200.82718928181 762.677103431668 3616.99802825985 139 137 140
-191.720299041694 762.504205728922 3614.39923852805 134 132 135
-188.135268716292 760.739704431905 3604.68646250881 161 159 162
-183.952705877628 759.153613011978 3595.77820386676 167 165 168
-181.025170784269 757.217062605642 3585.31315660893 171 169 172
-175.013868742054 756.161708374114 3578.78652290484 175 173 176
-169.006214762286 755.106306457124 3572.26305141659 168 166 169
-166.130733736051 753.174969665519 3561.84308750545 166 164 167
-161.396262039211 751.77095479942 3553.77855062938 181 179 182
-154.784348265876 750.891836866283 3548.05346400568 184 182 185
-146.276516132458 750.535067750907 3544.65183008709 176 174 177
-140.29173656696 749.479789746644 3538.14786836011 177 175 178
-135.582421320779 748.076789487698 3530.10544442223 189 187 190
-126.419248255612 747.889485068276 3527.45796569878 190 188 191
-117.239377831974 747.699452900981 3524.79603245044 184 182 185
-107.400601861934 747.679445639314 3522.88547670027 179 179 181
-101.406235834045 746.61994218926 3516.37323342275 181 181 183
-90.8920815867904 746.76730002567 3515.19947938562 188 188 190
-78.4082625321236 747.427194906678 3516.28532293745 189 189 191
-65.2370129773137 748.253430656406 3518.09752874454 193 193 195
-59.2007103283514 747.185846401975 3511.54930536679 196 196 198
-50.5508305888389 746.803457617487 3508.0244041854 199 199 201
-37.9493860723925 747.445176139108 3509.00841530478 186 186 188
-23.9937376016197 748.422859599934 3511.46334937651 190 190 192
-11.3142602307725 749.05278951273 3512.37948749375 188 188 190
-1.91097785971817 748.826022755805 3509.52415312119 186 186 188
9.50304712325423 749.106283230264 3508.89316394448 194 194 196
18.2786338407266 748.703334437411 3505.25975674903 199 199 201
29.7417386161642 748.975585683306 3504.58596473919 196 196 198
41.2335499540952 749.243491883676 3503.88731987579 200 200 202
58.1373751090886 750.85753695271 3509.07588309365 196 196 198
76.4527501755339 752.799883980415 3515.68571511785 187 187 189
107.701553106126 757.929746760609 3536.208874791 184 184 186
143.851863933003 764.215064061532 3561.74000665694 179 179 181
171.323597129179 768.295306091506 3577.60349374442 148 148 150
187.987165687832 769.678836219107 3581.67852886072 162 162 164
195.114512359751 768.713536030533 3575.50725647996 147 147 149
207.052711149562 768.915817030393 3574.42213681975 152 152 154
216.261978643527 768.447157679057 3570.41326871289 183 184 186
-301.811673636836 758.207576100492 3658.2362721789 28 29 23
-312.305236570306 752.200864255153 3628.99293909603 146 147 142
-310.514367812317 749.927760462774 3616.86874053819 189 189 191
-306.385147889669 748.365598745238 3608.00624554093 189 189 191
-301.676710592175 746.981700637399 3599.96445877032 191 192 194
-293.996358243686 746.480123983053 3595.95739329626 186 186 188
-285.109513028167 746.328835329287 3593.54918446953 178 178 180
-275.003797836448 746.526227718276 3592.72911501786 168 168 170
-263.064176729794 747.246295487716 3594.28624457038 201 201 203
-249.272103718163 748.486361362586 3598.20451599972 162 162 164
-230.574194266563 751.118635781055 3608.44841910473 156 156 158
-209.357412007291 754.437982551902 3621.79803136278 148 146 149
-196.597099705966 755.302552169789 3623.966162854 127 125 128
-188.08732509037 754.942347490301 3620.56286757883 152 150 153
-185.101692940928 753.015459827766 3610.0474028994 161 159 162
-180.905618621807 751.438388193425 3601.12737492314 167 165 168
-179.202846172529 749.169640495809 3589.0791888622 176 174 177
-173.182677400456 748.115727159928 3582.54486070758 176 174 177
-168.41309956738 746.716266854024 3574.4498665677 166 164 167
-163.655422660175 745.317810402075 3566.36518088304 168 166 169
-159.537169890022 743.748164918579 3557.51255551889 183 181 184
-152.287056825825 743.039742220988 3552.55647339271 185 183 186
-145.032341617059 742.330063194541 3547.5967260763 178 176 179
-140.308068904211 740.933709889057 3539.54097937915 184 182 185
-134.324395898128 739.880617036661 3533.03796258715 189 187 190
-125.15527691688 739.681574899109 3530.38572189806 186 184 187
-113.410217371124 740.161897516085 3530.78946211847 182 180 183
-106.125388984568 739.445206483269 3525.80334455359 176 176 178
-99.4801428673759 738.557407600995 3520.04942384212 179 179 181
-88.3123982066456 738.857121085303 3519.63176861715 186 186 188
-75.8198224691418 739.491141391061 3520.70987459226 187 187 189
-65.2403380364461 739.612094578192 3519.47966763793 194 194 196
-59.2013270082679 738.546780573794 3512.92908209929 198 198 200
-49.895181768238 738.324591584712 3510.1579103057 193 193 195
-36.6347283550734 739.109649550413 3511.89306675542 181 181 183
-23.9914107807992 739.720516885771 3512.84098490691 183 183 185
-11.3110551375506 740.325797386693 3513.75683703554 184 184 186
-0.581238804277184 740.422770010154 3512.39617190117 183 183 185
11.5024847930241 740.850439856064 3512.50703651908 192 192 194
21.6191924045317 740.772080649517 3510.35565003433 198 198 200
32.4251303743424 740.857027468798 3508.92940098177 194 194 196
43.2556592531528 740.938063731485 3507.48186344497 196 196 198
60.8380426332711 742.676668437435 3513.40506509401 192 192 194
79.8355104721531 744.737387716121 3520.74619661176 186 186 188
117.858323437865 751.423921329621 3548.62154629226 175 175 177
151.317755165196 756.927153011854 3571.1963532165 178 178 180
178.127768672478 760.757823278593 3586.31173290273 143 143 145
188.664606662351 760.617674382165 3583.79660471637 138 138 140
194.426539741151 759.322791850086 3576.16439933359 160 160 162
204.989573615058 759.177797618591 3573.62659763082 183 183 185
215.573007398826 759.029359663142 3571.07145242118 187 188 190
-317.073309797253 742.383132741775 3623.9257615626 203 202 200
-312.93329429982 740.830797964945 3615.05416148665 186 186 186
-308.216533637156 739.454140804183 3607.0047981219 188 188 188
-302.916904311845 738.252396485011 3599.7723689688 205 207 206
-294.642050299733 737.918978138292 3596.57251424868 192 192 194
-285.755632847863 737.756668150337 3594.16474759861 184 184 186
-274.449454775437 738.283661471634 3594.94889525288 177 177 179
-261.904528110702 739.151366572508 3597.30368889927 205 205 207
-245.689392481943 741.047810569901 3604.41091051703 203 203 205
-224.553626886705 744.312672277823 3617.83109589447 205 205 207
-205.754174725848 746.876236394391 3627.98743352792 173 171 174
-192.981131688759 747.711603792041 3630.14472006397 133 131 134
-186.909028931782 746.655607094012 3623.56539235813 154 152 155
-183.300639173865 744.915028496529 3613.83221485939 159 157 160
-180.329298249192 743.005695745645 3603.3290231419 168 166 169
-178.620254929848 740.757864417605 3591.27558186672 177 175 178
-172.595395337673 739.706014239619 3584.7371746404 175 173 176
-167.820703960654 738.313890032034 3576.63770087008 167 165 168
-164.308499963396 736.583270607707 3566.98782649177 171 169 172
-157.052266547221 735.871770195337 3562.02677509305 182 180 183
-151.050510994444 734.820613829586 3555.50807295937 181 179 182
-144.420951068762 733.938281056043 3549.76771261339 180 178 181
-140.324990460469 732.380680503599 3540.93433061576 188 186 189
-131.79630264157 732.003436300889 3537.51475300399 188 186 189
-120.067076232693 732.464511827038 3537.93234109487 183 181 184
-112.142509414821 731.913480168285 3533.71424214452 180 178 181
-105.492952779342 731.025579871373 3527.95658600908 178 178 180
-98.1994370911319 730.304365280899 3522.96296816036 182 182 184
-84.4432545776526 731.252258805189 3525.59097958653 184 184 186
-75.82477056321 730.859448215168 3522.09367325497 186 186 188
-65.8940163298762 730.797328363827 3520.10335401567 197 197 199
-57.2464586470098 730.399404655511 3516.58088162379 201 201 203
-44.6621836793675 730.994807854791 3517.5800743327 187 187 189
-34.0091210304783 731.087586869988 3516.286277063 178 178 180
-24.6476832224465 730.845734768189 3513.46730863071 180 180 182
-12.6289806087603 731.261418276015 3513.6342914312 183 183 185
0.0849882243989519 731.836900073397 3514.52120289626 184 184 186
14.164477537014 732.735901316397 3516.86899400884 191 191 193
24.9574066366853 732.806909882891 3515.45411053185 197 197 199
37.7802147165975 733.365817776943 3516.24679450888 192 192 194
45.9464858177983 732.773230314546 3511.819155538 194 194 196
64.8815316998332 734.793810564033 3519.21496602424 190 190 192
87.2632754236835 737.619679676289 3530.23480118231 185 185 187
123.272143020186 743.689748450287 3555.8896062831 169 169 171
160.814983174235 750.060553398438 3582.8597507094 179 179 181
180.84290932409 752.185244243126 3590.6305933044 139 139 141
190.706923913113 751.868126019741 3587.37682675031 125 125 127
197.162603613399 750.739250533526 3580.46519586371 168 168 170
208.42243038473 750.740853692299 3578.64608514102 190 190 192
219.017692763921 750.577228601053 3576.08078607557 191 192 194
226.868973303187 749.766466407829 3570.60431365252 193 194 196
-309.570422074414 738.965139352738 3650.52893367253 26 27 21
-317.721514544723 733.805407441458 3624.54316779028 198 197 195
-312.990186951497 732.435352252698 3616.48113596227 196 194 195
-308.2704421109 731.066317955193 3608.4291367069 183 185 184
-301.779386067168 730.21162063449 3602.80864357545 202 206 205
-293.498619355776 729.869051894671 3599.60372340112 211 212 214
-284.008026851958 729.865482908253 3597.994844256 187 187 189
-274.496443888293 729.858585818717 3596.36747797818 181 181 183
-261.348662335921 730.868628986378 3599.52209414197 176 176 178
-245.132311331376 732.72107262959 3606.62854747324 176 176 178
-220.963888382111 736.767715563915 3624.0320891387 174 174 176
-201.544974212767 739.444215116051 3634.9743613436 172 170 173
-189.978650190119 739.9122574098 3635.53309764326 127 125 128
-185.731914239547 738.351000069898 3626.56905693299 163 161 164
-184.575185430601 735.949331007905 3613.67174698409 158 156 159
-180.370492264377 734.392597796043 3604.74411694976 167 165 168
-176.181723405062 732.837410272939 3595.83027906852 171 169 172
-170.767079310136 731.619038903674 3588.49827022413 168 166 169
-166.606120104476 730.066458711391 3579.60851907375 171 169 172
-163.086338222325 728.348353036659 3569.95199558081 178 176 179
-154.569563759059 727.966724606385 3566.54277211249 177 175 178
-147.927622906975 727.083143677975 3560.79168886065 172 170 173
-142.547714391732 725.866657748443 3553.49008988687 184 182 185
-135.909165190652 724.98251551388 3547.74194993814 190 188 191
-126.093620602919 724.926089787454 3545.85145014178 182 180 183
-115.619745100971 725.031741606231 3544.71287739704 178 176 179
-110.236660997356 723.812470257921 3537.40822856342 178 176 179
-104.219911772004 722.75853834819 3530.87686437322 183 183 185
-94.9892911345356 722.527416682692 3528.17121035133 185 185 187
-84.4507245287183 722.622020892055 3526.97663909036 184 184 186
-75.1827113479249 722.38478556515 3524.2386152238 188 188 190
-66.5477734404054 721.980955837244 3520.72711911597 198 198 200
-52.6861745007654 722.882711245805 3523.26374579973 195 195 197
-40.0868171395912 723.451410173614 3524.25003910039 177 177 179
-30.7299196730271 723.199749332586 3521.43506950612 176 176 178
-23.330191076437 722.457426062457 3516.34984540955 177 177 179
-11.9664289734236 722.688140316717 3515.76242642547 184 184 186
2.73649647779539 723.724993416151 3518.89254612906 186 186 188
16.1604554303967 724.430900435965 3520.48649935071 190 190 192
26.9607030921515 724.484372620456 3519.06507073625 193 193 195
36.4493833101056 724.211453309817 3516.13633356274 187 187 189
46.6245103168736 724.096720857297 3513.93454858779 193 193 195
66.905114616346 726.389491546584 3522.80887317147 190 190 192
92.662960750673 729.954123473759 3537.51466720253 181 181 183
134.770230776903 737.346755785507 3569.78549185569 166 166 168
167.591980608034 742.471395341262 3591.59187750205 172 172 174
185.597728269211 744.062796365119 3597.14908799457 135 135 137
192.064772722386 742.935885965213 3590.22790964718 132 132 134
201.266054208683 742.445186039319 3586.2261061237 182 182 184
212.539387650092 742.428539226579 3584.39509143198 187 187 189
227.281161086373 743.200523802099 3586.16999567308 183 184 186
-318.426505682369 727.945548346976 3639.74899711438 104 105 100
-313.078188475284 726.749306474499 3632.47464828092 194 194 194
-313.047434218991 724.032947615009 3617.90846289018 195 193 194
-308.324687158017 722.671473864786 3609.85381250996 189 191 190
-300.643033987069 722.153185697034 3605.84604337019 194 198 197
-291.76029464299 721.969542535827 3603.44160290784 214 215 217
-281.664025521263 722.11895066511 3602.63003164376 204 204 206
-273.943422684604 721.594099591239 3598.58854595648 204 204 206
-260.793431141089 722.573632562428 3601.74144434834 186 186 188
-240.949783374009 725.384299170429 3613.63797614345 196 196 198
-214.344899837459 730.017275609731 3634.21930938587 187 187 189
-194.29699727553 732.799993515847 3645.93867180387 147 145 148
-186.978588525019 732.07886224764 3640.9237932162 117 115 118
-186.393681895924 729.530675897207 3627.19979066807 162 160 163
-185.234736628781 727.153082013323 3614.30040362743 159 157 160
-181.028855518638 725.607088102508 3605.37167436847 175 173 176
-175.601549094998 724.392820436954 3598.02866403654 170 168 171
-170.802708038175 723.014152197401 3589.90817167567 166 164 167
-167.884174025454 721.142652639234 3579.45050444685 172 170 173
-163.115075655958 719.766964081121 3571.35608734661 180 178 181
-153.969559233524 719.540745993067 3568.72416443163 177 175 178
-146.065229991024 718.98415327068 3564.52332663827 172 170 173
-140.676262380754 717.771717322241 3557.21384957723 185 183 186
-134.029081180424 716.886292830951 3551.45823627353 189 187 190
-125.476119238723 716.489191125879 3548.01774808412 179 177 180
-117.547833885991 715.927156409572 3543.79618193318 176 174 177
-112.167873650149 714.713597937162 3536.49451916131 178 176 179
-104.230815221153 714.149124127812 3532.26536487521 180 180 182
-93.7117221892763 714.230600809647 3531.08775712745 183 183 185
-85.1040324574486 713.823254294133 3527.59990078179 185 185 187
-76.4838188135868 713.413682188915 3524.10120393329 191 191 193
-66.5521362467145 713.324009450852 3522.11025861733 193 193 195
-50.7353259843932 714.677929068693 3526.91971697511 184 184 186
-38.7828574213294 715.060552209843 3527.14432144003 176 176 178
-29.4201449753713 714.797149087329 3524.32438788438 177 177 179
-21.3563088493727 714.211132667859 3519.98580592082 179 179 181
-10.6450257178792 714.262055697154 3518.64181809396 185 185 187
0.752758966855893 714.468485528429 3518.02506787904 186 186 188
12.8431809718568 714.829535962496 3518.13024292883 188 188 190
24.9666221703748 715.185562986954 3518.2071471214 189 189 191
37.7907170290284 715.695108844803 3518.99872015542 183 183 185
48.6416539432444 715.724230179553 3517.5338306508 193 193 195
70.2712772127199 718.277728411997 3527.88405973933 189 189 191
105.474901442776 723.973228299496 3552.91596455356 170 170 172
145.584658641433 730.747182776527 3582.95201629279 161 161 163
173.007969473285 734.506667991113 3598.85955129611 142 142 144
186.947371787992 735.110761055536 3600.0074109854 154 154 156
194.785962037155 734.298893232787 3594.54194485743 173 173 175
206.050801739247 734.267782190738 3592.71870123631 183 183 185
221.459137585603 735.169153554191 3595.23829431977 176 176 178
234.850606854361 735.595822536287 3595.53864060274 201 202 204
-315.563019235766 720.336195089513 3645.2566155412 180 185 181
-316.079014913333 717.478288798991 3629.84228984246 198 204 204
-311.925405478297 715.956170154193 3620.95839609803 190 196 196
-307.195597008371 714.601740237278 3612.89757969664 183 189 189
-300.101680303228 713.911290798354 3608.07707761495 175 179 180
-291.811201702808 713.5506160726 3604.86385712454 188 189 191
-280.517872215967 714.01353257592 3605.65924081631 153 154 156
-271.591198729338 713.812025446089 3603.21683681238 148 149 151
-259.034889363266 714.59555470442 3605.56231012393 140 140 142
-239.791260773507 717.181068040889 3616.65709823417 172 172 174
-210.761807164062 722.380031016781 3640.42666083864 190 190 192
-190.095298693818 725.264840481347 3652.93277010947 127 127 129
-185.811855416666 723.720797593835 3643.93680228974 133 133 135
-185.218385308542 721.198646308694 3630.20520875865 162 160 163
-184.665423709203 718.681411390101 3616.50869355001 171 169 172
-178.604987884959 717.633551177624 3609.93910975667 171 169 172
-174.403543453284 716.098305467107 3601.0141562778 167 165 168
-171.459234995627 714.240192782826 3590.53406266383 166 164 167
-167.916386925078 712.54667035777 3580.85770308908 181 179 182
-160.645723152497 711.825149700606 3575.88389380036 182 180 183
-153.370519358758 711.102418770215 3570.90615735472 174 172 175
-146.090666683074 710.37860487529 3565.92471408647 179 177 180
-140.068197977755 709.331905264762 3559.38803023908 190 188 191
-131.517806102676 708.927424358295 3555.9498174362 190 188 191
-124.224557784658 708.200159582252 3550.95678604503 172 170 173
-116.290084545214 707.631632290665 3546.72989870231 175 173 176
-110.903140053418 706.422612822662 3539.4221530119 180 178 181
-101.677628226765 706.17070997588 3536.72106164255 179 179 181
-91.7923075659726 706.075183859085 3534.77033778709 179 179 181
-84.4669117587471 705.340745138934 3529.74948949884 191 191 193
-73.2536998539692 705.556850520881 3529.2926524489 197 197 199
-63.9595398312376 705.293456986355 3526.53213568042 188 188 190
-46.8321623523731 706.924189532639 3532.85040631336 176 176 178
-37.4801840675825 706.651901631212 3530.03983401462 176 176 178
-25.4897323003065 707.006832430119 3530.23169651822 179 179 181
-17.4114628752569 706.413362728657 3525.88065299303 180 180 182
-9.32492440597477 705.818120674624 3521.52245387485 185 185 187
0.0930862585613035 705.534574589048 3518.6547218924 186 186 188
12.1823585240479 705.873861521429 3518.76103449079 187 187 189
26.9676903395646 706.832783863631 3521.82023462962 187 187 189
41.1343635802295 707.628477958754 3524.09312973087 180 180 182
55.3463536108332 708.417672166889 3526.32710477365 192 192 194
77.6665371719023 711.063789100142 3537.40146113616 189 189 191
116.256762965613 717.417326377603 3566.11043241986 166 166 168
151.659896298153 722.970497533732 3590.97033781743 165 165 167
174.351606785199 725.564664016928 3601.72301507902 147 147 149
185.575096940139 725.52403026561 3599.93567230409 179 179 181
195.458546829752 725.171514728206 3596.66497433901 187 187 189
206.042395807985 724.969879626793 3594.10949847139 175 175 177
220.078181079115 725.531648428688 3595.17409385017 182 182 184
234.843259965942 726.240548366088 3596.9292072096 180 181 183
-309.915623841255 716.183801355549 3669.50267035038 33 36 29
-321.484139315328 710.231733431897 3638.54384592216 211 217 213
-317.903135727433 708.555110656848 3628.83430607889 187 197 198
-312.573285297608 707.371184811619 3621.57556774406 197 205 207
-306.067619450675 706.51446008047 3615.9424249087 174 179 182
-297.780169856946 706.146168528616 3612.73187912449 172 176 177
-290.075414800153 705.613001562246 3608.70418316485 180 181 183
-281.166269617117 705.403105427728 3606.27702593265 214 215 217
-272.240055052387 705.190461387494 3603.83509186028 198 199 201
-259.685445161369 705.946641934629 3606.18221538829 162 162 164
-238.633890667074 708.960056211042 3619.67733445231 147 147 149
-210.211407491784 713.896385072516 3642.65142115287 181 181 183
-189.545107265505 716.718192385893 3655.15811917174 135 135 137
-185.866555143527 715.02335002404 3645.36383305816 138 138 140
-184.656534023955 712.688373598839 3632.41990057813 163 161 164
-182.254419998802 710.678316344489 3621.08747010027 171 169 172
-176.799202436009 709.47160058381 3613.72053475709 170 168 171
-174.443411316462 707.466471955672 3602.42790655611 167 165 168
-172.115783779923 705.464709210326 3591.15998244669 167 165 168
-167.949155422141 703.943734020566 3582.26511283718 180 178 181
-160.051662495654 703.377963388966 3578.07057531056 181 179 182
-154.025255793384 702.334476328168 3571.53045744226 175 173 176
-147.373877933021 701.449325072734 3565.77120497189 180 178 181
-140.722129403353 700.563674752417 3560.01163446306 189 187 190
-132.804578282618 699.993017008218 3555.79974344711 187 185 188
-125.513323198823 699.263093987916 3550.80814137634 173 171 174
-116.944000486689 698.846571678801 3547.35359856511 177 175 178
-109.000852511858 698.270849840944 3543.1195546511 181 179 182
-99.767507795868 698.006903014611 3540.4117522803 177 177 179
-89.8744069914756 697.896577511425 3538.45469650797 174 174 176
-82.5407052886531 697.158243263067 3533.42635893173 194 194 196
-70.6732338585683 697.510033459336 3533.72483326524 197 197 199
-60.7199430236522 697.390015090232 3531.71567143996 174 174 176
-46.838983297989 698.198824862466 3534.2361197246 171 171 173
-37.4853202216219 697.915231125846 3531.42416041854 177 177 179
-24.8385808325042 698.402990760577 3532.36991050108 182 182 184
-14.7841123180914 698.267070965953 3530.27315738583 183 183 185
-6.02790132034592 697.819181910223 3526.65683503714 183 183 185
0.756290587316411 696.907131517493 3520.78264216511 184 184 186
13.5119854081802 697.377890145174 3521.63375131271 182 182 184
26.3048126391636 697.843041487064 3522.45302831394 174 174 176
43.807930254101 699.374754571592 3528.4462731137 180 180 182
60.7069634398667 700.744121279975 3533.64057522541 184 184 186
86.4002478002468 704.088443118213 3548.40375488146 188 188 190
125.684245008845 710.463163846811 3577.8348486582 162 162 164
159.758548926035 715.59419014693 3601.20239652641 188 188 190
174.338038563028 716.30117258117 3603.11806367222 186 186 188
182.843079663573 715.638012114217 3598.39757339364 173 173 175
192.720044980558 715.275530466929 3595.13256042138 154 154 156
205.349405495519 715.513996284058 3594.77141244404 183 183 185
219.383677841489 716.048720625746 3595.83749437822 180 180 182
229.329862573037 715.67508282077 3592.51287425633 186 187 189
-319.32048832579 705.070613567846 3657.87572754104 15 16 11
-322.133960992941 701.626857905536 3639.16282953546 213 218 214
-317.376937747707 700.285732917093 3631.07865440666 188 196 198
-312.631630993587 698.945624633872 3623.00431228074 183 188 191
-306.715108339433 697.927715334794 3616.55926912214 183 187 188
-300.801820106854 696.909874556838 3610.11734442181 158 160 159
-291.914354259469 696.692088557221 3607.70902857559 147 148 150
-284.204887646963 696.152208632095 3603.6772924414 167 168 170
-271.689584741801 696.886464445375 3606.05862681974 221 222 224
-259.73417938449 697.455559446154 3607.60305390216 198 198 200
-238.685236662459 700.403428468213 3621.10054590513 203 203 205
-212.690808624946 704.607067883739 3640.89050411364 203 203 205
-191.427150898747 707.525511879256 3654.20208557956 140 140 142
-187.141317785899 706.002676227686 3645.20390897991 142 142 144
-184.095308020745 704.165661140397 3634.63553047417 166 164 167
-181.687291594618 702.173792917218 3623.29786630785 173 171 174
-176.843332436244 700.814350462293 3615.13814388305 170 168 171
-174.483560742206 698.827781706657 3603.84226081949 165 163 166
-171.531933766951 697.001231560873 3593.35561945722 171 169 172
-165.49334351 695.959838861797 3586.80524360547 179 177 180
-158.209957781866 695.230795960999 3581.82045648492 176 174 177
-154.053590823086 693.720934192251 3572.93440878353 179 177 180
-149.913393981595 692.212629019121 3564.06205070439 186 184 187
-142.636846985291 691.482972257005 3559.08351044921 185 183 186
-132.826101169792 691.372666429149 3557.19751906563 183 181 184
-123.628945992444 691.104131287544 3554.52111320119 175 173 176
-115.051585864306 690.678262275774 3551.05966463947 180 178 181
-105.822867861632 690.404480652663 3548.35625164998 182 180 183
-98.4997100276033 689.66582966407 3543.3370548763 179 179 181
-89.8866049352574 689.233529897318 3539.84466654072 177 177 179
-81.2609500988715 688.798971118939 3536.34141552934 199 199 201
-66.8010578575577 689.740974125488 3539.68247996979 196 196 198
-57.4828252258315 689.452412611198 3536.9015772078 171 171 173
-44.2422536490286 690.076958275951 3538.65500608345 174 174 176
-34.2256968100934 689.933515868015 3536.59084561393 178 178 180
-20.9129527474219 690.547204117768 3538.28179035818 182 182 184
-12.1590158881952 690.092015779902 3534.66748638661 182 182 184
-4.05184434900407 689.483065812828 3530.29149267272 182 182 184
4.06342327077169 688.872344589662 3525.90817775971 184 184 186
18.156931988031 689.619016008642 3528.24512036427 178 178 180
30.964685372127 690.057461923397 3529.05131787108 171 171 173
47.1467486064743 691.242719458985 3533.54529128364 178 178 180
63.3861287683661 692.419487263382 3537.98932555568 182 182 184
94.4567546499506 696.885702449422 3558.67121813464 186 186 188
139.146994734525 704.323688375762 3593.99635490315 163 163 165
165.824928824932 707.697787611094 3609.22917115918 151 151 153
179.067790662511 708.074043642594 3609.65864752156 153 153 155
183.510783673706 706.510490194957 3600.5245186413 145 145 147
192.028008107748 705.839640476729 3595.79351845619 140 140 142
204.656243568161 706.056399353981 3595.43348626558 195 195 197
217.317254815944 706.268167601499 3595.04539397419 196 196 198
227.258832926899 705.884288583205 3591.72451742642 209 210 212
-323.471938572034 695.467744576612 3653.59596926358 34 35 30
-322.198562972167 693.17938352566 3640.59713862229 201 206 202
-317.438702403292 691.845699322251 3632.51014055378 180 185 188
-313.868797170151 690.196898898162 3622.80972425113 176 180 183
-306.18001070899 689.655312537392 3618.79592340519 193 197 198
-297.889037780818 689.269718478515 3615.58243594106 198 198 198
-288.989788232439 689.03920672214 3613.16398920085 189 190 192
-281.865519261628 688.334856111861 3608.3169542866 180 181 183
-270.540404605268 688.726920832229 3609.0855632636 191 192 194
-255.573037084784 690.053134048602 3614.63112820392 203 203 205
-233.908598765296 693.089769622967 3628.91814922431 190 190 192
-207.901988973539 697.204072951068 3648.69781245578 172 172 174
-193.308344679537 698.34220887992 3653.24525462323 141 141 143
-187.80603237141 697.141307691575 3645.8374628929 146 146 148
-183.534990632359 695.630592525975 3636.8517124547 169 167 170
-181.121098591573 693.65685705515 3625.50883818127 174 172 175
-176.887855323149 692.150236398586 3616.55613801653 168 166 169
-174.524223122598 690.182101716049 3605.25678945995 166 164 167
-169.709074827479 688.833486059534 3597.12196828801 173 171 174
-164.283798539913 687.63973332151 3589.78058461075 178 176 179
-157.618083698968 686.753459746553 3584.00891303663 174 172 175
-152.830175592544 685.406917837575 3575.89800399027 182 180 183
-147.426201121406 684.214386977638 3568.57507544519 188 186 189
-140.769543288026 683.327776083113 3562.81125609092 182 180 183
-130.951166646538 683.202608894727 3560.91874709815 176 174 177
-123.014801621609 682.617709707051 3556.69064168009 178 176 179
-113.160679687136 682.486762721004 3554.76750392312 180 178 181
-104.562696591418 682.049313115785 3551.28825573665 179 177 180
-99.1546814303423 680.852944350584 3543.96184985008 182 182 184
-89.2567523969778 680.714428729811 3542.00047643797 196 196 198
-79.9824492221752 680.421842157367 3539.2576749978 190 190 192
-64.2249839985301 681.631471072891 3544.11918932823 174 174 176
-54.8970190653617 681.330497756297 3541.3296161467 174 174 176
-42.2984877526509 681.776541277306 3542.31742022334 179 179 181
-30.968555210126 681.917640404595 3541.75990324358 182 182 184
-19.6097381063547 682.054400458083 3541.17737909366 184 184 186
-10.8498091432123 681.590140862832 3537.55794033222 182 182 184
-1.41853728679564 681.2724403967 3534.67893571933 182 182 184
8.02921680552338 680.952011210491 3531.78566304231 185 185 187
22.7984119054323 681.815162874746 3534.85947004897 173 173 175
32.9607725851866 681.63497959492 3532.66948974436 168 168 170
48.4813591294255 682.633281324152 3536.41442387408 179 179 181
64.7245594364008 683.771327286291 3540.85539800757 183 183 185
98.4799134448759 688.727830420058 3564.50052214065 182 182 184
149.234371647897 697.334255238904 3606.4723059644 148 148 150
171.887180723407 699.74558811174 3617.25988524401 134 134 136
185.14925200206 700.094584076039 3617.67288873925 140 140 142
192.332242736729 699.123407144083 3611.45342573065 149 149 151
198.833456717514 698.005848560266 3604.50257082546 142 142 144
208.064917385843 697.470301875391 3600.47490052825 161 161 163
216.62279252417 696.787330300327 3595.7087454665 173 173 175
224.500700385851 695.957771077741 3590.20931599122 201 202 204
-321.209801447751 687.614582979253 3658.30311777534 168 169 164
-321.678779972206 684.880994247534 3642.84691952626 208 210 207
-317.500779586603 683.398970621674 3633.94194096437 175 179 182
-313.338439184646 681.918546917018 3625.05052510568 171 172 176
-305.645652424698 681.370732643653 3621.03329741402 170 170 172
-296.757854697224 681.13104349657 3618.62483584835 151 147 148
-287.257873069313 681.043245518014 3617.00804910501 155 155 157
-280.722412443757 680.180442206079 3611.34912145341 185 186 188
-268.19409460534 680.857879943748 3613.71954350383 148 149 151
-253.820192296784 681.99072516283 3618.45747823253 166 166 168
-226.722297890064 686.340092501794 3639.93691541168 155 155 157
-203.116664812091 689.750937199933 3656.50879089131 206 206 208
-192.151457738958 689.93318959651 3656.26712791156 150 150 152
-187.861210661045 688.431228702151 3647.26499030079 157 157 159
-184.198465022402 686.778369270565 3637.48413218405 170 168 171
-181.169092977302 684.97562616575 3626.93026761786 171 169 172
-176.932744033059 683.479164918726 3617.97449430619 167 165 168
-173.947476895179 681.681223651154 3607.45882593239 167 165 168
-167.887806685041 680.642629129357 3600.8898456824 175 173 176
-163.075288181888 679.301943231621 3592.75725246065 176 174 177
-155.155244299117 678.716277671325 3588.54329812926 173 171 174
-151.608131880138 677.075187968269 3578.86258721226 185 183 186
-144.941202257953 676.187583016539 3573.08987137093 189 187 190
-137.64373647862 675.449360017817 3568.09325556401 179 177 180
-129.709909957295 674.859780002124 3563.8670651773 175 173 176
-121.767375088099 674.268450555143 3559.63365380168 180 178 181
-114.452599423532 673.526257284586 3554.62174510965 179 177 180
-105.856865880133 673.08078645211 3551.14449866878 180 178 181
-100.4499553841 671.890038292241 3543.81932932629 189 189 191
-89.2698984684164 672.034792813293 3543.39169125249 202 202 204
-77.4164776046962 672.32319929341 3543.70275444497 183 183 185
-60.3581407718528 673.788930945079 3550.08193429736 168 168 170
-51.6646553151028 673.3275708939 3546.52006572207 179 179 181
-38.4046498261177 673.894703517221 3548.25702256543 182 182 184
-27.7138931746235 673.867903863826 3546.93132942152 184 184 186
-17.653170509881 673.69039701977 3544.82910958164 185 185 187
-12.1688398791999 672.484820939753 3537.43693351091 184 184 186
-2.73999514621392 672.156518111664 3534.56010127671 182 182 184
9.34871872915499 672.408835692714 3534.66746141545 185 185 187
26.1108572698201 673.675271136575 3539.98139754668 172 172 174
35.6199060688338 673.334490292905 3537.03513042341 167 167 169
48.4805567860502 673.716129118154 3537.79616353443 179 179 181
66.0616687174533 675.10537941087 3543.72273101907 185 185 187
109.211486984914 681.975237588436 3577.73985097121 184 184 186
153.929626955092 689.102968768235 3613.0428163645 143 143 145
175.244355234388 691.161904716643 3622.3459201636 153 153 155
189.194836144192 691.628534257067 3623.48506840336 150 150 152
198.430746047553 691.085441591069 3619.45359069236 151 151 153
205.63452381056 690.110896319963 3613.21613264604 154 154 156
211.47105929809 688.850170709772 3605.5187298235 185 185 187
218.670210710628 687.875050752841 3599.2852853254 206 206 208
-316.619210567463 680.347059299359 3666.2816757744 216 217 212
-318.236358094593 677.336713311457 3649.17559300727 195 197 194
-316.389698610121 675.251384903561 3637.00182183225 175 179 182
-310.453811986678 674.238854887111 3630.5402758804 160 159 164
-301.567253867135 673.988493282822 3628.13295788526 187 185 190
-290.884954623395 674.192047233143 3628.13636325566 150 146 147
-283.14772380286 673.631749961346 3624.08069518931 138 138 140
-277.789530084052 672.46320060059 3616.79729106713 184 185 187
-270.042679644836 671.900739490718 3612.73329935323 201 202 204
-256.276390886275 672.847549535407 3616.67550371374 149 149 151
-230.39752599156 676.803702004796 3636.56722837357 175 175 177
-200.150454775853 681.795830894747 3661.929615579 207 207 209
-190.995698692102 681.506416242912 3659.29009383275 150 150 152
-186.69816668182 680.014223843524 3650.28157880914 158 158 160
-184.250466586168 678.07441225618 3638.90918205174 167 165 168
-181.217584461203 676.287313570084 3628.35185828409 169 167 170
-176.362473973914 674.950473532953 3620.18232413746 173 171 174
-172.136608057719 673.465836498745 3611.23587573466 169 167 170
-165.44849361764 672.577264969984 3605.44480451363 177 175 178
-160.624720030686 671.243088080113 3597.30241392765 173 171 174
-155.189207747187 670.057987778809 3589.95210227678 172 170 173
-149.135657165803 669.021317544551 3583.38872917241 188 186 189
-141.202466253493 668.427293975031 3579.16343399807 189 187 190
-133.26081424187 667.831479934882 3574.93050137427 175 173 176
-126.574243032904 666.940091983716 3569.1407859776 177 175 178
-120.52119507811 665.901363479845 3562.5778618554 184 182 185
-112.563974254527 665.301977806765 3558.33177383978 181 179 182
-105.874377471161 664.408565470287 3552.53944918709 185 183 186
-99.184488191467 663.514514881168 3546.74687515321 202 202 204
-84.146467206939 664.513105181328 3550.90974881636 193 193 195
-68.4103087028336 665.649390605188 3555.79052122698 173 173 175
-52.6165424330847 666.777386674937 3560.6211011188 173 173 175
-46.4897834626385 665.724988511466 3553.99437758956 182 182 184
-35.8143544019209 665.684263440038 3552.68205965658 183 183 185
-26.4190397941442 665.351193807967 3549.83432007613 186 186 188
-17.6616173969646 664.871282167897 3546.21715527115 188 188 190
-12.8310649228971 663.526999827698 3538.06895466362 187 187 189
-3.40260060035469 663.187819003722 3535.19252263451 184 184 186
8.68493481707633 663.418376950639 3535.30104518807 186 186 188
26.1071640937369 664.786984118031 3541.36545574852 180 180 182
34.288454852812 664.149847007411 3536.92540289596 172 172 174
48.479219834868 664.79180268182 3539.17841304777 181 181 183
72.0795854545093 667.415852669714 3551.7901698559 195 195 197
116.581551432036 674.420046476104 3587.28130154416 196 196 198
161.313636526491 681.392680874637 3622.57318522799 174 174 176
178.598823583498 682.543979303499 3627.43420698723 152 152 154
189.851715720203 682.418060521691 3625.62193310699 148 148 150
199.770712903248 682.007039880543 3622.32080413949 151 151 153
206.981105094041 681.031633777537 3616.07761870906 162 162 164
214.191235025281 680.055664131705 3609.83466424019 199 199 201
222.771822505653 679.358824397223 3605.04891344122 211 211 213
-314.361908545236 672.426136647618 3670.99313862338 207 208 203
-315.381099824368 669.602557478932 3654.69115181412 185 187 184
-315.279761383839 667.086137079934 3640.06280848042 175 179 180
-309.337175112701 666.075130201758 3633.59544583312 180 179 184
-301.626282494378 665.513417129492 3629.56229969493 176 174 179
-292.1282815464 665.398480222252 3627.94772105186 195 189 193
-283.20386139506 665.131102332756 3625.50769693878 194 194 196
-278.439591787757 663.818533094722 3617.41674057269 136 137 139
-269.495306460546 663.547641525568 3614.95952136637 191 192 194
-257.529511842182 664.016016173089 3616.49559637321 190 190 192
-230.453107086163 668.18165004796 3637.99453448964 185 185 187
-199.606508927292 673.215439636797 3664.16059656627 203 203 205
-188.627046367748 673.357085758555 3663.90684097372 159 159 161
-185.536273010696 671.579467933287 3653.29927935813 161 161 163
-184.914067109137 669.216486857885 3639.54174805506 172 170 173
-181.266468831775 667.592137032227 3629.77383395784 168 166 169
-175.793001205486 666.409433195812 3622.39092503078 170 168 171
-170.944572863484 665.080978824748 3614.22712820033 175 173 176
-166.108014289104 663.753643883853 3606.0736120702 180 178 181
