ply
format ascii 1.0
comment KinectMotionCapture
element vertex 788
property float x
property float y
property float z
property uchar red
property uchar green
property uchar blue
end_header
-66.2445032886971 416.37139385542 3432.4562564763 30 32 27
-43.7029788951846 417.19434374976 3444.67415933609 31 33 28
-19.0595196632937 418.216277571071 3459.03873291378 31 33 28
-14.4005909605847 417.105158810767 3451.03777389202 28 30 25
-11.7699006555481 415.784495282399 3440.82602171989 23 25 20
-2.42441288142992 415.167268769344 3438.02331019084 31 33 28
9.64156340714073 414.826608613844 3438.1545358367 31 33 28
28.5209225710417 415.176056688137 3445.60912546846 33 35 30
94.4715250871857 418.670093958387 3490.32338571221 38 41 34
-233.108413751145 432.839369618011 3600.79708140876 0 6 2
-265.553350165169 427.101460027532 3544.2604497444 97 103 101
-271.943265902851 424.649645625364 3522.02433582439 162 165 172
-271.050040854723 423.113051178122 3509.34980835147 152 155 162
-267.112483249834 421.9564164115 3500.65112166234 148 151 158
-259.48161695034 421.25036767352 3496.68858802273 144 147 154
-252.46241675228 420.468346360878 3491.93312329856 157 160 165
-242.326974297549 420.056660427073 3491.09123500221 173 174 178
-234.664020772896 419.345504708506 3487.10060779171 186 187 189
-223.233665292544 419.075023878567 3487.7822940754 108 110 107
-203.599757498985 419.754104225252 3498.5508513917 6 8 5
-170.007006186451 422.03017990887 3526.32437649181 14 17 10
-171.662798505888 420.202303143347 3510.56770251017 17 18 10
-161.947762202821 419.687741784866 3508.7676011 23 18 15
-153.485345977301 419.025471203972 3505.40731043835 24 20 17
-151.398078824134 417.640971422177 3494.34371543347 24 23 19
-151.902847553 415.973026566581 3480.23489331425 26 27 22
-152.452528193982 414.31086780354 3466.16527598243 25 27 22
-131.118955381569 415.075207423393 3478.10695730796 22 27 21
-136.21789964774 412.918767223281 3458.72009610712 24 29 23
-123.216957250777 412.750023291769 3460.68636074264 28 30 25
-109.523646863914 412.645837488846 3463.37536768826 29 30 24
-109.50180083394 411.063342957081 3450.13313229333 31 31 23
-106.244921809996 409.835193822336 3440.70130122695 31 32 24
-104.323096777641 408.470429218665 3429.78097297048 35 36 31
-110.342457503491 406.278174024634 3409.86852549633 35 37 32
-101.227263091025 405.682776164502 3407.26559156426 31 33 28
-79.4897018081322 406.390269685042 3418.85748992537 29 31 26
-26.3844923957461 408.720302337124 3452.21552897061 23 25 20
-23.7542921715734 407.416517851392 3442.00409219256 26 28 23
-25.1792336218544 405.710217183317 3427.36980452074 25 27 22
2.99216088089738 406.972335063904 3445.29196877651 33 35 30
-19.4076698498549 398.599231474265 3369.47924106966 36 39 32
-213.094885263477 428.316416790098 3643.03110216178 53 61 50
-261.103925535879 420.813202040741 3565.58857120078 19 24 18
-269.846854590411 418.114883873659 3540.10013684987 93 98 94
-271.350134073507 416.304690323084 3524.21115992328 166 169 174
-268.609122232699 415.009592792679 3513.90362244233 157 160 165
-263.428512687699 414.006874216367 3506.77306231916 156 159 164
-257.019541001369 413.149068240511 3501.22373479492 154 158 161
-251.850130633392 412.147386010172 3494.10319019833 171 175 176
-244.200183043094 411.432532178814 3490.1238596625 183 184 186
-236.541411215794 410.716272626233 3486.13720546523 189 191 190
-217.601933904895 411.275917439206 3496.185163715 117 119 116
-194.181766833932 412.319046710857 3511.60987123224 0 1 0
-183.257006623089 411.938740780425 3511.40691039386 24 27 20
-174.200175560266 411.343896687838 3508.85455848634 17 18 12
-163.857864512119 410.886213684207 3507.83335229358 25 21 18
-166.857241355942 408.963727610146 3490.59530264029 21 20 16
-155.869503819753 408.573922363221 3490.33781864615 19 18 14
-148.055801291929 407.83483678695 3486.21702835501 21 22 17
-140.876443233909 407.025587530056 3481.32292549457 22 24 19
-138.850716682404 405.667655767998 3470.31249777977 23 28 22
-128.445103693309 405.19995786728 3469.23680592906 26 31 25
-118.014802765003 404.728613576826 3468.13942426988 27 29 24
-114.068784928058 403.577232306797 3459.43337075073 25 26 20
-109.486207960017 402.495125350183 3451.49840052463 25 26 20
-110.811188675071 400.810583113053 3436.77764780821 27 28 22
-108.900264297232 399.466487781319 3425.86631809059 29 32 25
-102.403891177725 398.591791054698 3420.2413460551 31 33 28
-95.2462056681251 397.78310219412 3415.36633945283 31 33 28
-75.4823113012866 398.227289939628 3424.70049397157 35 37 32
-52.3095580295796 398.988639864564 3437.69463260196 35 37 32
-36.3750954471778 399.016151113539 3442.41071262423 32 34 29
-17.7055098463197 399.296250222235 3450.04756992633 30 32 27
-15.7496184120434 397.944264834531 3439.09763228517 23 25 20
2.34285203921658 398.146215869505 3445.91194156095 34 36 31
19.8295349005981 398.274164650934 3451.92852738001 39 41 36
19.0843893936403 396.66388586055 3438.02799028992 33 35 30
-24.5301788912995 391.042440444341 3377.93817010555 39 42 35
-15.2691480897653 390.413681418736 3375.20873520138 27 30 23
-249.592423450984 413.627826189793 3582.12481050119 32 33 25
-275.966707169926 408.948818042447 3533.55353500356 61 62 56
-273.204316826726 407.667355048666 3523.227379654 167 167 167
-269.852242165852 406.458776446243 3513.71322780263 161 161 161
-262.210190863539 405.739985524582 3509.74076677587 154 154 152
-255.177135968151 404.950454107231 3504.97334235319 157 158 153
-249.379105813087 404.021930043832 3498.63073719701 167 168 162
-242.340986621952 403.231237520746 3493.85893089116 165 166 160
-233.426225819997 402.645285709522 3491.42965876319 185 186 180
-212.600152150307 403.353377825611 3503.81157232279 110 111 105
-198.588089577232 403.300870673466 3507.54723128436 12 11 6
-195.238545367294 402.090746436285 3498.03528268153 10 11 5
-188.748295675669 401.220123185766 3492.41559164485 16 17 11
-173.378130090626 401.289157447055 3497.62018357516 21 23 18
-170.03993956289 400.079783707181 3488.11807075355 22 24 19
-162.253615580869 399.338988260341 3484.02070599933 22 24 19
-147.413937976439 399.326200145068 3488.36236026954 26 28 23
-137.017946271164 398.843718520079 3487.29510333025 27 29 24
-129.175223177724 398.094616310868 3483.1492247798 25 27 22
-133.609846993685 396.099986532679 3464.50846998973 25 27 22
-125.789451068674 395.353397096064 3460.38192691586 26 28 23
-116.008512346664 394.800197131896 3458.52495588949 25 27 22
-119.915452156373 392.886292388237 3440.74989168852 25 27 22
-112.755909248812 392.075325005521 3435.87297446472 26 29 22
-102.307630490244 391.584035161985 3434.76045553438 28 31 24
-93.8115281366652 390.897720098887 3431.37112370355 27 30 23
-88.6082535216937 389.891769524836 3424.22093989298 24 27 20
-69.4885583227123 390.215206651183 3432.79096658089 25 28 21
-54.2815466186855 390.149939817485 3436.81457924671 30 33 26
-37.6868205755056 390.202623601447 3442.28116743523 29 32 25
-12.999234489012 390.995935288334 3456.60929167189 35 38 31
0.386958100055068 390.717399203234 3458.24235757415 27 29 24
11.1205457147796 390.185568172083 3456.88249839793 43 44 39
19.852487294886 389.465366324859 3453.28897581953 38 39 34
-11.5743589370236 383.624288859592 3393.22407558572 38 41 34
-213.803874171247 410.695442158006 3645.08305355908 8 11 2
-250.2351709856 404.97290628865 3582.73798698927 11 12 4
-276.598386235336 400.440491064913 3534.15616812573 40 39 34
-273.223242697243 399.242497478457 3524.62163754527 175 170 167
-268.027501749029 398.248542840911 3517.47822121335 177 172 169
-258.530816999451 397.723645515925 3515.86712440762 169 164 160
-251.48328554422 396.929237321223 3511.08749974465 164 159 155
-245.670636159965 396.001237486552 3504.73190466718 185 178 172
-239.239818904171 395.139606213812 3499.16366759068 188 183 177
-227.818310958483 394.804082788831 3499.85344382831 196 191 185
-210.105360615067 395.119052009882 3508.31922533469 53 48 42
-201.108268553187 394.510357437817 3505.81842560519 18 15 8
-201.543395860129 392.924636991566 3491.64902545898 22 21 16
-194.439541199953 392.12101951385 3486.82032761331 24 25 19
-175.918115869272 392.476084573625 3495.90869135084 19 21 16
-169.404431927939 391.601691564024 3490.26871343574 20 22 17
-167.995798940089 390.216134883602 3478.4700610318 22 24 19
-163.418761124431 389.152619972177 3470.53977131125 25 27 22
-133.804492533118 390.559672473781 3492.50376455224 27 29 24
-134.970646723957 388.920866001848 3477.64473929659 25 27 22
-134.246792121565 387.47671357463 3465.11641225035 25 27 22
-136.802092393249 385.724850364334 3448.81562070152 27 29 24
-136.16236809889 384.291518860374 3436.36014229743 27 29 24
-130.33885587173 383.358350392841 3429.99548100928 25 27 22
-125.828739214602 382.302156070615 3422.12314682468 25 28 21
-88.4959672932579 384.316071949764 3451.95011943297 18 21 14
-80.6137044340862 383.554368690688 3447.77005200143 19 22 13
-77.4192146407131 380.876585381652 3425.16844984265 17 20 13
-36.9698561362499 383.069042183532 3457.58636688655 17 20 13
-12.985341879912 383.733295343873 3471.20112866755 13 16 9
-8.96542046584736 382.591619003295 3462.43095737349 19 22 15
2.42002596779756 382.105644686975 3461.82938796041 17 20 13
17.1998689743034 381.911337376007 3464.90050289134 34 35 30
8.3961050716721 379.649488506064 3442.10848970224 28 29 24
29.2980342801799 379.978540462856 3451.78059098523 19 20 15
10.2047908773111 376.854777636894 3418.06193410823 20 23 16
47.2718081043153 375.599689411056 3419.02679682738 32 34 29
-238.852260416011 396.02677258866 3584.84027480129 38 35 28
-251.238171731289 393.14182126677 3554.57035725046 91 76 69
-262.524522850361 390.402547774654 3525.99298910257 104 87 80
-255.469471095782 389.604334877637 3521.20655546756 91 71 64
-252.1140330754 388.4218778152 3511.68931920338 99 76 70
-245.681477612246 387.56002742699 3506.11957697995 137 112 107
-239.248457727684 386.697874949762 3500.54943418334 153 128 124
-225.332254770439 386.592357653437 3504.36852162664 162 141 136
-206.361175049251 386.98238583044 3514.3901880515 61 48 42
-199.86102299005 386.110593700087 3508.76192185128 33 22 18
-192.730656896168 385.300763149686 3503.91060136679 25 22 17
-182.437059985064 384.799950001534 3502.93189695202 24 23 18
-164.511962410444 385.035962046132 3511.21462998488 21 23 18
-159.86675941901 383.971905807745 3503.22526256414 21 23 18
-164.803144132375 381.992096126203 3483.69636058558 21 23 18
-167.253437990473 380.265444504606 3467.30407731912 24 26 21
-152.424591168142 380.182206666451 3471.65557553345 25 27 22
-138.186133548264 380.031217028514 3475.19596345208 25 27 22
-121.959623555155 380.05343618435 3480.98189513812 26 28 23
-124.470766409605 378.334058178637 3464.64262026363 26 28 23
-132.892382840261 376.086859264714 3441.51929119235 26 28 23
-130.970462206175 374.799409805427 3430.59837907036 23 25 20
-107.480758905492 375.460322913273 3444.64203293602 22 25 18
-97.6703944209625 374.87486392107 3442.75976658288 21 24 15
-83.8882113074115 374.636631532722 3445.372612967 22 25 16
-62.7938689887415 375.031157532854 3456.20077948987 22 25 16
-48.8985149309014 374.77723509613 3458.7156382206 19 22 15
-35.6226269054343 374.459431765621 3460.44456350572 16 19 12
-22.9724034965089 374.078597285566 3461.39292237456 21 24 17
-35.701643324106 371.527007402763 3434.06494153991 23 26 19
-20.3722028991389 371.373120014387 3437.98301509605 19 22 15
-4.31650768109249 371.2682380551 3442.5945608338 29 30 25
15.1718381718622 371.436179632294 3450.84607236395 25 26 21
53.0193926498961 373.102013499233 3478.90585913472 21 22 17
35.3663799877992 370.182932769449 3446.58441341816 24 27 20
32.4113731426072 367.046333173272 3417.40547979066 25 28 21
40.4535925579257 366.254442517537 3413.08665236458 33 35 30
-0.299772558900013 361.592674075902 3357.12764120513 32 34 29
-166.124518893395 398.087487156167 3711.03136084877 19 22 11
-199.325840893674 393.04111747233 3652.49899730712 37 38 30
-208.438954163527 390.522186052699 3626.00699161906 28 25 16
-249.431811701124 384.79282143992 3558.35218081153 112 94 84
-248.442343131225 383.365717981753 3545.59352611453 131 111 102
-252.41038049053 381.451671935297 3526.54815739947 134 107 98
-254.596256629753 379.73029031736 3509.92697515477 140 110 102
-251.88526920321 378.503553968607 3499.64501793072 159 126 119
-246.713300127486 377.522420201901 3492.52180694275 171 140 135
-233.445172860758 377.32674442703 3495.58024375176 166 137 133
-208.87395304128 378.206131895343 3512.65487527291 63 46 39
-186.69273200459 378.830035263033 3526.50961670156 9 0 0
-181.40592365705 377.832657397817 3519.28697565102 20 17 12
-167.284521137726 377.665632189987 3522.92892334369 24 23 18
-160.083705404605 376.842998143969 3518.01630907871 22 23 17
-152.878306262733 376.01954446702 3513.10004303269 22 23 17
-159.699692118835 373.909974485668 3491.23536650811 22 23 17
-157.009754607887 372.683961973305 3480.97164931206 27 28 22
-156.911808866597 371.229556035055 3467.66262554467 29 30 24
-143.975910829042 370.932282677084 3469.68609933838 30 31 25
-134.228611372553 370.342650822193 3467.85852075214 29 30 24
-112.147482862498 370.833724349341 3480.47730032714 28 29 23
-115.972300363808 369.04082405046 3462.63027365782 27 28 22
-113.993227575003 367.764901285247 3451.65975101576 25 26 20
-106.154709672555 366.998504344751 3447.51762932578 25 26 20
-95.0265013215317 366.510432503409 3447.13903099724 15 16 8
-87.8196283664723 365.684317787518 3442.22118927511 23 24 16
-70.7023432885943 365.688089512501 3448.5587501014 24 25 17
-46.2320578242057 366.288839797298 3463.07614888784 21 22 14
-38.2638992926618 365.503891034739 3458.82178322102 21 22 16
-36.2869686754874 364.226699718553 3447.85312549636 18 21 14
-17.6228221575605 364.309832092426 3455.49597339649 18 21 14
-12.2987155458207 363.303021833697 3448.24138123468 23 26 19
3.78111435732809 363.156472640746 3452.83227857805 31 34 27
12.4953529908085 362.414191374955 3449.254242855 28 31 24
40.8513742662682 363.211581357888 3467.01939589889 20 22 17
38.0295867958744 360.123627104872 3437.72436551485 21 24 17
48.8392691628019 359.531161290213 3436.29926070946 24 27 20
47.3412963344479 357.998416915337 3421.72746282184 37 39 34
-200.65816986964 385.650859321981 3666.93553454983 18 20 9
-204.839054637582 383.671448933231 3646.75149551218 23 24 16
-251.098024451786 377.591771203271 3571.75330466615 24 20 9
-237.853742639899 377.370000197078 3574.83226277289 153 134 117
-250.917421217773 374.604329038591 3543.82544114723 146 123 107
-253.65813511874 372.85457390626 3526.36207972303 154 120 108
-257.077155699288 371.054364341565 3508.16338164051 137 103 93
-254.370997367025 369.84456737294 3497.88550019844 170 132 123
-247.341316600311 369.043198717853 3493.12107695996 173 136 128
-234.698551075055 368.759725762169 3495.39852981164 162 135 128
-202.632207667294 370.248586502741 3521.85362693716 69 50 43
-174.16059913483 371.372046742035 3543.48626602357 20 7 1
-165.053829127837 370.714977786744 3540.89103345676 21 20 15
-178.029311636677 368.076874390809 3511.13020335772 17 18 12
-165.79374026197 367.7057693746 3512.43789300195 19 20 14
-161.147037581688 366.657755294924 3504.44712179339 20 21 15
-164.800814557201 364.887019798057 3486.45170452391 21 22 16
-158.925716468203 363.956276370427 3480.04231620075 24 25 19
-153.05449455777 363.02584535202 3473.63628547645 24 25 19
-156.843454822849 361.272671416698 3455.75792262379 27 28 22
-140.678231254077 361.220516162505 3461.59745540474 27 28 22
-108.902284207829 362.463433969628 3485.65900595426 25 26 20
-81.5150723068254 363.306271582778 3504.26356640465 25 26 20
-92.4628648683834 360.959134743156 3478.03705358738 27 28 22
-95.6733862013097 359.268539859631 3460.98019227876 27 28 22
-90.4163458930598 358.27777594972 3453.78330939928 32 33 25
-81.2184021798754 357.605509042766 3451.10915178722 36 37 29
-46.2557433101178 358.984317018316 3477.70114308384 31 32 24
-82.6416744379102 354.682371231769 3423.24774724199 16 17 9
-72.1276276078031 354.115331448858 3422.07871562153 15 16 8
-34.9333469769793 355.617650713935 3450.70577789603 14 15 9
-24.9563176800374 354.980919274199 3448.67907389316 13 14 8
-12.2766915259529 354.546299787162 3449.6022968741 19 22 15
7.16547515293442 354.616378217091 3457.89446770993 26 29 22
4.3294276139747 351.597439098163 3428.61166533295 17 20 13
49.6700489183333 353.55844137604 3464.73184518315 18 21 14
34.653833611852 351.048460091093 3435.41570044654 23 26 19
32.4799250305312 349.49849321528 3420.10629558954 30 33 26
67.2377195789271 350.618978404044 3444.23100235114 28 30 25
-201.924298810339 376.67494828042 3666.7675217554 17 19 8
-229.221360850673 371.061541357528 3601.79845293651 22 18 6
-253.150847823194 367.348739896398 3556.3952821794 149 131 111
-256.454448926905 365.57715266797 3538.09636041415 144 121 103
-258.593788032204 363.926173108674 3521.4343866423 144 111 96
-257.089582458278 362.617103438131 3509.55208689211 151 114 98
-254.380049557565 361.423141049977 3499.27117798179 161 121 109
-245.485645605225 360.784109589171 3496.85957831171 164 126 115
-230.967622295114 360.636837099998 3501.48089338263 161 137 127
-203.270137633767 361.629533405613 3522.46239544798 59 42 32
-170.415763124281 363.038065084962 3549.55825909861 18 9 0
-175.765554788392 361.124042770336 3529.06366909528 13 18 11
-178.668437163369 359.435465101021 3511.74015297225 15 20 13
-187.331898596053 357.27319099497 3487.50262847028 22 23 17
-171.316834842853 357.200879738784 3493.47244077222 22 23 17
-174.997972129127 355.477717713884 3475.50074490309 23 24 18
-165.316966100424 354.869922948687 3473.73042739687 26 27 21
-156.898020432251 354.154279189626 3470.40816008933 26 27 21
-154.258462016965 352.967404810471 3460.18785465026 24 25 19
-149.060898945108 351.991140693206 3453.04274438327 23 24 18
-108.897885018265 353.801864137138 3487.0345810789 23 24 18
-96.4584726797835 353.376927691663 3488.16594326185 23 24 18
-83.3301780940241 352.997825286972 3490.02319030587 24 25 19
-91.0835011545665 350.988518366251 3467.64234667524 24 25 19
-83.1857283361352 350.202882876394 3463.44899128597 27 27 19
-76.5956746667018 349.315540105462 3457.74290489723 21 21 11
-56.1453885987171 349.476553296075 3467.80723490678 20 20 10
-46.2017079476915 348.831250037159 3465.80980643249 23 23 15
-62.8029146411158 346.207885001251 3433.89806730319 17 18 10
-56.2315921336753 345.322256320892 3428.20820477847 20 21 13
-50.3285906672142 344.387605387823 3421.77465691582 18 19 11
-20.9691763229793 345.152407626654 3441.31686603404 23 24 18
-17.019788322032 344.064006918924 3432.607483357 24 27 20
-0.947497157521404 343.841459362486 3437.20540726742 22 25 18
7.74094173730111 343.086138974641 3433.64981759906 18 21 14
29.3338136219448 343.230260587801 3444.04751325433 20 23 16
25.1540937982186 341.570029197846 3426.50723348682 24 27 20
12.7164045046579 339.355987091296 3400.24794439161 27 30 23
77.5359951637062 342.423212170058 3456.53197702174 24 26 21
-212.823852758627 365.332789651462 3639.23422589124 25 25 15
-244.469463126982 361.027917717285 3583.3190798769 24 20 8
-255.619361824887 358.58826354316 3554.62150197022 155 137 117
-260.763250012219 356.700080076752 3533.94828058607 142 119 101
-259.224762707025 355.40836411238 3522.03647068755 142 111 93
-255.252514658998 354.332897133242 3513.30687506228 145 109 93
-252.533400592807 353.153903530672 3503.01756481335 157 120 104
-243.631319890564 352.502661713043 3500.59970606445 158 122 108
-230.353158179537 352.214315918835 3503.64973065109 158 136 123
-199.534259380699 353.373285405462 3528.54133330454 50 36 25
-179.838323808869 353.580957526349 3539.25918365289 17 10 0
-176.407765825078 352.441398178422 3529.67656023801 16 21 14
-192.55830718158 349.720675742298 3496.05158326851 15 22 14
-184.167666843473 349.001223389462 3492.75387388773 22 23 17
-170.683549900805 348.684153171142 3495.62557580712 22 23 17
-165.312298575168 346.331772321993 3475.10497018579 27 28 22
-157.53299737346 345.557854637143 3471.01422247348 26 27 21
-122.081492089798 346.907981169923 3499.82953612529 24 25 19
-114.196975258708 346.119512423439 3495.64737302345 24 25 19
-107.598902978509 345.232003038195 3489.9343376962 23 24 18
-90.6083584097521 345.121827126922 3496.38248746089 23 24 18
-85.9318744182409 344.084534351297 3488.3658342451 23 24 18
-88.4576242675435 342.52023746116 3472.03821484859 23 24 16
-81.2056188624761 341.679975028387 3467.08134688733 20 20 10
-70.6606294852254 341.076399690086 3465.88573300035 23 23 13
-46.2349131196591 341.460719949519 3480.44316389873 21 21 11
-47.5109547113197 339.999519962947 3465.67854662162 20 20 12
-58.1316276794013 337.89162127822 3440.4902180974 19 20 12
-93.5010437721471 334.081966811769 3387.79941933349 20 21 13
-64.3293105950553 334.778861473825 3407.50473850818 19 20 12
-22.9557194381904 336.281502598642 3440.44963629881 24 25 19
-6.91058370745035 336.024419699502 3445.07132058964 25 28 21
-10.3605476717004 334.446632789462 3428.22126181777 22 25 18
17.2366831753945 334.946544577997 3445.32275259434 19 22 15
20.5408365473065 333.81946472741 3435.84929221983 21 24 17
22.4634137558977 332.606125812984 3424.92733078295 21 24 17
97.4109002300074 334.754067709389 3479.0560444313 24 26 21
-278.611069729863 353.790382802244 3582.52052828369 78 82 67
-241.966105612897 354.062888636517 3602.36789950416 23 23 13
-249.369170980914 351.998132410171 3578.36057338234 21 17 5
-260.527369698405 349.639057215789 3549.66998276002 138 119 102
-262.620417580161 348.058490621994 3532.9671149302 130 107 91
-262.313045122004 346.687688353876 3519.47603174569 138 109 91
-258.347957863707 345.623972465273 3510.75288199975 142 111 91
-253.780406918114 344.612241665037 3502.83047932817 145 112 95
-244.881228103789 343.950162252363 3500.41489046487 153 124 108
-232.229731870108 343.58246637037 3502.6853218644 155 136 122
-208.918021562148 344.04529967373 3518.20810860175 35 23 11
-181.73484562979 344.786500842549 3538.31343383894 20 13 3
-161.960314125835 344.925558630104 3548.96360689041 21 26 20
-160.391851825434 343.650242043924 3537.02571031772 13 18 12
-183.537300719433 340.50367196457 3494.90909899887 19 19 11
-157.352845999922 341.112204625577 3513.2343897609 19 19 11
-160.978042967995 339.469205106697 3495.21337343935 22 22 14
-155.083409729432 338.543750797162 3488.78701902626 23 23 15
-144.064045999993 337.994476417484 3488.50315683759 23 23 15
-129.15678423648 337.721349179532 3492.78792049184 23 23 15
-103.227408643153 338.230096143968 3510.0113677301 23 23 15
-108.242912513047 336.506811983021 3490.5490633638 24 24 16
-98.3979105021073 335.848388123964 3488.63724823565 24 24 16
-93.0920007023537 334.867840956945 3481.39794220654 23 23 15
-93.0216833118362 333.525654542031 3468.11213773855 23 23 15
-79.2269919573121 333.134726921726 3470.71544776237 27 24 15
-71.3051755044059 332.33460258529 3466.5010312661 32 29 20
-25.1175113468483 334.113494813655 3505.85832683562 24 21 12
-31.616532760764 332.322111765366 3485.03575998744 14 14 4
-51.4725705059447 329.663012037168 3449.3287116126 23 23 15
-74.8224251463223 326.807656247108 3410.0342162826 18 19 11
-65.632944002604 326.102633433988 3407.36760574277 18 19 11
-6.18423348784747 328.627751941671 3460.3700898538 24 25 17
-3.52754453373683 327.468932856021 3450.13475496198 25 28 19
-2.243853132323 326.228186743074 3438.44314003304 23 26 17
5.09161090329213 325.372170629694 3433.41435307389 21 24 17
26.6716878822484 325.397217718557 3443.82359462687 22 25 18
55.0932654535394 324.498701020871 3448.3093619308 23 26 19
76.8989726301448 324.492800456673 3458.52355773571 25 27 22
-248.59188061655 346.280994249033 3609.48470011493 33 33 21
-250.01003088777 343.346708670848 3578.97209114038 25 18 8
-259.332235268606 341.21149504006 3552.65882573307 139 117 103
-259.579949661524 339.812285691359 3538.32546396839 133 110 94
-259.258135692109 338.466801742765 3524.82169974364 132 103 85
-254.663639874735 337.459616698366 3516.87591352655 140 111 93
-248.844461748339 336.54850858906 3510.51486580764 137 108 90
-241.167968074901 335.778786989987 3506.51319788471 146 119 102
-232.23815916139 335.10123414603 3504.07116108169 145 127 113
-217.671676630555 334.839505727417 3508.65121648143 31 17 6
-208.689584530239 334.154627368368 3506.16391143062 23 14 7
-160.721579791474 336.314255373606 3551.91585090577 24 25 20
-154.731091412552 335.37919333268 3545.4064776554 15 17 12
-172.152522541698 332.765956697727 3510.23549276573 18 18 10
-166.880415646911 331.796721210116 3503.02572714227 18 18 10
-154.612038913591 331.321330830117 3504.30534346192 21 21 13
-142.306208223327 330.840768950504 3505.55284611512 21 21 13
-135.090230261346 330.000956754314 3500.62720151623 21 21 13
-129.798617783272 329.028473101293 3493.4005507508 20 20 12
-132.255273697761 327.532424079418 3477.01228739671 20 20 12
-116.651529685198 327.259948552148 3482.01695701278 22 22 14
-110.077776998053 326.375407406623 3476.32498111672 23 23 15
-97.6434511433828 325.87657548504 3477.4609152697 24 24 16
-87.1315571551743 325.244759303044 3476.29416934738 24 24 16
-79.8713009028931 324.397875927893 3471.33050849698 33 30 21
-74.5791372296836 323.424143038989 3464.10307257315 30 26 17
-48.8533426128397 323.746048500722 3480.18092062686 20 17 8
-26.9770227157675 323.802801561289 3491.65676872384 16 13 4
-38.1825337066535 321.786127396736 3465.65148832648 23 23 13
-43.5091300406167 320.152647465404 3446.45823704723 18 19 11
-20.2009610381992 320.277196221193 3459.33944799664 17 18 10
-16.8813265130239 319.176410059918 3449.85239916638 23 24 16
-4.84934386902847 318.599548040794 3450.01461891983 22 25 16
-21.7591831484585 316.305732135596 3418.36824725991 20 23 14
9.17435523495991 316.838909891502 3439.19444468161 22 25 16
34.1543475248978 316.99854765716 3453.27292066127 22 25 18
30.0052628411374 315.466524054536 3435.70525752713 23 26 19
37.3851120786344 314.601371523387 3430.63805952231 26 29 22
61.1872973778031 314.657945864575 3443.09121375317 27 29 24
-245.012109971467 337.889915734493 3615.69981575163 25 25 13
-259.611025255333 335.386608351024 3582.05184070957 18 18 8
-247.004149401575 334.97051497603 3584.3612598132 21 14 4
-255.089144761246 332.995476509216 3559.62114468142 125 98 89
-255.929941181886 331.578343985409 3544.47868369879 124 97 86
-253.749817197832 330.393261223996 3533.33331411362 117 88 74
-248.517972173325 329.436125171443 3526.15836649568 124 95 79
-243.29400696388 328.47984845018 3518.98992751536 118 91 72
-234.357136132467 327.790310539931 3516.54184755778 120 94 79
-224.158980163291 327.186395707175 3515.6468488523 110 90 79
-220.802160504305 326.097714241301 3506.12749189124 27 10 2
-184.899115702593 327.272184917795 3537.19941552371 28 15 9
-162.625694567006 327.470127860648 3550.97668853387 28 20 18
-154.747835135627 326.66692512491 3546.80070662913 24 20 17
-150.656107454869 325.606560592247 3537.96777136014 20 20 12
-166.884774669374 323.192481631019 3504.40852182261 19 19 11
-162.254735153677 322.187112313485 3496.43191683862 23 23 15
-136.562202977101 322.563008480406 3513.86150565589 20 20 12
-125.481618940576 321.96681797408 3513.5248856442 19 19 11
-133.011514682206 320.170043097574 3490.94901231233 18 18 10
-139.342148128193 318.467251494207 3469.97992348494 18 18 10
-141.226989958102 317.060304723334 3454.41904731026 17 17 9
-117.857436385711 317.237072069378 3468.56997654076 18 18 10
-93.7296452953897 317.439441219103 3483.38712454455 24 24 16
-77.3272258256652 317.148173709243 3489.02262056562 25 25 17
-75.2749507144674 315.977314240154 3477.98797002674 31 27 18
-87.7088909101191 313.945150523733 3450.40067649217 24 20 11
-56.7542907535583 314.505697256309 3472.53170243847 18 14 5
-32.9212870180218 314.619167747496 3486.28135291924 19 16 7
-31.5344334053909 313.409502878102 3474.50043769933 22 22 12
-26.8537546928673 312.395158001225 3466.4800000651 18 19 11
-16.1784791260029 311.723747412196 3465.17190202862 18 19 11
-12.8433005983615 310.634679164969 3455.67130472032 23 24 16
-33.705076786918 308.202656771629 3419.51123366632 22 25 16
-9.60314118890704 308.278959109519 3433.0280320858 20 23 14
15.2812400349531 308.377521025646 3447.18977338616 23 26 17
28.7549770969515 307.839723075284 3448.74864137033 22 25 18
38.8705236466786 307.1148992917 3446.60245032611 25 28 21
81.0479152513341 306.799396648921 3465.62889173378 26 28 23
-226.342850300079 329.182073267777 3627.36529576293 15 15 5
-238.532475482041 326.950343444138 3596.92101707335 21 14 4
-245.972143930227 325.079180508097 3572.94416166746 96 74 63
-248.000773148227 323.604642771116 3556.18508830946 102 78 66
-245.790503771488 322.434476975293 3545.01317845374 114 86 72
-240.529370674868 321.478666636918 3537.81283722029 118 89 73
-235.893903985432 320.481893704939 3529.83147260495 111 82 64
-228.790731735987 319.65290153399 3525.00353065784 116 90 73
-221.060893991803 318.864452948701 3520.9557488627 101 81 70
-195.226106798948 319.264474457841 3539.58514468334 28 11 3
-175.523883739642 319.239682317931 3550.29936732735 28 15 9
-157.619370338512 319.081645979539 3558.60217933375 27 19 17
-149.723297159573 318.270338613439 3554.41046343752 25 20 17
-158.889422602416 316.379873510615 3529.28327818715 19 19 11
-162.449361580228 314.859857634635 3511.2049034827 18 18 10
-155.893041354324 313.978397750612 3505.52801696075 21 21 13
-150.613210799093 313.018587214482 3498.31149588923 18 18 10
-125.486677383967 313.262902224997 3514.90893244187 17 17 9
-105.380633290872 313.182701345533 3525.27350793072 19 19 11
-125.15322406927 310.718649043309 3488.16929277318 18 18 10
-131.514584856852 309.074761441493 3467.22645473783 16 16 8
-110.712043746769 309.025430603806 3478.31041206023 17 17 9
-87.8664700229241 309.076029238421 3491.59305016399 21 21 13
-85.1558249403834 307.960936874624 3481.31066620598 23 23 15
-75.9209134058323 307.217764526545 3478.60461121054 17 14 5
-85.7211459903535 305.410936434441 3454.02648744266 25 22 13
-48.8344872186097 306.196487237512 3482.92482131725 23 20 11
-26.9630493080473 306.127418167938 3494.40571613795 19 19 9
-30.1957676387095 304.686431067975 3477.36679181332 17 17 7
-25.5081947788791 303.679451980644 3469.3403310433 22 23 15
-21.500288969345 302.638812330487 3460.57991938532 22 23 15
-22.8635254268106 301.320820387211 3445.88963352806 26 27 19
-8.83497500273567 300.80642119916 3448.29073407631 23 26 17
-5.5359570345761 299.73575676341 3438.82167468039 21 24 15
12.6027305671332 299.417959742523 3445.59929387097 25 28 19
30.13368142412 299.056792738546 3451.58068050951 25 28 21
44.3321418096518 298.518905171734 3453.83466619211 20 23 16
68.8005005148091 298.473802719953 3467.03465923977 23 26 19
60.5571643443046 296.830725927085 3445.07615440451 29 31 26
100.912865412043 297.52223199457 3474.93845216926 31 33 28
-290.780552127577 318.698145692242 3572.12190315753 15 16 2
-213.668115345141 319.941948610526 3630.99665527185 21 19 7
-241.127253921736 316.793644866182 3580.70890621431 93 81 65
-243.746056931205 315.314499005592 3563.13781117074 114 98 82
-243.358293844831 314.041885699905 3549.57641427223 103 80 62
-239.933313344465 312.971639921447 3539.99786039621 130 103 84
-234.675301997494 312.02138523304 3532.80018889464 92 61 41
-228.805371902544 311.110890622039 3526.39514864485 114 85 67
-221.695667418994 310.277927121638 3521.56157070995 138 115 101
-203.352704224749 310.133710635572 3530.80784935272 51 31 20
-181.801833201663 310.168941912568 3543.8891760207 19 4 0
-158.895870521703 310.266219003492 3558.44243124008 21 16 12
-157.30218775568 309.074805266415 3546.4818159779 24 21 16
-154.476778858712 307.962050904551 3536.10026245933 19 21 10
-158.651153840268 306.446316148122 3517.23083739827 21 23 12
-150.171825645384 305.672700316539 3513.85661004487 19 21 10
-149.338453884039 304.46088164619 3501.23217052473 18 20 9
-129.333655435991 304.336563204424 3511.68446962344 17 19 8
-101.534066676856 304.630238970733 3531.25842768272 15 17 6
-99.3742867577279 303.484007336825 3520.13043927361 18 20 9
-99.8291252767629 302.200484834907 3505.97584978038 15 17 6
-97.7349372042551 301.062832037874 3494.90465659133 15 17 6
-98.2717383653871 299.790107763622 3480.82135260619 18 20 9
-77.3168651853151 299.659447728503 3491.77380526323 17 19 8
-77.2215419207307 298.423635144388 3478.4656380003 19 20 12
-35.6493727132743 298.084800796729 3499.3400594762 18 19 11
-24.313137161017 297.41419232329 3498.78233933682 16 17 9
-20.9033299896264 296.343070509105 3489.21694240716 18 19 11
-18.1789834062851 295.241852803044 3478.92290847063 17 20 11
-26.8193708799429 293.591567536071 3455.98532811066 18 21 12
-16.8197488065025 292.855795959739 3453.93968391887 21 24 15
-14.8535806268733 291.733961498562 3442.97934766939 22 25 16
5.26054574058765 291.470558269726 3452.01452873138 22 25 16
7.22423201310152 290.34879604873 3441.05634317189 25 28 19
15.9322521357512 289.541821795802 3437.48411646786 17 20 13
75.6206775326307 288.59336886008 3462.51065299965 22 24 19
-225.907185209608 314.342526921377 3660.16789570434 28 29 15
-242.731022606303 311.94856387247 3623.15427307611 15 17 4
-214.937305904284 312.392978284511 3645.37918112523 21 23 12
-224.710966693212 309.171523281895 3603.58354005598 74 65 48
-241.328080574464 306.868706851291 3567.71372847892 114 101 84
-240.928096438536 305.621658758179 3554.14125798141 100 79 60
-238.722424590828 304.49002729048 3542.97339877879 118 93 73
-232.840376588075 303.580550705622 3536.5578489059 97 66 48
-227.58154021927 302.635312924247 3529.35911430573 85 56 40
-222.330322477318 301.691011065088 3522.16729249134 143 120 106
-213.968918857822 300.925565969671 3518.89522165961 117 97 86
-193.707124102336 300.829061604682 3530.44785345722 26 12 3
-183.397903946554 300.159772919274 3529.45701505325 26 18 15
-171.80399842185 299.556524698507 3529.99910297573 21 18 13
-161.440701866317 298.879714178457 3528.96112784117 19 20 12
-147.882649837209 298.370438157759 3531.77030857481 18 19 11
-157.173801975595 296.633755292107 3506.75049194277 17 18 10
-150.617043975923 295.751862163855 3501.07322879399 17 18 10
-117.176694515591 296.271249750986 3527.66696856795 17 18 10
-104.111646113219 295.708332879187 3529.5802244748 18 19 11
-102.600704808985 294.54910430287 3517.69143116386 20 21 13
-99.8301270960975 293.459244918415 3507.35693793054 17 18 10
-95.1391603959864 292.469340454251 3499.32742495319 15 16 8
-102.167252757289 290.905301447396 3477.63837333234 16 17 9
-101.452342753035 289.733225982599 3465.11635133817 15 16 8
-81.1398745649345 289.508852115672 3475.30263037576 15 18 9
-54.8319091038803 289.553054880257 3492.20095042539 15 18 9
-20.4970392617461 289.950980448193 3518.0201643082 14 17 8
-29.5933539236755 288.3061990195 3494.1544558933 13 16 7
-16.2558795554273 287.705426350845 3495.83183572979 15 18 9
-20.8265141403081 286.287895984557 3477.30554225627 18 21 12
-9.46302590330461 285.59401960119 3476.72435201207 19 22 13
-14.7935245242521 284.159011451541 3457.53319688313 20 23 14
-5.48661266197703 282.186610909372 3441.53914678545 19 22 13
23.4508911353317 282.234300715249 3460.12842697442 20 23 14
20.6985294686115 280.929915961728 3443.99553594842 23 26 19
71.5448574023521 281.852984124483 3485.93748131685 16 19 12
122.790718634749 281.524917531153 3514.30768893916 23 25 20
-234.939032668674 303.690851846907 3634.98109975771 25 28 17
-205.30883746525 304.141870446113 3659.58432121205 22 25 16
-218.615352461029 302.081730750233 3627.46014190489 14 16 5
-240.583198788804 299.552531252047 3584.31885953672 31 25 13
-238.912079837565 298.395318975833 3572.29122143594 83 71 59
-238.499595421432 297.173850370246 3558.70806625339 101 82 67
-236.282157626662 296.059648224192 3547.52989613909 106 83 67
-229.772382922554 295.184965728386 3541.89330837629 110 81 65
-224.500731957248 294.243287140589 3534.68344384106 69 40 24
-218.615387736112 293.335687238173 3528.26502485626 111 88 74
-212.733737238232 292.428494945793 3521.84980471285 139 119 108
-198.72480797997 291.945251782929 3525.59097061107 63 49 40
-187.803657963145 291.2936910529 3525.39289659547 26 19 13
-169.927799335544 290.990434296956 3533.72180126885 22 17 11
-160.82060151584 290.232519561019 3531.12653587172 21 22 14
-162.469529212626 288.937184343935 3515.36046119238 20 21 13
-155.906787666733 288.054470430929 3509.67801720771 17 18 10
-143.603375497785 287.449918050549 3510.9284195418 15 16 8
-113.346144692585 287.698277465645 3533.66590355316 15 16 8
-114.391286079572 286.438018518138 3518.69953915327 20 21 13
-114.197585505109 285.244441851122 3505.30583104994 21 22 14
-112.106736223236 284.145745502475 3494.23727927199 17 18 10
-102.915218696049 283.37569652336 3491.56932509659 15 16 8
-108.011129810953 281.959602619832 3472.17472197922 15 16 8
-109.267668879948 280.727266456303 3457.39140260859 15 16 8
-83.093172837398 280.707062573703 3474.40613827027 15 18 9
-61.3896937506877 280.471125439707 3486.03369035003 15 18 9
-38.2747813900548 280.278612742311 3499.08414283066 14 17 8
-29.5871329795725 279.458946317889 3495.52965526741 15 18 9
-36.1253043121823 278.002838397491 3474.73884846981 16 19 10
-10.8458971154985 277.868962566628 3489.88297363496 19 22 13
1.88257057931507 277.205715076584 3490.76534541211 19 22 13
-8.75672630056146 275.600680952568 3465.58990032679 18 21 12
-12.7956441409807 274.274845902889 3447.92541552267 17 20 11
-8.15378247034149 273.298523479964 3439.9386911403 17 20 11
37.6429183127431 273.905514539016 3476.99560541122 18 21 12
51.1852238908159 273.248913126069 3478.49581244724 21 24 17
48.4725343715406 271.977699958678 3462.32832119235 23 26 19
88.6083811266229 272.295338542596 3492.38359726305 17 20 13
-222.41364894231 296.883090733492 3667.83977783163 15 18 7
-201.733927903187 295.471628443679 3665.80545911049 13 16 7
-210.772141304205 293.725532271826 3639.24321150936 14 15 7
-219.916630566636 291.993621172715 3612.77298509773 19 15 4
-228.556684642217 290.307718261776 3587.18850931584 53 45 34
-231.782519668738 288.919139988883 3568.82001850149 102 84 70
-229.538926988544 287.820414412858 3557.61907871931 96 74 60
-221.153419885252 287.035067683865 3554.32592998202 110 82 68
-214.612219667022 286.155853635725 3548.66213396112 100 72 60
-208.070545190531 285.276470917708 3542.99792797653 50 26 14
-205.890870382923 284.186001426916 3531.85233461239 82 62 51
-195.611082014049 283.487417082117 3530.88719563264 123 106 96
-184.051506754213 282.84454377488 3531.45929560122 34 24 15
-179.381958068806 281.874740981487 3523.44821612774 26 19 11
-194.299200126416 280.006555236162 3491.39529161066 19 20 12
-156.775406893212 280.54348731755 3523.71310733062 18 19 11
-152.098705826714 279.572444328644 3515.69583666785 17 18 10
-142.97078998179 278.800323663461 3513.08270626834 18 19 11
-129.348281586201 278.221320740203 3515.83647218435 19 20 12
-123.381155403891 277.304361492982 3509.34723048297 18 19 11
-114.199064065946 276.524675444513 3506.68719326021 17 18 10
-104.354530247215 275.769755932024 3504.77609371247 17 18 10
-101.6162607996 274.71701277217 3494.46936269991 15 16 8
-95.0027327262126 273.826688326298 3488.74294952281 13 14 6
-98.8214841344837 272.516154927611 3470.88785491592 15 16 8
-103.360427375373 271.188393161774 3452.33319619982 13 16 7
-85.0039288865943 270.769601978476 3460.24626169508 12 15 6
-61.9660274290972 270.518711130664 3473.36384058546 12 15 6
-48.0687442882011 269.901783127334 3475.87969510852 15 18 9
-34.1263797758331 269.278656949985 3478.35620063797 15 18 9
-8.84412143075153 269.067465616815 3493.49867112955 18 21 12
8.55594445391006 268.548855352642 3499.59452071446 18 21 12
-9.40904325647729 266.747194653331 3466.21265769149 16 19 10
-4.72735542675107 265.773900591706 3458.1910794088 15 18 9
-0.0582121982066752 264.802206101221 3450.1803636176 16 19 10
7.29719689403119 263.92495421524 3445.13442716929 18 21 12
27.5143679404728 263.482724829578 3454.08145450206 20 23 16
74.9654522646868 263.935427696269 3492.35229214014 20 23 16
77.7268158068329 262.87806229397 3482.02557459799 9 12 5
-201.4567567655 289.09478680173 3697.36701653555 19 25 15
-201.298134633361 287.851167987893 3682.68077558132 16 22 12
-197.557190202895 286.792863542859 3672.82828702976 9 15 5
-176.852742962424 286.566690955672 3685.32167264593 16 19 10
-195.612308708912 284.419940051314 3646.01443080026 16 13 4
-227.978821883176 281.656648771561 3589.39055129437 27 20 10
-225.682920293514 280.569982364424 3578.14419535641 94 77 67
-224.029979194906 279.458512086349 3566.13201624461 85 65 54
-216.24125545714 278.633747450448 3562.03311565827 92 66 53
-209.681490113441 277.751808635662 3556.35324623237 107 80 69
-199.395511107227 277.035869490759 3555.38285406426 83 56 45
-195.314464260349 276.042335318751 3546.55874319551 40 20 9
-195.625066425918 274.860931017506 3532.27847714174 44 27 17
-184.064986386082 274.195813132824 3532.85028374477 42 32 23
-198.268195611907 272.436255806048 3501.50135377685 32 25 17
-184.201132607016 271.878586517855 3505.19261535042 17 18 10
-153.618394606729 271.990918417754 3528.97242842221 17 18 10
-143.210419041492 271.258022065001 3527.89640733441 16 17 9
-141.063907485381 270.190501089146 3516.77940904543 18 19 11
-139.585554491684 269.101554993677 3504.91809024954 20 21 13
-127.87520160717 268.415679376798 3505.35978448721 16 17 9
-102.616288501026 268.242759274458 3521.84550201008 15 16 8
-95.9617625157434 267.347037093066 3516.08358944654 16 17 9
-85.4209568713737 266.595754769543 3514.89224338334 15 16 8
-89.7999140859005 265.293386713211 3496.19906998853 13 14 6
-98.8115862370451 263.835598007881 3472.25878714959 16 17 9
-30.7632706931846 265.135409771489 3537.66579962376 15 18 11
-35.1379466155977 263.832206887962 3518.96892088889 12 15 8
-63.2708995325606 261.721062264889 3473.2285682523 12 15 8
-66.5395552498702 260.491394941359 3456.21942279502 16 19 12
-36.1017279251059 260.399533284877 3477.47932108033 16 19 12
-14.8144309903548 259.981428018708 3488.14519725978 17 20 13
5.2309565498514 259.507877732918 3497.2413184923 17 20 13
8.65110276895065 258.490263930945 3487.66692911795 16 19 12
-3.36797907211039 256.991484651998 3461.0398674632 15 18 11
9.37710925619406 256.276341971125 3461.90816982201 16 19 12
24.1824815222396 255.617615043209 3464.96048258959 19 22 15
70.8342258685439 255.901853242614 3502.60196770161 20 23 16
73.6198301142412 254.857950264471 3492.25415263352 15 18 11
-181.714395271742 281.054760532578 3725.30204206109 17 22 15
-201.357529786956 278.925314351742 3684.11335612187 16 21 14
-190.361939804911 278.206185553868 3683.85120015546 14 20 10
-201.165498557779 276.514537582745 3654.84858987055 13 19 9
-210.919172387466 273.705895876436 3613.03326585771 25 22 15
-211.624808575424 272.499625726614 3597.77229024969 40 30 21
-219.139574197373 271.016098666874 3573.8580123735 79 65 56
-215.648980342072 270.004530551062 3564.22252432445 61 41 30
-207.847757426313 269.172292387745 3560.11283867991 51 28 20
-195.071758230539 268.538553313981 3562.2770828535 65 45 36
-183.499659667052 267.849771279598 3562.83862591436 90 72 62
-172.519179419278 267.13202981324 3562.58955710781 70 56 47
-183.451866154276 265.565518463792 3535.02131667013 19 8 2
-130.972064334984 266.424190199527 3586.13492231318 28 21 13
-142.557662660797 264.836913729397 3557.80945750629 16 17 9
-146.032024974958 263.568554125016 3539.65527969253 19 20 12
-133.057852998671 262.907688905796 3541.64793617211 20 21 13
-135.335389893279 261.695156401249 3525.10290224388 17 18 10
-131.277571314668 260.715017150792 3516.29883735075 15 16 8
-120.18138789128 259.981158530267 3515.94958888256 12 13 5
-96.1883413235509 259.681738703364 3530.88646089964 14 15 7
-86.9293414879335 258.869462530046 3528.15997550232 14 15 7
-93.8414132529259 257.520749614819 3506.36928485475 10 11 3
-53.4212749612815 257.723055593496 3540.14900071926 12 13 5
-40.1553659550054 257.022362732038 3541.8890563127 16 17 9
-54.9568053816452 255.433105655848 3511.0575304131 14 17 10
-54.1562272867155 254.34821949728 3498.46037630372 13 16 9
-58.6550973471329 253.108430782613 3479.87073016697 15 18 11
-44.7478500930174 252.429661152651 3482.37803365738 19 22 15
-10.9376420453118 252.327464822778 3507.33165519358 17 20 13
-6.17373776371766 251.359986187239 3499.23909478556 17 20 13
0.575683137305383 250.450728301223 3493.3950210993 15 18 11
19.3507190282287 249.876082668385 3500.94601961184 16 19 12
30.1578839531693 249.071625716778 3499.52447047175 15 18 11
29.5616967576495 247.957149971959 3485.49129752996 16 19 12
68.0283442861072 247.878838891872 3514.34937258853 20 23 16
72.8712792839326 246.900268184579 3506.18806978208 18 21 14
77.7015841910882 245.923327275855 3498.03770336807 15 18 11
113.82012281228 245.726712277087 3523.63806091662 11 14 7
-205.44039381858 266.3072896076 3636.12292608366 16 19 12
-188.378732767919 265.809639926873 3643.83520834902 13 13 5
-206.760877339846 263.948097733201 3605.52225471766 23 14 7
-217.324427968271 262.409082513323 3577.63389257237 44 34 25
-211.358862413042 261.500968275493 3571.14594620669 90 73 63
-206.01534406124 260.570769470675 3563.8740327479 46 27 20
-191.3714270551 259.975212535507 3568.38913612165 31 13 3
-181.031922235398 259.218570164521 3567.3722994521 62 48 39
-171.91639211295 258.415119962174 3564.77042273248 80 67 59
-157.770420523321 257.780642230125 3568.39378911995 25 16 9
-112.764221407452 258.175081857364 3610.10765058065 15 11 2
-155.824160326108 255.615357106411 3542.90065328911 15 16 8
-159.969292634541 254.375386042315 3524.00441110939 17 18 10
-133.071372491989 254.139674120792 3543.03973182923 18 19 11
-109.226286650852 253.78601859013 3558.10551368799 16 17 9
-121.058074337915 252.311249733708 3529.99270099753 14 15 7
-119.545326829605 251.261418525412 3518.10131777408 13 14 6
-91.0510620292677 251.022193855653 3538.40020473165 14 15 7
-67.5787175464237 250.612681250669 3552.46584049397 13 14 6
-82.1906319104295 249.088800531284 3521.46930725692 11 12 4
-81.3532076373464 248.023902057992 3508.84040323266 13 14 6
-74.6900238167036 247.126710739083 3503.07099613206 16 17 9
-69.3338179653207 246.193834142637 3495.78778780065 13 16 9
-90.8631554395534 244.543154873306 3457.55441572821 14 17 10
-33.6569783209932 244.986950979369 3509.86723390461 15 18 11
2.09749894613287 244.827701890488 3537.10647076768 17 20 13
20.1664548462315 244.193069565758 3543.94658203118 16 19 12
29.6761501516767 243.335447623335 3541.00310370073 15 18 11
-38.0354147380602 240.602591273434 3451.4929147201 14 17 10
2.65958329855343 240.518466488769 3483.71299497031 13 16 9
18.1058786635462 239.813542037478 3487.53335688352 15 18 11
34.2774814091915 239.116679919606 3492.04827744702 17 20 13
68.706568658595 238.818016956944 3516.46676724243 16 19 12
90.4577536868945 238.216158193325 3526.73208117703 13 16 9
125.184980818104 237.877231735149 3550.89273884166 16 19 12
129.469072083961 236.87632930607 3541.89237431029 13 16 9
-177.057240535878 263.125997658014 3734.61525274156 13 18 11
-220.051804780889 258.098083735264 3632.96028002056 12 15 6
-192.717751815607 257.922099839585 3654.26403896427 16 21 14
-200.626613307352 256.51470213265 3629.36758395184 20 23 14
-209.857916428396 255.079211190439 3602.97068142196 18 14 5
-203.841372242215 254.166769520385 3596.43826257346 20 13 5
-198.444443574514 253.234707736894 3589.12006854621 29 19 10
-192.436983971047 252.323429354633 3582.5958316068 63 50 42
-190.155426988601 251.295470851606 3571.36121271401 64 51 43
-172.341873285924 250.752391583882 3579.74567336119 24 15 8
-160.698579798085 250.009563885247 3580.24554392645 15 8 0
-157.793050212947 249.000548109731 3569.79387469891 18 13 7
-103.997099109817 249.486201274081 3622.4153498502 20 17 10
-146.379509006525 247.155436589329 3555.94320651985 14 15 9
-153.651828605172 245.867893441799 3533.14078285211 14 15 9
-122.294246356704 245.664930908563 3557.57431455042 14 15 9
-106.059476409555 245.024969206001 3563.35737798585 14 15 9
-105.73442345371 243.950924791977 3549.84904748019 14 15 9
-99.6819005485996 243.033106063183 3543.28579493907 16 17 11
-51.4659956949819 242.105881417579 3572.96248083955 9 10 4
-53.7224446197517 240.967058463247 3556.39869157014 11 12 6
