ply
format ascii 1.0
comment KinectMotionCapture
element vertex 798
property float x
property float y
property float z
property uchar red
property uchar green
property uchar blue
end_header
44.7710938751698 109.310425817966 2887.00008392334 10 12 7
52.5800622999668 109.158039093018 2882.99989700317 11 13 8
60.1572915911675 108.626872301102 2868.99995803833 12 14 9
67.7052363753319 108.171321451664 2857.00011253357 12 15 8
74.9230906367302 107.336983084679 2835.00003814697 12 15 8
83.4200978279114 108.319856226444 2861.00006103516 13 16 9
91.3252979516983 108.431778848171 2864.00008201599 12 15 8
106.399387121201 107.86010324955 2848.99997711182 14 17 8
114.255122840405 107.933729887009 2851.0000705719 15 18 9
122.506514191628 108.347907662392 2861.99998855591 15 18 9
130.817472934723 108.761936426163 2872.99990653992 14 19 12
137.209162116051 107.623696327209 2842.99993515015 14 19 12
145.935133099556 108.34027081728 2861.99998855591 14 19 12
154.710486531258 109.018817543983 2880.00011444092 17 20 13
162.059336900711 108.67515951395 2871.00005149841 17 20 13
169.003397226334 108.104258775711 2855.99994659424 17 20 13
184.259712696075 107.908375561237 2851.0000705719 24 27 20
-110.284760594368 99.099300801754 2821.00009918213 18 23 16
-102.876231074333 99.3822291493416 2828.9999961853 17 22 15
-96.1299538612366 100.402772426605 2858.00004005432 17 20 13
-88.4214267134666 100.509807467461 2861.00006103516 17 20 13
-80.6397870182991 100.546427071095 2861.99998855591 16 19 12
-72.7251395583153 100.407265126705 2858.00004005432 16 17 11
-65.0818943977356 100.654415786266 2865.00000953674 16 17 11
-57.1603290736675 100.479833781719 2859.99989509583 16 17 11
-48.9897392690182 99.7429862618446 2838.99998664856 17 18 12
-41.4565429091454 100.270800292492 2854.00009155273 16 19 10
-33.5109867155552 99.8147279024124 2841.00008010864 14 17 8
-25.5093667656183 98.8666415214539 2813.99989128113 15 18 9
-17.8324561566114 98.90216588974 2815.00005722046 15 18 9
-10.1968673989177 99.3942841887474 2828.9999961853 12 15 8
-2.52236728556454 101.397052407265 2885.99991798401 13 16 9
5.3019025363028 100.342996418476 2855.99994659424 14 17 10
13.086169026792 100.237436592579 2852.9999256134 11 14 7
20.9271721541882 100.483074784279 2859.99989509583 8 11 4
36.685224622488 100.8685156703 2871.00005149841 4 6 1
44.6943826973438 101.254254579544 2881.99996948242 11 13 8
59.1728873550892 99.1444140672684 2822.00002670288 12 14 9
68.2515501976013 101.180978119373 2880.00011444092 12 15 8
75.5323320627213 100.406780838966 2858.00004005432 13 16 9
83.3341628313065 100.405380129814 2858.00004005432 14 17 10
91.645859181881 100.965932011604 2874.00007247925 11 14 7
100.079149007797 101.561442017555 2891.00003242493 11 14 5
106.924213469028 100.575968623161 2862.99991607666 11 14 5
113.335467875004 99.3444994091988 2828.00006866455 13 16 7
122.251935303211 100.326009094715 2855.99994659424 13 16 7
129.04404103756 99.5509847998619 2834.00011062622 12 17 10
137.549519538879 100.110672414303 2849.99990463257 12 17 10
147.365570068359 101.513206958771 2890.00010490417 13 18 11
154.874458909035 101.264677941799 2882.99989700317 16 19 12
161.384895443916 100.418917834759 2858.99996757507 17 20 13
167.231187224388 99.2569923400879 2825.99997520447 17 20 13
175.991922616959 99.851056933403 2842.99993515015 17 20 13
-130.897119641304 95.1862186193466 2937.99996376038 19 22 15
-118.069410324097 91.4624035358429 2822.99995422363 18 23 16
-110.833965241909 91.853067278862 2835.00003814697 18 23 16
-104.041688144207 92.6972255110741 2861.00006103516 17 22 15
-96.6024920344353 93.0552631616592 2871.99997901917 17 20 13
-88.7628942728043 93.056783080101 2871.99997901917 16 19 10
-80.5566310882568 92.636950314045 2858.99996757507 15 18 11
-72.522796690464 92.346578836441 2849.99990463257 15 16 10
-64.946711063385 92.6393419504166 2858.99996757507 15 16 10
-56.621678173542 91.7978659272194 2832.99994468689 15 16 10
-48.5936850309372 91.2478715181351 2815.99998474121 16 17 11
-41.4863042533398 92.5447642803192 2855.99994659424 15 18 9
-33.8418409228325 92.9666310548782 2868.99995803833 13 16 7
-25.9177442640066 92.6430746912956 2858.99996757507 15 18 9
-17.8517661988735 91.3148671388626 2818.00007820129 14 17 8
-10.3123858571053 92.708483338356 2861.00006103516 11 14 7
-2.50405631959438 92.8382128477097 2865.00000953674 13 16 9
5.32612716779113 92.9677933454514 2868.99995803833 16 19 12
13.13685066998 92.8056314587593 2864.00008201599 11 14 7
52.3265972733498 92.9649546742439 2868.99995803833 12 14 9
60.1384676992893 92.9316207766533 2868.00003051758 12 14 9
67.209966480732 91.8936803936958 2835.99996566772 11 14 7
75.5600482225418 92.6377773284912 2858.99996757507 13 16 9
82.7232450246811 91.9236168265343 2836.99989318848 14 17 10
92.0938551425934 93.5746654868126 2888.00001144409 14 17 10
99.6654406189919 93.2814851403236 2878.99994850159 14 17 8
106.440499424934 92.3401936888695 2849.99990463257 13 16 7
115.261077880859 93.1807830929756 2875.99992752075 14 17 8
121.911570429802 92.2716706991196 2848.00004959106 14 17 8
129.501566290855 92.1400338411331 2844.00010108948 11 16 9
138.179272413254 92.7534028887749 2862.99991607666 11 16 9
148.183926939964 94.1441506147385 2905.99989891052 12 17 10
156.058922410011 94.1092893481255 2904.99997138977 16 19 12
162.347257137299 93.1672528386116 2875.99992752075 16 19 12
169.246017932892 92.6462709903717 2859.99989509583 18 21 14
175.747260451317 91.9632315635681 2838.99998664856 20 23 16
-127.112090587616 84.6451222896576 2852.9999256134 22 25 18
-119.409643113613 84.7063064575195 2855.00001907349 21 24 17
-111.73489689827 84.7970396280289 2858.00004005432 20 23 16
-105.607055127621 86.1635059118271 2904.00004386902 19 22 13
-97.1758365631104 85.7199653983116 2888.99993896484 19 22 11
-87.5280275940895 84.0300843119621 2832.00001716614 20 23 12
-80.2761316299438 84.5357552170753 2848.99997711182 18 21 10
-73.0328783392906 85.1600244641304 2869.99988555908 18 21 12
-64.6978467702866 84.5082700252533 2848.00004959106 17 20 13
-56.2628097832203 83.5299789905548 2815.00005722046 16 19 12
-48.5254265367985 83.4417417645454 2812.00003623962 15 18 11
-41.2109568715096 84.1842517256737 2836.99989318848 14 17 8
-33.9131467044353 85.3124335408211 2875 13 16 7
-25.9997434914112 85.1051658391953 2868.00003051758 14 17 8
-18.0611051619053 84.6010446548462 2851.0000705719 15 18 11
-10.2548766881227 84.4232141971588 2845.00002861023 14 17 10
-2.53031658940017 85.9070122241974 2894.99998092651 13 16 9
5.37076639011502 85.8476385474205 2892.99988746643 12 14 9
44.2305952310562 84.6291333436966 2851.99999809265 9 11 6
52.5280497968197 85.4592621326447 2880.00011444092 10 13 6
60.6007352471352 85.7551395893097 2890.00010490417 11 14 7
68.3248788118362 85.5464562773705 2882.99989700317 12 15 8
75.4819512367249 84.7442224621773 2855.99994659424 13 16 9
82.2288393974304 83.6748331785202 2819.9999332428 13 16 9
91.7126387357712 85.3351429104805 2875.99992752075 12 15 8
97.4860191345215 83.5534408688545 2815.99998474121 14 17 10
105.396434664726 83.7299525737762 2822.00002670288 16 19 12
113.619700074196 84.1140225529671 2835.00003814697 16 19 12
121.870659291744 84.4682976603508 2846.99988365173 15 18 11
129.18484210968 84.1697305440903 2836.99989318848 16 19 10
138.181418180466 84.939107298851 2862.99991607666 16 19 10
147.574335336685 85.8566910028458 2894.00005340576 16 19 10
155.524134635925 85.8841016888618 2894.99998092651 16 19 10
164.099708199501 86.237721145153 2907.00006484985 17 20 11
171.083137392998 85.7605934143066 2891.00003242493 19 22 15
178.350001573563 85.4613706469536 2881.00004196167 21 24 17
-123.72774630785 74.810154736042 2776.99995040894 21 24 17
-116.525404155254 75.0542432069778 2786.00001335144 22 25 18
-113.222137093544 78.0192092061043 2895.99990844727 21 24 17
-106.154061853886 78.6403343081474 2918.99991035461 19 22 13
-97.1435904502869 77.8065547347069 2888.00001144409 19 22 11
-88.3946791291237 77.0534500479698 2859.99989509583 21 24 13
-80.1082253456116 76.596587896347 2842.99993515015 20 23 12
-72.0414891839027 76.2743279337883 2831.00008964539 19 22 13
-63.8582333922386 75.7363960146904 2811.00010871887 18 21 14
-55.9638142585754 75.4408463835716 2799.99995231628 17 20 13
-48.008419573307 74.9565809965134 2782.00006484985 17 20 13
-40.7902859151363 75.6577253341675 2808.00008773804 14 17 8
-33.4889814257622 76.4934793114662 2838.99998664856 13 16 7
-26.2358225882053 77.9758170247078 2894.00005340576 14 17 8
-18.1817319244146 77.3294568061829 2869.99988555908 15 18 11
-10.3523479774594 77.3835405707359 2871.99997901917 14 17 10
-2.53210146911442 78.0572295188904 2897.0000743866 12 15 8
5.40797412395477 78.4883201122284 2913.00010681152 11 13 8
36.7891862988472 77.5710567831993 2878.99994850159 7 9 6
60.2241531014442 77.3804634809494 2871.99997901917 11 14 7
68.1362748146057 77.460415661335 2875 12 15 8
76.5666514635086 78.0521631240845 2897.0000743866 13 16 9
84.1837227344513 77.7816399931908 2887.00008392334 14 17 10
90.3745964169502 76.3525292277336 2834.00011062622 13 16 9
97.9720950126648 76.243482530117 2829.99992370605 14 17 10
105.584673583508 76.16126537323 2826.99990272522 16 19 12
120.845012366772 76.0504230856895 2822.99995422363 16 19 12
129.323288798332 76.5067040920258 2839.99991416931 16 19 10
137.507677078247 76.7473429441452 2848.99997711182 16 19 10
146.505549550056 77.3919299244881 2872.99990653992 15 18 9
155.580043792725 78.0094414949417 2895.99990844727 16 19 10
163.763329386711 78.1419798731804 2901.00002288818 16 19 10
171.97322845459 78.2743990421295 2905.99989891052 17 20 13
179.281115531921 78.0026912689209 2895.99990844727 19 22 15
187.955677509308 78.3234462141991 2907.99999237061 21 24 17
-125.823423266411 68.3675482869148 2823.99988174438 20 23 16
-104.337088763714 69.4612413644791 2868.99995803833 20 23 14
-97.5484848022461 70.2130198478699 2900.00009536743 20 23 12
-80.250158905983 68.956196308136 2848.00004959106 18 21 10
-72.3477974534035 68.8360705971718 2842.99993515015 18 21 12
-64.4042938947678 68.6432123184204 2835.00003814697 16 19 12
-56.0045130550861 67.8449273109436 2802.00004577637 16 19 12
-48.2161268591881 67.6518604159355 2793.99991035461 15 18 11
-40.9070290625095 68.185105919838 2815.99998474121 15 18 9
-33.4894135594368 68.7424764037132 2838.99998664856 14 17 8
-26.0095223784447 69.4692507386208 2868.99995803833 13 16 7
-18.4163711965084 70.3896582126617 2907.00006484985 13 16 9
-10.435389354825 70.099264383316 2894.99998092651 13 16 9
-2.51028314232826 69.5424303412437 2871.99997901917 12 15 8
5.29479701071978 69.0581277012825 2851.99999809265 9 11 6
29.2401202023029 70.4618915915489 2910.00008583069 5 7 4
44.9607335031033 70.1946243643761 2898.9999294281 10 12 7
52.1829389035702 69.2739337682724 2861.00006103516 10 13 6
59.8265156149864 69.0795332193375 2852.9999256134 11 14 7
66.7388662695885 68.1828781962395 2815.99998474121 12 15 8
76.2504860758781 69.8526650667191 2884.99999046326 14 17 10
84.09733325243 69.8274746537209 2884.0000629425 14 17 10
91.6194692254066 69.5600509643555 2872.99990653992 12 15 8
100.77753663063 70.4789087176323 2911.00001335144 12 15 8
109.283603727818 70.8407834172249 2926.00011825562 13 16 9
114.464446902275 69.1446736454964 2855.99994659424 14 17 10
128.277599811554 68.197526037693 2816.99991226196 13 16 7
138.088643550873 69.2611113190651 2861.00006103516 13 16 7
145.334541797638 68.9930766820908 2849.99990463257 16 19 10
154.88363802433 69.7901174426079 2882.99989700317 17 20 11
162.523478269577 69.6913599967957 2878.99994850159 19 22 13
170.969381928444 69.9314177036285 2888.99993896484 21 24 17
179.221495985985 70.0745433568954 2894.99998092651 18 21 14
188.539773225784 70.6048309803009 2917.00005531311 21 24 17
-129.567548632622 62.4628216028214 2907.99999237061 20 23 16
-110.957287251949 60.9618276357651 2838.00005912781 22 25 18
-103.829145431519 61.3281652331352 2855.00001907349 21 24 15
-95.9686487913132 61.2862892448902 2852.9999256134 21 24 13
-88.1804898381233 61.2872876226902 2852.9999256134 21 24 13
-80.279253423214 61.2022802233696 2848.99997711182 19 22 11
-72.2722858190537 61.0097721219063 2839.99991416931 18 21 12
-64.6094977855682 61.0964521765709 2844.00010108948 17 20 13
-56.7846782505512 61.0326714813709 2841.00008010864 17 20 13
-48.7861782312393 60.7324875891209 2826.99990272522 16 19 12
-41.1689914762974 60.8833655714989 2834.00011062622 16 19 10
-33.6785465478897 61.3349191844463 2855.00001907349 15 18 9
-25.819443166256 61.1848644912243 2848.00004959106 13 16 7
-18.2265285402536 61.8081279098988 2877.00009346008 13 16 9
-10.4751624166965 62.4313019216061 2905.99989891052 13 16 9
-2.49632727354765 61.3571964204311 2855.99994659424 12 15 8
5.31156780198216 61.4646039903164 2861.00006103516 9 11 6
29.3710920959711 62.7960115671158 2923.00009727478 6 8 5
37.1479019522667 62.4519102275372 2907.00006484985 7 9 6
52.0923510193825 61.3552927970886 2855.99994659424 11 14 7
58.8625930249691 60.3020265698433 2806.99992179871 12 15 8
67.2136396169662 60.9243288636208 2835.99996566772 13 16 9
75.2470120787621 61.1598566174507 2846.99988365173 14 17 10
83.9525014162064 61.8464201688766 2878.99994850159 14 17 10
91.9713228940964 61.9528703391552 2884.0000629425 14 17 10
101.02104395628 62.682181596756 2917.99998283386 13 16 9
108.276426792145 62.2728988528252 2898.9999294281 13 16 9
114.385612308979 61.3050684332848 2854.00009155273 14 17 10
120.334275066853 60.380145907402 2811.00010871887 15 18 11
130.328267812729 61.4742487668991 2861.99998855591 16 19 10
137.704089283943 61.2794868648052 2852.9999256134 16 19 10
147.325038909912 62.0511882007122 2888.99993896484 18 21 12
154.455631971359 61.7488622665405 2875 19 22 13
161.904379725456 61.5968145430088 2868.00003051758 19 22 15
181.452214717865 62.9461631178856 2930.99999427795 18 21 14
-130.549103021622 54.936733096838 2930.0000667572 19 22 15
-120.921246707439 54.2066730558872 2891.00003242493 21 24 17
-96.3059961795807 53.6847487092018 2862.99991607666 21 24 13
-88.4595662355423 53.6668784916401 2861.99998855591 22 25 14
-80.4209783673286 53.5176694393158 2854.00009155273 19 22 11
-72.8583335876465 53.6871664226055 2862.99991607666 19 22 13
-65.0418028235435 53.6878257989883 2862.99991607666 18 21 14
-57.0051223039627 53.4821301698685 2851.99999809265 17 20 13
-49.2871440947056 53.5576492547989 2855.99994659424 16 19 12
-41.4890050888062 53.5580888390541 2855.99994659424 17 20 11
-33.7260775268078 53.6147020757198 2858.99996757507 15 18 9
-25.8106403052807 53.3899515867233 2846.99988365173 13 16 7
-18.1126780807972 53.6151975393295 2858.99996757507 14 17 10
-10.3743374347687 53.9716482162476 2878.00002098084 14 17 10
-2.53568636253476 54.4030368328094 2901.00002288818 13 16 9
5.44343795627356 54.9843683838844 2931.99992179871 10 12 7
13.5964248329401 55.5843748152256 2963.99998664856 10 12 7
29.5020211488009 55.0588816404343 2936.00010871887 7 9 6
37.4421998858452 54.9460388720036 2930.0000667572 7 9 6
44.8841750621796 54.2705468833447 2894.00005340576 11 13 8
52.3300021886826 53.8012646138668 2868.99995803833 11 14 7
59.6390999853611 53.3319152891636 2844.00010108948 12 15 8
67.0958310365677 53.0875250697136 2831.00008964539 13 16 9
75.7235363125801 53.7244156002998 2865.00000953674 14 17 10
83.5742801427841 53.7424087524414 2865.9999370575 15 18 11
91.206893324852 53.629070520401 2859.99989509583 15 18 11
100.398913025856 54.3782077729702 2900.00009536743 14 17 10
107.90403932333 54.1709586977959 2888.99993896484 14 17 10
113.384783267975 53.0448704957962 2828.9999961853 14 17 10
119.950227439404 52.5375120341778 2802.00004577637 16 19 12
129.737600684166 53.4175634384155 2848.99997711182 16 19 10
139.394819736481 54.1475228965282 2888.00001144409 16 19 10
146.408587694168 53.8274385035038 2871.00005149841 18 21 12
153.543889522552 53.5823032259941 2858.00004005432 19 22 13
162.639901041985 54.0120117366314 2881.00004196167 19 22 13
172.925993800163 54.7790825366974 2921.99993133545 18 21 14
179.411053657532 54.3275065720081 2898.00000190735 19 22 15
-120.169416069984 46.025738120079 2872.99990653992 21 24 17
-111.819535493851 45.818418264389 2859.99989509583 26 29 22
-105.285838246346 46.3800206780434 2894.99998092651 24 27 18
-96.8787148594856 46.1405254900455 2880.00011444092 19 22 11
-89.6039679646492 46.4456900954247 2898.9999294281 23 26 15
-81.3797563314438 46.2701506912708 2888.00001144409 20 23 12
-73.5206454992294 46.2867990136147 2888.99993896484 19 22 13
-65.314993262291 46.0630655288696 2875 18 21 14
-57.0855848491192 45.7591451704502 2855.99994659424 17 20 13
-49.0632243454456 45.5512888729572 2842.99993515015 16 19 12
-41.5329560637474 45.808020979166 2858.99996757507 17 20 11
-33.8089540600777 45.9204837679863 2865.9999370575 16 19 10
-26.0556545108557 46.0489131510258 2874.00007247925 14 17 8
-18.0938336998224 45.7606837153435 2855.99994659424 13 16 9
-10.3059401735663 45.8088703453541 2858.99996757507 13 16 9
-2.53046443685889 46.3857389986515 2894.99998092651 13 16 9
5.47876069322228 47.2829937934875 2950.99997520447 10 12 7
13.5506745427847 47.3309867084026 2953.9999961853 11 13 8
21.5291455388069 47.1385717391968 2941.99991226196 10 12 7
29.7735929489136 47.4748387932777 2963.00005912781 7 9 6
37.2891835868359 46.7535518109798 2917.99998283386 7 9 6
45.4739294946194 46.9775199890137 2931.99992179871 9 11 6
52.5311082601547 46.143963932991 2880.00011444092 9 12 5
60.6042593717575 46.3037230074406 2890.00010490417 12 15 8
67.736342549324 45.7905009388924 2858.00004005432 13 16 9
75.6449177861214 45.8539985120296 2861.99998855591 14 17 10
83.6916565895081 45.9815189242363 2869.99988555908 14 17 10
90.5061066150665 45.468132942915 2838.00005912781 14 17 10
99.6035262942314 46.0921786725521 2877.00009346008 14 17 10
107.270039618015 46.0112318396568 2871.99997901917 14 17 10
113.546095788479 45.3855358064175 2832.99994468689 14 17 10
121.792070567608 45.5768257379532 2845.00002861023 14 17 10
131.742417812347 46.3447496294975 2892.99988746643 15 18 9
139.782190322876 46.3917106389999 2895.99990844727 16 19 10
146.511867642403 46.0221208631992 2872.99990653992 18 21 12
155.049502849579 46.2291426956654 2885.99991798401 18 21 12
163.262292742729 46.3239774107933 2891.99995994568 19 22 13
172.631606459618 46.7230752110481 2917.00005531311 23 26 19
181.269884109497 46.8978434801102 2927.99997329712 24 27 20
186.735600233078 46.2717227637768 2888.99993896484 25 28 21
-130.818545818329 39.0185303986073 2936.00010871887 22 25 18
-121.466964483261 38.5941006243229 2904.00004386902 21 24 17
-112.680524587631 38.3025072515011 2881.99996948242 25 28 21
-104.704737663269 38.2633693516254 2878.99994850159 23 26 17
-97.4176526069641 38.4899899363518 2895.99990844727 20 23 12
-89.0482738614082 38.2912568747997 2881.00004196167 23 26 15
-81.3240110874176 38.3582897484303 2885.99991798401 20 23 12
-73.4193995594978 38.3455231785774 2884.99999046326 19 22 13
-65.2473270893097 38.1732024252415 2871.99997901917 17 20 13
-57.0260435342789 37.9210747778416 2852.9999256134 17 20 13
-49.3052080273628 37.9746071994305 2857.00011253357 17 20 13
-41.8238081037998 38.267333060503 2878.99994850159 16 19 10
-33.7620228528976 38.0416326224804 2861.99998855591 15 18 9
-25.8291978389025 37.8690399229527 2848.99997711182 13 16 7
-18.3347165584564 38.4673327207565 2894.00005340576 12 15 8
-10.2879945188761 37.9357449710369 2854.00009155273 13 16 9
-2.51737190410495 38.2813811302185 2880.00011444092 13 16 9
5.4620923474431 39.1054823994637 2941.99991226196 11 13 8
13.4223327040672 38.89274969697 2926.00011825562 11 13 8
21.4707646518946 38.9989651739597 2934.00001525879 9 11 6
29.5828953385353 39.1317121684551 2944.00000572205 6 8 5
37.8645248711109 39.3840335309505 2963.00005912781 7 9 6
45.1330617070198 38.6792793869972 2910.00008583069 9 11 6
53.042221814394 38.6523604393005 2907.99999237061 9 12 5
59.9755942821503 38.0139760673046 2859.99989509583 12 15 8
67.7605420351028 38.0002520978451 2858.99996757507 13 16 9
75.592614710331 38.0130559206009 2859.99989509583 14 17 10
83.6631208658218 38.1321385502815 2868.99995803833 14 17 10
90.666227042675 37.7859845757484 2842.99993515015 14 17 10
98.7387448549271 37.9049591720104 2851.99999809265 14 17 10
107.457593083382 38.2365323603153 2877.00009346008 14 17 10
114.869594573975 38.0895920097828 2865.9999370575 14 17 10
123.120069503784 38.2216908037663 2875.99992752075 14 17 10
132.472008466721 38.6593900620937 2908.99991989136 16 19 10
140.217632055283 38.6053211987019 2904.99997138977 17 20 11
147.124916315079 38.3385755121708 2884.99999046326 18 21 12
154.244795441628 38.151528686285 2871.00005149841 18 21 12
163.432866334915 38.4693890810013 2894.99998092651 19 22 13
171.922698616982 38.6011525988579 2904.99997138977 22 25 18
-119.25083398819 30.1060192286968 2851.0000705719 22 25 18
-112.642116844654 30.4234363138676 2881.00004196167 22 25 18
-104.378044605255 30.3078554570675 2869.99988555908 22 25 16
-95.4335480928421 29.9599003046751 2836.99989318848 20 23 12
-88.4615406394005 30.2244070917368 2861.99998855591 20 23 12
-80.8736309409142 30.3093455731869 2869.99988555908 20 23 12
-72.9108676314354 30.2569568157196 2865.00000953674 20 23 14
-64.5207315683365 29.9933049827814 2839.99991416931 18 21 14
-56.4667284488678 29.8352167010307 2825.00004768372 17 20 13
-49.0811541676521 30.0361625850201 2844.00010108948 16 19 12
-42.4487367272377 30.8601874858141 2921.99993133545 13 16 7
-33.8801965117455 30.3323268890381 2871.99997901917 13 16 7
-26.001613587141 30.2902460098267 2868.00003051758 13 16 7
-18.2968154549599 30.5015929043293 2888.00001144409 12 15 8
-10.3241046890616 30.2481949329376 2864.00008201599 13 16 9
5.25047397240996 29.8680067062378 2828.00006866455 13 15 10
13.2297482341528 30.4594002664089 2884.0000629425 11 13 8
21.1781766265631 30.564920976758 2894.00005340576 8 10 5
29.794093221426 31.3146486878395 2964.99991416931 5 7 4
37.8008559346199 31.2405358999968 2957.99994468689 7 9 6
45.2263914048672 30.7967346161604 2915.99988937378 9 11 6
52.7507029473782 30.5429995059967 2891.99995994568 10 13 6
60.2695532143116 30.3525980561972 2874.00007247925 12 15 8
67.5002485513687 30.0776641815901 2848.00004959106 13 16 9
75.7780969142914 30.2779357880354 2867.00010299683 14 17 10
84.2760130763054 30.5204018950462 2890.00010490417 14 17 10
92.0062139630318 30.4671265184879 2884.99999046326 14 17 10
99.4317606091499 30.3293261677027 2871.99997901917 14 17 10
106.300361454487 30.0542078912258 2845.99995613098 15 18 11
114.50956761837 30.169777572155 2857.00011253357 15 18 11
123.463280498981 30.4542575031519 2884.0000629425 16 19 12
132.837131619453 30.8020412921906 2917.00005531311 16 19 10
139.639243483543 30.5478889495134 2892.99988746643 17 20 11
147.023782134056 30.4415337741375 2882.99989700317 18 21 12
155.427649617195 30.5463187396526 2892.99988746643 18 21 12
162.304759025574 30.3554255515337 2875 21 24 17
169.201359152794 30.1856137812138 2858.99996757507 22 25 18
-111.704275012016 22.3696120083332 2857.00011253357 22 25 18
-102.341875433922 22.0333561301231 2813.99989128113 22 25 16
-95.8040282130241 22.2999695688486 2848.00004959106 21 24 13
-88.2765054702759 22.3629754036665 2855.99994659424 20 23 12
-80.5076882243156 22.3711431026459 2857.00011253357 20 23 12
-72.6567208766937 22.3557874560356 2855.00001907349 21 24 15
-64.2711296677589 22.1524685621262 2828.9999961853 20 23 16
-56.3870407640934 22.0900662243366 2821.00009918213 17 20 13
-49.8579926788807 22.6227603852749 2888.99993896484 15 18 11
-42.1438626945019 22.7169152349234 2901.00002288818 14 17 8
-34.3758165836334 22.8188652545214 2914.00003433228 14 17 8
-26.3553131371737 22.7641724050045 2907.00006484985 14 17 8
-18.6706949025393 23.0774953961372 2947.00002670288 14 17 10
-10.4503212496638 22.7016732096672 2898.9999294281 14 17 10
-2.50428775325418 22.4354490637779 2865.00000953674 13 16 9
12.9775078967214 22.1534948796034 2828.9999961853 10 12 7
21.0977774113417 22.576292976737 2882.99989700317 6 8 5
29.2114112526178 22.7641314268112 2907.00006484985 6 8 5
37.047054618597 22.7013528347015 2898.9999294281 7 9 6
44.6527414023876 22.5445739924908 2878.99994850159 10 12 7
52.9880672693253 22.7479748427868 2904.99997138977 10 13 6
60.5214759707451 22.5989669561386 2885.99991798401 11 14 7
67.7138790488243 22.3716292530298 2857.00011253357 12 15 8
75.6991505622864 22.4261544644833 2864.00008201599 14 17 10
84.2764228582382 22.6294230669737 2890.00010490417 15 18 11
91.8790772557259 22.5585997104645 2881.00004196167 14 17 10
100.332371890545 22.6913280785084 2898.00000190735 15 18 11
107.122577726841 22.4560163915157 2868.00003051758 15 18 11
114.830739796162 22.4320869892836 2865.00000953674 16 19 12
123.677909374237 22.6195249706507 2888.99993896484 16 19 12
131.972506642342 22.6894840598106 2898.00000190735 15 18 9
139.832988381386 22.6811189204454 2897.0000743866 16 19 10
147.636443376541 22.6648934185505 2894.99998092651 18 21 12
155.213475227356 22.6173214614391 2888.99993896484 19 22 13
161.684527993202 22.4209856241941 2864.00008201599 22 25 18
168.136849999428 22.2402792423964 2841.00008010864 24 27 20
176.010742783546 22.2552623599768 2842.99993515015 15 18 11
-135.276108980179 15.4812820255756 3036.00001335144 10 13 6
-88.3077085018158 14.5699139684439 2857.00011253357 21 24 13
-80.310694873333 14.5344324409962 2849.99990463257 21 24 13
-72.6315155625343 14.5550314337015 2854.00009155273 20 23 14
-65.4754340648651 14.6980080753565 2881.99996948242 17 20 13
-57.086817920208 14.5655693486333 2855.99994659424 16 19 12
-49.1678342223167 14.5300067961216 2848.99997711182 15 18 11
-41.9115647673607 14.713728800416 2884.99999046326 16 19 10
-34.2697612941265 14.8158287629485 2904.99997138977 16 19 10
-26.4007300138474 14.8516101762652 2911.99994087219 16 19 10
-18.4553507715464 14.856768772006 2913.00010681152 15 18 11
-10.4179130867124 14.7395031526685 2890.00010490417 13 16 9
-2.52352631650865 14.724220149219 2887.00008392334 13 16 9
5.32478047534823 14.62731231004 2868.00003051758 10 12 7
20.7246281206608 14.4436368718743 2832.00001716614 8 10 7
28.8296565413475 14.6322771906853 2868.99995803833 7 9 6
36.1781902611256 14.4383879378438 2831.00008964539 9 11 6
44.2341230809689 14.5453847944736 2851.99999809265 10 12 7
53.0976913869381 14.8461619392037 2911.00001335144 10 13 6
60.5426542460918 14.723613858223 2887.00008392334 11 14 7
68.1644156575203 14.6673461422324 2875.99992752075 12 15 8
74.2456763982773 14.325468800962 2809.00001525879 15 18 11
82.9644203186035 14.5088583230972 2845.00002861023 15 18 11
91.7199179530144 14.66672308743 2875.99992752075 15 18 11
99.8480096459389 14.7072728723288 2884.0000629425 15 18 11
107.907310128212 14.7325014695525 2888.99993896484 16 19 12
114.951364696026 14.6251246333122 2868.00003051758 17 20 13
122.822113335133 14.6299162879586 2868.99995803833 17 20 13
131.608620285988 14.7366728633642 2890.00010490417 16 19 10
139.205947518349 14.7057287395 2884.0000629425 17 20 11
147.636920213699 14.7614479064941 2894.99998092651 19 22 13
155.106529593468 14.7202685475349 2887.00008392334 19 22 13
162.531837821007 14.6790724247694 2878.99994850159 22 25 18
170.682236552238 14.7041380405426 2884.0000629425 24 27 20
179.106846451759 14.7495782002807 2892.99988746643 19 22 15
-110.780015587807 7.21650198101997 3046.0000038147 22 25 16
-87.7824053168297 6.7286822013557 2839.99991416931 22 25 14
-80.1417678594589 6.73826085403562 2844.00010108948 22 25 16
-72.9624927043915 6.79284799844027 2867.00010299683 19 22 13
-65.2029290795326 6.80003920570016 2869.99988555908 15 18 11
-57.0469498634338 6.76220376044512 2854.00009155273 15 18 11
-49.2714792490005 6.7646368406713 2855.00001907349 17 20 13
-41.6646786034107 6.79549481719732 2868.00003051758 16 19 10
-34.045685082674 6.83818990364671 2885.99991798401 16 19 10
-26.2738559395075 6.86665996909142 2898.00000190735 16 19 10
-18.2399768382311 6.82166684418917 2878.99994850159 15 18 11
-10.3566497564316 6.80746743455529 2872.99990653992 13 16 9
-2.52615357749164 6.84775691479445 2890.00010490417 12 15 8
5.39719918742776 6.88803661614656 2907.00006484985 9 11 6
20.9588464349508 6.78611686453223 2864.00008201599 8 10 7
28.9101041853428 6.81688962504268 2877.00009346008 8 10 7
37.3283959925175 6.92110462114215 2921.0000038147 8 10 7
45.3354120254517 6.92579336464405 2923.00009727478 10 13 6
51.9304014742374 6.74565928056836 2846.99988365173 10 13 6
60.8783029019833 6.87827682122588 2903.00011634827 11 14 7
68.3067515492439 6.82844175025821 2881.99996948242 12 15 8
74.4837075471878 6.67671905830503 2818.00007820129 15 18 11
81.7689523100853 6.64345407858491 2803.99990081787 15 18 11
90.8271372318268 6.74759829416871 2848.00004959106 15 18 11
100.471384823322 6.87542045488954 2901.99995040894 15 18 11
107.608705759048 6.82554300874472 2881.00004196167 16 19 12
114.87141251564 6.78987195715308 2865.9999370575 18 21 14
122.736737132072 6.79209921509027 2867.00010299683 18 21 14
131.791025400162 6.85591017827392 2894.00005340576 20 23 14
140.364646911621 6.8889120593667 2907.99999237061 21 24 15
147.127225995064 6.83425553143024 2884.99999046326 20 23 14
155.214264988899 6.84355059638619 2888.99993896484 18 21 12
164.338693022728 6.89547462388873 2911.00001335144 18 21 12
173.345759510994 6.93791033700109 2928.99990081787 20 23 16
182.574167847633 6.9850729778409 2948.99988174438 21 24 17
-105.833888053894 -1.05113012250513 2910.00008583069 29 32 25
-88.7406468391418 -1.03707821108401 2871.00005149841 23 26 19
-80.5645063519478 -1.03275908622891 2858.99996757507 19 22 15
-72.9370713233948 -1.03530182968825 2865.9999370575 18 21 14
-65.2029663324356 -1.03675946593285 2869.99988555908 18 21 14
-57.286836206913 -1.03532581124455 2865.9999370575 18 21 14
-49.1161867976189 -1.028110855259 2845.99995613098 17 20 13
-41.3450933992863 -1.02811912074685 2845.99995613098 19 22 15
-33.9513272047043 -1.03968614712358 2878.00002098084 18 21 14
-26.1741410940886 -1.04294298216701 2887.00008392334 16 19 12
-18.2209778577089 -1.03897321969271 2875.99992752075 14 17 10
-10.3818904608488 -1.04042107705027 2880.00011444092 11 14 7
-2.53314734436572 -1.04692485183477 2898.00000190735 10 13 6
5.40462788194418 -1.05162092950195 2911.00001335144 11 13 8
30.1963519304991 -1.08556915074587 3005.00011444092 7 9 4
53.5355843603611 -1.06025824788958 2934.99994277954 11 14 7
60.7734769582748 -1.04688166175038 2898.00000190735 11 14 7
68.5438066720963 -1.04470236692578 2891.99995994568 12 15 8
75.3824040293694 -1.03023962583393 2851.99999809265 12 15 8
83.0229446291924 -1.02841889020056 2846.99988365173 12 15 8
91.9114947319031 -1.04104564525187 2881.99996948242 17 20 13
100.125223398209 -1.04464020114392 2891.99995994568 18 21 14
107.795514166355 -1.04245392140001 2885.99991798401 18 21 14
115.592934191227 -1.04171107523143 2884.0000629425 18 21 14
123.635806143284 -1.04313401971012 2888.00001144409 20 23 16
132.064327597618 -1.04744487907737 2900.00009536743 21 24 15
140.895664691925 -1.05428241658956 2918.99991035461 23 26 17
147.994250059128 -1.04811612982303 2901.99995040894 23 26 19
156.288862228394 -1.05061673093587 2908.99991989136 21 24 17
165.242061018944 -1.05708837509155 2927.00004577637 19 22 15
174.884602427483 -1.0671695927158 2954.99992370605 21 24 17
-96.7800244688988 -8.89468565583229 2877.00009346008 22 25 18
-89.0496671199799 -8.90719890594482 2881.00004196167 21 24 17
-80.7898640632629 -8.86404793709517 2867.00010299683 20 23 16
-72.8606656193733 -8.85180197656155 2862.99991607666 19 22 15
-65.2710646390915 -8.88282898813486 2872.99990653992 20 23 16
-57.9464063048363 -8.96331481635571 2898.9999294281 20 23 16
-49.3577495217323 -8.84281564503908 2859.99989509583 18 21 14
-41.5048636496067 -8.83361324667931 2857.00011253357 20 23 16
-33.9159071445465 -8.88932682573795 2875 18 21 14
-26.4189038425684 -9.0099610388279 2914.00003433228 13 16 9
-10.5260731652379 -9.02857072651386 2920.00007629395 12 15 8
-2.58908770047128 -9.15844365954399 2961.99989318848 13 16 9
21.895544603467 -9.25115775316954 2992.00010299683 8 10 5
30.3269568830729 -9.33150667697191 3017.99988746643 6 8 3
45.9712967276573 -9.16442181915045 2963.99998664856 11 14 7
53.1342551112175 -9.00665763765574 2913.00010681152 11 14 7
61.1299276351929 -9.01275034993887 2914.99996185303 11 14 7
68.6385408043861 -8.95390287041664 2895.99990844727 11 14 7
76.3867422938347 -8.93523823469877 2890.00010490417 11 14 7
84.6267491579056 -8.97221174091101 2901.99995040894 12 15 8
92.1984314918518 -8.93806479871273 2891.00003242493 13 16 9
100.471355021 -8.97192116826773 2901.99995040894 17 20 13
108.280971646309 -8.96248128265142 2898.9999294281 21 24 17
115.672990679741 -8.92211683094502 2885.99991798401 25 28 21
123.935356736183 -8.94975196570158 2894.99998092651 23 26 19
131.381124258041 -8.91863834112883 2884.99999046326 24 27 18
139.495760202408 -8.93388409167528 2890.00010490417 24 27 18
148.657083511353 -9.01093985885382 2914.99996185303 21 24 17
157.900512218475 -9.08489059656858 2938.99989128113 19 22 15
167.217805981636 -9.15573444217443 2961.99989318848 18 21 14
181.521624326706 -9.06246434897184 2931.99992179871 6 8 3
-122.890710830688 -17.1042680740356 2937.99996376038 0 3 0
-114.441454410553 -17.0405805110931 2927.00004577637 18 21 14
-97.2843840718269 -16.8374367058277 2891.99995994568 25 28 21
-89.7912830114365 -16.9134009629488 2904.99997138977 19 22 15
-81.0714736580849 -16.7506337165833 2877.00009346008 20 23 16
-72.8859528899193 -16.6751723736525 2864.00008201599 20 23 16
-65.5208304524422 -16.7918242514133 2884.0000629425 21 24 17
-57.8663162887096 -16.8560538440943 2894.99998092651 21 24 17
-49.9098934233189 -16.8387480080128 2891.99995994568 20 23 16
-41.6645668447018 -16.6991408914328 2868.00003051758 18 21 14
-34.1871604323387 -16.8739333748817 2898.00000190735 16 19 12
-18.6834130436182 -17.1710476279259 2948.99988174438 10 13 6
-10.6990803033113 -17.2817204147577 2967.99993515015 10 13 6
13.3215915411711 -16.9090572744608 2904.00004386902 10 12 7
21.6100942343473 -17.1943157911301 2953.00006866455 8 10 5
30.2967466413975 -17.5552424043417 3015.00010490417 5 7 2
38.4145379066467 -17.50273630023 3006.00004196167 8 10 5
45.1026409864426 -16.9319976121187 2907.99999237061 11 14 7
61.2556152045727 -17.0073769986629 2921.0000038147 11 14 7
69.4916248321533 -17.0712266117334 2931.99992179871 11 14 7
77.3116573691368 -17.0302521437407 2924.99995231628 11 14 7
84.9473401904106 -16.9601459056139 2913.00010681152 11 14 7
92.6765948534012 -16.9191267341375 2905.99989891052 10 13 6
101.267412304878 -17.0294586569071 2924.99995231628 14 17 10
107.645757496357 -16.7788043618202 2881.99996948242 19 22 15
114.350065588951 -16.6096426546574 2852.9999256134 25 28 21
122.051455080509 -16.5976509451866 2851.0000705719 24 27 20
130.879893898964 -16.7311765253544 2874.00007247925 24 27 18
139.157563447952 -16.78317040205 2882.99989700317 23 26 17
147.636815905571 -16.8526079505682 2894.99998092651 20 23 16
157.470360398293 -17.0617233961821 2930.99999427795 18 21 14
172.871842980385 -17.002547159791 2921.0000038147 20 23 16
-113.228984177113 -24.7670393437147 2895.99990844727 21 24 17
-105.360381305218 -24.7760638594627 2897.0000743866 31 34 27
-98.4277725219727 -25.0245314091444 2926.00011825562 16 19 12
-90.0382325053215 -24.9137561768293 2913.00010681152 19 22 15
-80.7612016797066 -24.5121475309134 2865.9999370575 20 23 16
-72.4785029888153 -24.3585333228111 2848.00004959106 20 23 16
-65.1343688368797 -24.5213396847248 2867.00010299683 22 25 18
-57.7062033116817 -24.6926713734865 2887.00008392334 20 23 16
-49.8924478888512 -24.7271135449409 2891.00003242493 15 18 11
-42.18740016222 -24.8385109007359 2904.00004386902 11 14 7
-34.1988280415535 -24.7959084808826 2898.9999294281 11 14 7
-26.2102261185646 -24.7276145964861 2891.00003242493 12 15 8
-18.6389964073896 -25.163933634758 2941.99991226196 11 14 7
-10.5115901678801 -24.9416101723909 2915.99988937378 9 12 5
-2.54536746069789 -24.907423183322 2911.99994087219 8 11 4
13.3536523208022 -24.8988252133131 2911.00001335144 10 12 7
21.6685570776463 -25.3264140337706 2960.99996566772 8 10 5
37.0981357991695 -24.8300656676292 2903.00011634827 8 10 5
53.2980971038342 -24.9921809881926 2921.99993133545 10 13 6
61.4860653877258 -25.0774621963501 2931.99992179871 11 14 7
69.7283819317818 -25.1627042889595 2941.99991226196 12 15 8
77.4170979857445 -25.0511970371008 2928.99990081787 12 15 8
84.6845731139183 -24.8370226472616 2904.00004386902 13 16 9
92.3892334103584 -24.7767716646194 2897.0000743866 14 17 10
99.6744558215141 -24.6224086731672 2878.99994850159 13 16 9
108.429744839668 -24.8272139579058 2903.00011634827 15 18 11
113.908760249615 -24.3050493299961 2842.00000762939 20 23 16
121.922567486763 -24.3558492511511 2848.00004959106 22 25 18
131.380349397659 -24.6717184782028 2884.99999046326 22 25 18
139.784559607506 -24.7651990503073 2895.99990844727 21 24 17
147.687271237373 -24.7645825147629 2895.99990844727 18 21 14
155.481949448586 -24.7468277812004 2894.00005340576 19 22 15
163.716673851013 -24.7974470257759 2900.00009536743 19 22 15
-115.066051483154 -33.2041494548321 2943.00007820129 21 24 17
-105.650797486305 -32.7760390937328 2904.99997138977 27 30 23
-97.451739013195 -32.6863639056683 2897.0000743866 16 19 12
-88.0905091762543 -32.1565978229046 2849.99990463257 20 23 16
-80.2817568182945 -32.1457982063293 2848.99997711182 19 22 15
-72.5544840097427 -32.1688055992126 2851.0000705719 20 23 16
-64.7478252649307 -32.1579165756702 2849.99990463257 21 24 17
-57.6659291982651 -32.5531922280788 2884.99999046326 19 22 15
-49.8576834797859 -32.5986370444298 2888.99993896484 12 15 8
-34.1514684259892 -32.6668247580528 2894.99998092651 11 14 7
-18.5438711196184 -33.0282114446163 2927.00004577637 12 15 8
-10.5079337954521 -32.8928902745247 2914.99996185303 10 13 6
-2.59168120101094 -33.45712646842 2964.99991416931 9 12 5
5.47697115689516 -33.2878604531288 2950.00004768372 10 12 7
21.4123204350472 -33.0168902873993 2926.00011825562 9 11 6
29.7036152333021 -33.3552621304989 2956.00008964539 6 8 3
37.6218967139721 -33.2196615636349 2944.00000572205 9 11 6
46.0793599486351 -33.5240811109543 2970.99995613098 9 12 5
53.6626353859901 -33.1965647637844 2941.99991226196 10 13 6
61.3809078931808 -33.0269783735275 2927.00004577637 11 14 7
68.7562972307205 -32.7332355082035 2901.00002288818 12 15 8
76.7823681235313 -32.7779464423656 2904.99997138977 13 16 9
84.3050554394722 -32.619521021843 2891.00003242493 14 17 10
92.0379683375359 -32.5625985860825 2885.99991798401 16 19 12
100.158654153347 -32.641027122736 2892.99988746643 17 20 13
107.458084821701 -32.4599146842957 2877.00009346008 16 19 12
115.671724081039 -32.5608141720295 2885.99991798401 18 21 14
123.591542243958 -32.5714126229286 2887.00008392334 20 23 16
132.017225027084 -32.7060669660568 2898.9999294281 20 23 16
140.314817428589 -32.7955484390259 2907.00006484985 19 22 15
148.655489087105 -32.8849777579308 2914.99996185303 18 21 14
156.018421053886 -32.7600203454494 2904.00004386902 20 23 16
163.377150893211 -32.6463058590889 2894.00005340576 19 22 15
171.982660889626 -32.7807255089283 2905.99989891052 18 21 14
-116.003647446632 -41.5754690766335 2967.00000762939 24 25 19
-96.4083001017571 -40.1616729795933 2865.9999370575 14 15 9
-87.9972130060196 -39.8960784077644 2846.99988365173 23 24 18
-80.3094208240509 -39.9387180805206 2849.99990463257 22 23 17
-73.2665732502937 -40.3456687927246 2878.99994850159 24 25 19
-65.7242983579636 -40.5423566699028 2892.99988746643 17 18 12
-58.3051778376102 -40.8791340887547 2917.00005531311 14 15 9
-49.9436482787132 -40.5571982264519 2894.00005340576 13 14 8
-41.7656227946281 -40.291253477335 2875 12 15 8
-26.2733865529299 -40.6140722334385 2898.00000190735 11 14 7
-18.4297114610672 -40.7683923840523 2908.99991989136 12 15 8
-10.6700789183378 -41.4832420647144 2960.00003814697 12 15 8
-2.57855351082981 -41.3431450724602 2950.00004768372 12 15 8
5.50849782302976 -41.5813811123371 2967.00000762939 10 12 7
13.2892765104771 -40.6002923846245 2897.0000743866 9 11 6
29.8139527440071 -41.5810011327267 2967.00000762939 8 10 5
38.1967090070248 -41.8890751898289 2989.00008201599 9 11 6
53.8629218935966 -41.3838997483253 2953.00006866455 12 15 8
61.7579706013203 -41.27137362957 2944.9999332428 11 14 7
70.4149007797241 -41.6352674365044 2970.99995613098 10 13 6
76.8347382545471 -40.7378599047661 2907.00006484985 15 18 11
84.1878727078438 -40.457010269165 2887.00008392334 18 21 14
91.7503535747528 -40.3162501752377 2877.00009346008 18 21 14
99.9849140644073 -40.4697135090828 2888.00001144409 20 23 16
108.017653226852 -40.5250228941441 2891.99995994568 21 24 17
115.670971572399 -40.4401496052742 2885.99991798401 19 22 15
124.018840491772 -40.5934415757656 2897.0000743866 19 22 15
132.426232099533 -40.7466627657413 2907.99999237061 22 25 18
139.686435461044 -40.5495353043079 2894.00005340576 20 23 16
149.317488074303 -41.0249046981335 2927.99997329712 18 21 14
156.984478235245 -40.9397594630718 2921.99993133545 19 22 15
165.295511484146 -41.0226881504059 2927.99997329712 20 23 16
-116.471908986568 -49.8767495155334 2979.00009155273 29 30 24
-106.522120535374 -49.0405485033989 2928.99990081787 29 30 24
-89.5419493317604 -48.5064275562763 2897.0000743866 18 19 13
-81.9431394338608 -48.6913360655308 2907.99999237061 22 23 17
-74.0040019154549 -48.6920028924942 2907.99999237061 23 24 18
-66.9505670666695 -49.3456311523914 2947.00002670288 21 22 16
-58.6645007133484 -49.145232886076 2934.99994277954 14 15 9
-49.8224571347237 -48.3419522643089 2887.00008392334 14 15 9
-41.4311736822128 -47.7562770247459 2851.99999809265 12 15 8
-34.4458930194378 -48.895251005888 2920.00007629395 12 15 8
-26.5814196318388 -49.0964576601982 2931.99992179871 13 16 9
-18.6893176287413 -49.398060888052 2950.00004768372 14 17 10
-10.5294110253453 -48.9125736057758 2921.0000038147 11 14 7
5.45461336150765 -49.1972900927067 2937.99996376038 11 13 8
13.3488066494465 -48.7283430993557 2910.00008583069 10 12 7
29.3715875595808 -48.9456616342068 2923.00009727478 9 11 6
37.6852452754974 -49.3807420134544 2948.99988174438 9 11 6
44.7138659656048 -48.2752360403538 2882.99989700317 12 15 8
52.8593137860298 -48.5259927809238 2898.00000190735 12 15 8
70.5565512180328 -49.8477481305599 2976.99999809265 10 13 6
78.7900015711784 -49.9140881001949 2980.99994659424 10 13 6
83.0207690596581 -47.6697012782097 2846.99988365173 15 18 11
92.6425755023956 -48.6400946974754 2904.99997138977 16 19 12
101.161234080791 -48.9239133894444 2921.99993133545 18 21 14
108.502350747585 -48.6383847892284 2904.99997138977 19 22 15
116.191118955612 -48.5369749367237 2898.9999294281 19 22 15
123.761020600796 -48.4020225703716 2891.00003242493 19 22 15
132.15197622776 -48.5851056873798 2901.99995040894 20 23 16
140.264540910721 -48.6509129405022 2905.99989891052 19 22 15
148.296415805817 -48.6831851303577 2907.99999237061 18 21 14
158.165201544762 -49.2845736443996 2944.00000572205 19 22 15
174.347504973412 -49.3152625858784 2946.00009918213 17 20 13
-106.921203434467 -57.2513304650784 2940.00005722046 19 20 14
-96.3394045829773 -55.7723566889763 2864.00008201599 17 18 12
-89.108407497406 -56.1432652175426 2882.99989700317 30 31 25
-81.2379270792007 -56.1441071331501 2882.99989700317 21 22 16
-74.3341520428658 -56.8849146366119 2921.0000038147 20 21 15
-66.086657345295 -56.6519051790237 2908.99991989136 16 17 11
-57.744525372982 -56.2630258500576 2888.99993896484 15 16 10
-49.6149025857449 -55.9909082949162 2875 17 18 12
-42.9415889084339 -57.5688630342484 2956.00008964539 14 17 10
-35.1297669112682 -57.9977072775364 2977.9999256134 14 17 10
-26.7443619668484 -57.4527010321617 2950.00004768372 14 17 10
-18.4357333928347 -56.6739030182362 2910.00008583069 15 18 11
-10.4896631091833 -56.6740520298481 2910.00008583069 11 14 7
-2.58899806067348 -57.6868392527103 2961.99989318848 9 12 5
5.39329648017883 -56.5767213702202 2904.99997138977 12 14 9
13.3073972538114 -56.498721241951 2901.00002288818 9 11 6
21.1264230310917 -56.2258958816528 2887.00008392334 7 9 4
30.0043635070324 -58.1537187099457 2986.00006103516 8 10 5
37.8893613815308 -57.7443949878216 2964.99991416931 9 11 6
59.8905794322491 -55.6201450526714 2855.99994659424 12 15 8
83.9823111891747 -56.0854002833366 2880.00011444092 12 15 8
93.2157635688782 -56.9219030439854 2923.00009727478 12 15 8
102.060422301292 -57.4077740311623 2947.99995422363 11 14 7
109.435103833675 -57.0562109351158 2930.0000667572 14 17 10
115.628942847252 -56.1788231134415 2884.99999046326 19 22 15
123.674258589745 -56.2555305659771 2888.99993896484 19 22 15
132.196307182312 -56.5268844366074 2903.00011634827 19 22 15
139.346212148666 -56.2140122056007 2887.00008392334 18 21 14
147.020161151886 -56.1347156763077 2882.99989700317 17 20 13
160.688787698746 -58.2360476255417 2990.9999370575 18 21 14
166.026636958122 -57.260949164629 2940.99998474121 18 21 14
-113.459154963493 -64.4327402114868 2901.99995040894 13 14 8
-104.919858276844 -64.0565156936646 2884.99999046326 22 23 17
-97.515694797039 -64.3685013055801 2898.9999294281 20 21 15
-88.3656740188599 -63.4813904762268 2858.99996757507 25 26 20
-81.2652483582497 -64.0374571084976 2884.0000629425 20 21 15
-72.8319361805916 -63.5498315095901 2861.99998855591 19 20 14
-65.131813287735 -63.661627471447 2867.00010299683 17 18 12
-57.7239319682121 -64.1286373138428 2888.00001144409 16 17 11
-50.1666069030762 -64.5511373877525 2907.00006484985 17 18 12
-42.8830236196518 -65.5509158968925 2951.99990272522 16 19 12
-35.0114330649376 -65.9066513180733 2967.99993515015 15 18 11
-26.4992993324995 -64.9077370762825 2923.00009727478 13 16 9
-18.3341726660728 -64.2640218138695 2894.00005340576 13 16 9
-10.4643171653152 -64.4640326499939 2903.00011634827 13 16 9
-2.54876352846622 -64.7527873516083 2915.99988937378 12 15 8
5.38024352863431 -64.3530637025833 2898.00000190735 11 13 8
13.4265217930079 -64.9969354271889 2927.00004577637 8 10 5
21.609166637063 -65.5740946531296 2953.00006866455 6 8 3
29.5920614153147 -65.3961449861526 2944.9999332428 6 8 3
37.5950485467911 -65.3291568160057 2941.99991226196 8 10 5
68.1614503264427 -63.8612061738968 2875.99992752075 14 17 10
77.6519477367401 -65.2370750904083 2937.99996376038 14 17 10
84.6812650561333 -64.4812062382698 2904.00004386902 14 17 10
93.374215066433 -65.0131031870842 2927.99997329712 13 16 9
102.301687002182 -65.6115040183067 2954.99992370605 11 14 7
109.882146120071 -65.3216615319252 2941.99991226196 13 16 9
116.830088198185 -64.7209137678146 2914.99996185303 18 21 14
123.84419888258 -64.2311051487923 2892.99988746643 18 21 14
132.058322429657 -64.3850862979889 2900.00009536743 18 21 14
139.441281557083 -64.1393512487412 2888.99993896484 18 21 14
146.049723029137 -63.5827332735062 2864.00008201599 18 21 14
154.938697814941 -64.0250667929649 2884.0000629425 17 20 13
-104.409471154213 -71.5833976864815 2871.00005149841 16 17 11
-95.4290181398392 -70.7369223237038 2836.99989318848 24 25 19
-88.890053331852 -71.710504591465 2875.99992752075 19 20 14
-80.6161984801292 -71.3375732302666 2861.00006103516 17 18 12
-72.7801620960236 -71.3135972619057 2859.99989509583 18 19 13
-64.835712313652 -71.1648762226105 2854.00009155273 19 20 14
-57.663269340992 -71.9386413693428 2884.99999046326 19 20 14
-50.0106960535049 -72.2634866833687 2898.00000190735 17 18 12
-42.2869175672531 -72.5882276892662 2911.00001335144 18 21 14
-34.7043126821518 -73.3617395162582 2941.99991226196 16 19 12
-26.725621894002 -73.5117420554161 2947.99995422363 14 17 10
-18.422644585371 -72.5145787000656 2907.99999237061 14 17 10
-10.4966331273317 -72.6145133376122 2911.99994087219 13 16 9
-2.54611112177372 -72.6395398378372 2913.00010681152 12 15 8
5.42844831943512 -72.9138106107712 2924.00002479553 10 12 7
13.3025087416172 -72.3152235150337 2900.00009536743 8 10 5
21.5064585208893 -73.2875168323517 2938.99989128113 6 8 3
29.6118073165417 -73.4866857528687 2947.00002670288 6 8 3
37.4540314078331 -73.0872824788094 2930.99999427795 7 9 4
61.2522549927235 -72.8360414505005 2921.0000038147 12 15 8
68.6346217989922 -72.2118318080902 2895.99990844727 14 17 10
