ply
format ascii 1.0
comment KinectMotionCapture
element vertex 755
property float x
property float y
property float z
property uchar red
property uchar green
property uchar blue
end_header
49.2575902460617 595.818440430273 2883.88926192538 177 177 179
64.5039100189639 596.719271004329 2886.54896815479 168 168 170
75.8636141998448 596.901874230586 2885.96537807835 151 151 153
87.2512869607487 597.080373765671 2885.35788873314 151 151 153
97.0843428967099 596.97131531837 2883.45255228317 151 151 153
109.316361331794 597.28355551668 2883.43563242177 175 175 177
129.531275640037 599.00248745269 2889.72377411442 159 159 161
153.804788169785 601.415250163082 2899.10662218936 160 160 162
186.163464447309 605.220535035548 2914.7062999075 152 150 153
223.463486455024 609.848608972654 2933.95800023132 150 148 151
247.265804141354 612.074563583477 2942.42719946299 122 120 123
255.050100818361 611.493712662174 2938.3305554024 121 121 123
259.612221878091 610.354062693625 2931.7372643124 124 124 126
264.974433522285 609.354570180687 2925.77254308938 136 136 138
269.520439198183 608.216791064373 2919.19320765864 171 170 175
277.311093924369 607.634365260918 2915.09106305356 211 210 215
284.293703702199 606.912583740286 2910.36723771932 178 177 182
292.914610713561 606.466208034963 2906.86817839252 160 161 165
300.727015054726 605.880344145533 2902.74720489324 222 223 227
-242.386662294964 615.985605194316 3071.69261947714 214 216 215
-238.714337274343 614.746938825149 3064.54761184139 197 198 200
-236.44786791005 613.205583502003 3055.97623401079 196 197 199
-236.996659261523 611.059821814264 3044.55581691581 192 193 197
-235.480818067443 609.37291321333 3035.31271781812 190 191 195
-229.773482495089 608.595644155228 3030.37100165264 185 186 190
-221.952119437153 608.27059828951 3027.56414958917 181 182 187
-215.532604233629 607.642263846902 3023.32745751044 178 179 181
-211.945019692498 606.411745809807 3016.25584469282 184 185 187
-204.815298070952 605.932633915085 3012.72620060263 170 171 173
-196.96485995784 605.601726167169 3009.89418612889 162 162 164
-184.097103948347 606.314896446908 3011.97017336771 158 158 160
-172.62314000997 606.723663322162 3012.60934557844 146 146 146
-156.082459817555 608.169847927306 3018.11406284129 135 135 137
-140.202126855412 609.458538331939 3022.86857096592 142 142 144
-117.032093386678 612.22232380502 3034.52883024298 135 135 137
-98.115979611511 614.083970607947 3041.94207975944 159 159 161
-98.0387063418777 612.09311922039 3031.30097149038 144 142 145
-102.371294804809 609.221519372844 3016.54787542208 137 137 139
-103.8360720783 606.946282913153 3004.59863886526 163 163 163
-104.608993836562 604.823257123908 2993.37202080809 166 164 167
-101.741473142507 603.438188942445 2985.60225382582 171 169 174
-100.36638173522 601.762270467158 2976.48107641124 173 171 176
-96.0576934064368 600.673728397143 2970.10711339823 169 167 172
-91.7580433278213 599.585992065025 2963.74066342747 169 167 172
-86.7234063812328 598.644620149525 2958.05980185932 170 168 173
-84.6770628895093 597.122549202581 2949.67909007157 170 168 173
-81.1561035063204 595.892889099922 2942.66521811372 170 168 171
-79.1478821398033 594.375435338441 2934.31783373554 178 176 177
-76.4090302909288 593.004790705471 2926.65949520137 183 181 182
-74.4414530802988 591.492069723026 2918.34699239266 179 179 181
-67.9586292770469 590.84475927866 2914.05555143991 175 175 177
-59.9561612807977 590.48376570608 2911.0919621587 173 173 175
-52.70231647724 589.977547704075 2907.45491169336 175 175 177
-46.9655617040345 589.184040052538 2902.48780207553 180 180 182
-41.9938287051087 588.247636165683 2896.86142942693 185 185 187
-37.0272562687766 587.311515802679 2891.23921227333 186 186 188
-30.5285555781092 586.66005326085 2886.93435267011 186 186 188
-23.2564121933212 586.149612065483 2883.28115402024 183 183 185
-16.7493600119184 585.496254041834 2878.96875264973 182 182 184
-7.91537509535312 585.266049932465 2876.60718663111 183 183 185
4.81664147718641 585.738170817393 2877.47880974018 189 189 191
20.6990703691172 586.767870388596 2880.90991864208 212 212 214
36.6337526599372 587.789993940062 2884.29578673773 180 180 182
48.7074856475176 588.103967900637 2884.41604732837 180 180 182
67.090705463642 589.532008062329 2889.64714771858 170 170 172
76.8839007728483 589.415621837468 2887.77640739077 147 147 149
88.2743191815925 589.574835328041 2887.1663477551 154 154 156
98.9016724249363 589.590978913078 2885.89533035079 142 142 144
112.724135747944 590.158389984901 2887.14478296773 165 165 167
130.561368244045 591.412209682085 2891.52697827434 157 157 159
154.834711877248 593.762503917856 2900.91037753526 150 150 152
193.58336141226 598.581006846353 2921.55178807045 150 148 151
227.69228563019 602.550735456069 2938.28023464423 141 139 140
249.093469994604 604.303874484453 2944.86354816136 110 108 111
256.883577053763 603.717090859438 2940.76190647776 148 148 150
262.259490704562 602.718949240461 2934.78561599212 149 149 151
266.821100112554 601.584915393997 2928.19241646362 163 163 165
270.56233023323 600.315829652266 2920.98788341917 188 187 192
275.917145950145 599.320140063812 2915.02986338197 183 182 187
281.266844630736 598.325049765115 2909.07627458066 207 206 211
291.515760482139 598.142260527741 2906.81097517142 232 233 237
303.42307975803 598.226682043556 2905.75338362826 192 193 197
-242.249156150631 608.545843230624 3072.94490867418 206 208 207
-238.573793656799 607.315062035131 3065.7972172551 196 197 199
-235.607417055308 605.936293500458 3057.94172748264 191 192 196
-236.848496605059 603.665425765167 3045.79857575849 188 189 193
-233.227555913359 602.440596254058 3038.69801510441 189 190 194
-226.809126942333 601.810731283214 3034.46227442029 177 178 182
-220.386829220692 601.179948295473 3030.22350201258 178 179 183
-215.374374944484 600.252380953997 3024.56146199536 175 175 177
-211.783782179773 599.029811915839 3017.48719033253 177 177 179
-203.941318461951 598.69237254798 3014.66212987888 169 169 169
-193.948556468819 598.793887666403 3013.94058231158 159 159 159
-179.642357781244 599.772151474445 3017.41493902146 156 156 156
-166.004432890622 600.596863100932 3020.145931289 150 150 148
-149.445828300568 601.999701601999 3025.63539371597 127 129 126
-132.105225408919 603.53958685658 3031.76944291206 128 130 127
-110.361161816193 605.943865333368 3042.0211338938 168 170 169
-95.053458838755 607.027339017248 3045.95002994648 162 164 163
-101.508544298365 603.751367793106 3029.06910052493 140 140 142
-105.846254110894 600.918994396942 3014.32018912604 141 142 144
-106.585706132104 598.816553493573 3003.06442825414 166 167 169
-103.695931273198 597.439956511981 2995.27531789368 166 166 168
-98.6170162060667 596.497053171781 2989.55608881057 170 170 172
-97.2301768284893 594.836170992231 2980.4246315723 170 170 172
-92.9106519177432 593.751806589777 2974.04093351995 167 167 169
-90.0830405656121 592.38208410729 2966.30565795834 168 168 170
-85.7854735243233 591.29986834098 2959.9409776575 168 168 170
-82.9879477173709 589.933508833352 2952.23175652714 170 170 172
-80.9552289051521 588.426859157274 2943.86306932147 174 172 175
-80.4434378469918 586.638864108544 2934.1672952245 180 178 181
-78.4572725906454 585.137885008469 2925.83892091358 182 180 183
-74.9848093768506 583.922241729692 2918.86699149955 178 178 180
-66.9900489893105 583.554650665532 2915.91012543176 175 175 177
-59.7416687909615 583.04431781026 2912.27783800053 170 170 172
-52.4860540035945 582.53259920504 2908.6389735578 176 176 178
-46.7469911040479 581.739080145499 2903.66986347783 183 183 185
-41.0087230829066 580.945218987146 2898.70144456436 189 189 191
-36.8034771462473 579.871835326919 2892.41704056393 188 188 190
-30.3028321490459 579.217543583297 2888.1101985808 185 185 187
-24.5691574115057 578.423402716813 2883.14576264385 182 182 184
-18.0640508434728 577.767911264989 2878.83506143105 181 181 183
-9.23284482129993 577.52730962891 2876.47565584347 182 182 184
4.27207735833468 578.113889294718 2878.00020857029 190 190 192
19.3738920345004 578.970663557142 2880.78576356006 201 201 203
34.5239096648524 579.820497108594 2883.52958429278 195 195 197
50.5045560554533 580.800708503861 2886.87588524281 185 185 187
67.3219366612745 581.910595284439 2890.81937914482 170 170 172
81.0493101340537 582.464911480826 2892.15133440804 149 149 151
90.873554646064 582.330599936496 2890.25379877662 149 149 149
100.717546032924 582.193351816627 2888.33948236091 150 150 150
113.751774576143 582.597158087324 2888.94992568536 157 157 157
130.000775276904 583.538594810558 2892.06388556973 159 159 159
153.472981705915 585.691487137578 2900.81936202641 142 142 142
195.40734237827 590.940257956801 2923.99048857724 141 141 141
232.719287958294 595.354249991197 2943.23324156841 143 143 141
253.328199987258 596.91969254881 2949.18088588943 116 116 116
260.325660221763 596.191778948887 2944.44422886662 122 122 122
265.71194693084 595.195212486266 2938.45862195862 133 133 133
270.284442811878 594.065483811305 2931.85627434785 156 156 156
274.847579528837 592.936813693802 2925.26171628867 163 163 165
277.775570955018 591.542943079573 2917.43959418925 178 177 182
283.131768630458 590.550031746176 2911.48035835575 216 215 220
294.203106645203 590.485790134335 2909.82472877646 195 194 199
305.298161065855 590.418107307295 2908.14888114769 189 188 193
318.059337256035 590.611176093715 2907.67409347331 209 208 213
-246.49315895019 602.17603640755 3080.63471308547 211 213 212
-244.188288977049 600.658007687824 3072.03021642276 202 204 203
-241.21031891778 599.289153792844 3064.16429842377 193 194 196
-238.945087109876 597.775564912154 3055.59412881338 190 191 195
-238.097288003245 595.971745458874 3045.60754251851 189 190 194
-232.376537580126 595.193358493523 3040.65420646375 186 187 191
-226.656137165457 594.414599461137 3035.7011761849 166 167 171
-220.231793995226 593.78082393522 3031.46033479224 170 171 175
-215.923156797849 592.710591722895 3025.08598193548 167 167 169
-210.206028572335 591.930895979218 3020.1357938505 176 176 178
-201.64698503453 591.729184861342 3018.01234477221 171 171 171
-190.934253855306 591.957715233286 3017.98921184243 155 155 155
-176.619967146532 592.902109882572 3021.45646233376 154 154 154
-161.540076473234 593.983206226933 3025.58282690428 150 150 148
-145.688422253111 595.20011485994 3030.36297258598 124 126 123
-129.780039754371 596.408702865255 3035.09368823456 129 131 128
-105.140059461407 599.324046892308 3048.12574691627 172 174 173
-103.591965530317 597.660252576267 3038.85454343096 169 171 170
-108.612087448835 594.718211232355 3023.37423739943 147 148 150
-109.319884136867 592.636801418687 3012.09121894329 155 156 158
-105.678853913826 591.41073363124 3004.97325399435 174 175 177
-101.31769119565 590.327558882827 2998.55345924866 172 173 175
-96.965358910766 589.245124195921 2992.1413133613 173 173 175
-95.5706970129881 587.599799212112 2983.00329076542 173 173 175
-92.7229915498264 586.238846573498 2975.25022657384 171 171 173
-89.892235922246 584.879839474621 2967.51215631973 170 170 172
-85.5917149121255 583.803027105231 2961.14519620662 170 170 172
-82.0456988988321 582.587149976524 2954.10951745279 171 171 173
-79.2603387207951 581.233216089722 2946.41044467913 174 172 175
-80.2395135873621 579.185029502926 2935.36242415756 179 177 180
-76.746980990301 577.975396887959 2928.37306093841 181 179 182
-73.2674662208277 576.767277858818 2921.39497093029 173 173 175
-66.02251529113 576.252496162258 2917.76568459806 170 170 172
-59.5279970538773 575.598310884597 2913.4641522081 175 175 177
-53.0301674917286 574.943290405692 2909.15975518595 181 181 183
-47.2908471041738 574.149886385282 2904.19042118642 186 186 188
-41.5523554939425 573.356294546707 2899.22180673505 189 189 191
-35.8146948470028 572.562485241271 2894.25391391862 188 188 190
-29.3099031240067 571.90517971878 2889.94349734856 183 183 185
-25.8817469369457 570.701454262043 2883.01020871226 180 180 182
-18.6066429273364 570.179894730122 2879.35451602953 182 182 184
-9.0017088194676 570.06460027991 2877.64725689001 183 183 185
6.05575651468993 570.895196007325 2880.47110517333 187 187 189
20.3834761326811 571.583646600875 2882.60542604401 201 201 203
39.4366176067393 573.075644659215 2888.57872767657 202 202 204
54.6468418935544 573.884200896424 2891.27031710121 181 181 183
72.258497103868 575.089199965492 2895.84834470858 176 176 178
84.4256392967004 575.346466004981 2895.88769613936 150 150 152
94.2595303489737 575.197492983917 2893.98221002434 147 147 147
103.322349437638 574.91195578976 2891.42234825034 146 146 146
113.985673164572 574.890647154922 2890.12039662628 154 154 154
131.028879168137 575.929908123625 2893.86861719588 158 158 158
156.094601072845 578.288495536256 2903.88875637213 139 139 139
201.22293439049 583.944428980923 2929.58195708972 147 147 145
236.141811164607 587.854366684868 2946.93203698831 132 132 130
257.560519773721 589.501931879802 2953.50084573372 108 108 106
263.765239408955 588.638306181774 2948.12858851586 135 135 135
267.548610288503 587.380762554729 2940.88745576778 144 144 144
270.509982432764 585.993834767548 2933.03635641045 123 123 123
277.508372323544 585.2628393502 2928.29859807855 128 128 130
282.884203819953 584.270338095219 2922.32234224937 130 129 134
289.884815474926 583.538773981758 2917.58266191974 142 141 146
298.522595134383 583.066411087424 2914.06914685999 207 206 211
307.171748182586 582.592336863125 2910.54578516486 237 236 241
316.653139520066 582.245908505723 2907.62352635366 252 251 255
-247.049343263978 594.572992401493 3081.16604593658 206 208 207
-243.359456434874 593.357292807669 3074.00566802488 197 199 198
-241.069950370749 591.854627898906 3065.41438825649 190 191 193
-238.105533639017 590.498139217246 3057.56013728676 188 189 193
-235.855727379672 588.99992244861 3049.0032379421 174 175 179
-228.026061356392 588.650402803037 3046.18934799082 173 174 178
-222.29092595082 587.869779159502 3041.22355844843 158 159 163
-217.964693352721 586.803165965143 3034.83393157408 159 160 164
-215.059517829962 585.452461795063 3027.03130511864 158 158 160
-208.629683315709 584.814413457417 3022.78573186866 171 171 173
-198.644245321512 584.884905751068 3022.07073330317 171 171 171
-188.634652538525 584.951576164179 3021.33482367988 153 153 153
-175.743026310735 585.579847067343 3023.39067189258 152 152 152
-160.661240947525 586.625235637301 3027.51562565451 150 150 148
-144.089537409132 587.944423489684 3032.99396129756 126 128 125
-128.897980055036 588.973921005568 3037.02387470371 129 131 128
-107.149375635154 591.257598271002 3047.27272699904 168 170 169
-107.778086945721 589.190937393131 3035.92075131724 165 167 166
-112.078259113932 586.430791850265 3021.13883665445 151 152 154
-109.876862267807 584.932417142317 3012.62389651173 162 163 165
-103.31135966641 584.270947967592 3008.2608866217 176 177 179
-98.9412551290894 583.192228254108 3001.83331281121 175 176 178
-97.5199597342797 581.560242086802 2992.67180405742 172 172 174
-97.5979814965933 579.654854062683 2982.16505728267 172 172 174
-96.2313826351533 578.029545269207 2973.05091271084 171 171 173
-91.9253522239014 576.958069386869 2966.67914282118 172 172 174
-87.628409263512 575.887345982187 2960.3149289629 172 172 174
-84.0855850657629 574.6803725934 2953.28195897388 172 172 174
-79.808573936845 573.611644747608 2946.9350078191 175 173 176
-78.5376687777006 571.99762843979 2937.90404675598 179 177 180
-75.038084624961 570.79552007446 2930.90852294274 181 179 182
-71.5515696864713 569.594842386018 2923.92431741643 172 172 174
-64.3007447556312 569.074037335112 2920.28966339492 169 169 171
-58.5574745435635 568.281089507699 2915.31690298437 178 178 180
-51.2957848351778 567.758154786605 2911.67316138279 184 184 186
-45.5500544899174 566.964186958362 2906.69827529599 187 187 189
-39.0415249812874 566.304461705137 2902.38463473268 189 189 191
-35.5926224145637 565.106992860317 2895.43300840756 188 188 190
-29.0855451070238 564.446946398459 2891.12094411342 182 182 184
-26.424440816073 563.117583581946 2883.52972467511 180 180 182
-18.3777018744724 562.724225918822 2880.52765838153 182 182 184
-8.77145862755624 562.5953706055 2878.81935243887 184 184 186
4.73413087031282 563.127753246418 2880.34367797506 186 186 188
20.6138395164026 564.052090121095 2883.77782736471 200 200 202
37.3257717703659 565.101110474336 2887.81311155953 205 205 207
58.0047141658908 566.802218694041 2895.02275531271 177 177 179
70.9189450387662 567.175024872123 2895.73740581268 177 177 179
86.2274441484443 567.937019635873 2898.3441186354 150 150 152
96.0666991564043 567.773909740329 2896.43407499448 147 147 147
106.715668809041 567.738754184124 2895.14465429096 144 144 144
118.180535103035 567.830660542251 2894.47050414904 152 152 152
135.233496751324 568.83060992759 2898.21052389074 158 158 158
165.881627618063 572.03297752629 2912.64986246315 138 138 138
212.624423950885 577.812435842262 2939.59010237993 142 142 140
249.16817747812 581.879956343625 2958.17765930766 127 127 125
265.80289223211 582.696477072208 2960.95811641653 114 114 112
271.225584100513 581.701206090537 2954.94094745362 123 123 123
273.41696177021 580.192053730449 2946.43476113071 129 129 129
274.778179812098 578.55731887397 2937.32534138972 129 129 129
280.167559348216 577.566196994194 2931.33733404916 111 111 113
287.177192579076 576.831112313864 2926.58985720879 136 135 140
292.560453544416 575.840515000403 2920.60714965425 128 127 132
301.205795461719 575.359236457002 2917.08682237459 159 158 163
307.406024586674 574.495496868718 2911.71845798141 200 199 204
314.426311567096 573.758490596172 2906.96207511817 226 225 230
-248.985017924639 586.684668945487 3080.24804401743 204 206 205
-243.914834427638 585.761116952144 3074.53625750279 195 197 196
-241.623986602631 584.272045165907 3065.94372669824 189 190 192
-237.962495848512 583.067655485876 3058.8078873969 186 187 191
-234.313697358785 581.864436116726 3051.68304135368 171 172 176
-227.87797768328 581.224846638375 3047.43237720953 173 174 178
-221.438558525832 580.584160083484 3043.17851370049 168 169 173
-217.107278400428 579.522638400274 3036.78479447252 165 166 168
-211.372607660778 578.741238927597 3031.81941270019 147 147 149
-203.513997298863 578.37779037044 3028.98052590991 159 159 161
-194.223283503145 578.290597225016 3027.54511519945 162 162 162
-185.624670412242 578.061377135301 3025.38723251315 156 156 156
-174.152846850276 578.384038709307 3026.0291333424 150 150 150
-158.350836064872 579.531824751599 3030.85243917664 148 148 146
-141.055013344628 580.947458252989 3037.02610611135 132 134 131
-122.973694095893 582.491552820125 3043.84138341167 132 134 131
-99.7657027940821 584.988164567085 3055.47047456282 170 172 171
-103.267883468223 582.394082702706 3041.31909676398 170 172 171
-107.550634678617 579.670037975359 3026.52184879668 154 155 157
-108.248270029407 577.636763386252 3015.229395714 162 163 165
-105.329883025646 576.290088964716 3007.41529228022 176 177 179
-101.695865390226 575.08143427026 3000.30329255576 180 181 183
-101.01397889287 573.330949612651 2990.4601630722 174 174 176
-101.098324287083 571.448481255869 2979.95874869651 175 175 177
-98.2605748877159 570.111259097339 2972.21447552204 173 173 175
-90.9943419142292 569.585744030491 2968.56649731715 174 174 176
-84.4635680758508 568.924071107769 2964.23358941463 173 173 175
-81.6546347912275 567.589621764781 2956.51427423467 174 174 176
-79.6098581594933 566.123088905606 2948.13487612545 176 174 177
-76.8372372454875 564.79290099964 2940.44700656812 181 179 182
-71.0770174237627 563.998958095372 2935.45956176975 182 180 183
-67.5773629623655 562.804865008477 2928.46392507827 172 172 174
-62.5802537590956 561.878256316985 2922.81517897527 170 170 172
-58.3451523620839 560.819266974594 2916.50480489867 182 182 184
-52.600386944524 560.02602795634 2911.53075042669 184 184 186
-45.3336831705702 559.496766486522 2907.8823884389 185 185 187
-38.8228391051135 558.834386221446 2903.56707448338 187 187 189
-33.0744048091587 558.039635044875 2898.58984986144 187 187 189
-28.094515264661 557.113428993358 2892.95602604654 182 182 184
-23.8889772913713 556.056594473678 2886.67126168862 180 180 182
-15.8341620567857 555.65429632919 2883.66256882899 182 182 184
-6.99433220285828 555.380524149881 2881.2959036024 184 184 186
2.63677462603562 555.234554347198 2879.565842889 187 187 189
15.3988228642157 555.604978673077 2880.41241098306 192 192 194
35.2156082847284 557.136477640637 2887.04715537643 201 201 203
58.2325144964408 559.174800249661 2896.19799931164 173 173 175
72.7152798332957 559.781346592984 2898.19846722631 175 175 177
86.455920413683 560.252790211453 2899.51946042685 153 153 155
98.6603891782076 560.461522121383 2899.52677407863 148 148 148
111.686851167772 560.793762342405 2900.14441270408 146 146 146
125.541249126579 561.248718302467 2901.36691513622 150 150 150
141.817988536653 562.080660432569 2904.45754241187 159 159 159
169.293876369297 564.687599091112 2916.35687744 139 139 139
220.826585323682 571.090046490235 2947.08137167693 143 143 141
255.785019431937 574.798409963537 2964.39847201818 126 126 124
270.831227707273 575.324645018171 2965.9111041045 124 124 122
276.268528203804 574.330400979059 2959.88126666388 119 119 119
277.66891936957 572.707210886749 2950.73813487085 123 123 123
277.426757528949 570.836182323422 2940.37311603891 139 139 139
279.582609677937 569.345647944557 2931.89760031676 160 160 162
284.154581572476 568.233035197789 2925.29528043944 160 159 164
291.161115126796 567.495822793286 2920.55050398785 143 142 147
299.804115022763 567.007066704826 2917.03257058979 135 134 139
307.639861418143 566.392420277901 2912.8918677175 146 145 150
313.841230935761 565.528796598987 2907.52251415392 152 151 156
324.155293161304 565.283336446426 2905.20115614964 173 174 176
-250.491787043761 580.84268651953 3090.855643808 206 208 205
-248.851565122427 579.223736367972 3081.50429909074 201 203 202
-243.087338104495 578.441620302992 3076.51330447316 191 193 192
-240.791199422479 576.965557668656 3067.91578808019 185 186 190
-236.428945008218 575.907200687193 3061.49520181536 180 181 185
-232.075429390284 574.849489343381 3055.08187008283 170 171 175
-226.331009937595 574.068214264908 3050.10803794442 171 172 176
-219.183371180526 573.56177679504 3046.56304149926 164 165 167
-214.139556498372 572.641843562302 3040.87377082176 165 166 168
-206.982477160303 572.133116650206 3037.32060672135 149 149 151
-201.233516699312 571.349493328303 3032.34285394449 154 154 156
-192.645127842453 571.111319787019 3030.19389098794 156 156 156
-184.040819295136 570.870463341418 3028.03114724873 158 158 158
-170.421815983716 571.578422165244 3030.77961160301 149 149 149
-154.60989674752 572.686666443947 3035.59458565841 145 145 143
-130.840784569987 575.275564697256 3048.0603115434 137 139 136
-105.529243589553 578.120051719465 3061.83402446558 137 139 136
-85.8856927661176 579.870888201624 3069.94075707062 171 173 172
-93.6900703848638 576.499542002109 3051.58308843831 170 172 171
-100.846732597431 573.272756727251 3033.98634569531 156 157 159
-108.077714526094 570.055792796066 3016.45427039194 166 167 169
-108.078321584903 568.18517107968 3005.87988471164 174 175 177
-105.182090935648 566.852230055708 2998.08489599395 179 180 182
-101.56830386108 565.65441441772 2990.9903605864 173 173 175
-100.177557410801 564.059419831204 2981.85508999453 175 175 177
-98.8119333005821 562.467591160299 2972.74188883544 173 173 175
-91.545793670504 561.936818681039 2969.0940256028 174 174 176
-85.0149055085914 561.272704972239 2964.76103442832 174 174 176
-81.4598885414295 560.080999661987 2957.7177131031 174 174 176
-78.6651338079003 558.759306909269 2950.01028880715 177 175 178
-75.1384287162158 557.570733457385 2942.9911705947 182 180 183
-70.1227432109501 556.645268377417 2937.32663184526 183 181 184
-66.6181217311257 555.45898026794 2930.32663948392 171 171 173
-61.6162691602642 554.534719342263 2924.67408243299 171 171 173
-57.3766274358336 553.480785536633 2918.35942481857 184 184 186
-50.8681291800359 552.816984486309 2914.04615326732 184 184 186
-45.1177710975537 552.022842579989 2909.06725728237 189 189 191
-40.1316548261241 551.099421079134 2903.42801849546 186 186 188
-35.9156385721597 550.04746348159 2897.13414063246 186 186 188
-30.1739488183292 549.253650545785 2892.16275566779 182 182 184
-24.4330878418229 548.459649791816 2887.19209025129 181 181 183
-14.8357717148988 548.305474879458 2885.49137032319 182 182 184
-6.76584732772145 547.892877670863 2882.46964855611 183 183 185
1.31553354781655 547.478468111895 2879.43800878285 189 189 191
12.5186757244138 547.570737557404 2878.99070198822 188 188 190
32.3261129216208 549.054658291299 2885.63385713089 198 198 200
60.0231289240223 551.794109120012 2898.66393461587 175 175 177
75.2938263438892 552.496599711981 2901.30411262328 176 176 178
89.040943216236 552.940132551901 2902.61967345134 159 159 161
99.676624181793 552.874877216833 2901.34196557788 148 148 148
114.28531343753 553.433421961968 2903.23328624448 146 146 146
130.521948439688 554.236001090614 2906.35886372498 148 148 148
146.810684312017 555.031084626967 2909.43933208019 157 157 157
172.703911778862 557.314042855357 2920.06599339249 140 140 140
220.245615873937 562.93944744238 2947.63773486657 133 133 131
258.397827821512 567.046869707096 2967.47776175866 107 107 105
267.03278516274 566.552467273609 2963.96652020748 123 123 121
274.875046051757 565.93284132722 2959.82020325681 125 125 125
278.693273341839 564.69611504384 2952.54872430791 126 126 126
282.498263032479 563.460991829467 2945.28870847434 130 130 130
283.859049387967 561.859701649573 2936.17944616914 135 135 137
287.631482470396 560.628813167396 2928.94762087697 147 146 151
290.576338147974 559.277615990811 2921.11060539975 168 167 172
299.218852791921 558.781050220395 2917.59314319398 196 195 200
307.872698181826 558.282808805869 2914.06587108163 181 180 185
314.896693157793 557.540490081426 2909.30599327734 163 162 167
322.746476567134 556.918503626994 2905.15317158406 157 158 160
-249.675525501672 573.495815543762 3092.84229024041 198 200 199
-248.02964985783 571.892602637155 3083.48594326089 189 190 192
-243.643440794845 570.837457410406 3077.04457382872 188 189 191
-240.652501297884 569.51098526391 3069.16745562997 175 176 180
-234.896758921636 568.729233318215 3064.18381259682 170 171 175
-230.536319732981 567.67615898064 3057.76444990876 159 160 162
-227.583382551194 566.353517110664 3049.92024486226 159 160 162
-221.139540517127 565.707114652614 3045.66258492627 143 144 146
-213.284689895526 565.328901451582 3042.82705251332 134 136 135
-204.006676973224 565.217278438025 3041.40280841253 151 151 153
-198.247110139009 564.432286625983 3036.41587157861 143 143 145
-190.358660053034 564.04817115236 3033.55125554905 158 158 158
-178.187313404748 564.462933085039 3034.90951863479 143 143 143
-161.696133206102 565.671418405506 3040.45867961878 150 150 150
-142.996217505211 567.269854328922 3048.06070587758 136 136 134
-126.376739831399 568.459953740352 3053.49878596939 143 145 142
-96.7354660282047 572.023650098553 3071.45529958751 139 141 138
-82.8455445189658 572.662793172844 3073.96907981662 175 177 176
-87.7390397264794 569.868834936882 3058.3780622809 171 173 172
-94.1470235127078 566.819986699598 3041.45483638336 169 170 172
-104.266605758553 563.124290818051 3021.13615799815 168 169 171
-107.1742072274 560.750046331115 3007.79127335059 171 172 174
-105.737543472729 559.166234981622 2998.61613211287 179 180 182
-100.65401362351 558.237412216898 2992.89281198977 180 180 182
-97.7846638361011 556.918601302347 2985.1210303178 174 174 176
-95.6710340894436 555.471878372789 2976.68151085729 175 175 177
-91.3569697438308 554.416306024337 2970.3023590998 175 175 177
-84.8237757689629 553.749418708893 2965.96770288023 176 176 178
-80.5213745349231 552.694698415242 2959.59865443942 179 179 181
-76.9746427027624 551.512171313024 2952.56213915065 182 180 183
-74.1896299688549 550.202682067078 2944.86339502977 180 178 181
-69.1693550628938 549.279593234167 2939.19486308364 178 176 179
-65.6597419642955 548.101136732229 2932.19049355787 170 170 172
-59.8984615541509 547.306841395315 2927.20213179317 173 173 175
-55.6520142118391 546.257710196238 2920.88154438409 183 183 185
-49.8964997456111 545.46350267673 2915.89817960118 183 183 185
-44.1417468135694 544.669098283323 2910.91547614306 185 185 187
-42.203283902456 543.242334476536 2902.62796625245 185 185 187
-36.4605417822128 542.448978678673 2897.65566620172 185 185 187
-31.4858836960816 541.529495715816 2892.02633311404 183 183 185
-23.4391290219187 541.112742637624 2889.0247203002 181 181 183
-14.6094957140726 540.819525451627 2886.66733430358 181 181 183
-5.76456301268813 540.523776530099 2884.29638866551 182 182 184
4.64667220685255 540.475093595675 2883.21310859817 190 190 192
14.3040630808771 540.298455645132 2881.46046528845 185 185 187
30.9962551378491 541.236320771208 2885.5135793102 195 195 197
55.5602194659879 543.405029982759 2895.969840229 178 178 180
76.303275720726 544.941927364358 2903.12466277333 177 177 179
91.6240428233026 545.604767545141 2905.72170052265 164 164 166
104.629923690291 545.891511202648 2906.35747236568 147 147 147
118.461372400991 546.2958698197 2907.6001936081 146 146 146
133.916220165877 546.939395545465 2910.08114398608 147 147 147
151.006611954245 547.820370715608 2913.78949263584 156 156 156
176.111445393587 549.912355411736 2923.77714451857 140 140 140
223.65376318654 555.395978922597 2951.3495883364 125 125 123
252.20941938211 557.937990868395 2963.63673091138 100 100 98
264.037778303414 557.922009385856 2962.64854327252 122 122 120
271.069616158914 557.177376839369 2957.88188275625 121 121 121
275.686349794749 556.070713195599 2951.24072771847 121 121 121
282.718364586225 555.325749643729 2946.4742315032 132 132 132
285.702624639731 553.980572053033 2938.60270831707 143 143 145
290.294206963223 552.876988397356 2931.9836483802 149 148 153
292.433778076425 551.416441540144 2923.52173418425 143 142 147
301.898165129225 551.030352912177 2920.61447059733 148 147 152
313.014437726008 550.879565131209 2918.92077093481 161 160 165
316.771508539772 549.658919971406 2911.7021942961 168 167 172
322.982385016639 548.794674723812 2906.32460473699 173 174 176
-251.906414160979 567.458365732141 3102.75520071321 202 204 201
-246.112162837802 566.673284199692 3097.73820216738 193 195 194
-243.763422058366 565.21855354988 3089.09495541402 184 185 187
-240.053125431215 564.033394302889 3081.91700520737 184 185 187
-237.048879130396 562.716126967805 3074.02797836315 173 174 178
-232.670762466546 561.66674267807 3067.59358557318 169 170 174
-229.695787474136 560.352631087802 3059.73022428764 158 159 161
-225.339093127133 559.305181341392 3053.31407094096 157 158 160
-218.88688116544 558.655016700985 3049.04918086688 156 157 159
-209.617153760811 558.531446578892 3047.63251105248 142 144 143
-201.032893240777 558.273048505386 3045.48725732932 143 143 145
-195.262713475435 557.486777149301 3040.49113017799 140 140 142
-187.364238206326 557.093256879021 3037.61788590517 156 156 156
-172.3375802503 558.00530709362 3041.79148460831 135 135 135
-151.548534151765 559.953620044817 3051.55061737583 136 136 136
-129.24220481865 562.150240671746 3062.63989444295 142 142 140
-87.026431593058 564.132789325802 3071.03145968804 174 176 175
-88.3072109285434 562.026453211329 3058.92133551333 170 172 171
-95.4375073855562 558.895101315867 3041.30143772445 169 170 172
-101.914297450599 555.901961050286 3024.43748771293 168 169 171
-104.080957662056 553.687569691588 3011.77262766462 171 172 174
-101.900263326497 552.246748926046 3003.27525818098 179 180 182
-99.0065636297963 550.936126974295 2995.48231850269 181 181 183
-95.3937752540104 549.754854643628 2988.38854150224 176 176 178
-94.0089356018201 548.193652815147 2979.25817156668 177 177 179
-91.9091315162883 546.762356026157 2970.83053534185 177 177 179
-87.6031246651579 545.713280744913 2964.45864071613 178 178 180
-82.5616218094818 544.79134548544 2958.77170226777 179 179 181
-76.0320231422376 544.121716248524 2954.43986448543 182 180 183
-73.2418690671781 542.822703381418 2946.73659629216 181 179 182
-70.4690624190087 541.525705090852 2939.04803516998 179 177 180
-66.9604901033565 540.355884842818 2932.04482727791 172 172 174
-61.2009809838572 539.562127479151 2927.0579972684 174 174 176
-53.9289126666804 539.01720195835 2923.40508714161 183 183 185
-49.6844867929842 537.973844775014 2917.08652990912 181 181 183
-46.210048610023 536.807401501982 2910.11256990106 183 183 185
-44.2746232927242 535.394978053756 2901.82728436347 183 183 185
-39.3005931008017 534.478985415858 2896.19878838972 185 185 187
-29.7296328534165 534.302309404935 2894.52105785746 185 185 187
-20.9078388342139 533.999787640081 2892.17052674799 182 182 184
-11.2997007664641 533.817386201846 2890.46060996338 180 180 182
-5.53768498807594 533.020476612568 2885.47162776901 181 181 183
4.87472987654591 532.955555376455 2884.38743048547 184 184 186
15.3107186647192 532.887070144317 2883.28282392981 181 181 183
31.2252947448899 533.665350060647 2886.68769891377 186 186 188
52.6614248504189 535.284279356588 2894.56485425547 201 201 203
75.7449820270346 537.133578204218 2903.65915428234 184 184 186
92.6345198786329 538.005423683551 2907.54196493218 149 149 149
104.855403712108 538.147267885897 2907.53548448768 148 148 148
117.108245885075 538.284471090136 2907.50165018823 145 145 145
134.141931388932 539.135654123992 2911.25934126685 144 144 144
154.40612460814 540.456653348674 2917.50734976994 150 150 150
180.312508033601 542.601808405209 2928.12350130801 148 148 148
215.891970833697 546.159554632682 2946.22657063503 106 106 104
242.025089406533 548.272827485421 2956.64640926845 97 97 95
259.439869175206 549.069993101008 2960.07414228369 129 129 127
269.676748033975 548.796742168336 2957.82017747552 130 130 130
277.515317042262 548.167230908603 2953.67680895481 120 120 120
284.553187172064 547.419061165807 2948.9049429707 133 133 133
286.734834414253 545.967063072211 2940.40681999799 127 127 129
291.330808908381 544.868674678136 2933.78360403068 133 132 137
295.917738730127 543.771376825127 2927.16853585214 151 150 155
307.023848741494 543.60617764865 2925.48373785388 171 170 175
317.335243075404 543.321462082504 2923.16494658324 169 168 173
321.105081111502 542.107571434872 2915.93526036461 168 167 172
321.573245778783 540.433448582509 2906.27687644692 225 226 228
-233.294368168069 563.500847960574 3123.70294478419 196 198 195
-243.924949805849 559.55421405255 3101.18195676724 183 185 184
-240.877696436683 558.243154321719 3093.25592943843 175 176 178
-236.465514259711 557.195538058343 3086.79168387407 173 174 176
-233.44763327018 555.887535657688 3078.89109483089 165 166 170
-229.056453681718 554.841931635038 3072.44535543838 154 155 159
-228.15937576124 553.146973957851 3062.41503648438 162 163 165
-223.795601968003 552.104312137912 3055.99303161414 156 157 159
-217.337097780679 551.450605236244 3051.72271079588 151 153 152
-206.655527512106 551.571045523169 3051.72728657386 158 160 159
-199.471900101165 551.042753734135 3048.15123908533 136 136 138
-190.865932868123 550.77020372759 3045.98726307864 132 132 134
-182.243994557961 550.495053725667 3043.80946121338 138 138 138
-165.068797023976 551.753890910036 3050.08869437688 134 134 134
-146.401289282208 553.258979226855 3057.7197301864 129 129 129
-124.08275992564 555.391106320986 3068.79885097436 144 144 142
-50.3778469950187 564.692782405516 3118.66451688684 144 146 143
-76.049995514655 558.288339111103 3082.7290961834 174 176 175
-83.8091874006257 555.06750227339 3064.33160366074 167 169 168
-93.8246316489977 551.478729840399 3043.92165675046 169 170 172
-100.29161913428 548.53104054669 3027.04891596729 170 171 173
-102.449658819865 546.345760708542 3014.37639555596 167 168 170
-102.45742923899 544.54212045073 3003.80810008886 174 175 177
-99.5626430177765 543.242550889189 2996.01414706096 181 181 183
-95.2129286533001 542.194304448594 2989.60404867863 178 178 180
-91.6101990822171 541.022441442452 2982.51892903311 179 179 181
-89.5007475475396 539.603821091709 2974.08316438654 179 179 181
-86.6705248871873 538.311546823731 2966.34480813103 178 178 180
-83.1128697160488 537.144877959365 2959.2990379428 179 179 181
-78.0759277817404 536.226139777737 2953.61571637894 182 180 183
-74.5404877749793 535.061781718443 2946.58887038527 181 179 182
-70.2675996541453 534.021598163363 2940.24562333493 180 178 181
-66.0038350690599 532.982291717889 2933.90996278443 174 174 176
-60.2399868585985 532.188129660799 2928.91937455124 176 176 178
-53.7204422957651 531.515692336385 2924.59626921906 181 181 183
-50.2318709158383 530.356141245311 2917.61033031251 179 179 181
-46.7566101886052 529.198091035381 2910.63560298851 180 180 182
-44.8200114956174 527.799433101799 2902.34921124315 181 181 183
-39.0808097706965 527.007182899127 2897.37997261602 184 184 186
-28.7415528592798 526.937411899973 2896.35921538674 185 185 187
-17.609830715287 526.984234254318 2895.97410539981 182 182 184
-7.22118451886189 526.907033405285 2894.91058884755 179 179 181
-3.7654794724582 525.749939975637 2887.95280493508 179 179 181
7.42701901579812 525.787499536766 2887.51507792913 180 180 182
17.093303446261 525.582916955582 2885.75522284912 181 181 183
33.0116947403369 526.325440059242 2889.15702275509 184 184 186
50.5445247522265 527.297325664351 2893.80456606349 205 205 207
77.5359554235502 529.678849366538 2906.12525822148 194 194 196
95.9994269325644 530.748023481527 2911.28912704577 154 154 154
109.016604850613 530.984737949016 2911.91543151898 149 149 149
121.280112125499 531.098923649252 2911.8721870335 143 143 143
139.115028785519 532.027813425053 2916.25849511248 142 142 142
157.80354617431 533.064913629264 2921.22751642333 152 152 152
177.35192008959 534.20941172724 2926.77383410656 148 148 148
262.057607621852 541.284889201268 2963.14906094689 128 128 126
273.105384883135 541.112664070727 2961.51486756824 147 147 147
280.954138701632 540.476713079413 2957.3630287489 139 139 139
284.771493882053 539.265615753505 2950.09213961251 131 131 131
286.146397764111 537.712728729206 2940.97032748592 130 130 132
289.119466222306 536.391717497263 2933.10866337197 160 159 164
296.144094446402 535.642636184193 2928.34828053051 170 169 174
306.43541329926 535.347561281697 2926.0472720425 156 155 160
317.563710903299 535.16303289 2924.3430530011 168 167 172
322.976273071225 534.183610797662 2918.33487662535 189 188 193
325.095975352415 532.753579029636 2909.89030123459 231 232 234
-277.248927730499 549.462536589662 3089.10651392164 187 189 186
-244.812627577773 553.715333600888 3112.57620860544 193 195 194
-242.426011347556 552.28352893524 3103.89998527653 182 184 183
-240.060063276524 550.854050789246 3095.24197622102 173 174 176
-233.570921218622 550.195798636046 3090.94512991241 170 171 173
-229.156237106803 549.153025587176 3084.47868444703 161 162 166
-224.749938074453 548.110924877053 3078.01981778749 151 152 156
-224.533557753055 546.30579112282 3067.25693698163 159 160 162
-220.855780895859 545.139840936178 3060.10673284047 158 159 161
-214.386679761301 544.482213905197 3055.82756818252 141 143 142
-203.695888745751 544.582338674504 3055.82428365272 149 151 148
-195.092002491906 544.299678665781 3053.66217681857 137 137 139
-184.350714588203 544.392044764104 3053.61517509711 134 134 136
-174.290260430451 544.354580513081 3052.83585688734 134 134 134
-158.515776802948 545.316144685764 3057.68422822114 127 127 127
-145.537440277273 545.769248933324 3059.66605658619 125 125 125
-94.3499489937496 551.015133395222 3088.0507361996 148 150 147
-54.5583139193249 556.03672921729 3115.72703388936 145 147 144
-67.2444828814296 551.984049248805 3092.34154721771 174 176 175
-80.0380117925195 547.945588062203 3069.04902113478 167 169 168
-94.390054844999 543.674694446724 3044.46229970208 170 171 173
-100.125752324186 540.896422321544 3028.27788662933 170 171 173
-103.73861996321 538.495258483385 3014.22119508793 165 166 168
-103.014866277164 536.836270878712 3004.34118490386 170 171 173
-100.118993531438 535.547753707382 2996.54621852635 180 180 182
-95.0327553963493 534.62707779638 2990.82018272987 178 178 180
-89.9511637887156 533.706660576931 2985.09848808228 178 178 180
-88.5743827150023 532.17954129 2975.97488195063 179 179 181
-85.7388357743196 530.897800847135 2968.23215820336 178 178 180
-83.6644313910866 529.497225022444 2959.82665325373 178 178 180
-80.1191834147255 528.340319433217 2952.79125804807 180 178 181
-75.8388372799619 527.305157802677 2946.44119881395 181 179 182
-70.8171423087998 526.390890596282 2940.77137888191 180 178 181
-65.0481109282772 525.596719204822 2935.7762982694 178 178 180
-60.0343575339775 524.682780671727 2930.11304394483 180 180 182
-55.0253518091872 523.769264166568 2924.45421737416 177 177 179
-50.7796092639854 522.737317639315 2918.13444499382 176 176 178
-46.5430596836365 521.706227628705 2911.82231942345 177 177 179
-43.0780709750578 520.557765172574 2904.85643309836 182 182 184
-38.8617358692374 519.528828557165 2898.56181418561 184 184 186
-28.5213665558768 519.442828312057 2897.5401979635 187 187 189
-18.1573134330373 519.353219329335 2896.49807751712 185 185 187
-7.76954752843562 519.260087536515 2895.43542717833 179 179 181
-4.31308936686481 518.111366577005 2888.47693626006 178 178 180
7.6530495744449 518.246914834527 2888.69129316818 176 176 178
19.6511402973441 518.377733147846 2888.87830248169 182 182 184
36.3542708843321 519.200221666973 2892.92268332959 180 180 182
52.332834808535 519.898889187094 2896.27261363942 203 203 205
76.1934911239441 521.744824942155 2906.01697208807 206 206 208
99.3622319689314 523.462452683537 2915.03860911256 159 159 159
112.387856585745 523.673693638829 2915.65744208448 148 148 148
123.871400147804 523.650520895033 2914.96816491127 147 147 147
140.129374674238 524.309314035676 2918.07617839583 140 140 140
158.025754502364 525.188792420075 2922.40921881193 147 147 147
170.415953172196 525.263301622594 2922.25673895813 127 127 127
277.335300815572 533.513083341134 2965.83808911774 139 139 139
280.363323554325 532.196259307408 2957.92876702037 153 153 153
283.373734265576 530.881545370557 2950.03438071397 189 189 189
284.748144378508 529.345634940109 2940.91320205893 181 181 183
288.531510386577 528.147588880702 2933.67168798741 164 163 168
295.556104777425 527.396206506396 2928.91134938137 155 154 159
303.39959519826 526.75518532923 2924.7641053929 192 191 196
311.250044122961 526.113025184521 2920.61052208671 223 222 227
318.288123033033 525.359429823228 2915.83882581622 241 240 245
322.863798548099 524.274943894362 2909.23311361538 206 207 209
-237.163684828704 547.550698809132 3121.86661897749 188 190 189
-238.869253634704 545.373255555782 3108.80219052253 176 177 179
-238.555140009688 543.578614947683 3097.95453275359 168 169 171
-233.440596175588 542.666006724213 3092.20422662437 165 166 168
-228.330464956141 541.753573551025 3086.45774393256 159 160 164
-223.224763162131 540.841317692052 3080.71509923398 151 152 156
-220.910302408947 539.430848230847 3072.10127739795 147 148 150
-216.520586937323 538.395749550846 3065.65642342041 152 153 155
-211.438615102632 537.485401888663 3059.93433396538 137 139 138
-201.441371008374 537.441538575658 3059.20984365579 127 129 126
-192.124899847418 537.270479461419 3057.7526515646 130 130 132
-181.374228485971 537.342620155673 3057.69796343699 132 132 134
-169.177542302906 537.65630297515 3059.03460331945 132 132 132
-155.522067345538 538.209874222727 3061.75245682256 135 135 135
-77.1984882649681 542.456125341021 3083.82712927177 175 177 176
-79.8859968648782 540.185299942065 3070.29112757814 167 169 168
-96.4066102791454 535.628264550158 3043.61542459021 170 171 173
-100.687977971134 533.134834808047 3028.81548308692 171 172 174
-105.027461221346 530.648992031297 3014.06586326317 164 165 167
-104.304057392163 529.00951454818 3004.18602988654 168 169 171
-100.675563784118 527.851818337813 2997.07848782292 179 179 181
-94.1174500453168 527.17256991755 2992.72199733564 179 179 181
-90.5067791311462 526.016615168411 2985.62989155672 178 178 180
-90.6080142881955 524.268590162466 2975.14224494931 179 179 181
-87.7756388072291 522.998453342186 2967.40187931557 178 178 180
-82.7285960125437 522.084724993425 2961.71008602195 179 179 181
-76.9405594573955 521.289191869812 2956.69854176553 181 179 182
-72.6491273061427 520.258278594872 2950.33916186582 180 178 181
-69.1168651195668 519.110996853159 2943.31495954817 179 177 180
-62.5893846586436 518.433208928079 2938.98501055989 180 180 182
-59.0751222950061 517.287722444919 2931.97639770245 181 181 183
-54.8178712911707 516.260162533439 2925.64630658912 175 175 177
-49.0531040911684 515.465876714639 2920.65492263664 176 176 178
-43.289167854458 514.671373428976 2915.6642603191 178 178 180
-39.050647797287 513.645549775868 2909.35070825237 182 182 184
-37.1145128941728 512.274681599068 2901.06453841205 183 183 185
-29.0682226197423 511.826760423746 2898.06353008019 186 186 188
-21.7789490914218 511.262232944334 2894.39615011249 184 184 186
-9.088766776427 511.497650571852 2895.30588183213 179 179 181
-2.54331099440464 510.814357745273 2890.96038865883 177 177 179
11.7514436352093 511.269357712817 2893.12447872288 174 174 176
22.2071299399489 511.149951531963 2892.00312959061 179 179 181
35.8011623684735 511.48031477768 2893.45210755047 179 179 181
51.7774469814491 512.144076187127 2896.80423961374 199 199 201
75.6338527973592 513.928063200119 2906.55268355248 211 211 213
101.152975265308 515.923854307233 2917.50545596447 165 165 165
117.330884363225 516.559025374482 2920.68301810546 148 148 148
130.4050706663 516.739023408273 2921.25996337328 148 148 148
142.724399999736 516.802266246753 2921.16898152702 140 140 140
154.282210230631 516.749516866577 2920.41521090694 144 144 144
268.889776248516 525.867017106481 2970.56083827345 135 135 133
284.775353751901 526.319798107873 2972.66969573524 137 137 137
284.603449221331 524.572704333903 2962.24297926679 132 132 132
285.205336497881 522.939500848629 2952.46842799852 160 160 160
287.39643382431 521.528479792045 2943.9618487659 200 200 202
291.188718339422 520.337796386371 2936.71255699358 222 221 226
296.594638019668 519.365916212947 2930.71008902884 226 225 230
302.810942005962 518.502826448865 2925.32778776466 236 235 240
309.843684366614 517.747741726683 2920.56041101163 227 226 231
316.879459781041 516.992038936965 2915.79040940695 212 211 216
323.096815611883 516.128478145444 2910.40719952357 194 195 197
-231.296892780509 542.857277311494 3140.63266169296 187 189 188
-236.360800259352 540.084292200334 3123.86594981973 187 189 188
-236.00133447005 538.305911432867 3112.97887833566 172 173 175
-237.051395139759 536.285693578755 3100.66853946461 165 166 168
-233.310835822045 535.12955366565 3093.46385593742 163 164 166
-228.198102014724 534.219644534262 3087.71510113329 160 161 165
-221.006596942274 533.676308427556 3084.13232327992 146 147 151
-217.289604125321 532.522144527287 3076.94805288141 148 149 151
-213.585317243267 531.36927255127 3069.77478680169 146 147 149
-207.791997959767 530.581681546459 3064.75861234959 134 136 135
-197.78330350819 530.51995721474 3064.02431334357 127 129 128
-185.636309572679 530.816729266347 3065.4044483782 128 128 128
-173.452946727327 531.108132118822 3066.75278045109 126 126 126
-160.524154387847 531.514370319303 3068.77785423631 126 126 126
-148.265579177299 531.794768113119 3070.06138387471 158 158 158
-93.114587541876 533.812900195063 3080.47453953817 145 147 144
-80.6575307532538 534.064142784867 3081.58622698497 176 178 177
-85.5200962872735 531.472498976783 3065.96740609978 168 170 169
-96.9721445361467 527.827328251079 3044.15614372017 171 172 174
-99.7958292871313 525.607419977581 3030.73784084723 171 172 174
-103.398884350619 523.276558526405 3016.67218883268 165 166 168
-103.399149441416 521.538299082309 3006.0966490456 167 168 170
