ply
format ascii 1.0
comment KinectMotionCapture
element vertex 761
property float x
property float y
property float z
property uchar red
property uchar green
property uchar blue
end_header
144.804316827232 714.509225338164 3141.26812803791 208 209 211
156.507145825296 712.491324983173 3136.31177089846 204 205 207
165.867116021075 711.27501068988 3135.79528616547 205 205 207
174.293424286128 710.378838704637 3137.05621524175 204 204 206
184.528899120121 708.845644834262 3134.73874449247 199 199 201
195.639054144791 706.996055138958 3130.6199502472 191 191 193
204.91130206514 705.784807969892 3130.06790897787 185 185 187
213.71715800737 704.733330889236 3130.40462602471 180 180 182
222.953037807059 703.524038568611 3129.83784474331 177 177 179
230.843585917367 702.790801314388 3131.95942146451 184 182 185
236.972208508132 702.690011674031 3137.67830302324 176 174 175
243.553656556484 702.429635567685 3142.50267465922 154 152 153
251.883195717185 701.53691620196 3143.72439643959 186 184 185
260.203359017954 700.644496761244 3144.9420625007 182 180 181
267.6554034238 700.067056664751 3147.96371941657 152 150 151
273.401096521101 700.117720917653 3154.60521569574 155 153 154
278.743353101655 700.323311442045 3162.16125445353 150 149 147
284.111584437907 700.526371240378 3169.72757216186 144 143 141
291.182183855829 700.100710329352 3173.67269962489 130 129 127
298.675079479743 699.517732287464 3176.71093888617 123 122 120
306.996683431558 698.621791468809 3177.92921494778 168 167 165
313.662317702764 698.350107383884 3182.78801592795 162 162 162
321.974723583217 697.453938893539 3184.0025694812 157 157 157
330.683857999261 696.402473536964 3184.30012457727 160 160 160
340.186175876449 695.040859972231 3182.76331137269 166 166 166
348.860552019237 693.991096952729 3183.04703741303 163 163 163
356.722436380151 693.25194676154 3185.15679597671 193 193 193
366.164883558584 691.893546935461 3183.59597441691 189 189 189
374.007124370773 691.154906984022 3185.69777557917 186 186 186
381.453189192407 690.570558290088 3188.71706376897 185 185 185
385.789366389682 691.219347946261 3199.09907042784 188 188 188
391.325084622142 691.402263819914 3206.7333550814 189 189 189
396.118808888499 691.890370198466 3216.22302910471 189 191 188
400.567134433176 692.528755674627 3226.65026547061 198 200 197
405.056134864286 693.163320794746 3237.09399976762 198 200 197
412.970539600999 692.415461114841 3239.22534670213 121 122 116
-85.8161906908059 746.486316239006 3247.24304912936 212 213 215
-79.3481037433494 746.361351286606 3253.09956064762 212 213 215
-68.821308279045 744.951172732921 3251.97817650865 126 127 129
-50.7768391584791 741.138695944672 3237.73544574834 182 183 185
-26.3287638401903 735.252588027824 3212.07567263794 171 172 174
-6.02785505511805 730.657715769405 3193.35793351399 183 183 185
9.19586194744482 727.668852381277 3183.36115534862 181 181 183
21.8815369347609 725.48284223057 3177.72521168232 176 176 178
34.0275689178919 723.459590818974 3172.94860208319 195 195 197
46.6169930395919 721.280250026302 3167.2736365702 190 190 192
58.1867815614421 719.422159870501 3163.34100910848 197 197 199
69.2345848806708 717.72545934734 3160.27487561035 206 206 208
77.847733503722 716.823630094452 3161.61149790674 201 201 203
85.9743660356373 716.080480815078 3163.8284814445 205 205 207
95.5218986203283 714.862845592536 3163.38794940859 210 210 212
105.995189465219 713.330416567064 3161.16676288292 195 195 197
117.8490522929 711.326552689535 3156.27145188026 197 197 199
128.723440225587 709.640871729739 3153.13502019326 211 212 214
142.817648080279 706.85585222798 3143.75843205092 210 211 213
154.992527327136 704.704543072482 3137.9154077777 203 204 206
165.278427245642 703.184479970613 3135.61825426087 203 203 205
173.70549093135 702.293508431849 3136.87944978366 200 200 202
183.942517755745 700.77639092403 3134.56248556987 195 195 197
194.150036786374 699.261103166531 3132.23355999006 191 191 193
203.878357483598 697.903880308294 3130.78822044862 186 186 188
212.68772374498 696.860135109401 3131.12630019331 182 182 184
221.927281728011 695.661340959751 3130.56092860905 175 173 176
229.820981087425 694.930364634283 3132.6837641115 170 168 171
236.39150103642 694.665558741702 3137.50400184046 184 182 183
243.84703537443 694.089097442583 3140.52706438616 173 171 172
251.737908498831 693.357035374129 3142.64850656913 171 169 170
258.760177069005 692.934546088453 3146.57404117366 147 145 146
266.217717666748 692.35649121067 3149.59792811864 171 169 170
271.541171185925 692.550097369173 3157.14618726153 166 164 165
277.739354138273 692.432797788838 3162.89335845956 155 154 152
282.687615135594 692.775924366609 3171.36763684973 150 149 147
288.505549682075 692.808431635523 3178.03852080576 143 142 140
293.927403560412 692.992562573154 3185.6269506043 109 108 106
301.86088836783 692.253418342552 3187.76569963722 144 143 141
309.37798417859 691.667387219267 3190.81376052453 162 162 162
319.760073266092 690.009472266934 3187.477790058 157 157 157
328.887048355625 688.812394828538 3186.86682144418 150 150 150
338.802516438212 687.311010312381 3184.41954111818 154 154 154
346.679807191723 686.573802221058 3186.53578012723 154 154 154
355.350587489598 685.531950960681 3186.81773303987 177 177 177
364.006490639559 684.490740403924 3187.09365744418 189 189 189
371.859412177017 683.753998525395 3189.20002599622 186 186 186
378.533156365475 683.472053368354 3194.06193117412 184 184 184
384.439342619373 683.491800225985 3200.76864434278 185 185 185
389.593139274964 683.811917787231 3209.32631706946 186 186 186
394.393663372133 684.280242936817 3218.81863700595 190 192 191
399.611158479336 684.594327483437 3227.4021465138 191 193 192
404.85920489002 684.905573074825 3235.99804754688 193 195 192
409.761509164256 685.364339969182 3245.53165000622 158 159 154
-82.0146375787021 738.360030959459 3256.3962948095 201 202 204
-71.4763721437919 736.962338922489 3255.27920290957 195 196 198
-56.9383551568512 734.305862835455 3247.16014376553 134 135 137
-36.4593176183041 729.765859392345 3228.51411182343 170 171 173
-12.6198516454863 724.135008294172 3203.68504768613 187 187 189
6.10529929573866 720.085675454542 3187.56184197201 174 174 176
20.7773904676047 717.298507895709 3178.41925097956 176 176 178
32.4378108992343 715.455742846255 3174.52320357701 196 196 198
45.5223088448238 713.146608763725 3167.97086560839 188 188 190
57.5818478980392 711.153558006948 3163.15874949435 196 196 198
69.1140873598215 709.319598119201 3159.21099300946 203 203 205
77.2451523326072 708.578901728703 3161.4300098455 199 199 201
85.3723173329999 707.838190971114 3163.64719049265 204 204 206
96.3465975331375 706.16482994498 3160.55111109655 210 210 212
105.868438227374 704.959511732437 3160.10008323631 191 191 193
118.191997956405 702.824995878127 3154.31713135017 196 196 198
125.322140124714 702.397163404928 3158.28612648504 209 210 212
138.969558376984 699.803536669124 3149.80599383089 206 207 209
151.626995968463 697.523276361475 3143.08052328981 201 202 204
164.689866370982 695.092624043746 3135.4412841871 203 203 205
174.49020957859 693.744603700671 3134.02529352474 200 200 202
184.266257650982 692.398005532719 3132.5991979277 197 197 199
193.565388299997 691.206566325157 3132.05789114614 193 193 195
201.945216489062 690.323198138857 3133.29964649251 186 186 188
210.315666801807 689.440089321327 3134.53786006368 183 183 185
218.232047349743 688.710340114966 3136.66961249118 177 175 178
227.028763531826 687.674740402424 3137.00250856766 171 169 172
234.931320178384 686.945244158448 3139.12891910442 165 163 164
242.829583456872 686.215550085053 3141.2535927863 178 176 177
250.72345579829 685.485845240754 3143.37648869046 175 173 174
257.74860602312 685.060144255815 3147.30295717383 165 163 164
263.920028030002 684.937492882187 3153.03933361944 151 149 150
270.107263784714 684.813050630034 3158.78212651408 164 162 163
275.885743307584 684.838521909048 3165.43708874096 166 165 163
281.263003147258 685.013160172351 3173.00727745397 147 146 144
285.826891547981 685.487615352985 3182.40399603309 144 143 141
291.677935474529 685.505962639941 3189.08839307175 108 107 105
299.207634535012 684.919351417522 3192.14156132273 130 129 127
307.973702822896 683.880620702638 3192.46207201574 165 165 165
317.134391427757 682.692229665135 3191.8646879253 161 161 161
325.868419268281 681.654961484992 3192.17221458216 150 150 150
334.183304689917 680.768399826098 3193.38769926693 146 146 146
343.292034566023 679.582601090668 3192.76925780574 150 150 150
351.981579188594 678.54739271799 3193.05875790946 170 170 170
361.84650433151 677.064807209641 3190.59087061329 188 188 188
369.710226880008 676.329809847722 3192.70159919536 186 186 186
377.177485286667 675.743662473565 3195.72948215136 185 185 185
382.310071362009 676.049470401842 3204.27867532722 184 184 184
387.859976064476 676.203854964954 3211.91892024171 185 185 185
394.203516540292 676.058989096892 3217.72515461794 190 192 191
400.562428718191 675.912397260811 3223.53762597 188 190 189
405.420652169946 676.35594667595 3233.05349576041 190 192 189
409.561480429469 677.09165462815 3244.43455634235 180 181 176
-88.7481050953989 731.577243532183 3266.66784251267 194 195 197
-78.1784627656752 730.190539659847 3265.5636288348 149 150 152
-65.1169154664544 728.031268155525 3260.07967053769 192 193 195
-44.0941384879747 723.401431620331 3240.57566761632 163 164 166
-19.21624291284 717.545735067899 3214.01062980833 179 179 181
1.03057588511035 713.090894373159 3195.2701858566 174 174 176
14.7422919842917 710.647898910175 3187.89375334536 178 178 180
26.922882521963 708.670662314843 3183.13053025424 200 200 202
41.4992725191465 705.928108276362 3173.94885237466 185 185 187
55.5205201899625 703.344076859806 3165.62000787838 196 196 198
67.0622390071576 701.530975001642 3161.67593141927 197 197 199
74.7209741078985 700.945199074617 3164.78133911907 193 193 195
82.8587781215446 700.206096228162 3167.00281523992 207 207 209
95.2710786275133 698.092674264768 3161.25563398082 205 205 207
106.215229648951 696.440171132742 3158.14719739619 188 188 190
119.006345149377 694.18076200497 3151.47569404879 200 200 202
128.468079126066 692.989919551698 3151.0002196814 210 211 213
141.167654324036 690.736722322688 3144.29134800187 203 204 206
151.498583616133 689.246022846594 3142.01246121823 197 198 200
163.180887589121 687.302555944023 3137.047229456 199 199 201
173.903137389247 685.664794264967 3133.8488349 196 196 198
182.770134526982 684.633848037609 3134.21015196624 194 194 196
192.0754456605 683.452648972288 3133.67127000165 192 192 194
200.011071097173 682.724782267319 3135.81080027965 183 183 185
208.389855631356 681.846333218191 3137.05235299837 180 180 182
216.314402536541 681.118477491018 3139.1873975741 180 178 181
224.677036241941 680.24038151219 3140.42240826029 178 176 179
233.030390491392 679.362577820465 3141.65340231839 168 166 167
240.499376097203 678.784602481839 3144.68192266331 157 155 156
248.83900549054 677.906989543198 3145.90735817837 181 179 180
255.439432934363 677.627201378177 3150.73981880201 165 163 164
260.761034310186 677.793720849751 3158.28779056141 164 162 163
266.963301285166 677.659748935855 3164.03674172306 159 157 158
274.031004131568 677.226522147324 3167.98049650551 152 151 149
280.259792228557 677.089612149201 3173.74020815178 159 158 156
284.825371631643 677.544601199618 3183.13750172722 154 153 151
290.678579031695 677.55162883546 3189.82286054087 107 106 104
297.381850113018 677.260673868612 3194.69704646731 100 99 97
306.568747034859 676.081479604618 3194.10994700347 157 157 157
315.735734704854 674.903438866641 3193.5150349075 161 161 161
324.47583329099 673.873879038779 3193.82496113912 152 152 152
331.17837349966 673.58100936621 3198.69886565334 135 135 135
339.097478199783 672.845808507414 3200.83201961938 141 141 141
348.609840998117 671.523239874892 3199.29897758239 152 152 152
359.287957129159 669.762270650887 3195.00483935211 179 179 179
368.742686324514 668.443222138906 3193.44843519532 186 186 186
375.429142796204 668.149205818511 3198.31583620946 187 187 187
381.736654708588 667.999931629516 3204.10751628903 184 184 184
388.833258590978 667.557271821794 3208.06304439627 184 184 184
395.550778135315 667.259329917858 3212.9430523837 186 188 187
402.660414633482 666.814621366668 3216.90387283381 186 188 187
409.016807951262 666.659531672203 3222.71538872867 188 190 187
415.765252046559 666.357620797408 3227.60769070525 198 199 194
421.775524733283 666.344129257135 3234.35705689898 154 155 149
-103.556803461769 725.341971681023 3273.66589356243 224 225 227
-92.4357313804094 723.813094624659 3271.70696215519 185 186 188
-81.8496123765915 722.438390933151 3270.60907158148 144 145 147
-69.777460117598 720.608997439828 3266.87988735777 155 156 158
-50.7324486850138 716.655668141576 3250.8854632138 162 163 165
-24.3223347209083 710.434783681886 3221.70715338989 169 169 171
-3.55171309345281 705.894414661985 3202.10037641081 172 172 174
10.6761670197368 703.330804335559 3193.85504114279 178 178 180
23.8579636628278 701.074096218965 3187.34170135414 200 200 202
38.4500100668472 698.368468794323 3178.1660827493 183 183 185
53.4582536783388 695.517006253946 3168.08101947079 195 195 197
64.5262875574653 693.875310870751 3165.02266025932 195 195 197
71.7147893339434 693.438849676297 3169.01535019015 190 190 192
79.8656218447429 692.701160012673 3171.24234797236 209 209 211
94.1952178365164 690.013815445963 3161.96032647263 202 202 204
106.562815685607 687.930595332115 3156.19481650213 188 188 190
119.351536914837 685.701090035002 3149.52185984182 203 203 205
126.469132649354 685.26826856799 3153.48607005613 209 210 212
138.247832029498 683.342509505553 3148.55973389193 200 201 203
147.667068305703 682.164867234338 3148.06695245239 194 195 197
161.210911917313 679.649055794838 3139.54429334001 198 198 200
171.942483714479 678.029534464053 3136.34953493782 195 195 197
182.184141067248 676.56067794774 3134.03407978706 194 194 196
190.132144762275 675.834729677546 3136.17860739311 192 192 194
197.625521531918 675.256794484118 3139.21700324347 184 184 186
206.015195575525 674.38271308856 3140.46293194192 181 181 183
215.73145199993 673.066017840069 3139.0124004735 180 178 181
224.094845328312 672.193181750881 3140.24767885713 179 177 180
232.008806955658 671.467808518256 3142.3784187121 178 176 177
238.605354607754 671.183485877538 3147.2093428056 171 169 170
246.51812335631 670.457394763106 3149.33986234028 161 159 160
252.696131686985 670.317813027183 3155.07903386934 184 182 183
259.320128156223 670.030065783944 3159.92084052578 172 170 171
264.672139101606 670.179889473761 3167.4812514543 172 170 171
270.900159608047 670.035060180682 3173.24071233468 158 157 155
277.143935508149 669.888594072625 3179.00656486914 157 156 154
282.563672058971 670.031712441322 3186.59419101429 148 147 145
288.426639707632 670.026938100003 3193.28359113935 118 117 115
294.310288382501 670.020161169152 3199.98163727128 99 98 96
303.513593015415 668.850516315613 3199.4011087917 147 147 147
312.287209708696 667.82687878169 3199.72456137847 159 159 159
321.860553495484 666.514536903672 3198.21638982298 155 155 155
328.575891633875 666.215129399586 3203.09526845686 136 136 136
337.312654838036 665.192941770042 3203.4040455632 139 139 139
345.635019618346 664.315501152277 3204.62248945241 143 143 143
356.330327776865 662.575077777817 3200.33515642052 173 173 173
365.801678648309 661.268311424971 3198.78538916741 184 184 184
374.463782856499 660.250071690324 3199.06365022377 187 187 187
381.552811412502 659.805650905454 3203.01612448266 184 184 184
389.421078532516 659.074208820382 3205.12866618156 183 183 183
395.36217914253 659.057087212398 3211.84979537901 182 183 185
402.469437413346 658.609782080954 3215.80992980961 187 189 188
409.961375676061 658.019138883693 3218.8478395419 189 191 188
417.83035105474 657.285673487195 3220.96042611933 198 199 194
423.822564555745 657.262584051399 3227.70255302592 177 178 172
-104.196173051773 716.629361407463 3273.47305654786 218 219 221
-97.1426426156163 716.314427356873 3278.48898453833 197 198 200
-86.0291697647295 714.801957738503 3276.52710911906 163 164 166
-72.9302707748512 712.693824302731 3271.05788664471 134 135 137
-53.8680160994274 708.79908428573 3255.07000007705 145 146 148
-28.4347070593338 702.975589173455 3227.65079303147 174 174 176
-5.16093326244893 697.760326806468 3203.66834222696 171 171 173
11.0487050803092 694.637024183602 3191.91415936551 180 180 182
25.2098425347997 692.113521332782 3183.64149646327 198 198 200
36.8643560017048 690.335692807891 3179.74256517133 178 178 180
49.4513626504784 688.264379636435 3174.06580202073 194 194 196
58.6052818521561 687.231413531337 3174.54330711159 193 193 195
68.2258926654402 686.051535348571 3174.13207774555 191 191 193
78.7840270169984 684.577928827758 3171.94479789714 213 213 215
93.1192746421561 681.928213870181 3162.66477948162 197 197 199
106.911498300358 679.430562018175 3154.24255004878 191 191 193
119.697525396539 677.231212585682 3147.56853120637 213 213 215
128.683213786108 676.208944943989 3147.97783973974 201 202 204
139.983164335543 674.455053335345 3143.93516699477 189 190 192
148.927732100403 673.43529640239 3144.32780704752 195 196 198
160.161180859199 671.685831326564 3140.25843187247 197 197 199
169.064613291207 670.668377051286 3140.63439906636 196 196 198
178.864816445529 669.360298241009 3139.21804895148 196 196 198
188.187701206604 668.199171884975 3138.6858730522 192 192 194
195.688995938487 667.620400149879 3141.72748117023 188 188 190
205.430988813474 666.315618156669 3140.28753713596 184 184 186
215.148578478429 665.012296789199 3138.83744411683 180 178 181
223.512766442295 664.144628151522 3140.07300507488 179 177 180
230.54646712246 663.710777717188 3144.00299734776 174 172 173
236.272403774171 663.709029415457 3150.63689165471 174 172 173
244.6311853971 662.84050392583 3151.87027011825 169 167 168
250.816579388438 662.69196838347 3157.61249991649 166 164 165
257.878394997705 662.254216725123 3161.55390529554 164 162 163
262.807199829864 662.533310393672 3170.02079137403 164 162 163
269.042608098131 662.379557015737 3175.78331114906 162 161 159
274.871168742663 662.367257075243 3182.45883716347 154 153 151
281.560877860237 662.066951081404 3187.32734559839 152 151 149
286.173098049773 662.479086108455 3196.74410574676 127 126 124
291.236537509803 662.745456066212 3205.26534364962 110 109 107
298.806018024429 662.154826280255 3208.33464958966 125 125 125
307.605973640863 661.137231512792 3208.66872081762 150 150 150
318.021017904756 659.552501681894 3205.34553894568 157 157 157
326.781309690874 658.537063099669 3205.66353422597 138 138 138
335.929149269425 657.380743751819 3205.06070456098 132 132 132
344.657236862871 656.366900229775 3205.36564850128 132 132 132
354.562461195508 654.930227960569 3202.91373005218 166 166 166
363.647957376911 653.777413336757 3202.28563142174 176 176 176
372.713460113444 652.625644771184 3201.64942965803 181 181 181
380.200028836565 652.037309939717 3204.68514780493 181 181 181
388.073996543821 651.308046356323 3206.79998111885 183 183 183
392.865843321776 651.700007597198 3216.28936648776 180 181 183
400.368219187654 651.108955880921 3219.33150542822 186 187 189
408.629956619672 650.237842944946 3220.52535377077 183 185 184
416.127520035965 649.646156316282 3223.56554899688 192 193 188
421.378019557991 649.890258317174 3232.1629522075 189 190 184
-106.369394890191 708.357261412076 3275.89251631461 222 223 225
-97.7820101870865 707.594793231316 3278.29620157994 205 206 208
-88.1858580100892 706.538745057018 3278.95293863073 180 181 183
-75.5810396612249 704.603538931406 3274.36142102718 115 116 118
-60.0128258812027 701.792742510304 3264.50277747157 122 123 125
-35.0432462319776 696.208303337335 3237.97306306633 166 166 168
-10.2442164370762 690.636629308374 3211.37419747494 169 169 171
7.47299661725109 687.119855370569 3196.99646447429 179 179 181
23.61677150304 684.047529592607 3185.21522757434 197 197 199
34.7894900534722 682.436185489546 3182.1990243915 178 178 180
46.9002331345214 680.53663253331 3177.40693173836 193 193 195
56.5486399355393 679.365580817492 3177.00688986896 192 192 194
68.102109589574 677.616046377421 3173.06708941688 192 192 194
79.6163043777729 675.869180704557 3169.11110939432 211 211 213
91.5670174556851 673.980448152366 3164.25439693552 192 192 194
104.420327724067 671.806139674419 3157.60717354354 192 192 194
116.277025202235 669.92395916044 3152.71234517064 212 212 214
126.215638819398 668.620521325406 3151.35174406942 196 197 199
137.527549244782 666.887405357587 3147.31401354649 186 187 189
149.263344751353 665.013374467714 3142.36991382186 194 195 197
160.954540456397 663.142398927699 3137.40773279429 196 196 198
168.476365512169 662.562927143115 3140.45765880146 195 195 197
176.454829120656 661.840089466603 3142.61475306014 194 194 196
185.335656420557 660.831599285903 3142.98149965051 192 192 194
194.652788501827 659.681264555713 3142.44716996083 187 187 189
204.398763583274 658.389622096839 3141.00848147315 184 184 186
213.674518739233 657.241698829398 3140.4573802808 180 178 181
222.044627162822 656.378737171654 3141.69504548695 179 177 180
228.642888950986 656.083399472447 3146.52674711316 175 173 174
234.81403980616 655.928311157865 3152.26325963452 173 171 172
242.743143370377 655.20603672339 3154.40036409115 168 166 167
249.801933779675 654.766044037702 3158.3405615745 166 164 165
257.727363944566 654.043134110177 3160.47618351458 164 162 163
262.652914029992 654.305873303616 3168.94161850505 162 160 161
267.609412748041 654.565706760158 3177.41986362924 162 161 159
272.596884916647 654.822697703598 3185.91067122998 155 154 152
278.45603466576 654.796437457851 3192.59868837181 155 154 152
282.664724162702 655.328183955012 3202.92996331768 139 138 136
288.160366493057 655.436805138106 3210.5485846554 118 117 115
294.507261055814 655.263668427882 3216.35639136299 101 100 98
302.920858347255 654.391731939145 3217.61173293093 135 135 135
312.955296133605 652.963198067814 3215.21232763513 151 151 151
323.364952029245 651.397455627137 3211.88682013175 141 141 141
333.739634707008 649.834011254112 3208.54687757451 133 133 133
341.678710757981 649.104700115465 3210.6880731568 124 124 124
351.203130521222 647.821519687598 3209.15987157433 159 159 159
360.307671708773 646.678050940267 3208.53915606644 173 173 173
369.784552160467 645.397680545306 3206.99168485365 180 180 180
378.066649825436 644.532277078823 3208.1937336343 182 182 182
384.789202495193 644.217766973999 3213.07590508106 184 184 184
390.367614872392 644.314301151913 3220.72813104159 179 180 182
397.118424518313 643.996625770237 3225.62176753009 184 185 187
404.639127521509 643.403584044296 3228.67134208256 184 186 185
410.650959550773 643.357426286258 3235.42133001754 192 192 190
416.683157732266 643.309176747329 3242.17957991865 197 198 192
-111.101177077465 700.79005871001 3282.66498810506 220 221 223
-100.457244230578 699.451207655618 3281.59049142088 193 194 196
-89.837125664024 698.113920007428 3280.50608342627 197 198 200
-77.7292170409392 696.346401235627 3276.79090770798 141 142 144
-62.6515853794496 693.719139607979 3267.81104792179 123 124 126
-38.1637705919224 688.369691303382 3242.16329730788 160 160 162
-12.3522382499306 682.602627901293 3213.81799432198 172 172 174
4.88270398256763 679.282527720275 3200.32282513935 180 180 182
20.0575605609539 676.541272510951 3190.30438693128 194 194 196
30.7583591950487 675.090256016691 3188.17469961568 179 179 181
42.4023781268794 673.356053229745 3184.27144571605 194 194 196
54.0073404436663 671.624472030353 3180.35210097174 193 193 195
67.4977727837607 669.326894022715 3172.8852272333 198 198 200
81.40743576905 666.891519555989 3164.51007610784 205 205 207
90.9666029399856 665.736982753035 3164.0737765648 181 181 183
100.980398991227 664.441904731274 3162.74355293432 201 201 203
113.3255559675 662.441279856641 3156.96833076372 212 212 214
126.558402987788 660.161754109008 3149.39676849323 183 184 186
136.934894077105 658.732541033016 3147.13586330891 178 179 181
147.745776054466 657.164395570384 3143.97257039615 193 194 196
158.060920822542 655.739176094951 3141.68679624981 195 195 197
167.429829058344 654.596699871605 3141.17311356703 194 194 196
176.323336497493 653.595573721624 3141.54493843876 190 190 192
186.10937067773 652.315098306126 3140.12264218028 189 189 191
195.420038448918 651.1759756535 3139.58561015267 187 187 189
203.814627720399 650.317261250697 3140.83315528796 184 184 186
211.30811768267 649.737792798609 3143.8716085909 181 179 182
218.802443763316 649.157809781658 3146.91040433252 179 177 180
225.856748683198 648.71646885396 3150.84879589224 177 175 176
233.79328845994 647.99653429134 3152.98889348313 173 171 172
242.16119893979 647.137836021625 3154.22589366863 167 165 166
249.653331986043 646.556412799905 3157.26381238249 166 164 165
257.576883895007 645.836227469466 3159.39839595178 165 163 164
262.927134337406 645.944496808965 3166.95840903574 157 155 156
268.303430496652 646.050259688335 3174.52872961799 157 156 154
272.013334409067 646.704352545887 3185.73593059955 156 155 153
277.451494297324 646.804521238807 3193.33159899712 154 153 151
280.82561962576 647.58863858502 3205.48066819796 152 151 149
285.49733609384 647.957001564258 3214.92159252238 131 130 128
291.030921276218 648.048330117745 3222.55570772597 107 106 104
298.64221823439 647.453669980109 3225.64197539723 109 109 109
308.29321835727 646.176062390418 3224.16498306657 142 142 142
318.324700092589 644.763608802671 3221.7640017759 142 142 142
327.923428661845 643.489072034323 3220.26556456032 134 134 134
337.096835036055 642.352067145855 3219.67294031174 117 117 117
347.841186394541 640.673302667254 3215.40499716706 150 150 150
358.545386846715 638.9971568107 3211.12052012938 170 170 170
368.031270376378 637.729731958225 3209.5765960755 178 178 178
375.931695399608 637.004175907215 3211.70185644091 182 182 182
382.664422476008 636.683330413718 3216.58819545348 185 185 185
389.407500019679 636.361186663276 3221.47873513749 180 181 183
395.395915275391 636.306782010951 3228.21930429567 182 183 185
402.544698073232 635.847405295928 3232.19608598636 184 186 185
408.188823516269 635.923544606732 3239.87533051658 188 188 186
414.608242696925 635.729448888816 3245.71266079261 201 202 196
421.042935074521 635.533605119207 3251.55618832782 139 140 132
-116.347694608144 693.319890146188 3290.30737707293 216 217 219
-102.115149278499 691.001359604357 3283.14088122351 197 198 200
-90.475505854023 689.394147877384 3280.31370129769 147 148 150
-80.3823862663144 688.212759147806 3280.09379884225 199 200 202
-66.7967115443375 686.045517568811 3273.74330829945 131 132 134
-41.785287050047 680.643462984372 3247.22889692404 173 173 175
-16.447788153046 675.113492303705 3219.76892942049 168 168 170
3.77340548514704 671.000932833187 3201.01525839789 182 182 184
17.9709043528387 668.580382725677 3192.75653762097 193 193 195
30.6367657477098 666.584655525155 3187.11112927833 181 181 183
42.2802317175079 664.872015945345 3183.20748804506 195 195 197
54.3684175321817 663.022459585915 3178.40588315373 195 195 197
66.8936252701975 661.036501260633 3172.70345109475 198 198 200
81.2850502146405 658.496956156373 3163.44534342105 197 197 199
89.413711160643 657.770353590273 3165.66302282976 175 175 177
97.5382380950751 657.043744371624 3167.87928568338 204 204 206
108.015509433088 655.623648044781 3165.65885937999 208 208 210
121.74512939041 653.236012667245 3157.21044825653 177 178 180
133.078511333599 651.54450333776 3153.18109603233 176 177 179
142.981194348821 650.269974597773 3151.80572776144 192 193 195
155.626828866206 648.169499525001 3145.07411551607 194 194 196
166.382923175153 646.623771643759 3141.88872677124 195 195 197
175.279909187133 645.630320114639 3142.26190192098 188 188 190
184.162574652068 644.637644519004 3142.62927290113 188 188 190
193.030913266468 643.645655692114 3142.9908378353 186 186 188
201.436336959385 642.791313307398 3144.2427366125 184 184 186
209.832361535479 641.937321638452 3145.49108432198 181 179 182
217.33204608805 641.356734751506 3148.53205424816 179 177 180
225.273589176262 640.63930834085 3150.67390140683 177 175 176
233.210679395805 639.921870652045 3152.81420294249 173 171 172
240.70759226123 639.34027795057 3155.85405825595 168 166 167
248.205178082226 638.758213499367 3158.89418962009 167 165 166
256.134221939698 638.040187898641 3161.03123769687 166 164 165
262.345624391509 637.863439709751 3166.78421198099 157 155 156
267.721315353764 637.955352593855 3174.35439250244 158 157 155
271.006624991316 638.719667170652 3186.46765095776 158 157 155
275.605327948796 639.075284281631 3195.87910923832 154 153 151
279.403639847072 639.696788568189 3207.1223530006 151 150 148
283.663745289312 640.17986850372 3217.47481477837 136 135 133
289.20434329031 640.256773388893 3225.11187875009 118 117 115
296.413087761822 639.795365835528 3229.11295389158 101 101 101
304.03538993964 639.19926590199 3232.20368841171 119 119 119
313.685671504361 637.934806208819 3230.72630548447 140 140 140
323.714080169061 636.538436761927 3228.32395801583 136 136 136
332.911489510796 635.410379525981 3227.74098457828 119 119 119
343.2827374876 633.884442375918 3224.39962426694 137 137 137
355.595770663326 631.6969499961 3216.45493828808 165 165 165
366.276796171811 630.044034677712 3212.161159025 173 173 173
375.74666939921 628.791004560003 3210.61038617825 181 181 181
382.089150371486 628.596967125752 3216.41656427605 184 184 184
388.832255802869 628.269291876315 3221.30715717885 187 188 190
395.585777076123 627.940318604398 3226.20171999446 176 177 179
403.109869914972 627.346888755926 3229.25267000928 181 183 182
409.123546842387 627.278587224253 3236.00357277424 180 180 178
414.782434941828 627.339389981108 3243.68891084653 186 187 182
419.349113955769 627.790624404142 3254.16548624908 176 177 169
-121.597487664785 685.799470289323 3297.94882069461 230 231 233
-105.811418582496 683.094970805344 3288.17757950836 197 198 200
-93.1411496351662 681.227840179385 3283.61178916897 198 199 201
-84.0457387519546 680.333172253526 3285.14362176293 125 126 128
-71.9479358666162 678.609109803672 3281.42376768927 131 132 134
-50.4021234925218 674.264202952406 3261.05057026783 156 156 158
-19.5521969908343 667.309289800482 3223.96542790813 173 173 175
3.15828686042852 662.574940449093 3200.8300679422 183 183 185
18.3421489451883 659.914446578431 3190.81466385104 190 190 192
30.0266912054128 658.220609983037 3186.92751159576 182 182 184
40.2119634314901 656.940758306872 3185.66660204422 195 195 197
51.825523174766 655.251738545864 3181.75067295954 195 195 197
65.3264860936715 653.018397922023 3174.28731884957 204 204 206
79.2469280117178 650.652824814112 3165.91600296249 193 193 195
88.8133203617254 649.518995866342 3165.48247188345 175 175 177
97.4123659986281 648.658632835972 3166.81306967784 210 210 212
106.474027171163 647.662565332465 3167.25294046383 206 206 208
120.211561072677 645.309690400794 3158.8074701657 174 175 177
131.085421600268 643.774836445511 3155.66968170854 174 175 177
140.99700825217 642.513022022147 3154.29782208612 192 193 195
152.729904788909 640.711998217322 3149.3519952153 193 193 195
164.877097851517 638.779092749968 3143.49610556146 194 194 196
175.14910123169 637.388828594012 3141.19234159392 187 187 189
183.122467182683 636.673418487422 3143.34731554818 187 187 189
191.542877367705 635.823502290714 3144.60550592729 185 185 187
199.056497787546 635.2423791641 3147.65212245212 184 184 186
208.356007055565 634.124768748187 3147.11015214205 181 179 182
216.304802577891 633.409721243885 3149.25517495509 179 177 180
224.249313136799 632.694594796483 3151.39846341511 177 175 176
231.312260027054 632.246203026728 3155.34040749097 174 172 173
238.817095057046 631.663833226746 3158.38347632303 170 168 169
245.455426139702 631.346999536945 3163.23156465694 169 167 168
252.966712289468 630.763221985294 3166.27725617214 166 164 165
258.764581875455 630.709567644577 3172.94066904908 160 158 159
265.861324290018 630.256525707383 3176.89633194073 158 157 155
269.999477284212 630.728286294729 3187.19950183233 158 157 155
275.862502875533 630.668304131829 3193.88934387819 154 153 151
279.23603886276 631.397264939549 3206.03859253047 151 150 148
283.492502944228 631.858521629222 3216.38948813472 143 142 140
288.616601359441 632.053280482856 3224.93608643873 132 131 129
293.771600162899 632.245142835876 3233.4952180461 97 97 97
299.77397943468 632.172087554573 3240.24158250232 104 104 104
308.231302920747 631.31186443752 3241.51479693961 138 138 138
318.694940650326 629.798697605009 3238.21049056369 136 136 136
329.523984940638 628.157427492147 3233.97655479107 119 119 119
339.516658371085 626.779311515396 3231.55960002248 134 134 134
353.435010682572 624.102569264794 3219.95311498899 163 163 163
365.307274119357 622.08103077156 3212.90777194479 169 169 169
375.171546768123 620.711653121611 3210.43876237365 178 178 178
382.289836096936 620.250448243689 3214.40321133136 183 183 183
388.642488345179 620.046847759254 3220.21358019218 185 186 190
396.159248125979 619.454447215998 3223.2615533018 175 176 180
403.67615332413 618.861556942776 3226.3095890019 179 180 182
410.059673912714 618.65416585528 3232.13248496716 182 182 180
413.831438610145 619.344342840263 3244.44326757863 183 184 179
418.772262455633 619.645237795056 3253.99366296622 194 195 187
427.450782728794 618.662334783367 3254.278560155 140 141 133
-120.192609165802 676.456588018035 3294.2727155371 198 199 201
-106.961553665256 674.473944815338 3288.85605111753 167 168 170
-95.3010328531185 672.902678180704 3286.03705184432 143 144 146
-86.7019582623947 672.148155169346 3288.44566726681 141 142 144
-77.1025209881249 671.122511863661 3289.10350396964 122 123 125
-58.5255701980487 667.661195471899 3273.99490142801 153 153 155
-28.6222821420912 661.098621597286 3238.68111431851 159 159 161
0.0710383219948429 654.82266876312 3205.03312089224 182 182 184
16.2545604245723 651.932141149589 3193.26659937873 188 188 190
28.927475116278 649.989952502571 3187.62364105846 182 182 184
41.0640009082579 648.185637023732 3182.84152299508 195 195 197
52.1876244037087 646.652758732014 3179.80458959568 195 195 197
64.240467796165 644.854236387404 3174.98854521017 202 202 204
76.2489999741394 643.058841606567 3170.15427859466 182 182 184
86.7827721345074 641.66729512224 3167.95651267464 173 173 175
98.2357153763782 640.010876259759 3163.97530399853 207 207 209
107.762451799772 638.88999787155 3163.52536112701 192 192 194
119.615839767432 637.105185842807 3158.62845473014 170 171 173
129.091314633734 635.987646084482 3158.15798833733 172 173 175
140.404274448261 634.340589753567 3154.11977316951 189 190 192
150.754352880983 632.961205934871 3151.84753876859 190 190 192
162.452266650517 631.186918552356 3146.88760219449 192 192 194
173.192567324905 629.679807449371 3143.69526878753 185 185 187
181.174038241667 628.966206021747 3145.85351067582 185 185 187
188.248305235213 628.515931075729 3149.80005245541 185 185 187
197.573300457643 627.407474172661 3149.26858907346 184 184 186
206.878926177402 626.300073670162 3148.72927510963 181 181 183
215.721160261149 625.324947641738 3149.08014268854 180 178 181
221.900733818768 625.135807058841 3154.82032360947 175 173 174
229.41276833711 624.553016297148 3157.86631065422 176 174 175
236.052903489426 624.230749489196 3162.71517062474 174 172 173
242.270194406749 624.037490298603 3168.47039702924 170 168 169
248.934513643879 623.712530341604 3173.329069378 167 165 166
255.180916379725 623.516241948989 3179.09636313901 165 163 164
263.574086343952 622.669774544099 3180.34324077792 168 167 165
268.568504888777 622.859684336806 3188.8373693741 162 161 159
274.015024590823 622.917466977627 3196.43674387587 168 167 165
277.394567646744 623.618365185132 3208.58863745464 173 172 170
281.657464625771 624.05699505037 3218.94230919877 168 167 165
285.547821192981 624.620755779605 3230.22325887697 166 165 163
289.484300407659 625.180473753262 3241.52291393192 109 109 109
294.69216294053 625.351201286953 3250.10360988563 85 85 85
303.990100848294 624.237810030007 3249.56097136283 123 123 123
314.881577947989 622.613889969003 3245.35218268452 125 125 123
325.732944874854 620.992674966963 3241.12687595075 122 122 122
336.544024778865 619.374198095491 3236.8854937586 129 129 129
350.481107169334 616.739757891104 3225.28627176365 157 157 157
363.944053124695 614.238497813217 3214.57313118023 161 161 161
374.205726344784 612.758009782917 3211.18680310634 174 174 174
382.491175097676 611.913555918525 3212.39030715308 182 182 182
389.224281944819 611.575559897036 3217.27667270192 177 178 180
396.733836110597 610.983640576998 3220.32172466143 182 183 185
404.243546782051 610.39129042459 3223.36684325458 180 181 183
410.241206952154 610.302165186638 3230.11167601234 182 182 182
414.006377138002 610.965397523199 3242.41999278581 185 185 183
417.822323767379 611.624128728488 3254.7489026995 189 190 184
424.652415000519 611.275758891252 3259.67461517103 189 190 182
-119.810676056039 667.401643502388 3292.33837527621 209 211 210
-109.131566496186 666.113241496433 3291.27748177775 157 157 157
-97.9690410246161 664.693130470271 3289.33451013818 148 148 148
-89.3594693429371 663.940166838181 3291.74736393889 131 131 131
-78.7446961039819 662.655870358678 3290.66064722687 116 116 116
-63.1565733377872 660.04676522333 3280.808535914 127 127 127
-36.7045977616869 654.529297009436 3251.64184385735 161 161 161
-6.97541576181737 648.100009660721 3216.25655216153 183 183 183
13.1817742508074 644.196471726117 3197.47563942388 185 185 185
26.3591815406454 642.148316949614 3190.95868441312 186 186 186
39.4820684485302 640.104027986044 3184.41988241004 187 187 187
49.6431049954711 638.852482192706 3183.14920267908 197 197 197
61.7082403711111 637.077290377047 3178.33770116503 198 198 198
74.6879479793101 635.04308994287 3171.7408504078 169 169 169
85.7053048498357 633.536235018928 3168.66069315348 170 170 170
99.0604456348181 631.378342849313 3161.13798204061 203 203 203
109.524480082374 630.007654123618 3158.91182171774 181 181 181
120.428540245837 628.508574549397 3155.7859897195 166 168 167
128.963837823436 627.662413315973 3157.09041150321 173 175 174
139.811706594935 626.166978703029 3153.94180037996 192 194 193
149.701403009549 624.933344113633 3152.56112118636 193 195 194
161.404012923307 623.183078728308 3147.60264674111 190 192 191
173.0620251367 621.435898414421 3142.6260916184 186 188 187
181.495737405042 620.595783095205 3143.88933640244 185 187 186
188.113343629799 620.271804309946 3148.72908754584 182 184 183
195.640289268304 619.689147242412 3151.78111098432 180 182 181
204.061361631003 618.848897613276 3153.039238978 180 182 181
212.917083888255 617.880707525944 3153.39577247698 181 181 181
220.433783847465 617.297696570373 3156.44365019474 178 178 178
228.3903468999 616.586253288434 3158.59153348021 177 177 177
235.032945305449 616.258082703732 3163.44143555356 174 174 174
241.252446338549 616.056214565349 3169.19787929834 171 171 171
248.78215007976 615.470649053882 3172.25104151831 169 169 169
255.025809754842 615.266119670291 3178.01728709789 166 166 166
262.138074542158 614.805989866528 3181.97928861258 161 161 161
267.984477542722 614.725386850627 3188.66255658945 166 166 166
273.851770790735 614.642710306857 3195.35429859655 174 174 174
277.227170953417 615.316350076608 3207.50472135867 177 177 177
279.821294695808 616.237894288614 3221.49480528884 168 168 168
282.890528274565 617.02827341696 3234.5991866573 159 159 159
286.427045077732 617.688036945397 3246.81520681238 117 117 115
292.466672673301 617.589823727041 3253.57684354177 97 97 95
299.745330460508 617.113372672375 3257.60634011599 105 105 103
309.450853146108 615.884915086146 3256.15105104176 120 121 116
319.933595295528 614.407983255148 3252.85420525889 120 120 118
332.373557535059 612.309448223749 3244.96049491439 128 128 126
347.524866101642 609.3429995628 3230.6187393877 159 159 159
361.79323336466 606.632510062256 3218.07542058426 155 155 155
372.457671806975 605.046070272003 3213.77416424246 180 180 182
380.3631832947 604.330357417596 3215.90166669917 177 177 179
387.492235075764 603.862172800222 3219.87052620221 183 183 185
395.393058998025 603.146024355453 3221.99613399847 183 183 183
402.146700560013 602.799940173927 3226.89113244072 182 182 182
408.532409243632 602.575847635351 3232.71504094263 182 182 182
412.679406891909 603.088107349145 3244.10003591663 186 186 186
416.872012704493 603.596240102721 3255.5037858216 187 187 185
423.704578396975 603.242229179387 3260.43080016865 191 192 187
-118.915052691571 658.225478551196 3289.53387801442 205 207 206
-109.772304626807 657.342876382317 3291.08452841671 201 201 201
-98.6084304786128 655.938708386623 3289.14198200294 210 210 210
-88.9885654843843 654.92746121254 3289.80823785291 169 169 169
-77.8750646418491 653.526566886205 3287.84527083041 188 188 188
-64.2909530937785 651.478169908588 3281.49298933333 141 141 141
-42.8029200703726 647.358145633678 3261.0946929128 169 169 169
-13.5318978750025 641.175781834662 3226.60108930911 179 179 179
7.64548205936832 637.079025059422 3206.07683528854 182 182 182
24.7691965651309 634.025377659554 3192.53435391999 182 182 182
39.3614983916433 631.623482264408 3183.35653652792 186 186 186
50.4907965508969 630.127867686579 3180.32187553752 195 195 195
60.6214322235239 628.89167743775 3179.03851309017 197 197 197
73.1264353717303 627.01524563777 3173.32707015447 164 164 164
84.1503487939206 625.526784973079 3170.24968540462 182 182 182
96.5639826670068 623.656725436022 3164.50119939559 189 189 189
107.511654770484 622.173528138777 3161.39290518011 171 171 171
118.894673251166 620.565006066835 3157.38276419156 165 167 166
127.902664679068 619.59619910219 3157.80095507662 174 176 175
138.290187921229 618.246546129632 3155.54365646251 193 195 194
148.186370944629 617.02582276742 3154.1652485608 193 195 194
160.355566076634 615.172589169296 3148.31766349821 190 192 191
172.018134072994 613.449496335291 3143.34277040326 185 187 186
182.272717766641 612.108726657193 3141.03183539974 183 185 184
187.978907045014 612.031969715213 3147.65830267993 181 183 182
194.155511968811 611.827283440482 3153.39739945413 180 182 181
201.241889603732 611.369264403385 3157.34890344486 177 179 178
209.667011224449 610.533595599552 3158.60863623306 176 178 177
217.640949128934 609.823729243766 3160.76379974713 175 175 175
225.171418276899 609.238999732099 3163.81726553823 175 175 175
232.702619670751 608.653853549345 3166.87103096877 172 172 172
240.668655236627 607.943477535084 3169.02299874489 172 172 172
247.767116488644 607.482229643748 3172.97941978056 173 173 173
254.442095814272 607.144679103727 3177.84250375695 174 174 174
259.421613372915 607.302862729074 3186.33083952491 176 176 176
266.128397440252 606.961990795564 3191.20656896499 178 178 178
271.581269675939 606.991504137322 3198.80872983628 175 175 175
275.803220825859 607.389472516383 3209.14613110677 158 158 158
277.151098061576 608.648102580093 3225.86574527803 149 149 149
281.472958040364 609.037467944721 3236.24366413525 143 143 143
285.424397496782 609.546296817026 3247.5497622118 115 115 113
292.283863500553 609.191056687961 3252.48742039515 109 109 107
298.341182767719 609.079899589822 3259.25657569488 120 121 116
307.649485869915 607.986967410528 3258.71797889177 127 128 123
316.536478861341 607.017495323594 3259.08718340707 118 119 114
329.395679065052 604.828087493899 3250.28484297041 123 123 121
344.170152848456 602.034069474625 3236.86801087122 151 151 151
358.459972760123 599.368445904983 3224.33303802197 149 149 149
368.752944152065 597.923789247083 3220.95936799103 171 171 173
377.456470028901 596.966556949777 3221.25393796834 175 174 179
386.144979872834 596.010155687998 3221.5424217611 181 181 183
393.668016647045 595.417018725908 3224.59294196281 182 182 182
400.048347740874 595.185521574231 3230.4147292416 181 181 181
406.822488691558 594.831841068257 3235.31782809287 179 179 179
411.727355412968 595.078373694289 3244.85433397339 182 182 182
416.667880325602 595.321608393815 3254.40504537419 184 184 184
422.014720870257 595.441723292048 3263.04239617197 188 188 186
428.865144576122 595.08029542743 3267.97644009419 148 149 143
-120.58144819068 649.705289172398 3291.0813632615 205 207 206
-112.453575830668 649.083241021173 3294.3769962533 176 176 176
-100.770561419895 647.566471461622 3291.56669140613 168 168 168
-91.6474193321937 646.689900431292 3293.10961499913 115 115 115
-80.5224845087626 645.304209871774 3291.15116227422 120 120 120
-69.9265747897964 644.047625148632 3290.05634058226 159 159 159
-47.9100641152916 639.871853801076 3268.79363542936 164 164 164
-17.1224371776624 633.424234894382 3231.67942326468 178 178 178
4.56838402815807 629.272867988542 3210.2844065437 181 181 181
21.7085960516135 626.269704100334 3196.74847947868 181 181 181
36.3166332547398 623.904585036114 3187.57649724821 186 186 186
49.8850353662486 621.796626254195 3180.13975565675 195 195 195
61.4642040114193 620.196205021008 3176.20897308044 197 197 197
72.5241463705146 618.724107868211 3173.14605216138 160 160 160
83.5497161546532 617.254375333486 3170.06919610666 189 189 189
93.1164056808889 616.162754657595 3169.63546542498 182 182 182
104.08091088722 614.69708306558 3166.53385397373 167 167 167
114.541294962337 613.358603990922 3164.3059715005 165 167 166
126.374154242717 611.648081678463 3159.39993286099 176 178 177
136.303445001378 610.438538118205 3158.03510253384 193 195 194
146.208446928311 609.230505897811 3156.66016914841 193 195 194
157.468070809697 607.651869393297 3152.60009726138 190 192 191
169.145407107452 605.951965256324 3147.63100798322 184 186 185
179.868817130711 604.502615594997 3144.43165508163 182 184 183
187.845169689596 603.796448791319 3146.58751100404 181 183 182
194.468499324366 603.460180882667 3151.42967266389 180 182 181
201.996894746501 602.8764824219 3154.48229100298 176 178 177
208.19261112566 602.661016686455 3160.22920757567 175 177 176
216.614163988786 601.830502380972 3161.48745632947 172 172 172
222.829181697245 601.612820012202 3167.24220467536 174 174 174
230.370837201984 601.026666241529 3170.3002105387 177 177 177
238.347555198268 600.317924586593 3172.45649116735 177 177 177
245.456265583318 599.852965534674 3176.41709013409 177 177 177
252.570645517635 599.387193224404 3180.38024805206 175 175 175
256.703419471663 599.771215645431 3190.68164781317 174 174 174
262.998519450848 599.545006680701 3196.46888553339 172 172 172
268.044285247883 599.680576624441 3204.98421615009 166 166 166
272.28276627047 600.055148102705 3215.32848759125 152 152 152
274.479123177018 601.02973475561 3230.23592463885 150 150 150
280.468829364909 600.913957319826 3236.97748167531 150 150 150
286.479207009337 600.7962378288 3243.72768038513 125 125 123
292.510422454511 600.676394603026 3250.48607504388 120 120 118
296.529818480959 601.154255231681 3261.81992298587 125 126 121
303.42310224848 600.789879965482 3266.77134298444 138 139 134
311.531097897339 600.065686347505 3268.98089412786 117 118 113
324.421095154723 597.909435194161 3260.19077188186 121 121 119
339.623665832303 595.043084991287 3245.86901330235 147 147 147
353.548720619153 592.54068670473 3234.26392057402 148 148 148
365.045190405382 590.756652318185 3228.14342926543 167 167 169
373.769968553572 589.80589568128 3228.44655505336 173 172 177
382.865919556496 588.737642904337 3227.82204855047 180 180 180
390.407083722011 588.143069743011 3230.87991929072 182 182 182
396.804966311594 587.901843252889 3236.70888679174 181 181 181
404.354020188081 587.305838027163 3239.76996287482 178 178 178
410.398910987676 587.17947170334 3246.53394403117 181 181 181
416.090554446341 587.168458587489 3254.2330888615 183 183 183
421.807691779794 587.155042509026 3261.94231696868 187 187 185
428.655501027562 586.788346855649 3266.87559947027 180 181 176
