ply
format ascii 1.0
comment KinectMotionCapture
element vertex 753
property float x
property float y
property float z
property uchar red
property uchar green
property uchar blue
end_header
-3.8827270741395 1074.90337146018 3554.11448998979 32 19 2
-91.7297901076615 1085.97335684665 3661.9434328858 105 96 79
-85.497681897833 1084.79879637433 3655.22619099886 93 80 63
-84.9254743063295 1081.2173075169 3641.51989098906 151 125 108
-81.8719399819208 1078.70894322287 3630.94934103692 138 112 95
-84.5356783423186 1073.80149669898 3613.43940855088 147 124 108
-82.1837157402383 1071.03431534938 3602.15535229707 133 110 94
-76.6768219850231 1069.60172637711 3594.74509100448 134 111 97
-71.1780267073228 1068.16948720819 3587.34153117387 131 107 95
-66.3279019548728 1066.47196544744 3579.17865556939 137 115 102
-62.7753273722886 1064.24426598248 3569.49732715756 150 128 117
-54.0843553232508 1064.14058520227 3565.9353192725 150 128 117
-43.4403982975904 1064.82923797374 3564.64523738412 159 136 128
-28.8778396746712 1067.10212103979 3567.88900855824 164 142 131
-19.4739561927126 1067.25255621209 3565.03070890336 160 143 127
-9.40040909381379 1067.66397184734 3562.91387294595 160 142 128
-7.82254927837212 1064.64167061008 3550.97883620039 167 154 138
-12.1914675397941 1059.25085786069 3532.30345490753 119 110 93
-91.1583881475533 1077.49655410927 3664.1499454181 100 93 77
-88.6787333277166 1074.73409459459 3652.7551831317 100 88 74
-94.3949118300043 1068.53322857963 3631.28235623966 144 126 114
-95.7802883447574 1064.19374145694 3615.30789397063 134 114 103
-95.3216996528257 1060.65318510991 3601.69980630139 134 114 103
-91.7318884625202 1058.4367976628 3591.98581476819 131 113 103
-81.7976553984958 1058.85895018265 3589.9896577171 176 158 148
-75.0352356606179 1057.96070122109 3584.1342461336 187 169 159
-68.9132353657662 1056.79867127675 3577.51204202337 190 171 164
-64.7227281175806 1054.84812068128 3568.59925938057 192 175 167
-60.5484360085313 1052.89885551053 3559.70052265211 192 173 167
-50.5702278271949 1053.31165012629 3557.66599591279 194 175 169
-39.9225184674958 1053.98299174781 3556.37308943115 195 176 169
-27.297670847469 1055.43541161157 3557.33156287454 180 162 150
-17.2472701352384 1055.83650770643 3555.23454008047 169 153 140
-12.4153046682056 1054.14460545119 3547.08736736685 162 150 136
-7.5953573186629 1052.4536851429 3538.95092033745 146 137 122
-110.012468249234 1057.08280979215 3627.68951487787 97 90 82
-112.023370155089 1052.51679901404 3610.9347939307 190 180 178
-115.351399300458 1047.43432594705 3592.67849944991 214 204 202
-114.319487601779 1044.19024159909 3579.89514736186 225 215 213
-107.616508643993 1043.30125522682 3574.09119521723 212 202 200
-97.0957415599951 1043.97735580507 3572.90828333067 227 217 216
-88.465195626426 1043.86723816463 3569.39837513004 218 208 207
-80.4622483184034 1043.49459175855 3565.11118505064 226 212 209
-73.0933909203162 1042.85988706728 3560.05170524755 224 213 209
-66.3646025386062 1041.96419104761 3554.22542662617 227 213 212
-58.9890685564858 1041.32735179788 3549.16048933255 228 214 213
-48.3667638887297 1041.98568369981 3547.88937080103 228 214 211
-35.7677786651309 1043.41715293353 3548.87039587363 239 224 217
-23.7843610782962 1044.58421142868 3549.06340805941 239 224 217
-17.6604124531563 1043.41982308374 3542.43953054378 228 218 209
-7.5998621982154 1043.80448320588 3540.33413279458 204 195 186
-4.10673051436561 1041.60632583094 3530.70381873341 146 142 130
-155.952434732272 1036.69981524906 3600.14806475141 99 94 88
-146.780173274431 1036.85706963748 3597.4904760417 151 146 140
-136.339477103791 1037.53065875652 3596.37698076817 229 224 220
-130.268832979038 1036.38502923714 3589.79949813423 239 233 235
-127.351511594805 1033.94381617554 3579.34657369181 226 220 222
-123.826560705367 1031.76389086066 3569.68856263723 220 214 216
-117.785719449902 1030.62023880888 3563.13689840731 217 211 213
-109.204534901699 1030.50936505231 3559.67009390615 213 207 209
-102.525108774168 1029.6222330795 3553.88654382954 214 210 211
-92.6446530534539 1030.02300228536 3551.93713609931 215 211 212
-80.8170306940861 1031.19245504921 3552.26485058096 214 210 211
-70.2448032431526 1031.84270135182 3551.037503681 212 208 209
-63.5255766249796 1030.94757439523 3545.21950889623 216 212 213
-56.8061646557361 1030.05158407074 3539.40135905568 221 215 217
-44.2330362249717 1031.46210191976 3540.40493090553 222 213 216
-30.3181100710068 1033.37905239513 3542.88875848649 225 216 219
-19.6303291627329 1034.0103833134 3541.56137982369 230 226 225
-7.60486356981316 1035.14870076713 3541.71781822102 225 221 218
-0.815140335669984 1034.23982800655 3535.83881055837 221 220 216
7.29598716088864 1033.84021637346 3531.45803155641 226 227 221
-170.906820427824 1022.00632868639 3582.76757387364 225 220 216
-163.029019546431 1021.6446072077 3578.58878190673 219 214 210
-153.26596797876 1022.05182296869 3576.7407752893 209 205 206
-147.247899309044 1020.91584897067 3570.20879912403 216 211 215
-139.344635988999 1020.54881975878 3566.0076568277 211 206 210
-135.85491068256 1018.38731457033 3556.38037320204 218 213 217
-129.216489508358 1017.50696240616 3550.63231965906 222 217 221
-123.213594752883 1016.37027713821 3544.11349987972 214 212 215
-114.662987282433 1016.25471797566 3540.67322799248 219 217 220
-104.180166629671 1016.90183142865 3539.52307796628 222 220 223
-88.5363498860441 1019.58300984778 3544.4738753548 221 219 222
-75.411231849063 1021.23787499474 3546.32069546743 220 218 221
-68.059778897033 1020.59868716296 3541.27632977419 224 222 225
-61.3521425437007 1019.70440245079 3535.46837523081 228 226 231
-48.1424480314039 1021.34590131235 3537.24197648608 232 227 234
-32.2827123285401 1023.99468566271 3542.00552355304 228 223 229
-18.9825791815914 1025.62280729323 3543.70082507767 221 219 222
-6.29763454466481 1026.99173711074 3544.60775129393 222 222 224
4.44912453591062 1027.5973990426 3543.22942046493 220 220 220
15.8809417511518 1028.45128629908 3542.57897749229 227 227 225
23.3665755906172 1027.78857848279 3537.41846481092 229 230 225
32.8501176617944 1027.87974042404 3534.49182179833 107 108 102
-183.935868005221 1026.37397649358 3639.02604004573 100 102 88
-185.820598654995 1021.90999006172 3622.16161632829 181 181 171
-187.147109148804 1017.70861553903 3606.13492227706 223 223 215
-189.143615070048 1013.25806512526 3589.36729113938 222 219 214
-180.6698328181 1013.15039679795 3585.99355529766 214 210 207
-174.047258985739 1012.27601153424 3580.25919854982 214 210 209
-165.554262928829 1012.164438159 3576.86883471751 213 209 210
-160.8010296393 1010.52517897761 3568.7895608837 215 213 216
-152.922583277449 1010.15652135073 3564.60993888924 207 205 210
-147.553430486749 1008.77158684175 3557.31875383953 217 215 220
-140.297653499597 1008.14720019423 3552.35721803204 212 210 215
-134.304591642426 1007.0153125355 3545.84688969048 214 212 217
-125.772802754787 1006.89474204231 3542.42296101893 222 221 226
-119.779333917499 1005.76128022387 3535.91197462082 222 221 226
-109.311409571806 1006.39413294314 3534.77514368215 218 217 222
-96.2515196734786 1008.03119300187 3536.67861474457 220 219 224
-82.5064802017699 1009.91391316245 3539.31022654568 225 226 230
-71.2998460659922 1010.7838133695 3538.85485407781 225 224 229
-62.6560509187533 1010.6442662229 3535.33396852424 223 222 227
-48.1500141811471 1012.76095030025 3538.62742590851 223 221 232
-33.5944761574689 1014.87045118585 3541.87834080896 223 223 231
-20.2978620226051 1016.47179851892 3543.57686588596 224 225 230
-8.27247043539669 1017.56658869228 3543.73365048456 219 220 225
4.44410265647521 1018.90610686585 3544.61335377023 219 220 224
17.8578398382072 1020.48952515903 3546.21048027321 222 223 225
26.6766497286421 1020.32161761875 3542.53808692694 234 236 235
38.1651134094767 1021.14745502556 3541.83872819016 216 216 214
48.3496191644108 1021.47122587848 3539.62628831757 232 231 227
38.5013975477317 1014.33662705538 3515.12428245585 165 164 160
-212.559653142075 1013.2369988145 3632.15996191611 135 138 131
-207.736984562044 1011.60168340773 3624.02048046445 184 185 179
-199.260929827114 1011.48784019687 3620.64481499344 225 226 221
-198.739930996263 1008.08068943672 3606.98176974196 220 220 218
-195.184598302172 1005.94274722113 3597.29746914654 216 216 216
-195.35154757955 1002.29097198994 3582.90870203618 210 208 209
-185.658153956986 1002.68219915165 3581.12148958297 212 210 213
-177.807362745784 1002.31379248774 3576.96583567539 210 208 211
-168.70150457914 1002.44731385478 3574.36627038841 210 208 211
-164.580678737871 1000.56559213139 3565.5131216 210 208 211
-159.848555618479 998.936601773809 3557.45207816721 212 210 213
-154.49900297968 997.559696602357 3550.17782924336 217 215 218
-145.369375459216 997.68735972625 3547.55738465177 219 217 220
-138.756618749019 996.810463834229 3541.83155302551 220 218 221
-130.872631104983 996.433177176628 3537.64749963178 220 218 221
-122.980319033877 996.054088511169 3533.45592732211 222 220 223
-112.521291937749 996.671730625434 3532.32690651455 224 222 225
-99.4711042798468 998.282968863764 3534.23895418352 225 223 226
-89.5978213979332 998.642484295615 3532.29603073599 226 226 228
-76.4754883789553 1000.24268911337 3534.14561892412 228 226 229
-63.9598237586414 1001.58816180517 3535.1991027054 227 227 229
-45.5587960462256 1005.16242263504 3543.04769804544 225 224 229
-35.5578824132552 1005.50215253859 3540.99396513621 226 225 230
-23.5745189306473 1006.58166473701 3541.18759151824 223 222 227
-12.8701701417744 1007.16099902508 3539.84618981727 222 221 226
3.78064113707621 1009.9610283679 3545.24636404842 223 223 225
15.8729504516577 1011.02365287814 3545.34567259451 225 225 227
25.3496437115843 1011.09469491609 3542.42478055744 227 227 229
36.8352069480986 1011.90187912752 3541.72805661319 224 224 224
50.3480703843691 1013.44272348641 3543.23954270845 224 224 224
63.2337424015539 1014.73144212381 3543.97301105963 220 220 220
70.7939211531037 1014.05037105369 3538.74800661782 214 214 212
-230.132783977417 1004.73247578533 3639.50613933269 204 210 200
-230.75049765813 1000.84250573861 3624.18666408234 194 197 190
-223.5317569253 1000.22484351841 3619.25718535326 219 221 216
-218.742841334589 998.602098424728 3611.14687737474 215 215 215
-212.133748462978 997.732463084789 3605.42417428051 213 213 215
-209.200475116482 995.359468000079 3594.95698164482 213 213 215
-201.37322867378 994.990601286041 3590.82205332839 207 206 211
-197.855097703617 992.870462526781 3581.16956592461 207 206 211
-189.40617611105 992.749673524816 3577.81746273228 210 209 214
-183.428119833932 991.629029160678 3571.32006740948 211 209 214
-174.339109679116 991.753838108715 3568.7348458438 212 210 213
-169.608300771417 990.133887891424 3560.67488290519 214 212 215
-161.754154789387 989.7577455193 3556.51668693757 215 213 216
-155.778912611996 988.634822945873 3550.02142994617 217 215 218
-145.389328995541 989.248103185166 3548.95262656362 218 216 219
-138.14074104977 988.618658390166 3543.99767004647 219 217 220
-129.617363130612 988.482871689931 3540.58113006504 220 218 221
-123.630680255665 987.355773388922 3534.07598406865 221 219 222
-113.17235167301 987.957340306691 3532.9476728555 222 220 223
-101.406508123564 989.04815819491 3533.32944280827 224 222 225
-90.2508809325568 989.887461037599 3532.91879367738 226 224 227
-79.0665166504234 990.722272754287 3532.48295066644 227 225 228
-65.9106337547843 992.290112289608 3534.30366969837 228 226 229
-50.1152636463225 994.834080556446 3539.12368395043 227 227 229
-40.1269662777253 995.16199743338 3537.08127807256 227 227 229
-28.1571266254224 996.221390370822 3537.2864409049 223 223 225
-14.1871296184495 998.010014190518 3539.72336815798 222 222 224
1.14369174476403 1000.28085169377 3543.62453252761 222 222 224
11.9090599845695 1000.83430197952 3542.23041080417 223 223 225
18.7277332695723 999.920212976061 3536.32634489323 225 225 227
30.85804527869 1000.95460354372 3536.39289809463 223 223 225
45.0190042108831 1002.71397694824 3538.6645013265 224 224 226
60.5612098004236 1004.95281373416 3542.3826587545 223 223 225
74.8164668666513 1006.69805059835 3544.57262200922 218 218 218
83.7397552037813 1006.49607080642 3540.80989422681 213 213 211
-236.815761356196 993.515763412659 3632.13764535976 194 197 188
-232.012405686728 991.900356008367 3624.01477409752 207 210 203
-226.614452674101 990.534539219912 3616.69850297695 207 209 206
-224.874766775603 987.679265718883 3604.62212340455 204 204 204
-218.894067397202 986.564074362957 3598.12240187524 215 215 217
-213.529646591566 985.200894739371 3590.83486172202 203 203 205
-208.172801484433 983.83815868163 3583.55420033754 207 206 211
-204.673682918177 981.734174512513 3573.91808698547 208 207 212
-198.719956715967 980.620040569602 3567.44173722544 209 208 213
-190.907801788602 980.245900139791 3563.31992344162 211 209 214
-180.596301092451 980.855660362983 3562.3185046297 213 211 214
-173.383560019325 980.230803575806 3557.39458815517 216 214 217
-163.659212512075 980.588196279302 3555.58045059276 216 214 217
-157.68721741587 979.468547842073 3549.0883022597 216 214 217
-146.671572606029 980.31140915299 3548.79864231837 217 215 218
-138.791780005424 979.924506799038 3544.61828722952 218 216 219
-132.173635899601 979.046226630418 3538.88779512397 219 217 220
-125.555223620445 978.167131826258 3533.15707586182 221 219 222
-115.740944876677 978.508640525413 3531.26509459292 222 220 223
-102.699909029828 980.066674721889 3533.18541922901 223 221 224
-92.8337663138739 980.399963408725 3531.24885436992 227 225 228
-82.9470764990163 980.729744155845 3529.29418782035 228 226 229
-70.4502150684681 982.028844296139 3530.36458501021 229 227 230
-54.6694310535734 984.536629402864 3535.19747602163 227 227 229
-41.4368090353894 986.065628546854 3536.9519341844 226 226 228
-26.8560012213843 988.073213559147 3540.18160726665 224 224 226
-14.1925007011192 989.347177283681 3541.10773525227 223 223 225
-2.14970189850128 990.373568753647 3541.24987561688 223 223 225
5.96828478194888 989.945904948113 3536.86333329247 223 223 225
12.1093018728899 988.792572583385 3530.22459028099 223 223 225
25.5474942655787 990.289814994712 3531.80107899545 223 223 225
37.6952314598689 991.299341685789 3531.85269028106 224 224 226
53.882693280336 993.746310374536 3536.33349311243 227 227 229
68.7878608377241 995.70446429754 3539.28235226081 226 226 226
84.4141034664174 997.895213578978 3542.92798337452 225 225 225
87.9616787446866 995.765300551594 3533.25003886805 224 225 220
-241.68854669109 983.09081460566 3627.16516035731 204 207 200
-236.294472968393 981.731606439759 3619.85189321988 222 224 219
-232.120296112789 979.880869542818 3610.95261792006 202 204 201
-227.962046027412 978.031798438717 3602.0671361301 212 212 212
-220.158173147432 977.656318031703 3597.95250937752 199 198 203
-213.570265126552 976.788876939737 3592.24815373613 214 213 218
-208.824978963977 975.186440054458 3584.17552935351 215 214 219
-205.940749931771 972.851190650955 3573.75060059494 214 213 218
-200.60693140994 971.495725453477 3566.48953455141 211 210 215
-193.419262418206 970.872688120926 3561.58733716092 211 209 214
-184.359657429038 970.979538768213 3559.02771847949 214 212 215
-174.034032144944 971.570590994348 3558.01449412063 216 214 217
-164.310206365124 971.914459798689 3556.20089639335 216 214 217
-157.708905621423 971.040304422422 3550.48497630642 216 214 217
-149.845721944346 970.650728151221 3546.31903409565 217 215 218
-141.974202633011 970.259348362872 3542.14556326503 217 215 218
-134.094026637815 969.866285987078 3537.96491579141 217 215 218
-126.842365623396 969.229518230737 3533.00702767533 220 218 221
-117.030487790752 969.557838186212 3531.11752833864 221 219 222
-105.275051275755 970.606520358658 3531.50859148274 222 220 223
-94.1295514324145 971.409137150734 3531.10664230178 227 225 228
-84.2452556934261 971.725668347488 3529.15445215408 229 227 230
-71.1046393623849 973.241187210226 3530.98874230556 230 228 231
-56.6244238422278 975.230819012426 3534.30571868188 226 226 228
-42.7461815377819 976.973290786813 3536.82247210013 225 225 227
-28.8226978401105 978.708951200346 3539.30005731448 225 225 227
-16.1645717421681 979.95914526223 3540.23099753312 225 225 227
-6.75644801839059 980.008280853949 3537.36967913205 224 224 226
1.34938290396969 979.576744554929 3532.99369773396 225 225 227
10.1249103445009 979.381848305494 3529.3589937303 224 224 226
22.8939033628137 980.614274904806 3530.19364122474 223 223 225
33.7032008877078 981.127075187758 3528.76170782393 223 223 225
46.5400501991762 982.349008292375 3529.53792534098 225 225 227
61.4228829212853 984.277592003991 3532.50633450961 227 227 227
75.6830393574375 985.961564256862 3534.69244830053 226 226 226
84.5979950659013 985.743698959865 3530.93704564536 226 226 224
80.0083393535123 980.790977061423 3512.45014659594 216 216 214
-241.150437143591 978.447118304329 3643.9325061267 213 221 208
-242.947455662918 974.164811768096 3626.99088186278 206 208 203
-239.366297195665 972.080680426135 3617.28353293281 216 218 215
-235.804997506633 969.998646830926 3607.59369823915 203 205 204
-229.83187086407 968.890321954809 3601.10018026438 214 214 216
-223.252194401636 968.024528394804 3595.40294853452 206 205 210
-217.284123193851 966.915828587434 3588.9141302292 194 193 198
-213.162108922717 965.080500568608 3580.05996626639 215 214 219
-207.207470453048 963.972292272602 3573.58278741302 217 216 221
-200.638326774476 963.105641503991 3567.89469038027 213 212 217
-193.448497798938 962.47947643629 3562.99032560913 212 210 215
-185.00947365114 962.334209398164 3559.64695950622 213 211 214
-175.30907136828 962.668177494805 3557.85372792253 214 212 215
-164.961287102186 963.239237864585 3556.8214271252 215 213 216
-158.359500077399 962.365076886281 3551.10508559728 216 214 217
-150.49623917257 961.970100459248 3546.93911144358 217 215 218
-142.624635798228 961.573259708382 3542.76560313972 217 215 218
-135.378967495086 960.935225180312 3537.81323284346 216 214 217
-126.218983132576 961.013466270431 3535.16679714171 219 217 220
-117.042348148971 961.088806248356 3532.50594854743 219 217 220
-105.285809668915 962.11562353397 3532.89651377666 220 218 221
-97.3534236040847 961.70730334688 3528.67039731717 225 223 226
-86.1881301070193 962.487551947205 3528.25143721149 227 225 228
-71.1122844494083 964.68978308488 3532.37404276111 229 227 230
-55.3338607232088 967.121912700153 3537.2097852819 226 226 228
-43.4042664119025 968.122168245387 3537.45021340966 225 225 227
-30.7885443998654 969.354178347089 3538.41802460626 226 226 228
-18.1359376699208 970.580600069578 3539.35358719204 226 226 228
-9.3893197486703 970.382949743732 3535.74395795436 223 223 225
0.0290389822414916 970.419111251059 3532.87416808995 225 225 227
10.1249462357456 970.688078405974 3530.73855933966 223 223 225
24.8849348644855 972.602723655884 3533.81353222118 225 225 227
33.0400929292338 972.156856769283 3529.39457456546 223 223 225
45.8756904939852 973.354405118124 3530.17203503021 221 221 223
57.4091446605243 974.07674878687 3529.43435206431 225 225 227
73.0005671830694 976.201461775839 3533.11059093244 225 225 225
82.5828699568687 976.210432169772 3530.09856555941 225 225 225
86.7764154231652 974.344989866074 3521.1825980799 225 225 225
82.1434459215067 969.443794250099 3502.73290675695 209 209 207
-244.80860760578 968.521917530796 3640.55086963259 211 217 205
-245.409376040888 964.760734075311 3625.21555727561 210 212 209
-243.644063536394 961.968423164946 3613.1165582035 206 208 207
-241.910843689144 959.179917442481 3601.04566584612 209 211 210
-234.739864407167 958.557069411729 3596.15761728745 204 204 206
-229.393693930795 957.21319779861 3588.88608574706 216 215 220
-222.83156681775 956.34916877429 3583.20405323489 207 206 211
-216.882996791532 955.245049267381 3576.73179211129 221 220 226
-209.705919571956 954.619126540429 3571.83879368787 215 214 219
-200.670349351522 954.708553257104 3569.30011971193 222 221 226
-193.478224745079 954.079444041765 3564.39378431312 214 212 215
-185.659387964443 953.687396083913 3560.26629516811 214 212 215
-175.335235139602 954.245888872439 3559.25455802858 213 211 214
-166.864858494173 954.087117189463 3555.88410509946 214 212 215
-158.381963469475 953.925858920406 3552.50250264135 216 214 217
-151.77730383145 953.050592448876 3546.78367847991 217 215 218
-143.907506784985 952.648627400258 3542.61208450376 216 214 217
-136.029195537016 952.244856983368 3538.43312266196 215 213 216
-125.596505632434 952.785139749045 3537.3274305355 218 216 219
-115.139099554445 953.321353119442 3536.20002687007 218 216 219
-104.656678667832 953.853621042839 3535.0512830503 219 217 220
-99.9331832959363 952.26112543836 3526.99748110948 224 222 225
-88.1301495350044 953.258684844301 3527.34793679931 226 224 227
-75.0007178882552 954.721213549123 3529.19226449624 228 226 229
-59.2349886330812 957.116763287478 3534.03893129703 227 227 229
-49.2690931138289 957.393140752893 3532.01627588388 226 226 228
-36.6712015674788 958.60303646933 3532.99936917493 226 226 228
-23.3812131946474 960.041367651838 3534.70469338676 226 226 228
-12.0210948000632 960.772262826523 3534.11719135093 222 222 224
0.0269637853493876 961.732093361513 3534.25551970209 223 223 225
12.7689504119028 962.919910894816 3535.11417918771 222 222 224
26.8740861005141 964.567748390559 3537.4348891868 225 225 227
35.7029031714839 964.348128897753 3533.75415735219 224 224 226
43.2094804357268 963.661281121668 3528.57564867931 221 221 223
54.735940200763 964.365582820605 3527.84414492502 225 225 227
68.3051218547486 965.760565549548 3529.30776318365 232 232 232
79.8950725090384 966.45481968019 3528.52129470199 234 234 234
88.1365136391299 965.98831230766 3524.02800167584 223 223 223
95.0310277710735 965.058200744084 3518.05830560337 223 223 221
-235.958454175475 967.133543797762 3668.61968788523 218 224 212
-248.46495588712 958.622319990796 3637.1671723664 217 223 213
-246.667252126503 955.848126412206 3625.04029674041 206 208 205
-243.694864104162 953.553704335378 3614.53869285415 202 204 203
-239.535424757289 951.737650010759 3605.65196633895 212 213 215
-234.784321121633 950.160540048452 3597.57413562422 207 206 211
-231.264310846526 948.109795818049 3587.91956968102 214 213 218
-226.540913536502 946.535159498878 3579.86573700533 210 209 214
-220.601796911148 945.435030170272 3573.40195914045 218 217 223
-212.20324836594 945.280541930645 3570.0937344508 214 213 218
-203.791969807352 945.123860231505 3566.77449041465 223 222 227
-194.748111974353 945.200732584076 3564.2287146196 213 211 214
-184.443574044982 945.74617676323 3563.23406297033 212 210 213
-175.98596600864 945.581399331986 3559.87471597107 212 210 213
-168.767841145864 944.944177387614 3554.94589778621 213 211 214
-162.173291502191 944.070871306018 3549.23582361689 215 213 216
-153.687987172335 943.900567387922 3545.85250705628 216 214 217
-144.557928188312 943.962237730918 3543.23211613457 217 215 218
-135.411162547245 944.020999415274 3540.59726380087 216 214 217
-125.611311686051 944.310695553785 3538.71843895594 218 216 219
-116.429137851163 944.363371267394 3536.05293650516 218 216 219
-107.870653770591 944.180098040753 3532.60627646563 219 217 220
-102.511843168624 942.829711072286 3525.32351598087 222 220 223
-91.3606426487878 943.573710103776 3524.91700566322 224 222 225
-80.1803746896543 944.313158028197 3524.48564655526 227 227 229
-64.4312836753893 946.672860858394 3529.34696660636 227 227 229
-52.5284564319173 947.63306414593 3529.61085425356 226 226 228
-37.9818135171295 949.514458797826 3532.87095699869 224 224 226
-24.0406554381063 951.157250970268 3535.33382497993 223 223 225
-11.3677632517484 952.33131738014 3536.25246020806 222 222 224
0.683180398957095 953.268878729558 3536.38811676146 221 221 223
11.4453265857932 953.740479334127 3534.99731809512 221 221 223
24.8838625496011 955.128742529882 3536.57421521218 221 221 223
31.7135270881952 954.211616277232 3530.66064246812 221 221 223
41.8784949924169 954.442020788785 3528.46574176924 221 221 223
53.4020585158288 955.127668726356 3527.73686916851 221 221 223
68.9812023670147 957.183189961425 3531.42419876674 225 225 227
81.2475587626067 958.08671091254 3531.37336993386 226 226 228
90.8458668634151 958.071030841133 3528.34794741707 227 227 229
103.846741536216 959.193658930346 3528.98232624376 223 223 223
116.205283440322 960.082691300508 3528.85200631629 219 219 219
-249.76094652678 953.15672327194 3651.55942650001 216 221 214
-252.119352621064 948.748270572962 3633.78161807147 221 223 218
-249.127281054773 946.468167666915 3623.26317647442 207 209 208
-246.159415160659 944.190703516804 3612.76538219146 200 201 203
-242.004864075205 942.386027126473 3603.88281877884 214 215 217
-237.866359827956 940.582890729578 3595.01383824565 208 207 212
-232.524647367865 939.250398995156 3587.74609688632 209 208 214
-227.190822912007 937.91834849167 3580.48487397176 216 215 221
-220.024093421164 937.288826559935 3575.60055210687 213 212 218
-212.852674591552 936.658156329114 3570.71248877736 210 209 214
-204.441528658122 936.493228199109 3567.39341312928 221 220 225
-194.778408626044 936.792512620963 3565.63272016351 212 210 213
-183.850879634674 937.554297283826 3565.41995874804 211 209 212
-177.260676227402 936.68283412606 3559.71363967584 212 210 213
-172.547605486719 935.113361330405 3551.66872394922 213 211 214
-165.962817305119 934.241369839658 3545.96710187137 215 213 216
-158.117775568221 933.832318432112 3541.81701013163 216 214 217
-150.264217721203 933.421641057774 3537.65954770944 216 214 217
-141.768154781421 933.24036636012 3534.26697736581 216 214 217
-131.351387027532 933.749953567001 3533.17496893481 217 215 218
-120.909597629763 934.255534520196 3532.06161481914 217 215 218
-112.36350246775 934.065725322416 3528.62573505389 218 216 219
-104.447049375019 933.643284010848 3524.41383529211 221 219 222
-93.9450827851829 934.138844453155 3523.24838837419 223 221 224
-83.4184516859526 934.630402344025 3522.06127426321 226 226 228
-66.3830271235608 937.412164054234 3528.45178509641 225 225 227
-53.1844491797422 938.809626696881 3530.23660284194 225 225 227
-38.6396790427535 940.658635595014 3533.49853865139 224 224 226
-26.663827869148 941.585948463421 3533.69934696427 223 223 225
-14.6549014543327 942.508110601848 3533.87183666642 222 222 224
-1.95447020554607 943.653256206278 3534.7667902068 220 220 222
10.1221486919583 944.564902517021 3534.88036103101 220 220 222
22.2316318735207 945.471344424734 3534.96548092359 220 220 222
31.0500791811612 945.236652746407 3531.29383460374 220 220 222
38.5472518122709 944.545763833993 3526.12381896395 220 220 222
51.3994547235184 945.666854752188 3526.88706691123 220 220 222
64.9596013663789 947.008617709654 3528.35886100421 223 222 227
81.2528462876454 949.248768696953 3532.74963351649 225 225 227
93.5529640048318 950.125285645481 3532.66971751925 226 226 228
111.979745455244 953.02667798988 3539.17677498847 224 224 224
125.722117172359 954.340965998808 3540.49080609794 222 222 222
-255.172661403182 939.132938661563 3631.1969791319 208 210 205
-251.586172170375 937.103027233598 3621.48497400227 205 207 206
-248.019773107873 935.075080548371 3611.79005350095 201 202 204
-242.052697759694 933.978971178634 3605.3020167566 215 216 220
-238.51803961105 931.954041480636 3595.63458769608 214 213 219
-232.566297851269 930.858739498815 3589.15983589206 196 195 201
-227.229569510752 929.531687680247 3581.89606368468 205 204 210
-218.833829448665 929.361827600127 3578.59037281821 213 212 218
-212.886836209037 928.265368523539 3572.11974422529 211 210 215
-205.091192435348 927.861173029196 3568.01243600941 218 217 222
-197.287069797252 927.455274501029 3563.89747437983 207 205 208
-187.609603562431 927.738396186011 3562.12476729226 212 210 213
-180.405637620614 927.09811049267 3557.20824100631 211 209 212
-174.448381792248 925.997155256819 3550.72874659407 211 209 212
-167.239590168197 925.355081844297 3545.80804930032 214 212 215
-160.026361296312 924.711632340671 3540.88351500149 215 213 216
-151.545089186368 924.52486377496 3537.50380000214 218 216 219
-144.318750803664 923.878413380891 3532.56823817776 219 217 220
-135.180523895272 923.915927561063 3529.94092435494 218 216 219
-126.02561711615 923.950476803777 3527.29917270149 218 216 219
-116.213959125184 924.209957268203 3525.4103099911 218 216 219
-105.097573553745 924.921036365575 3525.03418836263 221 219 222
-93.3082360302166 925.854842709692 3525.39661268231 223 221 224
-80.8396289108164 927.010667463058 3526.4924273273 221 221 223
-65.0930705941932 929.294416392722 3531.35643474164 221 221 223
-51.889826042173 930.664062254236 3533.13738802354 221 221 223
-39.2976570070451 931.801210607851 3534.12622813832 220 220 222
-27.9771713277679 932.48097052028 3533.5734085592 220 220 222
-17.2841989721353 932.930566401429 3532.24270792994 220 220 222
-5.24974102453646 933.826750772397 3532.39292135865 218 218 220
6.15716717605164 934.492776017272 3531.76528527487 218 218 220
18.9179905641352 935.603797922521 3532.60811589977 218 218 220
30.386520574837 936.260206969331 3531.9271322914 218 218 220
42.5505350760327 937.136271082512 3531.96550029087 219 219 221
53.4098988959904 937.559146969352 3530.49075534483 219 219 221
66.9768099052854 938.872810637413 3531.95686860238 222 221 226
79.239033278768 939.733350942033 3531.90990052398 224 224 226
96.258102683163 942.150841488704 3536.99368657461 226 226 228
113.338458552033 944.559277777561 3542.02409660254 225 225 227
130.480392177626 946.95866497343 3547.00150912652 222 222 222
140.87353433618 947.125860411482 3544.6089356833 226 226 224
-257.05011165111 933.401930994705 3644.77166420577 211 213 208
-257.62569146885 929.768386293744 3629.41369286641 211 213 210
-254.644712611378 927.522355336963 3618.90464493174 200 201 203
-251.085062824127 925.508791975467 3609.21548106558 202 203 205
-247.545378767267 923.497378453509 3599.5436082846 212 213 217
-244.025531074249 921.488059659725 3589.88923033213 219 218 224
-236.871587501391 920.855828050181 3585.01600804072 193 192 198
-229.101897294159 920.45147470538 3580.93119573665 190 189 195
-221.323651680813 920.045228360251 3576.83866490843 216 215 221
-215.382154956359 918.952204385395 3570.37277808324 217 216 221
-206.975457018254 918.771466462595 3567.05766012044 217 216 221
-198.555981774694 918.588408939043 3563.7314826388 205 203 206
-190.74509959896 918.17551390101 3559.61102312539 212 210 213
-184.7958846794 917.078913089147 3553.13815432821 208 206 209
-175.723069205686 917.117353548206 3550.56784445756 209 207 210
-166.00617136359 917.379692089952 3548.76077974105 211 209 212
-158.786515779801 916.732682213596 3543.83069825131 214 212 215
-151.562258051442 916.084416008383 3538.89695157134 218 216 219
-145.601065843145 914.983088116017 3532.4137322591 219 217 220
-137.736466122773 914.558527278365 3528.24678941357 218 216 219
-129.863377078596 914.132284195102 3524.07249946694 218 216 219
-119.422905754171 914.604603974619 3522.9601877932 218 216 219
-107.031916819556 915.747585965432 3524.12336013032 221 219 222
-94.6037849178047 916.884907108842 3525.25437600516 222 220 223
-79.5548392989316 918.913797277997 3529.40142003907 221 221 223
-63.8044156699866 921.158938055005 3534.26232743008 221 221 223
-49.9465141147173 922.724310975192 3536.79785851177 220 220 222
-39.303699818722 923.165690175104 3535.51068492001 220 220 222
-26.0196106178139 924.495763089336 3537.22182367247 220 220 222
-16.6313858978016 924.482205007257 3534.37847422264 219 219 221
-3.93569760090484 925.578800608421 3535.27753774229 218 218 220
6.15601164854596 925.780384506797 3533.14631971104 218 218 220
18.2551730812386 926.644619327027 3533.24065933736 218 218 220
31.0516975059998 927.725741013772 3534.05274034467 218 218 220
45.2179508810668 929.24413808679 3536.32131622523 218 218 220
56.0869222607372 929.649431070341 3534.8383579995 218 218 220
68.3216496587535 930.492796222399 3534.81564847963 220 219 224
81.934243132991 931.772281035514 3536.2423885826 223 222 227
99.6355827976463 934.368283336379 3542.05661507339 225 224 229
114.695852894398 936.07402942621 3544.87267688485 223 223 225
132.520221688731 938.651928364595 3550.5807024298 221 221 221
144.282816786578 939.243822574307 3549.6452600981 225 225 223
-261.288284614868 923.334825676355 3640.57007988776 218 220 217
-260.077538893092 920.418646200743 3627.62928557919 210 210 212
-256.500513622562 918.416958076147 3617.92530031814 203 204 206
-250.532718437763 917.326620609751 3611.43660226343 206 207 211
-247.592161650518 915.100922814211 3600.96214231774 188 189 193
-244.675699211343 912.877870979219 3590.50854866369 210 209 214
-238.739097142033 911.789997637845 3584.04687083581 206 205 211
-230.362642040284 911.606804970804 3580.75798133315 190 189 194
-221.360506902765 911.647256089289 3578.24860410848 202 201 206
-215.416467927489 910.556442654259 3571.78018398592 213 212 217
-207.624840681413 910.141828902338 3567.67642454946 214 212 215
-200.443731549027 909.500249679529 3562.77971746392 203 201 204
-192.636889556031 909.082449097385 3558.66279151016 212 210 211
-185.444701129658 908.43823997205 3553.75649864411 202 200 203
-175.747051622556 908.69007784135 3551.96650070888 202 200 203
-166.655870061791 908.714464683776 3549.38004784536 206 204 207
-160.06521694735 907.8409647196 3543.67335219435 209 207 210
-150.948765327344 907.860690795355 3541.06502706404 216 214 217
-143.082318752677 907.431090345308 3536.89651614032 218 216 219
-135.842970096938 906.776697365627 3531.94941379996 216 214 217
-129.874187307375 905.675806703129 3525.45992813768 216 214 217
-120.711431886528 905.686781756841 3522.81152654565 216 214 217
-108.9653851487 906.583501948171 3523.2120283774 217 217 219
-93.9681267746315 908.584476967963 3527.40373698227 220 218 221
-76.3341163970743 911.464139463074 3534.59837395897 218 218 220
-61.8693233036569 913.227060854081 3537.92987108317 219 219 221
-49.9542708505052 914.098505571121 3538.18405337231 219 219 221
-38.6582359326355 914.744069561052 3537.6526477374 218 218 220
-27.3333457642808 915.385088822906 3537.09626166966 218 218 220
-15.9796315036909 916.021447780468 3536.51492292399 217 217 219
-6.57123264413606 915.993412930081 3533.65386611924 216 216 218
5.49415074558235 916.841318613274 3533.7779037156 216 216 218
16.9301520745493 917.464499830978 3533.12532920208 216 216 218
32.3801126789518 919.398003361381 3536.9254172415 216 216 218
47.2170754097441 921.10481548774 3539.93470515294 216 216 218
57.4253487560523 921.274172939654 3537.70266565727 216 216 218
66.3133420140465 921.003346284346 3533.970975518 219 218 224
76.5583109516022 921.166302420616 3531.70685660223 221 220 225
94.2428121895644 923.720997441645 3537.53626074773 224 223 228
111.992874155806 926.266144666262 3543.30890292343 223 223 225
127.772789453248 928.15012237494 3546.82332829888 221 221 221
140.202963363946 928.941714826807 3546.6315537496 222 222 220
153.348237976304 929.944587020341 3547.14155197947 226 226 224
-264.978140915576 916.870142763446 3651.75029853848 137 139 136
-267.31305073262 912.622254578746 3633.95108457984 216 216 214
-261.929764628051 911.308657503023 3626.64718741064 203 201 202
-257.154630631936 909.770710745326 3618.54827494019 201 201 203
-251.788802362049 908.458244822352 3611.25918626108 196 196 198
-250.057616959995 905.800265505154 3599.18921141611 184 184 186
-245.325941116642 904.266374737411 3591.12793940583 187 187 189
-239.388707138454 903.180931515125 3584.66569813259 215 214 219
-228.569760172909 903.883559319952 3584.54743199974 206 206 208
-221.397978130038 903.242278011636 3579.65880710744 196 196 198
-214.221640486884 902.5998442182 3574.76624118077 203 203 205
-206.423825631448 902.178887643778 3570.65715982251 206 206 208
-197.998532597611 901.978637818572 3567.32605125947 204 204 206
-191.423275763927 901.109546855488 3561.63267154796 200 200 202
-185.470552519262 900.017885524431 3555.1570454642 199 197 200
-176.396496635317 900.034278286101 3552.5854878422 199 197 200
-166.678649276963 900.269120974589 3550.77777831963 206 204 207
-159.456213817218 899.616249397136 3545.8456409083 205 205 207
-150.335996563363 899.62456906604 3543.23412588158 208 208 210
-143.098701775654 898.968416554033 3538.28881510427 215 215 217
-135.22162159992 898.531215785175 3534.11113690655 212 212 214
-130.522763162822 896.992342458168 3526.07834120898 212 212 214
-119.442178124831 897.651530662875 3525.73358544397 213 213 215
-109.615384262705 897.86753152584 3523.83188567889 217 218 220
-93.9766467408969 900.052556094184 3528.789984988 218 218 220
-77.6347744444998 902.44797885126 3534.46054960068 216 216 218
-63.1737713060798 904.178794874451 3537.79585517154 216 216 218
-49.9626847253949 905.465520241394 3539.57054881218 215 215 217
-37.362050383424 906.528048226661 3540.55253528308 215 215 217
-25.3781946678209 907.366969072956 3540.7469785542 215 215 217
-13.3612505952012 908.20091708146 3540.9130906939 215 215 217
-2.62726673083291 908.595202275269 3539.54688681767 215 215 217
11.4310920700835 910.070361714736 3541.90957449765 214 214 216
20.9009054249161 910.021839302434 3538.99542030223 215 215 217
31.0512689187621 910.186778782663 3536.81360198581 215 215 217
42.5541614854441 910.780530471749 3536.10324113626 214 214 216
56.0900859014262 912.017401047013 3537.59670920918 215 215 217
66.9864461137051 912.385589051276 3536.09025253895 213 213 215
77.9072160586738 912.749689042922 3534.56235005357 216 216 218
92.8982597227743 914.400200667953 3537.43877082323 220 220 222
105.909511263106 915.398926378223 3538.06527404919 220 220 222
120.992518341674 917.035533800167 3540.86176140868 219 219 221
139.526911435644 919.735910693844 3547.27716609635 217 218 220
145.846342923065 918.574959803774 3540.48383428265 216 218 217
-266.825797310988 907.722926058157 3650.76416568467 222 222 220
-268.565127208754 903.738569414633 3633.77060989612 211 211 209
-264.379460994288 901.985636387229 3624.86074258448 199 198 196
-260.209663050784 900.234241502139 3615.96461890647 198 196 199
-254.248973162396 899.15004881689 3609.48172393638 192 192 194
-250.708948163311 897.17921440094 3599.80960820775 198 198 200
-244.157097243843 896.317347807369 3594.13646842932 179 179 181
-237.604707269876 895.454809756798 3588.46286578403 218 218 220
-226.778588287068 896.137427892621 3588.33851306919 224 224 226
-218.373272303984 895.933340814312 3585.02474419959 190 190 192
-212.413448759141 894.845873485867 3578.5429368532 200 200 202
-204.607540324336 894.418295212288 3574.42656789472 200 200 202
-197.411435479415 893.76920916321 3569.51722764338 189 189 191
-189.590271840867 893.338378724856 3565.38765752558 194 194 196
-183.628677494408 892.248217586842 3558.90433281774 194 192 195
-174.546769724375 892.252593753725 3556.32604755166 192 190 193
-166.07490451935 892.035412245282 3552.95468293155 195 193 196
-160.105999757118 890.942470017377 3546.46504004512 202 202 204
-150.98609382308 890.939812556598 3543.85386598256 204 204 206
-143.748536277705 890.280929780893 3538.90834515592 209 209 211
-135.871383246154 889.838269558806 3534.73063918882 209 209 211
-130.534341188171 888.524530107723 3527.46650880677 213 213 215
-118.813333580114 889.381683971387 3527.8889693431 213 213 215
-106.418226425701 890.45030939498 3529.04873859065 214 215 217
-91.4127382322727 892.379412834403 3533.23409535774 215 216 218
-76.3536717282727 894.300642053887 3537.37306490235 214 214 216
-63.1832359196203 895.566252461493 3539.18312885375 214 214 216
-51.9199046265828 896.178672068342 3538.68028340243 214 214 216
-39.976106458842 897.001869903325 3538.90986338848 215 215 217
-27.9994861793944 897.820026476412 3539.1107124252 215 215 217
-15.9897707076762 898.633149405023 3539.28322480017 215 215 217
-4.60486846744645 899.226561877144 3538.6751326058 213 213 215
10.1072082688964 900.886713247092 3541.79296606047 213 213 215
20.8982515582301 901.255550165715 3540.37778714794 214 214 216
31.0502046482117 901.406741297825 3538.19468016104 214 214 216
40.5567299439982 901.340878395413 3535.24881877361 213 213 215
52.7512336982223 902.124841491785 3535.26104194559 213 213 215
65.6486029402106 903.116626247394 3535.98629603053 213 213 215
79.2548139569895 904.315345743667 3537.41909140006 215 215 217
94.2501594969993 905.932460406475 3540.29199999239 220 220 222
109.294671386394 907.542354900995 3543.12234112932 220 220 222
125.744533073588 909.568438629724 3547.37843990937 219 219 221
139.53088857327 910.73990348767 3548.65527419109 218 219 221
146.535514084897 909.792747269842 3542.59025107773 208 210 209
-265.109332795244 899.906750084307 3654.62076772036 224 224 222
-269.816821107685 894.858845101775 3633.58977795257 205 205 203
-265.034106029815 893.336525744075 3625.48419342012 188 186 187
-261.463171248267 891.376238462454 3615.78490321345 194 194 196
-254.901760351621 890.514162363401 3610.10347881677 191 191 193
-251.964361126398 888.337779114417 3599.63175159694 195 195 197
-243.595796145674 888.131971787277 3596.34953177649 182 182 184
-235.822408084261 887.705621311223 3592.26165695125 195 195 197
-224.989080999304 888.368105146091 3592.13118718595 223 223 225
-219.024975574518 887.283295023675 3585.64565136154 190 190 192
-211.835853659311 886.633570139034 3580.74205209321 193 193 195
-203.409298435481 886.417280497292 3577.40995348313 201 201 203
-196.206942982581 885.764515822525 3572.49490392992 181 181 183
-190.240983933917 884.677060622913 3566.00777864324 186 186 188
-183.65619741642 883.805967648849 3560.30615218532 188 186 189
-173.323307936863 884.231654053474 3559.28770326179 188 186 189
-163.592183153776 884.43734067064 3557.46867465002 188 186 189
-156.354863305602 883.776955062307 3552.52368509533 187 187 189
-146.590204392662 883.976927864095 3550.67562827352 192 192 194
-139.96871998966 883.097898421748 3544.94224586765 195 195 197
-133.981761554509 882.003123740146 3538.43696708832 196 196 198
-130.546399571738 880.0498955381 3528.85513695644 201 201 203
-120.102470236456 880.456316233193 3527.74057064095 205 205 207
-106.428469299303 881.929100627783 3530.43641048739 206 207 209
-89.4937991534368 884.46404601295 3536.9158481709 206 207 209
-75.0738725258246 886.13539517883 3540.28682606402 206 206 208
-63.1930490615131 886.94671261391 3540.57106547442 208 208 210
-52.5778906668726 887.326817582754 3539.30794379214 211 211 213
-41.2864227153005 887.915767629584 3538.78117888368 215 215 217
-26.6996197383742 889.562128086111 3542.00768097401 214 214 216
-14.684832977057 890.352769489987 3542.17594356084 212 212 214
-1.32231537198679 891.56191011806 3543.81988924056 210 210 212
10.1028220971764 892.130081728264 3543.17708728846 213 213 215
22.2182397036317 892.904933039005 3543.25791631202 212 212 214
29.0578184022565 891.986471631442 3537.33575926095 212 212 214
39.2257389440758 892.121139721474 3535.13891977932 212 212 214
53.4202532572445 893.515239873781 3537.38380633614 210 210 212
70.3390144029559 895.743284849325 3542.55576077213 208 208 210
83.2882744074066 896.702787236282 3543.23593294576 209 209 211
97.6223397579101 898.07596013412 3545.36031672439 214 214 216
111.325437289591 899.232946300773 3546.70940750193 217 217 219
129.815169864628 901.847390223662 3553.1637624016 216 216 218
144.294420423198 903.198712938809 3555.16213501866 206 207 209
151.998172629533 902.45778587312 3549.81339368409 204 206 205
-271.112261475791 889.238907498707 3647.98255527881 214 216 215
-269.876831405666 886.41773683854 3635.01975049877 200 200 200
-268.079786696634 883.817900775083 3622.89231625543 198 196 197
-264.515623604716 881.871999835771 3613.19880209171 193 193 195
-257.96202165585 881.010855607173 3607.52413995222 195 195 197
-252.011701205519 879.932812594179 3601.05050820963 186 186 188
-243.035212727067 879.934437949773 3598.56361145815 197 197 199
-235.257699179166 879.502022360422 3594.47220022756 157 157 159
-225.641466977841 879.714019150925 3592.75271225609 213 213 215
-217.228304703177 879.492466589625 3589.43225590032 202 202 204
-208.802387537436 879.268597446152 3586.10075943348 192 192 194
-200.979830320557 878.827840083306 3581.97036129082 195 195 197
-195.003563548135 877.742148497263 3575.47397498834 186 186 188
-189.030806727739 876.656472709185 3568.98094629793 185 185 187
-181.19463628264 876.212145333344 3564.83877221482 181 179 182
-172.725498647092 875.979461315303 3561.46987213387 183 181 184
-163.617216751053 875.95776843822 3558.86889639283 182 180 183
-155.749260549091 875.507161986006 3554.69889762744 178 178 180
-145.350367343319 875.905754172881 3553.62341647313 185 185 187
-137.456949399068 875.450662995061 3549.43169367447 190 190 192
-132.093824966702 874.144969022344 3542.14490462612 187 187 189
-127.375255648564 872.627814873085 3534.09488405864 190 190 192
-118.836085263753 872.381387634506 3530.66537313302 198 198 200
-104.516860609397 874.034940330125 3534.12406388047 202 203 205
-88.8625144220754 876.103300609425 3539.06939058563 201 202 204
-73.7953649530065 877.952476170319 3543.20182124337 204 204 206
-63.2035006231062 878.320169978216 3541.95928530178 206 206 208
-52.5868411856041 878.68374607127 3540.69528523207 209 209 211
-41.9453915671366 879.043444657646 3539.40982374778 214 214 216
-28.0135718175205 880.447590433172 3541.88233202939 214 214 216
-16.6572125330129 881.007298198615 3541.29919744805 212 212 214
-5.27201480880457 881.562463499914 3540.69109698972 209 209 211
3.50484021775932 881.277499318733 3537.05582596197 213 213 215
16.2621812169941 882.241849878672 3537.90262533243 212 212 214
27.0662859102497 882.575511314479 3536.47635356964 212 212 214
41.2222032580289 883.945525040478 3538.75484958436 212 212 214
53.4207394025734 884.685288069579 3538.76386415624 209 209 211
66.3217530767137 885.627535249376 3539.48628048556 207 207 209
78.588099716665 886.356870837606 3539.43690434657 207 207 209
93.5816491106896 887.90880949381 3542.31147655249 212 212 214
113.354483790423 890.900293875757 3550.29811476293 215 215 217
134.560614814097 894.293304605062 3559.68638335631 214 214 216
152.453797055659 896.643291919626 3565.33624268607 207 208 210
160.866384941499 896.101814643999 3560.69509642176 197 199 198
157.660240495413 892.063840964832 3543.64965258105 226 228 225
-273.550787095081 879.907435205622 3646.18648312859 212 214 213
-273.510214533855 876.681971503997 3631.61540238495 198 198 198
-271.721520378184 874.10485673337 3619.49474311897 197 195 196
-265.168093927115 873.244095456356 3613.82023060819 190 190 192
-258.614074848918 872.382775279977 3608.14520806786 193 193 195
-250.852041316423 871.947952944816 3604.06722951882 190 190 192
-241.264077135952 872.151120650175 3602.37229966981 195 195 197
-233.478340642132 871.712028250303 3598.27380458232 167 167 169
-223.854493748644 871.909405397728 3596.5478114191 162 162 164
-214.821317261706 871.891022252808 3594.01222630146 198 198 200
-204.543564509351 872.294048948815 3593.04139768389 201 201 203
-196.704587519078 871.845570782476 3588.89681796442 163 163 165
-191.329277871853 870.548715888509 3581.59941027491 175 175 177
-185.341530824185 869.463716221598 3575.09338463442 178 178 180
-178.11318681117 868.800684490766 3570.15587639278 172 170 173
-171.504525407271 867.92565761561 3564.43358220442 172 170 173
-163.642881932776 867.471132611003 3560.269395812 165 163 166
-153.259443291842 867.85599613815 3559.2073986466 166 166 168
-142.851022716062 868.236896448662 3558.12377442204 175 175 177
-133.682543658725 868.194400860497 3555.47075843962 175 175 177
-128.938586191583 866.682630918086 3547.39869816105 168 168 170
-123.570151591344 865.380952824602 3540.10728057633 180 180 182
-115.016719428409 865.124400525287 3536.66547406562 191 191 193
-103.888260412123 865.700187738352 3536.27976464332 188 189 191
-88.2319704616132 867.730160953547 3541.22397088103 189 190 192
-75.7418601446167 868.711074556866 3542.3019658475 204 204 206
-63.8611854413655 869.478695120479 3542.58661735128 206 206 208
