ply
format ascii 1.0
comment KinectMotionCapture
element vertex 786
property float x
property float y
property float z
property uchar red
property uchar green
property uchar blue
end_header
-30.538416738314 85.0563032488563 3786.10559502872 12 15 8
-33.3152276533042 84.5703289226407 3767.34175446802 11 14 7
-12.4867190044484 82.9409900413683 3778.41344328264 10 13 6
-9.06647655661885 82.1564551828293 3767.51388376109 12 15 8
43.624518084926 78.3231442820352 3802.59445264168 18 21 14
25.2670582932684 78.0063853267667 3749.69296194569 7 10 3
98.5122890916168 73.7108789503776 3823.86574974111 9 12 5
89.9715331334932 73.5206076807478 3798.1855169813 11 14 7
81.3280891765342 73.344405103787 3772.59419643568 17 20 13
-162.855523521318 93.148343301253 3894.1205310658 14 17 10
-153.387064796698 92.070170767329 3891.21422313552 14 17 10
-165.572107269235 92.0272768336033 3858.10495147883 14 17 10
-153.794072601755 90.8417964656753 3858.4909054208 14 17 10
-190.346304904166 91.9967797822683 3792.23630887355 15 18 11
-172.750766205375 90.5365901843866 3800.81535834599 13 16 9
-150.014685116308 87.6114609847969 3785.09823266644 14 17 10
-134.625098726011 86.2456044450298 3790.29560552774 15 18 11
-125.801043855454 85.2049957554514 3786.62400578101 15 18 11
-117.567954588409 84.1933165111056 3782.14148434207 20 23 16
-114.782303145486 83.4580414817438 3770.46836757757 22 25 18
-110.808287710416 82.6645647319895 3760.41215191861 22 25 18
-62.2973500747763 79.5832806585211 3808.3743104344 18 21 14
-63.1124435873618 79.0285356176604 3791.880722653 17 20 13
-90.4031679217767 79.8543543723892 3741.4212505054 12 15 8
-75.3826219983171 78.4887085857161 3745.61490625368 13 16 9
-51.6477724201789 76.6610501705174 3760.78546990654 13 16 9
-42.0763760192377 75.572233745896 3757.79001116481 10 13 6
-3.84315809908298 72.9611161233865 3790.83691883405 9 12 5
39.5941878619279 70.0557276353142 3829.96153104223 9 12 5
38.1392223786925 69.5377187753208 3812.69904437427 13 16 9
43.5446920622073 68.654957067983 3804.04955169095 19 22 15
9.81958675159866 69.8918747770335 3747.25403049766 19 22 15
54.6085267199743 66.2952803312775 3771.97840688236 15 18 11
-139.128690432061 82.4316731168563 3929.20613456107 19 21 16
-154.662997370714 82.6412458079544 3891.05795855678 23 26 19
-132.299260889469 80.8731946293476 3906.09326808633 20 23 16
-163.882616746321 81.9462875450513 3846.11921637383 27 30 23
-214.603801999573 84.0583525557934 3760.37837369984 17 20 13
-179.936014939243 81.6437007203794 3792.54388170802 11 14 7
-136.232338769834 78.1508316570647 3820.85474483777 16 19 12
-142.921009727077 77.9403145536408 3796.21621188582 18 21 14
-140.705144573205 77.2520846256135 3783.71338365324 19 22 15
-128.890568983041 76.0405733608821 3784.06783494493 19 22 15
-121.270192995206 75.0575711617658 3778.79292742874 21 24 17
-113.039235477573 74.0405873925698 3774.31197251426 21 24 17
-95.0694723149463 72.481439960627 3782.56762495463 19 22 15
-83.1268704573858 71.2533908675133 3782.81121844406 24 27 20
-82.7829280043959 70.6742242946805 3767.96004803942 22 25 18
-125.483499250403 72.5273267014613 3697.76614138173 18 21 14
-96.4051195254561 70.3381608325764 3720.21791235011 16 19 12
-78.9276858169359 68.7981482571075 3727.57658404565 13 16 9
-42.7662010300565 66.1840745906055 3758.44874280233 12 15 8
8.52950761630789 62.6855046853316 3807.97004233742 11 14 7
37.6333681208338 60.4453723229304 3829.07679759029 9 12 5
-0.543350408374277 61.5441432713712 3750.99669513248 11 14 7
-6.01409406328735 61.3173983120253 3729.27274409577 12 15 8
39.6901933686653 58.0920307145796 3770.40500376141 19 22 15
60.1002593273168 55.2422955580085 3750.08649506158 24 27 20
-143.896668768861 73.1003021142673 3924.13540764187 12 14 9
-158.854430310546 73.3843190334282 3886.81061300284 8 11 4
-165.773285790608 73.2208803550093 3861.04802330924 19 22 15
-152.819925811082 71.923042717866 3863.06284589163 10 13 6
-189.334877803748 73.4789366284555 3796.77302373641 17 20 13
-195.397149114488 73.2916621266843 3772.91467795463 15 18 11
-193.239621773937 72.6324134872041 3760.46222540231 18 21 14
-155.975402798236 69.9201380428047 3795.67291566427 19 22 15
-126.270121524663 67.636560995147 3820.22846205773 20 23 16
-154.577231275697 68.7686677354617 3766.67784480134 20 23 16
-147.623508985848 67.8269444348557 3760.65690613455 20 23 16
-134.631146388353 66.5254112966754 3762.63794769295 21 24 17
-130.078925573584 65.7261922118324 3753.40419424348 20 23 16
-107.305226042024 63.8329836411643 3768.08498508439 19 22 15
-66.1249821027625 60.8207277645237 3806.52007950455 25 28 21
-104.277028497958 62.6005650501905 3741.64773475403 25 28 21
-68.4289090381713 59.8988368277485 3772.79238202004 24 27 20
-74.900635638472 59.7694590524779 3749.28855068319 25 28 21
-67.862003896404 58.8178878511791 3743.19408175677 22 25 18
-25.4684714978062 55.688304331451 3781.90159661623 19 22 15
-3.37604813874881 53.7973886642069 3794.52633740177 17 20 13
34.4247178099839 50.9240515625187 3826.62618954275 18 21 14
-21.5366326669169 53.8807902215449 3741.45161478822 14 17 10
-10.0368625958596 52.6466825143203 3740.75580489228 13 16 9
31.7582467511057 49.507904569079 3777.33553235657 12 15 8
10.519754836984 50.3268639782384 3736.18723340567 15 18 11
32.2532601369008 48.4402005911436 3747.7994574344 20 23 16
40.0738381338188 47.4305440620726 3742.35088484864 25 28 21
76.2349561437574 44.0984289471496 3756.02467655477 26 29 22
-179.951491315386 65.2023787527107 3858.83161211287 10 13 6
-139.544510391449 62.1813365614717 3899.26055470351 18 21 14
-131.783240212023 61.1714627002833 3893.86338774329 8 11 4
-137.568755126345 61.0065636233979 3869.76502225153 17 20 13
-189.562350443128 63.7429045175598 3782.47645604837 17 20 13
-148.81519559392 60.6765074823211 3822.61053605825 18 21 14
-164.988887201328 61.1875227748873 3785.01458437321 19 22 15
-159.814688823363 60.3569417415696 3776.5652047113 19 22 15
-153.711889775127 58.9701443589679 3754.08102250661 18 21 14
-162.469723924497 59.037183512699 3727.26401096789 21 24 17
-133.783287364635 56.7016198150596 3750.05644182726 19 22 15
-111.632922271324 54.778078538366 3763.95443471589 18 21 14
-87.5498006263258 52.7221001753325 3780.1481943538 19 22 15
-74.3638320144706 51.3675001307304 3781.96177449534 20 23 16
-80.7804440812809 51.2906909704522 3758.40983276531 20 23 16
-90.9826876999187 51.4685671322239 3730.19718734868 25 28 21
-58.6577343407533 48.8568234820055 3756.45470995228 25 28 21
-24.9235788766269 46.1405640109986 3784.13802544765 19 22 15
-4.07630590907937 44.2660393428245 3795.1950393628 15 18 11
6.25092350402046 43.0848062397684 3792.86833271581 20 23 16
-3.44003415562888 43.2376110752058 3765.53627622833 19 22 15
10.6330062781752 41.8078039183483 3767.90474755242 17 20 13
32.3158555572451 39.8641836812653 3779.56124605704 15 18 11
4.13393855704225 41.2735995542065 3729.87042090255 14 17 10
11.2515533340396 40.3130085148728 3723.70755298952 16 19 12
32.3728639122445 38.4031058849323 3734.52727790742 27 30 23
-138.086830426248 53.0381133148602 3919.22981540128 18 21 14
-123.862018015786 51.5927550544338 3922.7904176543 12 15 8
-136.00002291508 51.9047598873603 3889.63807708929 9 12 5
-169.477093566024 53.656553775224 3827.33087992928 9 12 5
-143.539342256283 51.4313949403944 3847.21162066777 14 17 10
-154.242756816387 51.6707453706842 3816.78643802151 15 18 11
-158.521789695313 51.4835011002988 3795.35259332635 18 21 14
-178.40622615784 52.3623922947564 3753.03029748514 18 21 14
-171.507017530025 51.427216939621 3747.05656533786 18 21 14
-146.566844081665 49.2576452625817 3765.15474520313 18 21 14
-129.346689946228 47.6100584834681 3772.73742294882 20 23 16
-109.882864526925 45.3366119373793 3767.7921367037 18 21 14
-102.865265090451 44.386540721138 3761.7158875126 18 21 14
-76.8866405886155 42.1177745453814 3780.2382236909 19 22 15
-102.943085616817 43.4717667924616 3731.35205646975 21 24 17
-110.748846157386 43.5629919345159 3706.35652904363 25 28 21
-45.13509869623 38.5056709347369 3775.23843994819 20 23 16
-33.0573533257876 37.1938165594159 3775.36544275765 10 13 6
3.30849981835479 34.1642399877274 3806.06347609517 4 7 0
-15.6652592507971 35.0436529476956 3766.92195817129 12 15 8
15.8968416909042 32.3428504759322 3791.19441223186 14 17 10
23.7525094401367 31.3217910487453 3785.71549998755 20 23 16
36.0236114642589 29.9850348779406 3785.67507499939 21 24 17
10.3960361278546 31.363524350599 3739.06418502807 18 21 14
11.8277215831082 30.8102078337766 3725.91658290008 17 20 13
37.4027720493837 28.5186503495816 3742.14202163251 13 16 9
168.325549693147 18.1298998980643 3869.58469557418 27 30 23
-128.070110080223 42.2683043993569 3918.55794871889 26 29 22
-160.750432979686 44.1386223803491 3856.88298998977 4 7 0
-160.147290572122 43.6416491414537 3841.80631353996 25 28 21
-203.312547135834 46.2942971589403 3766.71662627335 12 15 8
-179.826192139941 44.1629373012974 3783.42811349053 13 16 9
-162.173894677182 42.446486473068 3791.95962868123 16 19 12
-185.044937362755 43.6654627358329 3745.60710817279 17 20 13
-167.382793639198 41.9481123252378 3754.1304105975 19 22 15
-158.062120198302 40.8350913263209 3751.35241930362 19 22 15
-130.628309530938 38.3954911800921 3772.58438295088 18 21 14
-117.580181836564 37.003370980347 3774.51767790177 19 22 15
-122.709602382209 36.9470731750761 3752.49678535574 21 24 17
-116.342667490901 36.0473185417917 3745.66090358898 21 24 17
-89.802238505829 33.6545654763633 3765.02036793806 23 26 19
-97.4847742658502 33.7945842252555 3739.91740546874 23 26 19
-114.498536901987 34.635461208151 3703.04743602834 24 27 20
-79.7940549178167 31.6258684289886 3732.53847271499 17 20 13
-24.4553641170868 27.0609026958002 3787.82594169548 8 11 4
20.4429037367837 22.8233854536954 3813.78297373986 10 13 6
22.0786128514163 22.2661130562866 3800.45856260695 9 12 5
57.5835668217732 19.1495429399554 3829.25649466636 16 19 12
58.6271507589577 18.6354521175365 3815.12175901865 19 22 15
28.6617973649208 20.4814346106634 3763.00377519987 18 21 14
25.0844137421975 20.3307669059298 3743.60838611385 18 21 14
55.7876189422868 17.5653081141039 3765.97885770385 17 20 13
103.235978468004 13.5086728990033 3808.25137577495 15 18 11
161.827850581432 8.58159249348092 3863.36806383379 15 18 11
-167.345639906819 35.6388585764974 3865.30089332081 22 24 19
-146.771621336992 33.649951160164 3877.91874871963 8 10 5
-203.978856541581 37.1821005678941 3767.3531878464 11 14 7
-198.872704470334 36.3840689835826 3758.96257544318 14 17 10
-192.276137613433 35.0696437395478 3737.37353434212 16 19 12
-163.261657201991 32.4261784616751 3761.20689388594 16 19 12
-155.728367846746 31.4395812373056 3756.00717526752 15 18 11
-130.703095355379 29.0932855064366 3774.03305742248 18 21 14
-115.840047359853 27.5320101222717 3778.36417445791 20 23 16
-127.635655992751 28.0504667347259 3747.56056618589 22 25 18
-113.973184079646 26.582708691646 3750.28513792727 19 22 15
-94.7638131366224 24.6771281977836 3760.11514438626 21 24 17
-73.018374760419 22.5675260095391 3773.04204662277 25 28 21
-88.7094893915119 23.4058291721782 3737.67254454982 21 24 17
-78.0043963467243 22.1656392508228 3736.34197282485 11 14 7
-28.8677865286342 17.8781724467876 3783.76965486472 10 13 6
22.2312653350696 13.0138202712059 3817.58986168868 13 16 9
22.6256312977502 12.5796445903101 3802.69404787114 14 17 10
31.1348669001084 11.4990593485123 3797.97231147716 14 17 10
34.6148031427398 10.8215267722645 3787.02031982053 14 17 10
49.4428583797983 9.2337401928379 3790.05899277149 17 20 13
32.6274973185856 10.1917899445169 3754.33956314428 21 24 17
62.0781004776294 7.42458429851531 3775.14919952297 27 30 23
105.708392557843 3.50300827776759 3812.7899024427 31 34 27
134.212738914655 0.795078157357437 3831.77247224078 22 25 18
-158.015675227577 25.0624888887623 3863.89974809685 9 11 8
-143.272153008524 23.4794095001032 3868.3349192224 17 19 14
-210.796170384844 28.1961882568516 3744.20659547226 12 15 8
-215.015198423687 27.802015872182 3708.1652671931 16 19 12
-200.452825154319 26.244769354445 3712.75727922701 17 20 13
-156.399972989383 22.2641543713115 3756.64873657984 19 22 15
-136.806150262076 20.2823132653472 3767.46959541404 17 20 13
-119.544859863292 18.4884618462684 3775.01725116734 17 20 13
-135.593313712994 19.4434655247359 3738.63313523238 18 21 14
-125.002680243819 18.2010607950825 3737.40209960065 19 22 15
-98.5001243841035 15.637118242723 3756.79549926094 20 23 16
-73.7046257431855 13.2084992463977 3773.69749174308 24 27 20
-75.8555686086027 13.0194889744012 3755.71252538488 21 24 17
-49.6764783725645 10.4681615375318 3774.0629417097 12 15 8
20.5976501167506 4.22054613066405 3848.17670312949 9 12 5
11.1425311741713 4.63707632716151 3820.63821228905 9 12 5
15.0412759992222 3.5675898359763 3794.76894791968 15 18 11
19.1350356808746 2.85505468562455 3784.60873662733 18 21 12
16.9129861502872 2.67765658551877 3766.68532572456 19 22 13
18.4191348518747 2.187882152725 3753.47277187014 19 22 13
47.7696382490533 -0.662364444323327 3774.36970641792 18 21 12
51.1999630829236 -1.31598353127393 3763.46055979252 20 23 16
67.9992139319361 -3.10676457133327 3768.7621401911 18 21 14
-209.44245209307 19.3143401800396 3762.94100889954 16 19 12
-201.38823486453 18.27939491315 3758.61367305026 11 14 7
-175.49371584008 15.7076580581157 3778.53413059859 13 16 9
-224.021370373065 19.5525206655902 3697.49746730554 14 17 10
-183.755531815463 15.7381827622264 3736.73030724942 14 17 10
-172.685530892418 14.4423450591821 3736.40739373385 16 19 12
-152.547000081484 12.3580878372629 3748.08005902374 16 19 12
-145.619881440756 11.4187495668527 3742.08216324085 17 20 13
-128.98469933964 9.63370032622402 3748.8491716505 19 22 15
-150.635636004077 11.1882261251648 3705.40706515713 21 24 17
-133.997255221078 9.40327011721576 3712.17130055007 22 25 18
-105.034814438627 6.53551741851968 3734.72795722685 20 23 16
-83.3031273782852 4.29571090690067 3747.66730643751 19 22 15
-46.6642848089105 0.740497729994766 3779.45508152525 14 17 10
31.6493252125776 -6.49546812869733 3863.8107932495 12 15 8
39.6298422813377 -7.54588013013247 3858.22417533056 12 15 8
13.3403210193355 -5.56624867260269 3809.53596950141 16 19 12
10.9061686760512 -6.02407568913335 3775.91813591303 16 19 10
24.6675958098179 -7.91229176793362 3762.67958718262 15 18 9
65.4357159963914 -11.8776573740154 3797.50796211851 14 17 8
81.0015688757417 -13.6016040197466 3801.23130252578 13 16 7
73.0308967145996 -13.221946004227 3776.37684087668 16 19 12
-192.404368480512 8.62272086160062 3787.94343714378 17 20 13
-189.026064779573 8.0027341678108 3777.07947667827 11 14 7
-176.164934243505 6.52366030144236 3779.17541224972 12 15 8
-172.801749402843 5.90628635233409 3768.32422340036 13 16 9
-182.624921806229 6.49088231721692 3739.78038778147 13 16 9
-182.956883428984 6.21518665215995 3724.18982036322 15 18 11
-175.506368775365 5.23100841241933 3719.06182987892 15 18 11
-154.148599320948 2.9743057790193 3732.32537640624 16 19 12
-161.197658065313 3.31710318479353 3707.99561901158 20 23 16
-135.477776191689 0.656074093184883 3726.74475859961 21 24 17
-105.35561328133 -2.41503484950756 3750.94408192013 22 25 18
11.1322083953826 -14.3937226268836 3839.2977092373 10 13 6
-4.54846554533406 -13.2515779643267 3803.91687342939 9 12 5
33.8176893641076 -17.1187300405254 3836.85669896619 13 16 9
29.6493578559711 -17.9536029297788 3770.33707728372 19 22 13
76.4768555513671 -22.9353211506038 3797.27332066417 19 22 15
125.862149422755 -27.8674248386682 3841.84279930223 23 26 19
-191.304387866898 -0.717170843717613 3791.02066526764 17 20 13
-191.470581507788 -0.983840322508672 3775.28636229114 11 14 7
-189.309546381713 -1.47012326121992 3762.82943308013 12 15 8
-176.451957949066 -2.97620785998021 3764.92861375016 13 16 9
-186.620136787228 -2.55624356070253 3720.80479742301 14 17 10
-168.340619161158 -4.58154902665223 3730.11825612369 15 18 11
-151.795128835225 -6.44310595987158 3736.96349939057 16 19 12
-152.160126944562 -6.68073369119782 3721.40100368873 19 22 15
-128.238894561017 -9.25499362226767 3737.73843704605 19 22 15
-104.812474803027 -11.7857699295585 3753.18088413187 18 21 14
22.3078232105749 -26.0234263188877 3808.51301142605 10 13 6
13.2700358936542 -25.4166596716252 3781.93514791284 12 15 6
17.333337499609 -26.0840182983593 3771.80072747165 14 17 8
34.8952524673427 -28.3384372536804 3763.21072859063 19 22 13
76.4004876431725 -32.6708968710447 3798.72585912048 23 26 19
102.198924133952 -35.4709836860256 3814.76097643868 28 31 24
-187.846660241671 -10.3077574421804 3797.34933281871 17 20 13
-180.475437445902 -11.5449615329838 3776.41163004785 12 15 8
-172.353822460545 -12.6059012011399 3772.02604658452 13 16 9
-174.985447537923 -12.5893702216719 3753.13311199282 14 17 10
-183.081714467874 -12.0219504558554 3727.06271475854 15 18 11
-170.209895738453 -13.5568553328251 3729.14974827498 15 18 11
-150.047539047845 -15.8260907246317 3740.8029614817 16 19 12
-130.400338838114 -18.0463779341075 3751.57878575709 18 21 14
-127.694961070988 -18.5615551876776 3739.97381883373 17 20 13
-115.254102712442 -20.0579451818563 3741.1108707448 15 18 11
-94.8159466800354 -22.3633796805985 3752.52527331961 16 19 12
-57.6995355134606 -26.3586859347369 3785.22555073719 20 23 16
-87.5687904613831 -23.5770407681117 3731.69463543856 19 22 15
-74.2049937111511 -25.4072458424818 3718.80035134147 10 13 6
-14.9182221218611 -31.6667739270858 3778.61705385493 12 15 8
-10.877522482994 -32.3181532996685 3768.50211980506 11 14 7
-8.73694467222075 -32.7749947060658 3756.06304641553 12 15 6
-2.22790085350733 -33.6757041639528 3749.1036844078 12 15 6
3.64672012514777 -34.5112544642932 3741.37083188738 14 17 8
41.7891598183533 -38.6424468845499 3773.18269404651 15 18 9
78.8636330628458 -42.6706798344451 3803.27269667738 16 19 12
107.214173569602 -45.8118937562944 3822.39138322401 26 29 22
-170.327813066036 -21.6243971057485 3807.3823000178 12 15 8
-147.904059862515 -24.1887975336454 3822.37075125984 12 15 8
-140.263745987669 -25.2087469136036 3817.07848676613 11 14 7
-158.319290580716 -23.535887225973 3777.13629330926 10 13 6
-168.150534760932 -22.7201215510171 3748.597955804 10 13 6
-166.059920447499 -23.1522983892987 3736.20202774651 12 15 8
-131.997079673531 -26.9435825757948 3766.25394780052 14 17 10
-133.497584531753 -26.9986618331205 3749.02793195039 14 17 10
-122.287683025311 -28.3902340036133 3748.58438193226 12 15 8
-114.098488588631 -29.4639576981633 3744.14030777016 12 15 8
-94.00909926301 -32.0031723039426 3739.9781213704 13 16 9
-69.7602471825629 -34.7747942417865 3756.03255835814 20 23 16
-63.7171716774674 -35.8308668998932 3733.59799759057 11 14 7
-26.8157915716936 -39.948831720972 3765.16218411622 13 16 9
0.292611814618482 -43.0331356838149 3784.03384590319 15 18 11
8.11188784135597 -44.0724252165603 3778.58659380438 14 17 8
17.8212683812959 -45.3123672432236 3775.47251854727 14 17 8
13.0437252387061 -45.011244797586 3754.46790150073 13 16 7
11.9841196764328 -45.1033627776918 3738.18324326681 13 16 7
43.8764473136635 -48.7055708052896 3762.17500359812 17 20 13
-141.456924964159 -33.903891539827 3864.48660379179 15 18 11
-146.210686133152 -33.7670608872768 3826.25846976734 12 15 8
-172.502720334847 -31.0821116143215 3774.92134977214 11 14 7
-148.236964204556 -33.920365174255 3792.28514357179 12 15 8
-141.837852333397 -34.8057087582973 3785.42127947605 12 15 8
-139.653569527106 -35.2289033628719 3772.94379185099 12 15 8
-162.855285648916 -32.8675315659686 3726.87047514414 13 16 9
-146.890204245815 -34.7983340737378 3732.89596752796 13 16 9
-109.894786089086 -39.2204910793715 3751.14674829528 14 17 10
-100.457212394212 -40.4375202039872 3748.26842483744 12 15 8
-66.4450322588279 -44.3597802364546 3777.04184214253 14 17 10
-83.9954164199854 -42.606013739273 3739.3078054476 20 23 16
-65.2444264968111 -44.8499033051213 3748.21403859193 18 21 14
-37.1131727223712 -48.1303145304938 3768.84695170571 15 18 11
-31.8619923451076 -48.8876767218331 3760.330374518 17 20 13
-12.2654490643179 -51.2294483186482 3769.82763132431 16 19 12
39.3544631256506 -57.1139770958656 3819.08339306772 17 20 11
29.0606430159435 -56.1540811678195 3790.94505278001 18 21 12
25.5864243233628 -55.9462550623926 3771.457923892 20 23 14
35.9565624914513 -57.2704809432439 3769.09495328149 20 23 14
52.0583676225934 -59.2305359487938 3773.67887098055 14 17 10
-183.893704307868 -38.4169739247747 3823.21926002254 18 20 15
-163.350228978773 -40.9091835695763 3835.86684975694 13 16 9
-172.859180235367 -39.9853173015613 3807.04878440841 11 14 7
-166.029548271369 -41.0726383408604 3785.25595024785 11 14 7
-142.342563080736 -43.9252550407553 3801.79790231314 13 16 9
-143.712526967111 -43.9226974163685 3784.45836842204 15 18 11
-163.181588648499 -41.8532520870978 3743.09191389204 16 19 12
-166.537430609547 -41.6194476348007 3723.50201529547 16 19 12
-136.659035221953 -45.1810583198122 3747.9157991536 14 17 10
-96.9024271600674 -49.8751305025377 3784.94918642804 14 17 10
-75.821861286657 -52.4369461217656 3797.13171153064 15 18 11
-93.1826905727342 -50.5999462319556 3759.23252594472 13 16 9
-80.0199714087304 -52.2554201636871 3761.06852240153 17 20 13
-60.6577546029432 -54.6219875475803 3770.76903906381 22 25 18
-46.1557362379135 -56.4325166535217 3774.09142775529 16 19 12
-21.0652327728797 -59.4587639709142 3790.74160159895 13 16 9
7.87685974988683 -62.9293755597263 3811.99654051233 19 22 15
5.76174592653933 -62.8344548345452 3793.97867995558 15 18 11
4.21147189992022 -62.8028236773557 3776.79523894699 15 18 9
25.2171628951054 -65.3641079376051 3787.71939648257 15 18 9
21.7356154322723 -65.1087256108233 3768.23799602483 14 17 8
32.726544852753 -66.5180589787044 3766.66109120536 14 17 8
39.3022172984625 -67.4188560642676 3759.64429585234 22 25 18
47.7831538559466 -68.5387859639303 3754.94765772496 23 26 19
-186.995584855618 -47.5087100701324 3804.79293454799 15 18 11
-165.850743726021 -50.1354222871283 3818.24374689222 15 18 11
-123.852119867385 -55.2332350690001 3859.95281909692 15 18 11
-126.238374943826 -55.0757868558419 3840.84661587135 14 17 10
-140.193676349429 -53.6673683117793 3790.73505694859 9 12 5
-166.59785155331 -50.7729064943463 3724.93695981275 21 24 17
-142.77844728808 -53.7192619937608 3741.36474693609 20 23 16
-100.014525971782 -58.9186790758346 3782.41148223718 19 22 15
-66.1488412962194 -63.0638169712132 3811.31363218996 18 21 14
-98.7541856151184 -59.3044702914275 3753.53122849326 20 23 16
-82.5425471379151 -61.3501617511611 3759.34376548183 19 22 15
-49.0318775381207 -65.4562251742109 3787.22979017315 20 23 16
-10.605192983077 -70.2682258163299 3805.5661434882 9 12 5
-20.183461160117 -69.2427618304541 3778.13044460969 9 12 5
21.2818641806392 -74.3038190870866 3815.00846414393 14 17 10
4.76615515698198 -72.4489203124954 3779.02350372089 17 20 11
16.3521825577448 -73.9461291774816 3778.25495191172 19 22 13
17.8871231400448 -74.2428902953383 3765.01619236829 23 26 17
22.5456814230278 -74.911999533111 3755.68942929781 25 28 19
43.0408818885017 -77.4735765816054 3765.7324728372 19 22 15
-199.608024504641 -55.3413275554661 3773.42815737436 20 23 16
-156.100704450016 -61.1448263521096 3755.6065811803 14 17 10
-150.375634514912 -61.9380408145114 3748.00276007476 17 20 13
-159.786150927454 -60.8643306174252 3720.42166758838 19 22 15
-137.733785702394 -63.6701819723526 3734.41031787667 19 22 15
-118.015122367169 -66.1889242350633 3745.12613648867 19 22 15
-100.654671793054 -68.4172342926865 3752.59066185653 18 21 14
-105.917621357445 -67.8524808226087 3730.68147928295 16 19 12
-36.0843085460609 -76.7331660933769 3774.75716520593 11 14 7
-14.039270136001 -79.5427919953407 3787.4289294952 9 12 5
-8.73326265833985 -80.2829545616589 3778.86472023484 12 15 8
23.4653736825896 -84.3496666004473 3803.91757818502 13 16 7
25.0693731420633 -84.6316237975417 3790.61886690067 15 18 9
32.9346924161134 -85.687803725631 3785.1318169146 16 19 10
67.6961714842155 -90.1565365149935 3797.37925405485 19 22 15
74.3644776227925 -91.0641195336487 3790.28221372356 17 20 13
-138.31197581499 -72.4927400726012 3827.60351324277 17 20 13
-182.563771613721 -66.8991034237081 3752.11325003466 18 21 14
-184.057791766679 -66.7652168217875 3734.88038915391 15 18 11
-160.374608938771 -69.847943098983 3751.42712797944 16 19 12
-170.939183482253 -68.5536508675873 3722.19803252317 16 19 12
-152.58593325346 -70.955164812257 3731.4500223671 14 17 10
-145.079587246224 -71.9698959240701 3726.27415433801 14 17 10
-126.606129064229 -74.3870217905315 3735.42174128087 17 20 13
-72.558976190817 -81.4640219397985 3760.08444113212 22 25 18
-24.7657102766068 -87.6350723750579 3806.04181603123 21 24 17
10.2937047756995 -92.1774242372561 3835.234836274 10 13 6
-31.5117526136683 -86.8778303333666 3766.88960616856 9 12 5
4.28721460520798 -91.5149354601743 3796.76582035413 4 7 0
39.0248993842723 -96.0171115002235 3824.9144900896 12 15 6
36.2910585345992 -95.7190938376293 3806.10832554113 17 20 11
68.1199449434784 -99.8493759269838 3830.15881011134 21 24 15
74.8430448231487 -100.762503827028 3823.01399849323 21 24 15
94.2367877613135 -103.29953126201 3831.36503403666 21 24 17
59.0322882699015 -98.8361958287813 3773.18432794467 25 27 22
-137.763026618353 -81.9695421324468 3845.71604341642 15 18 11
-140.181744768944 -81.6768707828607 3826.6371008548 15 18 9
-175.473382021718 -77.0332963774943 3763.2370777256 12 15 6
-184.71948221892 -75.8353366138569 3735.51267465523 11 14 7
-165.246431975177 -78.4379295406277 3746.44191831647 11 14 7
-147.204838400017 -80.8753867957086 3740.08387258148 10 13 6
-120.86824411463 -84.3861918264683 3759.62725279612 11 14 7
-104.140954452256 -86.6247519007955 3766.31736703316 13 16 9
-104.452399336704 -86.6068561190344 3750.70679902762 15 18 11
-63.7449472061502 -92.0205352038405 3788.2439795128 18 21 14
-84.3115118049562 -89.319399794137 3746.50110045821 19 22 15
-17.033466376374 -98.2744911811166 3802.05546775371 10 13 6
25.5680524931163 -103.939511337205 3840.59945846827 7 10 3
42.8518655668304 -106.250683699643 3846.80768439014 12 15 6
28.3120204649996 -104.345296075944 3813.07994264459 12 15 6
33.0763628335058 -104.996881802282 3803.66137915203 12 15 6
54.1889213198381 -107.814280854856 3814.49425490912 14 17 8
54.5542460485149 -107.882144340811 3799.62123846082 15 18 11
47.2722912537735 -106.93597970295 3775.48943060968 20 22 17
74.852647416829 -110.609612903919 3793.95585282904 20 22 17
-133.734601124012 -91.9976469612883 3868.75655512849 15 17 12
-146.736869055238 -90.2123499509515 3835.02049455672 15 18 11
-144.427497980998 -90.523493143296 3822.43417785048 14 17 8
-146.324571431124 -90.2583056912952 3804.22623053225 15 18 9
-142.298849490192 -90.8037732330453 3794.1239073931 17 20 11
-155.104758287541 -89.0441413741338 3761.54108248487 14 17 10
-154.791368538341 -89.0805693935753 3746.71256073461 13 16 9
-152.708886526946 -89.3590011907768 3734.32268496392 12 15 8
-109.411135825452 -95.2801344223959 3776.23466875932 12 15 8
-84.1253047250881 -98.7345825962879 3794.04158074478 13 16 9
-81.3112264952007 -99.1117787968538 3782.34150510249 10 13 6
-116.515990446945 -94.2835141771338 3721.51182622052 13 16 9
-50.2147930679184 -103.342524697872 3776.59027535944 18 21 14
-8.44591226040725 -109.050839349898 3814.53264757561 14 17 10
6.8517198434157 -111.134796352745 3818.4907974462 17 20 13
24.6953628056277 -113.566725317699 3825.53784205874 17 20 11
36.9835872967021 -115.237759164594 3825.48505805353 18 21 12
47.4234808455893 -116.655249691462 3823.06223230438 18 21 12
29.5701602928893 -114.199812444796 3785.58621462499 18 21 12
26.702799949331 -113.795271805324 3766.89508594964 17 20 13
49.7360046673925 -116.935120524893 3780.03577170472 16 18 13
65.2477526469388 -119.045038300047 3783.80850787596 16 18 13
-112.745701309868 -104.535526386078 3915.49048241876 17 19 16
-133.831043867516 -101.512226852205 3870.22537662051 17 19 14
-168.728903923406 -96.5340398275631 3806.48188434251 15 18 11
-181.937647420721 -94.6272145820032 3772.92399605955 13 16 7
-129.117430914033 -102.066378340841 3829.08936572605 15 18 9
-163.311942748912 -97.1891475728819 3767.38374771944 19 22 15
-173.180291947385 -95.7551882001649 3738.87388006951 18 21 14
-165.697330239623 -96.7764040403851 3733.71800656166 18 21 14
-152.166354818664 -98.6527978800625 3736.55919900952 18 21 14
-83.5928861473749 -108.274354970427 3796.28876964556 19 22 15
-100.309554341618 -105.87075453165 3759.15117128651 15 18 11
-105.547531665972 -105.090569982552 3737.21894837612 22 25 18
-70.9177090683304 -109.946519705981 3766.78665947566 22 25 18
-26.2358403777569 -116.221854942311 3808.82453456829 23 26 19
-15.3321941958535 -117.72138995188 3807.32386577795 11 14 7
-16.8189932685596 -117.469452057486 3790.08398115207 12 15 8
7.79593569388748 -120.905435048727 3805.82543122388 16 19 10
43.774535456981 -125.945631370095 3835.54856346754 18 21 12
0.947331638249782 -119.852714003083 3766.76051609078 20 23 14
37.0458905395763 -124.908256939558 3796.3797748839 21 24 15
51.8777888829218 -126.959069205245 3799.41780178164 20 23 16
49.032209968296 -126.513213769122 3780.70784215083 21 23 18
75.9741160237843 -130.27255214692 3798.40461101398 18 20 15
-110.337775567991 -114.480984633113 3904.2044363132 17 19 14
-145.729464662461 -109.235165507549 3839.56396827864 15 18 11
-174.883717988565 -104.903607771758 3784.08034654265 13 16 7
-198.924807212544 -101.321384856448 3736.07979627167 13 16 7
-160.392521420149 -106.88339513263 3772.85639554035 15 18 11
-178.643747815987 -104.1482040503 3733.07660708892 16 19 12
-164.554790052028 -106.137298281631 3736.75848286994 16 19 12
-111.972279358371 -113.534105298602 3745.48874419933 26 29 22
-118.468227889159 -112.516088534219 3721.99878724793 23 26 19
-83.8889240697478 -117.488802186464 3751.61072590876 24 27 20
-23.8487951667388 -126.171445299084 3813.43700566208 24 27 20
-15.4105989633093 -127.328160669385 3808.77733499377 9 12 5
-13.7900923784278 -127.490771977443 3795.46354302615 9 12 5
-8.4702109998438 -128.192327657181 3786.88737409643 15 18 9
-30.6489596951782 -124.887893873653 3743.89108630205 17 20 11
-2.88073597563399 -128.858949936947 3763.51986513703 21 24 15
9.30350184808848 -130.559127728922 3763.55739896766 21 24 15
51.8022519366874 -136.671214341855 3800.86978369543 20 23 16
113.997558337288 -145.56930300036 3846.27235809271 20 22 17
-171.256954851719 -114.834322731427 3806.14510149667 16 19 12
-167.834657162934 -115.249412119809 3795.24136660806 14 17 8
-169.430584156417 -114.807343936939 3762.21444250814 15 18 11
-162.509977609928 -115.749652900309 3756.22221024157 16 19 12
-161.607537691305 -115.78519910588 3742.20670820708 17 20 13
-160.745587994509 -115.814813342715 3728.22626206394 18 21 14
-141.138615516156 -118.665763995577 3739.04103987491 19 22 15
-127.525033503393 -120.613296280143 3741.81141071213 20 23 16
-121.797151450281 -121.373742458688 3734.20493990353 22 25 18
-142.399622304321 -118.174968192374 3692.4899573788 18 21 14
-29.0922176255655 -134.895780081175 3792.89435263957 12 15 8
-12.6243776270996 -137.263929497293 3798.48660458335 13 16 9
-19.124366515316 -136.182967220954 3774.99974166647 14 17 8
-28.212587456343 -134.714503557149 3748.46000696996 16 19 10
-12.3454702298855 -136.990823813064 3753.24907100563 18 21 12
-4.59233132297676 -138.048963800523 3747.85926447727 17 20 11
9.47197776675823 -140.05279454805 3750.23933877112 16 19 12
65.9738127494105 -148.41556398854 3804.54296323019 15 17 12
-151.409321372552 -126.988791379448 3803.57802153663 15 18 9
-148.584358005138 -127.294033051424 3791.86804508725 13 16 7
-151.184106368579 -126.75734180849 3772.94411115032 14 17 10
-161.069219003227 -125.091004517426 3744.44695164554 15 18 11
-158.162702916984 -125.27929232163 3718.1087165278 16 19 12
-139.136649428366 -128.097104333203 3728.10352209675 16 19 12
-112.099099336378 -132.153879509807 3748.36615749048 16 19 12
-100.836293937481 -133.765112350824 3747.87817717376 16 19 12
-91.3862399196566 -135.094753606185 3744.98945078799 17 20 13
-50.801028346136 -141.105297271497 3766.75605673865 12 15 8
-37.5071162705232 -143.025499552257 3768.4800590296 10 13 6
-4.26035240763634 -148.027604241293 3795.27705029386 12 15 6
1.6908281018293 -148.809865814992 3787.47749556392 14 17 8
-12.4092768512956 -146.495927464823 3754.68922867842 17 20 11
-4.65448473399954 -147.557172375154 3749.29832488602 18 21 12
-200.304296149788 -128.536015518008 3738.7750612754 15 18 9
-151.64693943758 -136.154418787003 3789.28655101698 15 18 11
-150.056129926491 -136.243922103108 3775.99802482906 15 18 11
-140.344640524729 -137.466611595261 3758.32519381716 14 17 10
-164.8808306002 -133.387729987259 3710.75054688966 15 18 11
-175.046734079849 -131.60536682853 3682.49600705264 15 18 11
-103.626915094224 -142.830760173695 3760.94268797702 16 19 12
-58.577769917334 -149.509496838321 3773.55089761264 21 24 17
-49.0147380609582 -150.864631214665 3770.56472998216 16 19 12
-54.9346083482849 -149.756925644387 3747.89782948381 10 13 6
-7.44505059408551 -157.139624776706 3792.8030298035 12 15 6
-3.37437091881165 -157.617995885741 3782.66130539345 14 17 8
-1.82862321765054 -157.695412099551 3769.4117575712 18 21 12
8.47527046186247 -159.163216871265 3767.10713383485 16 19 10
-10.8221826798682 -155.934347160815 3728.2312641733 18 21 14
31.6751613356514 -162.506858905429 3765.54785116147 18 20 15
73.7686118637808 -169.009549577874 3801.89047832571 17 19 14
-118.877248278026 -150.885555315753 3835.08731248363 13 16 7
-131.551395235511 -148.602237144549 3802.38689135232 14 17 10
-139.550334200811 -147.090389711882 3776.22601655785 14 17 10
-132.244140206942 -147.898270663325 3755.3418945624 14 17 10
-159.907839592835 -143.166159733607 3703.8568040428 15 18 11
-137.825835862805 -146.594267387467 3717.82379780981 15 18 11
-86.28578177417 -154.844923089189 3769.8106297457 19 22 15
-76.1708465247266 -156.304206133373 3767.67004336457 19 22 15
-58.0313373240697 -159.075649945339 3775.78611101022 21 24 17
-39.1995180415741 -161.957642742503 3784.62642136828 17 20 13
-29.5859973077923 -163.330348296882 3781.59629156177 11 14 7
-28.0395357110468 -163.384265500438 3768.34597270638 13 16 7
-4.06932903475798 -167.099724592271 3783.32509241072 15 18 9
5.61521572077428 -168.480557790867 3780.23345619896 19 22 13
9.66441061318779 -168.941415539542 3770.10992442262 17 20 11
9.28304158094928 -168.680225269828 3754.55870114787 17 20 13
30.9767211245582 -172.0159357997 3766.2148334527 19 21 16
-162.354938421807 -153.258670301871 3793.38472009292 15 18 9
-184.03362905868 -149.364636845071 3748.62824802507 12 15 8
-154.991337276302 -154.047363526995 3772.45071691872 12 15 8
-106.098982262779 -161.84530594691 3806.87929608728 13 16 9
-107.496674170974 -161.379290204542 3789.56047633637 14 17 10
-129.597697435519 -157.42547609523 3745.16966775738 15 18 11
-123.867548271094 -158.164997941212 3737.56109637172 15 18 11
-82.3728540183972 -164.695404832681 3761.18962697707 19 22 15
-91.9519283516159 -162.857543993822 3733.74967798409 21 24 17
-75.0878802811106 -165.465035292625 3740.32364947661 17 20 13
-31.5156690024248 -172.553654257717 3780.68173737607 12 15 8
-12.5659141311836 -175.503001783418 3789.42026518053 11 14 5
-27.2171965003434 -172.815442678194 3755.78435714231 13 16 7
-1.33825725197845 -176.923355375252 3773.08143544326 18 21 12
-2.33141926516778 -176.526857150913 3756.73602195188 17 20 11
16.1480090586803 -179.390370395602 3764.55806608744 17 20 13
-205.25072743667 -155.135560831345 3736.618056912 14 17 8
-203.791867863813 -155.134173234219 3723.44330750304 12 15 8
-171.229962324908 -160.532126753874 3752.16003158887 12 15 8
-116.427205476517 -169.518246601544 3794.70710771907 13 16 9
-119.065274562508 -168.800359247268 3775.81521357448 14 17 10
-121.16157338304 -168.178219292049 3757.77762898474 15 18 11
-112.35494310606 -169.4433080069 3754.12290190858 15 18 11
-93.1457410526853 -172.505147959412 3763.96054734039 18 21 14
-85.025645570894 -173.132499552825 3729.13626257578 16 19 12
-25.3921874999814 -183.152302542213 3790.00010700126 10 13 6
-18.2313888435126 -184.123125825017 3783.79987637286 10 13 4
-17.3051847153269 -184.020570970464 3769.76288214544 12 15 6
-0.155364756704301 -186.708767352342 3776.08968784152 17 20 11
-19.3408703713618 -183.150381006256 3737.11433844549 16 19 10
-104.432033211043 -182.872131193281 3907.46908972453 16 19 12
-151.210247050713 -173.918584105429 3811.64977915034 14 17 8
-188.338865705559 -167.004599054908 3745.85712338518 12 15 8
-145.17005496918 -174.116611313993 3773.3317648772 13 16 9
-126.997837733194 -176.767337920917 3766.86188491088 15 18 11
-118.192719642249 -178.041116083887 3763.20852480855 16 19 12
-105.721262272677 -179.964513094614 3764.321822473 15 18 11
-131.092135415513 -175.17600891889 3716.1427661183 17 20 13
-98.4434673292442 -180.675386619846 3743.46168634481 18 21 14
-78.9118385562162 -183.55559839657 3738.46156434966 14 17 10
-16.7963075979611 -194.246981262415 3802.47181784218 8 11 4
-0.907549433990518 -196.758222711562 3807.24396270745 10 13 4
-10.2299521268447 -194.524049588871 3765.02184741992 17 20 11
127.399911495396 -217.868976062114 3889.38204246105 19 21 16
-139.356606259985 -185.812785610223 3845.12364123253 15 18 11
-139.9976295207 -185.365646837654 3828.47268827489 22 25 18
-163.950426709418 -180.656518903021 3780.38830975074 13 16 9
-164.178656836989 -180.292429105587 3764.70337317845 12 15 8
-153.332649978214 -181.631532055837 3748.69480672595 12 15 8
-114.368821840277 -188.414708132504 3785.10528591695 13 16 9
-86.1064184764011 -193.238449018279 3806.95810416703 13 16 9
-82.6569049390198 -193.540006368094 3796.03004463375 16 19 12
-71.90224802248 -195.170240205415 3794.65935712671 17 20 13
-73.9918356919591 -194.465672443123 3776.61542160688 18 21 14
-74.2979498820122 -194.087021621622 3760.99789559526 21 24 17
-14.0262071237762 -204.039764482999 3792.19444892488 8 11 2
-10.5859517777565 -204.33648184789 3781.2743824356 10 13 4
-4.0443288302896 -205.194298653718 3774.28650498048 15 18 9
-18.8314951589339 -202.199788502709 3740.76638340381 17 20 11
20.9839185474769 -209.06435249294 3775.11602929634 17 20 13
-128.239747508275 -197.754395165471 3877.9131451245 0 2 0
-138.260176258747 -195.505407789921 3848.20623250203 13 15 10
-123.445381573402 -197.923451739297 3852.58503981033 29 32 25
-138.386013813847 -194.758513856374 3816.54967550986 14 17 10
-212.105468100082 -180.588799807396 3701.70000249489 13 16 9
-170.521915019961 -188.028175491145 3742.46105948956 12 15 8
-174.478015804299 -186.939115556257 3722.06262384226 13 16 9
-112.023133785444 -198.26051553696 3789.75293022845 15 18 11
-122.571225290189 -195.936095330369 3760.5028730751 17 20 13
-102.812287109553 -199.268874500815 3771.18905901035 16 19 12
-62.8177736994733 -206.366829726544 3808.03150687726 17 20 13
-114.931910968874 -195.960055900494 3710.21099611835 21 24 17
-68.5467396726995 -204.232803737328 3754.75559903075 17 20 13
-36.1301236277707 -209.898794860152 3780.95346588953 12 15 8
12.3913689059738 -218.181202302094 3811.73621060324 9 12 3
-0.362527563212645 -215.45998351752 3780.42565001834 14 17 8
14.8644286373893 -217.209223417959 3754.00567961138 18 20 15
-117.010435808862 -208.296266733769 3847.07485711433 7 10 3
-166.382929410733 -198.041049546901 3749.52525356369 12 15 8
-124.555903814271 -205.672151942059 3790.07652657079 12 15 8
-133.243387136558 -203.622383709509 3763.18569130769 14 17 10
-129.911967349566 -203.875848378208 3752.35967623092 16 19 12
-110.788453129588 -207.146409960237 3762.27294290931 15 18 11
-87.3095400469484 -211.243025560933 3777.68035433427 17 20 13
-112.100936611367 -206.131113110057 3730.32020997844 17 20 13
-101.465679960919 -207.777336178057 3729.05311458443 20 23 16
-83.4069929149486 -210.834122496652 3737.24108272322 18 21 14
-7.12627300147517 -224.95356005172 3819.43328031439 14 17 10
34.8590356871421 -232.53449739714 3857.2002013483 8 11 2
17.2955415184788 -228.804428445075 3819.46472107898 7 10 1
10.8135049438247 -227.183187599655 3795.95848171522 9 12 3
-30.2333331640199 -219.020681094391 3729.5840145223 14 17 8
37.5151440821169 -231.067869688742 3783.42741764689 18 20 15
-103.394651035152 -220.509383231523 3867.11317785664 22 25 18
-168.566526651275 -207.269801252511 3763.38795270888 16 19 12
-179.04402553151 -204.798016034559 3734.0757554615 13 16 9
-138.473863612731 -212.34485599262 3773.06901411575 12 15 8
-165.322069463317 -206.668280193447 3722.1945622656 13 16 9
-137.248018726771 -211.754558116737 3744.21233375459 13 16 9
-116.935169085072 -215.314201408916 3755.74347118653 15 18 11
-110.565527272325 -216.144575394161 3748.9044781325 17 20 13
-110.93383488559 -215.659792461353 3733.34048517041 16 19 12
-117.493981233542 -213.970481843717 3709.90150526097 19 22 15
-21.2156847552181 -232.311565259931 3818.45920471687 18 21 14
15.0564570120002 -238.943931847654 3849.26149172939 16 19 12
-24.1723263835727 -230.891648530914 3783.95880267418 9 12 3
-6.43885982783443 -233.915716166025 3791.10517821179 8 11 2
4.8007315333658 -235.255595247974 3774.75516744032 12 15 6
-20.08487427549 -230.020722547245 3728.79945722241 23 26 19
-82.0453214642809 -234.410396248032 3897.66314834436 22 25 18
-166.242439061265 -217.006371791866 3768.05361106206 16 19 12
-164.710252879021 -216.867359559126 3754.81441503399 16 19 12
-130.356849445244 -222.867699913846 3770.07199259399 13 16 9
-145.791254535026 -219.329445840688 3734.46249538512 11 14 7
-119.430665122398 -224.161397312199 3753.99363922233 15 18 11
-103.917707181827 -226.816651489113 3759.09212134242 17 20 13
-98.1392494905626 -227.524531626031 3751.44147418106 15 18 11
-94.8247211600672 -227.741025206544 3740.63017547607 18 21 14
-67.5051163126446 -232.740245974552 3760.65445094583 19 22 15
2.60595884183967 -246.244947140776 3834.95656264829 18 21 14
2.42814812379377 -245.751196759186 3819.22708555765 12 15 6
-20.2016073051023 -240.801736854487 3775.28778082816 12 15 6
-1.19610892858368 -244.12281913859 3783.98040258341 9 12 3
-127.604954496798 -233.75257766855 3806.13476551183 17 20 13
-132.595489000898 -232.243066221326 3783.98334895843 16 19 12
-120.162795202555 -234.311197857285 3785.13118228738 15 18 11
-96.7906288028804 -238.616655679612 3800.63215268939 12 15 8
-92.7541486011791 -238.958364338962 3790.51886910345 15 18 11
-89.9571952176239 -239.047567328477 3778.83176997784 17 20 13
-98.2014309203398 -236.884518152365 3752.87959839211 15 18 11
-100.409242712432 -235.958619399877 3734.93669773854 18 21 14
-76.808676041936 -240.292410841874 3750.23988901863 19 22 15
-33.938823810324 -248.538190869606 3789.89128982346 19 22 15
1.10916499967795 -255.177752519252 3819.10811908565 13 16 7
-1.60611749068096 -254.138926975753 3800.28106888657 14 17 8
0.606408447338058 -254.103064904452 3787.77612722536 9 12 3
17.8156708042172 -257.106302886261 3794.05345353565 8 11 2
-115.610926366957 -246.230382004541 3839.49073060193 13 16 9
-166.037143736598 -235.112466228606 3756.08270778047 16 19 12
-135.07180407028 -241.103055846823 3782.2169750635 16 19 12
-117.820183213557 -244.20658821039 3789.78149852161 16 19 12
-113.213023886521 -244.65734734389 3780.49786985965 14 17 10
-100.389100612987 -246.314530067051 3766.74681593624 14 17 10
-98.2639315856808 -246.248406427806 3754.31770906668 15 18 11
-93.7164637243275 -246.688851146893 3745.08575030595 17 20 13
-86.7220726475808 -247.639150483873 3739.02961811267 17 20 13
-28.4500833778272 -259.24876494338 3798.43696124643 17 20 13
-14.4660223006898 -261.637029556743 3800.88876500546 17 20 11
-1.68011671066326 -263.772910398316 3801.73089599505 18 21 12
-3.83196526803786 -262.810839140163 3783.73957110848 15 18 9
-7.29739996040379 -261.580703625511 3764.23788870846 13 16 7
-171.212293111464 -246.000391759439 3828.12978696044 7 9 6
-142.927858502913 -251.549835579811 3851.29147338406 16 18 13
-129.34894189528 -253.359455363375 3838.21060378096 13 16 9
-152.115977299694 -247.910053498767 3791.74052316017 14 17 10
-144.533114533345 -248.992003298076 3786.49845537151 16 19 12
-160.99217286317 -244.917836829741 3749.12675197381 16 19 12
-139.60792966541 -248.960190194498 3762.37923933026 17 20 13
-127.203879659623 -251.073443469793 3763.5518761403 17 20 13
-119.013438689555 -252.283007158875 3759.10760180946 15 18 11
-107.767473705878 -254.143374224541 3758.63583208192 15 18 11
-96.4922970604545 -256.007136293293 3758.13876555685 14 17 10
-82.1203658989616 -258.527232115907 3761.5788190264 15 18 11
-51.0790283347471 -264.586865016128 3786.32440272971 17 20 13
-36.5523548202411 -267.126924129484 3789.63014928953 19 22 15
-12.0613180344931 -271.775872883968 3805.48715672534 18 21 12
-14.188500857824 -270.776722428388 3787.47389737351 20 23 14
-1.40654597744305 -272.936175406034 3788.31960533318 17 20 11
-14.8717821863844 -269.545352632907 3756.29767303407 16 19 10
-32.8674725281886 -265.207833145293 3718.93285642852 17 20 13
-210.734000287852 -246.681158408683 3775.04755473095 10 12 7
-181.411077678784 -252.570274316333 3799.95818461713 22 24 19
-116.366157620143 -266.310008647306 3873.3594790615 28 31 24
-158.157288947302 -255.946838135284 3785.11852929479 15 18 11
-148.433679623413 -256.927003913624 3767.43362195103 16 19 12
-149.924300131535 -256.02855924657 3750.1928601206 16 19 12
-124.848625131876 -260.937486992206 3768.19134701637 16 19 12
-119.077386505436 -261.624153400719 3760.54681941248 15 18 11
-81.6362831498054 -269.211516664206 3794.31221192988 15 18 11
-108.16917863827 -262.859705799849 3744.48367010007 13 16 9
-120.208771305086 -259.675697805161 3713.87394320795 12 15 8
-69.6097502986124 -270.09841436597 3764.04395560547 15 18 11
-9.6585458485019 -281.940109493317 3810.08707208484 12 15 6
-19.2309776462931 -279.288870938074 3782.63609505979 14 17 8
20.9712122273968 -287.39722722344 3817.98182882278 17 20 11
18.8493927656279 -286.35661699819 3799.9639677052 18 21 12
25.4534880910349 -287.200539454602 3792.92185315884 20 23 16
29.5349760015808 -287.501306471618 3782.76960998385 19 21 16
60.7629733970794 -293.63817841241 3806.03064854078 12 14 9
-202.564714934956 -257.74681073106 3787.88913782242 15 17 14
-152.604794453147 -267.762478578641 3825.37688867157 16 19 12
-139.031066447222 -270.192408786126 3828.18461284676 20 23 16
-100.370563905223 -277.616212910859 3848.98175400385 19 22 15
-132.50417937656 -269.200446521671 3774.88023523948 14 17 10
-107.978077561758 -274.064347632742 3792.03150432293 13 16 9
-54.1996505160616 -285.431943387435 3847.39181480998 12 15 8
-94.4973117466095 -275.848015742983 3779.03522185933 11 14 7
-104.933454258455 -272.324280253716 3735.12354676538 11 14 7
-83.8227565620349 -276.405094256696 3747.28979868126 13 16 9
-73.7267573786786 -278.040078342324 3745.16676341638 21 24 15
-19.0233649625098 -289.529905020542 3799.72616522878 14 17 8
-12.4655104496441 -290.366799439822 3792.72439922774 14 17 8
-22.1190096694555 -287.630115071662 3765.34313256029 16 19 10
10.6454722071749 -294.239891202144 3791.24529183636 18 21 12
40.1679821320395 -299.508631637951 3797.45168239977 23 25 20
87.8462426954663 -309.35479985174 3840.88602968077 28 30 25
-124.252237924784 -283.702922535078 3865.75020319416 14 17 10
-121.874290197124 -283.588856816338 3853.10169327311 10 13 6
-59.0805700502042 -295.961000986321 3890.06791667471 12 15 8
-129.558715205774 -279.237965505477 3780.33253520049 12 15 8
-84.4672957248829 -288.860375608182 3824.68396428757 10 13 6
-97.363159116564 -285.281534253841 3792.16731773678 9 12 5
-92.7326730717803 -284.418730358124 3752.41775040081 15 18 11
-90.0323282559192 -284.397937270759 3740.81367261606 16 19 12
-151.707237983756 -289.620247872505 3893.5548811484 159 161 160
-174.457408062542 -283.571860432505 3845.74304043013 14 16 13
-208.001392617534 -275.009228680476 3783.44970555694 17 19 14
-173.374750207075 -282.454886316423 3815.683476155 16 18 13
-165.794155581104 -283.549945164301 3810.44345919209 10 13 6
-174.252553288614 -280.894685523437 3783.35045910571 10 15 8
-111.860945409608 -294.787160816654 3852.43552896743 9 14 7
-68.8316336165888 -304.129042293378 3894.60234494756 7 12 5
-80.7900719663377 -300.647549998562 3862.59709011401 6 11 4
