ply
format ascii 1.0
comment KinectMotionCapture
element vertex 786
property float x
property float y
property float z
property uchar red
property uchar green
property uchar blue
end_header
-214.59383035683 512.623998484243 3671.57434791484 30 32 27
-209.075466634086 511.531163872947 3664.15162805954 22 25 18
-191.455901014271 512.408082377231 3672.69502353003 14 19 12
-190.771376811182 510.52573928013 3658.88036416894 19 24 18
-196.222659851399 507.669346836225 3637.15658609917 20 25 19
-208.48321838531 503.749531750863 3606.78441121709 16 21 14
-181.049737025403 504.211735321184 3613.441040395 27 27 17
-183.014141723081 501.964146303816 3596.63131072827 32 32 22
-177.597903848794 500.882220541705 3589.29703632708 25 25 13
-170.323611362853 500.08974737293 3584.32085718895 42 40 28
-163.668765733134 499.200356278939 3578.55862655249 46 42 30
-157.639571093349 498.214792950537 3572.01571693131 39 35 23
-149.729777625876 497.515735981087 3567.81138178246 46 40 28
-142.44158935292 496.719961923844 3562.82286454324 42 36 24
-134.516631171272 496.018114122273 3558.6054036762 44 38 24
-129.120105446024 494.93632780585 3551.28821359952 40 34 22
-123.095103132331 493.94958461907 3544.7492607764 36 33 26
-117.073935308722 492.96302845492 3538.21363023176 32 31 26
-111.697097442352 491.882785638027 3530.91349432813 32 31 26
-83.8426204026157 494.075964996062 3550.42756991109 36 37 31
-71.6916565419652 492.085648436719 3537.26226832848 39 40 34
-47.4608621552321 493.685633361372 3551.98076757498 32 33 27
-14.0093917762787 496.563899257354 3577.2260064739 33 34 28
4.59820171630421 497.300302726556 3584.91395321374 29 32 25
-13.388507927341 492.882901955743 3550.24460655983 21 24 17
-20.364985525692 490.042878757192 3528.51940249085 31 34 27
-23.4745458300294 487.761803807347 3511.37886095529 30 31 25
104.051715023268 501.552732626793 3628.37517790217 27 28 23
93.856882400718 498.244430273599 3602.82585240234 26 28 23
172.855699967488 505.066027233226 3662.67598798559 38 40 35
210.305006985442 508.122182673334 3689.74867995433 44 46 41
225.719927412662 508.204330491277 3692.26755902102 113 115 110
238.482746584983 507.923178965766 3691.79442027439 184 186 183
250.60072867474 507.548409082848 3690.55721526998 168 170 167
-314.348786282255 511.262260029415 3715.69687492888 46 51 44
-312.905430530808 509.486629414307 3702.54739387434 188 194 190
-308.595437650006 508.210542700349 3693.52636268329 176 182 180
-304.883436622731 506.837537670288 3683.70131520011 160 165 168
-297.683064168141 506.057632218599 3678.78880825821 157 162 166
-288.717533072907 505.571373369466 3676.31457016641 163 168 174
-279.734604240687 505.082554192911 3673.82558493445 166 171 175
-270.734571934767 504.591110038051 3671.32147700413 161 166 169
-261.124434905153 504.194496048187 3669.61121575009 160 166 166
-250.897967074197 503.891836058655 3668.68972599746 162 168 166
-233.481948135076 504.747479044427 3677.40968055839 14 19 15
-216.59035556188 505.496252145118 3685.26129043554 10 15 9
-209.246107883204 504.694784954314 3680.22422138599 13 18 11
-215.769942006731 501.684129488166 3656.78422426371 16 21 14
-184.859379673195 504.620804629826 3682.90843564485 16 21 14
-197.508148879959 500.661823968602 3651.54972982881 13 15 10
-201.14768591559 498.147749699088 3632.22352627325 14 16 11
-210.970594313504 494.693467227482 3605.02889473629 21 24 17
-214.155714354702 492.294643102899 3586.63166119896 16 19 10
-187.246516868416 494.528110079389 3606.9647834838 15 16 8
-176.257662033435 494.296688032193 3606.70530475955 20 21 13
-169.57679195573 493.404271275838 3600.92053740495 21 23 12
-161.030416525719 492.792107051081 3597.48715159245 27 27 17
-155.589937077137 491.711527874748 3590.13185742157 20 20 10
-154.537726042281 489.980676081335 3577.32078987171 24 22 10
-149.75504280261 488.810701302559 3569.21294973293 16 13 4
-144.354300668443 487.734477742285 3561.89238460913 33 29 18
-133.905821266895 487.396199989647 3560.77870025215 37 33 22
-128.504520056337 486.319160306854 3553.45734033239 31 27 16
-121.838915736356 485.426014706177 3547.68580908167 40 37 30
-117.725514133403 484.167143076871 3538.83537457618 33 32 27
-95.063009898539 485.550901582711 3552.26773116438 33 32 27
-99.9137320155663 483.016657500281 3532.6681750832 36 37 31
-91.9524305590715 482.302107895848 3528.41898098866 36 37 31
-91.0924673482514 480.593575433911 3515.77471242118 35 36 30
-48.7708979327008 484.646900966295 3551.85121749812 39 40 34
-13.3778553180224 487.683000805842 3579.38301682543 39 40 34
-9.47129811762437 484.500711728252 3556.16719394712 23 26 19
-27.5918781609086 480.205294134249 3521.61340263931 28 31 24
-8.32261361893138 480.979248926121 3530.05087283574 34 35 29
58.2888955943521 486.1913769959 3578.15095083418 31 32 27
141.707537201738 495.344345879747 3657.97574747937 31 32 27
106.884532409749 488.864261314072 3604.82865885412 31 33 28
220.328814301971 499.821359439604 3702.28822691064 35 36 31
233.082160826778 499.519962277412 3701.8231141275 175 177 172
243.16757263765 498.868335060247 3698.37930675696 191 193 190
-302.906034575252 504.494334576977 3733.61357394897 9 14 8
-303.731008838668 502.350717759859 3717.13884609817 190 196 194
-302.867304833558 500.502723094717 3703.16866258343 174 180 180
-300.296435069147 498.94780095706 3691.6870161536 158 163 166
-294.246620050862 497.970809080663 3685.12617856596 153 158 162
-285.853864209791 497.375919526307 3681.82582843269 157 162 168
-277.447901372827 496.77901182117 3678.51404439903 154 159 163
-267.256871879544 496.464835327423 3677.62334495471 164 169 172
-257.040394953441 496.147022187841 3676.71061287122 163 169 167
-245.014374121312 496.108621674647 3678.19745605659 158 164 160
-227.579210879662 496.911980945752 3686.90115636216 21 28 21
-205.877302072139 498.361976518149 3701.16598183044 17 22 16
-202.099511649431 496.990868844897 3691.2835845057 19 24 17
-204.371225289739 494.689154580016 3673.41698489365 23 28 21
-213.964104778889 491.279013223768 3646.02300851049 20 25 18
-207.276213307527 490.387417527784 3640.23215014114 17 19 14
-204.242489086323 488.940568492198 3629.67189167221 17 19 14
-203.066251741167 487.220014805301 3616.753574842 23 25 20
-198.247090471689 486.055547669002 3608.61408219393 17 20 13
-192.209207161668 485.075611304739 3602.06360532708 19 20 12
-176.296968589057 485.55779228287 3608.11926229839 25 26 18
-168.994443204175 484.755985222336 3603.11835766294 29 30 22
-161.065757692368 484.044053668108 3598.89773152783 30 30 22
-156.246057612905 482.877837156646 3590.75778320978 25 25 15
-152.689487159583 481.532359422039 3581.06695910153 29 29 19
-150.408256081517 480.009227080275 3569.83614693343 26 26 16
-141.85843759567 479.386807784912 3566.39984335379 30 27 18
-133.29592299536 478.762349310685 3562.95254880932 30 28 16
-128.523622859094 477.600839408395 3554.85365322687 31 28 19
-126.942613271153 475.996091013845 3542.90701619539 39 39 31
-112.635838738571 476.167738057741 3546.38578518358 36 35 30
-107.239020173551 475.095636060756 3539.06859405036 36 35 30
-99.924199171598 474.288430245159 3534.05706734569 36 37 31
-117.724845059067 470.056404248208 3499.22556682602 36 37 31
-81.404461527955 473.196383480348 3528.59945505132 36 37 31
-63.0447204008853 473.867810311426 3536.50232988268 40 41 35
-56.9658553845835 472.876628003159 3529.91672108476 40 41 35
-24.5341327976614 473.573511716336 3540.17987045663 33 36 29
1.55132917303824 473.378234140265 3542.71546247329 45 46 40
133.031070346285 484.819082905177 3649.68376462465 39 38 34
115.531460045477 480.717042174417 3615.91376430575 37 36 32
164.090165915192 484.997613509656 3655.84661911136 36 35 31
226.991752532748 491.011451437506 3711.1271234044 53 52 48
238.420698737497 490.517417814832 3709.16464252854 69 68 64
248.52414293448 489.85246286573 3705.70529220483 102 101 97
-300.922582891856 494.089133401782 3722.69841391307 172 176 175
-300.624619657045 492.172620403839 3707.89544587482 150 154 155
-297.459669625181 490.728220743719 3697.22143340692 137 142 145
-292.565680465587 489.565923144494 3689.01707067818 135 139 142
-284.751400929605 488.868590352599 3684.89550971426 141 144 149
-276.339722196135 488.262319213402 3681.57883218293 131 136 139
-266.143573575561 487.930685190969 3680.6838089322 140 144 143
-256.514531725322 487.503408702727 3678.95736088435 143 148 144
-250.431355593073 486.522994239499 3672.36794571138 79 86 79
-250.9142772282 484.537345174661 3656.91898578982 32 39 31
-195.77053615881 491.032324561649 3716.27385411912 26 33 25
-199.16299053804 488.579355904021 3696.73309917809 20 28 17
-208.049488917775 485.320097839301 3670.04916004143 20 28 17
-205.55056453297 483.790435099281 3658.62970757664 14 19 12
-215.217274030192 480.463656988299 3631.29918211935 17 20 13
-206.72649795685 479.843896843945 3627.91371997668 20 23 16
-212.275377847912 477.164077278011 3606.27338840896 16 17 12
-232.005907769482 472.443148933732 3566.50082046373 21 24 17
-195.323489576616 475.9269493921 3599.52879039353 21 24 17
-181.890885566941 476.014617619112 3602.44283322119 25 28 21
-165.935840501409 476.449330809851 3608.46138034603 29 32 25
-159.237584500036 475.553854030822 3602.66156381548 26 27 19
-153.162119892237 474.570166285883 3596.07885370888 33 34 26
-153.344274922856 472.71106531351 3581.69164939758 25 26 18
-146.669348162646 471.817712253724 3575.91203939715 30 31 23
-138.734963198346 471.098036406611 3571.68652352492 35 35 27
-137.739159506294 469.422809785002 3558.92398579411 37 37 29
-134.245497038213 468.098012996571 3549.28786779766 34 34 26
-128.865202613182 467.034102750863 3541.98463013493 31 30 25
-116.477756803378 466.915880034174 3543.15904606359 31 30 25
-105.972368282658 466.535383923384 3541.99631010346 29 28 23
-117.906575624834 463.164035456425 3513.98455809264 27 28 22
-116.437910048443 461.594867727318 3502.13506309053 28 29 23
-98.207238962186 462.234480125784 3510.15001372395 31 32 26
-55.2776572619842 466.075544092527 3547.02448454421 34 35 29
-71.9242019272257 462.134845000119 3513.83731695014 36 37 31
-43.0696620294473 464.091418427187 3533.80939619162 34 37 30
4.89657388743758 468.455873352403 3575.57879881862 36 39 32
-7.90908007361812 465.027562709337 3546.99915364754 28 31 24
2.2027169457437 464.525353945236 3544.85508541804 36 37 31
128.171929985947 472.984811957789 3631.47503021537 41 38 33
224.931664104213 481.081445534712 3710.33018552298 47 43 40
235.682931177258 480.49054326675 3707.63244034859 60 56 53
243.755362792688 479.572775105489 3701.96498173999 61 57 54
-300.428084489121 485.429382566719 3724.97245151819 192 194 193
-298.963645109109 483.723532316974 3711.80392883358 165 167 166
-294.625036670986 482.475144168867 3702.75823153588 151 155 156
-289.71792273556 481.31892412474 3694.54245370945 155 156 158
-282.477633497665 480.524113371932 3689.59576155624 169 170 174
-274.05627077481 479.907922212814 3686.27043933235 157 161 162
-265.031257210904 479.379225446259 3683.74523615849 163 165 164
-254.212287682685 479.115631746711 3683.63321160918 157 159 156
-250.495941276658 477.780346471022 3673.80383789225 37 42 36
-250.974036694352 475.826722584107 3658.35080290347 29 34 27
-229.956433647302 477.061845681696 3671.88655676548 19 26 18
-210.641050859535 478.019085097799 3682.92938867584 20 28 17
-203.892422163233 477.119384685663 3677.08593968922 18 26 15
-207.4216057469 474.730402933284 3657.66327822761 16 22 12
-220.120189732322 471.040656908792 3626.34600402365 17 20 13
-222.601141497928 468.84775004235 3608.66036905397 22 21 17
-214.759961527068 468.137594775629 3604.51526009332 22 23 18
-205.684079540817 467.598963343923 3601.94603180625 25 28 21
-203.970192826297 466.023173890041 3589.88372222545 23 26 19
-179.461207678033 467.631096007118 3607.00788936332 22 25 18
-164.117664607655 467.93775072171 3612.23401619756 21 24 17
-158.031972012497 466.955545122956 3605.64243152233 22 25 18
-165.658686626191 464.10100650169 3581.83406805031 24 27 20
-160.250827622168 463.040375803021 3574.50691792462 23 26 19
-152.968880558359 462.234130997646 3569.52419352926 20 23 16
-152.604786104308 460.499876203441 3555.98630253348 22 23 17
-149.756075311307 459.106733482865 3545.58605383474 24 25 19
-145.031477095487 457.967786993563 3537.52835700988 29 30 24
-137.777056294487 457.163969385195 3532.56915937478 36 35 30
-119.680166389347 457.773337268348 3540.70057446464 36 35 30
-107.904902890729 457.543279792722 3541.08273911413 37 36 31
-89.0383300921016 458.217453428125 3549.86988330349 43 44 38
-87.4731608134103 456.657222709982 3537.93668716176 47 48 42
-98.8560004302834 453.459459949479 3510.76918095713 48 49 43
-57.2331284141629 456.984542710507 3546.13143433875 39 40 34
-55.6798027161896 455.424903891901 3534.20849961862 39 40 34
-25.2042324843296 455.718624467415 3542.19963092773 31 34 27
-40.7202190673677 452.061560754883 3510.67756729909 34 37 30
-3.06974666737503 454.936792964699 3540.22359613165 40 43 34
9.23840701824608 452.941214938963 3526.92177105919 36 35 30
86.8309444170299 458.718751928793 3586.6742848747 44 39 35
224.213218194032 471.318720080187 3711.0161511217 33 28 24
230.928674972168 470.243393980906 3703.87933061563 81 76 72
-304.555885989173 476.050551870089 3720.67074424863 113 114 109
-299.623124214349 474.899246885168 3712.4327046682 165 164 162
-294.119839775524 473.837105782239 3705.02317118844 168 167 165
-287.456217938351 472.950844587491 3699.25331361569 174 170 169
-280.791739428138 472.064228478603 3693.48271583349 166 162 161
-272.950514008148 471.35131232728 3689.33758537105 182 178 177
-265.100134970725 470.637005982745 3685.18484566069 178 174 171
-253.096077881894 470.526712870674 3686.69150699053 177 176 172
-238.677771099999 470.756153846148 3691.39680884809 24 23 18
-243.879748820603 468.14130415092 3669.45538369361 20 23 14
-228.822619273303 468.450419245947 3674.92973947999 8 14 4
-219.710322486553 467.897369623017 3672.3287270938 20 26 14
-206.966667567715 467.852565267001 3674.51718890317 18 24 12
-208.687155681305 465.765140766059 3657.49501009548 15 21 11
-249.278858054899 458.271208287185 3589.50393813169 18 19 13
-235.422976747735 458.408201328396 3593.37405255716 24 23 19
-201.97857338178 461.227570875234 3622.59589646921 24 25 20
-205.110991850558 458.996389974032 3604.15158273962 22 23 17
-209.5379669116 456.606611174547 3584.18381371497 21 24 15
-189.368338380015 457.555113515081 3595.80987313508 21 24 15
-167.251406512087 458.739922880945 3609.71638609945 25 28 21
-162.415317528969 457.595962752204 3601.5620887076 26 29 22
-162.574395218511 455.794141377309 3587.1548267749 26 29 22
-164.653219187122 453.751635853396 3570.4429394569 26 29 22
-151.11340424179 453.762547034777 3573.2642405877 26 29 22
-142.560618456541 453.114516050432 3569.82553110739 28 29 23
-141.88033638575 449.706011357245 3542.79088286051 34 35 29
-135.884133005837 448.736134640404 3536.27646630048 33 32 27
-119.694395418579 449.05388092207 3542.09267044214 31 30 25
-91.9338577635331 450.806372919194 3561.6910223315 31 30 25
-77.5074226948118 450.86217190414 3565.06714344303 32 33 27
-71.3970091382867 449.875731578332 3558.45384415029 35 36 30
-50.4425889949989 450.714742074661 3569.4004059814 36 37 31
-25.5117277612769 452.015749567566 3584.83764589416 37 38 32
-22.5544107804518 450.621529933902 3574.34327128705 45 46 40
-22.880391354196 448.837627048338 3560.08023845825 43 46 39
-34.3657695468447 445.729256886733 3533.00134236953 41 44 37
-45.9664990982818 442.636024781563 3506.02201184189 30 33 26
-30.7083030045594 442.743598241584 3510.00014114796 25 28 19
26.8410726746326 447.798545049124 3561.98593193717 38 41 32
33.7317353659623 446.870494233797 3556.01956069303 42 43 37
224.83522686737 461.707086130037 3713.18615473112 40 32 29
234.244470767102 460.936947499757 3709.00591347856 105 97 94
-294.486712243165 466.928349181321 3721.26599866177 186 183 178
-289.543912512001 465.78335005334 3713.01953347449 158 153 149
-284.029045780666 464.724447785601 3705.59962470492 158 150 147
-279.107244279507 463.581685405559 3697.37102943133 161 153 150
-271.257904899632 462.861874801595 3693.21922649728 158 150 147
-263.989458994321 462.056542699809 3688.24788261409 161 153 151
-251.389068967764 462.004427611554 3690.56056462893 191 186 182
-231.025589316213 463.032178786026 3703.34135365314 9 6 0
-215.930828825828 463.297809085932 3708.78337513108 12 13 5
-217.5230322933 461.232198996417 3691.64986605153 23 26 15
-206.569961933021 460.910571715553 3691.42198754992 17 23 11
-191.974364078707 461.079201837988 3695.97401891821 15 21 9
-209.303547856575 455.089829919528 3643.54161949835 16 17 11
-191.054037702781 455.746667978596 3652.86339088416 18 19 13
-215.562402171124 448.923138024031 3592.10171914178 22 23 15
-207.728559234249 448.201925979962 3587.96335661325 21 24 15
-197.419769263324 447.80120985058 3586.9711507091 20 23 14
-185.848674641433 447.55732664764 3587.53036545388 21 24 17
-171.761386903903 447.628466770219 3591.2003383369 22 25 18
-173.192340779229 445.700842712481 3575.24943515896 21 24 17
-164.055124551225 445.129780010216 3572.62694092252 22 25 18
-146.752162975844 445.584716633092 3580.12390656668 25 27 22
-135.038768920226 445.320344508306 3580.56023355892 26 28 23
-132.125479076758 443.951247593793 3570.10385605845 27 29 24
-136.832528100604 441.645538675018 3550.37829242958 28 30 25
-125.736791456701 441.299922387952 3550.02691538124 28 27 22
-117.797625663096 440.561315220166 3545.79706295499 27 26 21
-106.653981685196 440.20866328986 3545.40420848941 26 25 20
-85.8626372567084 441.00968938126 3556.49236004412 25 26 20
-55.9744094504975 442.875001220591 3578.21593345428 26 27 21
-43.3623490375195 442.65084816637 3579.19635426393 26 27 21
-30.7132122302987 442.421365378909 3580.14435865395 18 19 13
-38.1602535278884 439.827965080621 3557.50215006268 12 13 7
-24.1974490973815 439.748090913353 3559.95741929382 13 16 9
-36.3327246365102 436.64052069799 3532.11823102697 22 25 18
-45.9646132907579 433.849728385678 3507.40088914917 34 37 30
-18.2104909524501 435.346165131702 3525.6828842836 35 41 31
0.43890071333319 435.778766328838 3533.3365716906 30 36 26
126.754421824447 444.771025274669 3634.20972240325 24 21 16
183.323733031991 449.254422917852 3683.07857582173 40 35 31
220.095806021851 451.497044614025 3709.4199461995 36 28 25
230.164428998968 450.79348138908 3705.99102686127 131 126 122
-276.43275822981 462.61617586518 3763.87382631917 4 0 0
-290.512759818219 458.736822961034 3728.46174606227 175 168 160
-289.041425859367 457.102686134215 3715.2867828936 76 66 57
-283.521791764049 456.048299274384 3707.86302833118 92 81 75
-279.766194508373 454.748914742048 3697.99940185429 89 74 69
-273.092306852762 453.860043367498 3692.22066344174 100 85 80
-265.828033218816 453.052159070873 3687.25295235441 106 91 88
-255.008643353889 452.729790372588 3687.14094434762 74 63 59
-261.971874012123 449.979271812837 3662.75684143016 16 7 2
-216.599102450203 454.327223355943 3709.42072152111 11 11 1
-207.42715001822 453.743877132789 3706.76819976563 18 20 9
-201.837276860611 452.678084771716 3699.28364039115 13 19 7
-199.264784777322 451.214555025089 3687.79999561427 15 21 9
-171.955942430764 453.011019864296 3709.11282399048 16 19 10
-185.113093622928 449.485195277803 3676.86868338051 17 18 12
-200.229651317842 445.740481370226 3642.35415109564 19 20 14
-215.493635479915 442.015217376108 3607.96727259312 24 23 18
-208.864525929275 441.129232312606 3602.22732627031 23 24 16
-206.534899058596 439.696493233678 3590.95398197859 23 24 16
-194.988360168241 439.433953734739 3591.53460095179 23 24 16
-190.829174907464 438.236647611245 3582.64408515839 24 25 17
-171.174317735666 438.971931720973 3593.39443620661 25 26 18
-163.883107645455 438.156197875972 3588.40342918968 22 23 17
-151.590624161268 437.952999703871 3589.66070302241 23 24 18
-141.767341233173 437.438899784205 3587.76646186847 24 27 20
-118.720468552438 438.520368546154 3602.19120773868 25 27 22
-128.995877283343 435.567045850051 3575.38584378628 26 28 23
-135.585326468142 433.081730432404 3553.32257425161 26 28 23
-130.198273105599 432.038371396634 3546.01366071528 25 24 19
-120.087214968342 429.879224685111 3530.64709912829 24 23 18
-101.905365927812 430.327899681682 3538.7059183756 23 24 18
-72.7167484248632 432.027590435413 3559.71336602662 23 24 18
-40.1578815643746 434.077205064148 3584.41468080085 22 23 17
-79.9220179730828 427.856542368198 3523.63827310713 19 20 14
-25.8383019495199 432.313288232929 3573.33807753449 13 14 8
-42.4486826271471 428.762728070223 3540.11703720248 13 16 9
-38.2987663658314 427.561729607728 3531.23457911053 17 20 13
-24.3336736466766 427.450660980114 3533.68806714052 22 27 20
14.0044538129249 430.006713848129 3563.96372529047 19 27 16
-25.9476951313369 423.970219464542 3504.67234227619 22 28 18
213.349085526701 441.106812322855 3703.42460593733 36 28 25
226.086408058957 440.676190100487 3702.97453461896 116 111 107
-281.329455181143 451.220934990935 3743.04796137441 181 174 164
-287.958224032802 448.49008096279 3718.37384096045 90 77 68
-284.18168192624 447.201551999679 3708.49230599693 100 85 78
-282.180883198234 445.677806306872 3696.18098221624 125 108 101
-275.512985092047 444.78936726542 3690.40743235994 157 140 133
-268.254924530943 443.979190640232 3685.44512122051 135 120 117
-257.442881339843 443.638265719806 3685.33991659763 73 59 56
-242.446661134964 443.839703825772 3690.86776245002 26 15 11
-261.936386922965 439.520348547929 3649.5603023182 20 17 8
-193.752290420826 446.621999912821 3726.72264239035 16 16 6
-194.70933469464 444.704887443517 3710.36091661094 11 17 5
-208.356009184508 441.177922623627 3677.2174944426 12 18 6
-230.594898623395 436.595309234734 3633.00149569528 16 19 10
-192.377743297727 437.942059255702 3654.12606841136 17 18 12
-196.625819224869 435.676466000649 3634.00243635148 18 17 12
-204.007500885135 433.042366699912 3609.98026555884 19 19 11
-197.359164430144 432.153268316144 3604.22367476131 21 21 11
-187.01337152744 431.714212348382 3603.19964552924 22 22 12
-171.696779796544 431.869780715991 3608.45011110146 22 24 13
-163.144918641094 431.197695211112 3605.01235890493 22 23 15
-162.048086544881 429.632842288616 3592.16154100049 25 26 20
-154.744087599001 428.812182238909 3587.15948134459 25 26 20
-137.412463381293 429.169574130051 3594.63255165152 26 27 21
-131.323500786873 428.195918827599 3588.03776183141 28 29 23
-144.154516978647 425.028571151506 3558.15546261155 29 30 24
-136.869511045895 424.209361025403 3553.16985548728 30 32 27
-113.713450522616 425.203767828632 3567.50052849331 31 30 25
-114.645505989808 423.435955211831 3552.43943742233 30 29 24
-90.0754202446996 424.55555604255 3568.19054993868 29 28 23
-87.1783725034483 423.219847171945 3557.74803369666 23 24 18
-86.2344818389533 421.672716566936 3545.02966078745 20 21 15
-66.6237920577331 422.194967444172 3554.49609737638 19 20 14
-34.644036522824 420.738117503414 3550.60812295413 14 17 10
-14.136804339647 421.296591626221 3560.620520162 18 21 14
2.52560982330197 421.424292073761 3566.02827002709 33 38 31
-24.1322644683719 416.953912470972 3521.67122337052 30 40 29
-14.0757469241595 416.390084549809 3519.5754671428 24 32 21
-14.581382450769 414.719478945444 3505.46772906291 21 27 17
79.4426599768108 421.180822935948 3584.05776615235 35 32 25
113.810202906989 423.031835249743 3608.51598418492 35 30 26
229.39902328259 431.328715749319 3708.10414005897 96 91 87
-288.942578993362 441.370769623556 3733.8299662334 162 152 140
-286.875991029756 439.860344075298 3721.46184975542 131 113 101
-285.424463380414 438.277187763135 3708.30372307213 126 104 93
-279.913113031172 437.233872563952 3700.88707658556 140 120 111
-273.822111202623 436.267458349308 3694.2904723655 151 131 124
-265.96656365662 435.528995546148 3690.13340945743 125 107 103
-256.328224686026 435.015967612383 3688.39945893269 81 66 61
-252.601746239049 433.74629277619 3678.56119376724 13 2 0
-235.796625943396 434.130940473269 3686.49011181722 21 18 9
-203.387353082489 436.451041250159 3715.2891149473 17 19 8
-199.576373503082 435.169357713964 3705.37768742968 16 19 8
-222.85525140423 430.548190537543 3659.41618112416 17 20 11
-241.509872983521 426.54605389414 3620.03000334242 20 21 13
-230.053527850492 426.252393165742 3620.68899815342 21 22 16
-216.740450560498 426.17433659417 3623.70739747334 20 19 14
-214.96713004783 424.699752760235 3611.59323418127 20 20 12
-210.77882500513 423.520832630664 3602.67736008447 24 24 16
-197.398152489424 423.432969245381 3605.63723574099 24 24 16
-166.109255926206 425.436592953223 3631.43926192988 23 25 14
-158.1392645733 424.679439061742 3627.18312757945 22 23 15
-152.640881449955 423.633685892737 3619.77742053892 21 22 14
-170.790535724105 419.871180422573 3582.5985383712 21 22 16
-149.157313102672 420.689621523777 3595.60341272962 21 22 16
-148.716688135194 419.081795351223 3581.99837072638 23 24 18
-144.547049294348 417.903307982798 3573.09867249338 24 25 19
-152.370071825615 415.388875241292 3549.45825225515 27 29 24
-138.153254840947 415.341588407381 3553.01672489344 28 31 24
-120.080064733391 415.706466518207 3561.16995023672 29 30 24
-97.4767250072501 416.548235365248 3574.6574144506 28 29 23
-86.9031894652652 416.059030974749 3573.43631744998 27 28 22
-91.6800524803691 413.909467850187 3553.7699367753 23 24 18
-90.1037038122228 412.457113679391 3541.82635201217 21 22 16
-87.2706727800185 411.145821013521 3531.43916313533 16 17 11
-85.1089275708858 409.769376783235 3520.31096312209 24 25 19
-30.4176596335188 413.898320572975 3570.80956550526 20 21 15
-9.92054808676635 414.400749015316 3580.83141332276 16 19 12
-25.9041765308123 411.118483100072 3548.38866662024 13 16 9
-21.0704106991737 410.00230861492 3540.23620273561 21 26 19
-15.591743963288 408.954367126955 3532.84791429001 21 31 20
-18.0314273169446 407.108774932263 3516.44720525583 23 31 20
-3.33691975792405 406.993458815728 3519.59208713438 22 28 18
238.752593852842 422.531591667404 3719.90424495157 82 77 73
-284.633186003918 431.362079845526 3726.18961886006 130 110 99
-282.586494377938 429.875623301165 3713.83859193333 137 113 101
-278.232162573615 428.688207745462 3704.77887152505 146 116 106
-269.78462468965 428.016876883086 3701.43153516767 149 119 111
-259.556822720662 427.563139042017 3700.50986805789 149 122 115
-249.894719758736 427.03285249682 3698.75543226392 65 50 43
-229.534877017143 427.807101233709 3711.54101623082 19 10 1
-238.838940922045 424.949949624323 3683.89312961211 24 26 15
-220.780127193543 425.423638232137 3693.38168677008 24 25 17
-215.827030004091 424.306514471054 3685.12580025965 21 22 16
-221.108439534291 421.974454798799 3663.25138902329 22 23 17
-218.6271158919 420.579570702996 3651.84631838562 22 21 16
-230.705060676599 417.48430374821 3621.3105225107 20 19 14
-224.684148266127 416.527365749755 3614.77492141536 27 28 20
-219.885961189349 415.42981641495 3606.65317422499 32 33 25
-213.876167664799 414.473896724291 3600.12720366908 24 27 20
-191.914193322641 415.335453540159 3614.1701185755 23 26 19
-164.922823620957 416.739943898626 3634.43739103674 25 28 21
-162.507121580266 415.35216046411 3623.08915098754 24 27 20
-172.516835145079 412.586506476651 3596.05228338648 24 27 20
-168.333115736845 411.417695859619 3587.14031831402 24 27 20
-176.644959171512 408.880409384227 3562.60014843105 26 29 22
-166.900099137785 408.335062500118 3560.77439721249 25 28 21
-146.456828539231 408.942087066054 3572.16549400169 25 28 21
-146.717539266698 407.302897421281 3557.84495170562 29 32 25
-133.746824110871 407.085165089881 3559.8377328236 27 30 23
-120.10027059958 406.928774541546 3562.56791943482 27 33 23
-105.1355643736 406.899702579958 3566.80131242437 26 32 22
-105.438204859211 405.265111671072 3552.5170823569 26 32 22
-92.9770556311023 404.9624848424 3553.62881182692 30 33 24
-97.1834261840718 402.93775188241 3534.79073231156 30 31 23
-81.4785916113596 402.960562956583 3539.70555412812 31 32 24
-67.009069748273 402.844390222882 3543.04544474725 34 35 27
-23.9487149913278 405.590236039256 3579.81366689954 13 14 6
-7.33751187379283 405.64282678981 3585.26597441832 18 21 12
-4.37286152440386 404.329169554637 3574.76472167073 11 17 7
-43.3426724545001 398.898771286665 3515.94155985687 16 22 12
-22.8226171992492 399.339541189182 3525.94392108638 22 30 19
-5.51111962522732 399.449304607977 3532.11214861971 27 33 23
3.27315409452167 398.723911583748 3528.47330153379 24 27 18
113.332254220376 406.022364757593 3624.92053828743 34 29 23
150.461627101481 407.886394033805 3652.27825367971 39 32 26
222.577222950095 412.971579517259 3718.10589244306 41 33 30
236.016527105157 412.533158573028 3718.37038431493 65 60 56
-285.061123583785 424.234570638501 3742.4871066963 164 155 140
-281.23074157465 422.979019510192 3732.55869305678 127 108 94
-282.081305674047 421.155497047844 3716.10407061724 131 107 95
-277.137249931204 420.048993040997 3707.85595183731 141 111 101
-269.270886664935 419.297538355137 3703.68928323059 147 117 109
-257.2736029018 419.037962898438 3705.2027825986 146 121 114
-239.329785026822 419.475112059956 3714.79124757281 47 32 25
-229.608180254795 418.922574378752 3712.98538360917 16 7 0
-234.144665167344 416.695432027849 3691.78821594878 22 24 13
-239.952658339213 414.339615569566 3669.04679124211 22 23 15
-223.080689279005 414.620820149724 3676.91843937897 22 23 17
-197.120815415747 415.924738501237 3696.75713719708 22 23 17
-208.427317436189 412.960625970892 3666.87543065019 20 19 14
-233.17221509735 408.510614213856 3619.53694553057 19 18 13
-225.335173261657 407.760944640891 3615.39599480695 21 22 14
-212.005057493191 407.619389804194 3618.40003773548 23 24 16
-212.691912892809 405.920077756335 3603.12597906692 19 22 15
-182.139790483911 407.653036703764 3628.24508694069 18 21 14
-174.201653762692 406.888914123389 3624.01660730182 21 24 17
-174.901244885124 405.190643495136 3608.75358039358 21 24 17
-176.269282525984 403.432303542188 3592.74704848852 21 24 17
-187.015922155025 400.689746924463 3565.02549065219 20 23 16
-178.540513293628 400.002056596295 3561.65410352661 22 25 18
-163.794081188619 399.967645960839 3566.07671713731 22 25 18
-152.13322327277 399.599522371394 3566.5589358895 22 25 18
-151.777951519492 398.057238115143 3553.02744787174 25 28 21
-138.823492746249 397.81405758711 3555.03448388578 23 26 19
-122.023155567377 397.951570088692 3561.64588820513 25 31 21
-112.790102394245 397.31024489925 3558.9407839462 26 29 20
-113.112835643979 395.708504854436 3544.67407163806 27 30 21
-108.358792708669 394.621212282234 3536.59051929777 28 29 21
-85.6326549758544 395.308061764881 3549.97255394669 27 27 19
-74.401769576991 394.846166213042 3549.50479210709 21 21 13
-55.3850954360615 395.133240589189 3558.16403096775 24 25 17
-29.1566683396112 396.096815014059 3575.12564773854 14 15 7
-22.3204765651581 395.177357489029 3569.20643271125 16 19 10
-23.315240513571 393.514511455401 3554.1990131489 11 14 5
-23.0499958623951 391.981342004909 3540.74549579235 20 26 16
-15.6022328153358 391.128565271871 3535.61903873932 21 29 18
10.9536848121277 392.04678618872 3552.2967860744 27 30 21
54.8143575889326 394.529417409282 3588.37304946892 24 25 17
53.8301124548166 392.863889435142 3573.356845764 23 23 15
121.28439213106 397.412011838356 3635.28758321401 32 27 23
152.428740288296 398.610086761734 3655.92675567706 35 30 26
212.490344532969 402.355474638514 3708.39011538626 38 30 27
232.610487048438 402.490791490829 3716.09423744837 51 46 42
-281.676921761055 415.801469607804 3748.87200116793 118 109 92
-280.733062416446 414.212886708696 3734.83066314459 117 98 83
-279.247001627635 412.698051066676 3721.64216262839 116 93 79
-278.965895892197 411.051237218649 3706.85237344643 144 114 103
-269.930752777976 410.43054631566 3704.31867123866 135 105 95
-256.757910216894 410.281613220818 3707.45939183329 136 116 109
-235.860385426962 411.003528652426 3721.10254743537 24 9 2
-250.271141300958 406.048657748163 3671.42729705845 24 26 15
-244.191531606061 405.089841204259 3664.84051757702 19 22 13
-214.758384977787 406.720085665826 3689.6068867013 17 20 13
-192.807548884966 405.835489199059 3689.11395451396 19 18 13
-215.065951533346 401.781424043487 3644.91144356097 22 21 16
-236.306936942446 397.884024176117 3602.47260706529 22 23 15
-202.911252879351 399.862071434557 3631.74212953771 20 23 14
-183.392205525529 400.326836969404 3642.61162929105 23 26 19
-186.47744600099 398.394923867554 3624.12480094891 21 24 17
-178.55205723926 397.626731833325 3619.90708128207 24 27 20
-195.313574119893 394.301021097031 3584.16905735565 24 27 20
-193.028074459165 392.968388475903 3572.93299549774 23 26 19
-173.989829445044 393.349872687578 3582.89681822695 22 25 18
-160.481128443785 393.152318235103 3585.74643779395 24 27 20
-151.931674544352 392.446047512585 3582.3109935738 24 27 20
-158.433949070542 390.237209324799 3560.17037504971 25 28 21
-162.503180051023 388.288687608806 3541.21293788669 27 30 23
-155.901476629543 387.402800199831 3535.49674480832 25 28 21
-127.748213725758 388.614338529728 3556.08178938643 24 30 20
-131.886561820091 386.674369117505 3537.18388757838 26 29 20
-130.352658460404 385.293845454103 3525.2766262263 26 29 20
-89.8096153115016 387.630355673044 3560.25924720872 26 27 19
-75.3737559030663 387.45306609725 3563.62871032594 25 25 17
-58.311730049962 387.510137501522 3570.01382092536 23 23 15
-48.9381905330335 386.837631110206 3567.1871541575 21 21 13
-32.4171659132944 386.820007877697 3572.71807761011 17 17 9
-26.2393050191538 385.842128019828 3566.04657932629 20 21 13
-37.6797462194394 383.26593309375 3538.92528622226 15 18 9
-34.1834165692925 382.060407486148 3529.28576809018 18 24 14
-9.69961294999599 382.734254861399 3543.7909765349 21 29 18
1.72422422390994 382.225384099249 3543.15628085683 26 29 20
25.7286144044229 382.816249941605 3556.75429101156 24 27 18
211.772996324445 392.612588364656 3709.0750010091 37 29 26
231.889543204745 392.696258534123 3716.78257420925 51 48 43
-282.920369366273 406.798407077661 3748.68482109993 146 138 119
-277.334922355247 405.765886445391 3741.20356691131 116 97 82
-279.908282616556 403.812175824984 3722.27289932386 127 104 90
-279.624844942485 402.19484130168 3707.4808979401 131 101 90
-271.176686417246 401.497541058886 3704.13319193285 147 117 107
-259.184882993862 401.188504064392 3705.6517618203 134 114 107
-235.936423917814 402.104623188368 3722.54937872972 29 14 7
-233.902854061914 400.68366763085 3710.20930046475 28 19 10
-221.19900661835 400.42255554312 3712.4336665233 22 24 13
-226.352220137246 398.237604090083 3690.44718993106 17 20 11
-221.409226453416 397.145555907365 3682.19989800175 13 16 9
-200.257754796228 397.766229361379 3695.6236047765 13 16 9
-226.62807618876 393.387742823363 3645.7233712157 18 17 12
-233.263497906272 391.112777471129 3622.37563929467 20 19 14
-224.209133285195 390.476158334018 3619.82538033136 21 24 15
-214.52861893991 389.899338274423 3618.05560378081 21 24 15
-192.606617850645 390.559686027827 3632.13446878207 23 26 19
-182.842636175034 389.971265979693 3630.29242326435 21 24 17
-200.738902529513 386.614178678991 3592.89097804604 24 27 20
-197.1972027508 385.420276539691 3583.2123761852 23 26 19
-185.006065170887 385.081520376867 3584.55836857515 21 24 17
-157.866034631125 386.192699811043 3604.69869200657 21 24 17
-136.82339690188 386.681832668292 3616.89432057291 24 27 20
-133.823005388257 385.415672687505 3606.36178189019 24 27 20
-154.691095831312 381.880019311227 3566.24423705465 25 28 21
-160.631123314423 379.797054599633 3544.93874401743 26 29 22
-149.599720170436 379.324676850162 3544.64426405619 24 27 20
-129.03456767057 379.732777062742 3555.93069494244 25 28 19
-120.456987296403 379.013151689438 3552.47095903412 26 27 19
-135.46429189693 376.130016754528 3520.50298736912 26 27 19
-101.984230663715 377.684488701305 3547.05560014967 28 28 20
-74.1080692240992 378.694660831913 3566.55854700012 29 26 19
-62.8384821795267 378.188911718669 3566.05752522524 63 60 53
-55.4159561533929 377.335132059757 3560.95294850437 35 32 25
-37.6201115149488 377.393164622519 3568.02528662949 22 22 14
-35.3570515922388 376.079281340145 3556.80886811578 14 14 6
-42.9054969283884 373.921727562233 3534.2514102405 18 19 11
-44.0019049699374 372.338242504757 3519.33189051897 20 23 14
-14.3018482318618 373.389882825723 3539.90025478438 22 28 18
-19.3504251633874 371.472267742245 3520.46819081146 24 27 18
-3.3399327913668 371.336463664428 3525.11911585675 25 28 19
32.6025292327041 372.845599092404 3552.18460840072 25 26 20
47.46083010955 372.575854045974 3555.18820991369 28 25 20
211.724302692947 382.923223028464 3710.50356924346 32 27 23
-280.695564240854 398.182195716552 3753.42895566561 129 121 102
-277.419192341958 396.899671738605 3742.65763641493 115 96 79
-278.240999985637 395.17818529557 3726.17742852564 122 99 83
-273.858451049104 394.029272051087 3717.09268630584 125 96 82
-267.732830456216 393.070045390843 3710.46634569568 126 96 85
-257.492961187441 392.547250598936 3709.53466691419 102 82 75
-251.949843568813 391.524577647299 3702.09003731826 24 9 2
-231.01361618467 392.108580410814 3715.70085718115 20 11 2
-214.138740425348 392.248676009446 3723.57090036713 14 16 5
-225.821896193317 389.440799908126 3692.691064361 16 19 10
-222.070963245958 388.234155682574 3682.83119516113 14 17 10
-251.970297967462 383.632697518299 3628.05093290487 15 18 11
-248.374108411687 382.446353843591 3618.32505381659 19 18 13
-250.844508558363 380.661340733031 3600.62731470497 18 19 13
-227.287273385183 381.457402910627 3617.25839775703 20 23 14
-225.529982127329 380.093439363907 3605.1570952612 22 25 16
-204.869394998641 380.571577247331 3617.68393206339 24 27 20
-187.790787180201 380.682686126478 3625.37789669818 23 26 19
-178.635974931751 380.020532378168 3622.74074163059 25 28 21
-191.058989922457 377.309764045672 3592.50153894597 20 23 16
-179.4659030587 376.88507938112 3593.04317933503 17 20 13
-166.597277411738 376.571518875477 3595.12506606886 18 21 14
-148.078513851706 376.770894008007 3604.21674573329 21 24 17
-129.481257390074 376.959481556008 3613.24014716949 22 25 18
-133.387341250285 375.082381055559 3594.14084172181 23 26 19
-136.733711330596 373.271234729403 3575.87924570983 24 27 20
-126.25481679513 372.712312527834 3574.74062924454 21 24 17
-127.153116290027 371.137218992828 3559.64903183458 23 24 16
-122.38071014792 370.072358320956 3551.54973359647 24 24 16
-115.070255074573 369.231650268319 3546.54220809439 25 25 17
-107.755436709525 368.39017494608 3541.53090574248 29 26 19
-72.2019198280703 369.974387372885 3570.2562853933 29 26 19
-63.5003003586494 369.228894882908 3566.68920796214 63 60 53
-50.911292464435 368.809054199251 3567.69087727912 31 28 21
-33.1022358262385 368.818506438853 3574.75207889086 23 20 13
-45.1194598192366 366.332496398086 3546.80654338025 14 14 6
-47.4762156371686 364.668771555041 3530.33309507795 21 22 14
-18.49675667345 365.579872142897 3550.20367716485 22 25 16
8.65443147746126 366.312303153087 3567.68994693582 23 29 19
7.63271349616801 364.75126269202 3552.70554521282 24 27 20
2.60010053824322 362.880731895524 3533.25902406996 26 29 22
16.0370802044127 362.486528092472 3534.84882051668 27 28 22
192.958280177841 371.784433755014 3691.11005196383 36 33 28
-279.627903448084 389.416218977889 3756.53047755665 135 127 108
-276.344082751322 388.148756324636 3745.75260456735 109 90 73
-275.993379832194 386.582197120954 3730.9016574397 120 97 81
-270.431673938001 385.562672355092 3723.44121182971 119 90 76
-265.46332949647 384.484098047946 3715.17186017643 124 94 83
-258.154457687701 383.645250085664 3710.16569489324 72 52 45
-259.691499263743 381.915778227941 3692.9821968355 23 8 1
-247.666670253374 381.551727502025 3694.47218323713 19 10 1
-213.619490979007 383.356931538827 3725.82498867763 10 12 1
-225.292037922279 380.632492661612 3694.93573245936 14 17 8
-225.604071571713 377.493752711699 3664.78931370417 14 17 10
-260.467649019113 372.617477741328 3603.72680187335 17 18 12
-235.773576041869 373.460894861401 3622.01876162046 20 21 15
-227.937629978256 372.688226852354 3617.87890967232 25 28 19
-229.829875448709 371.004704425456 3601.00298184407 27 30 21
-225.673020664505 369.89427038671 3592.11360751236 25 28 21
-201.31354188485 370.643422324896 3609.372922046 23 26 19
-186.0552807071 370.536085802425 3614.67564843553 22 25 18
-179.990667942967 369.584670927014 3608.1021348829 20 23 16
-181.974705189407 367.912522115468 3591.305692585 20 23 16
-172.218729669958 367.296382766183 3589.47045039952 23 26 19
-168.048273628931 366.183016356703 3580.56962188431 21 24 17
-141.393069451917 367.038557786007 3599.80855741975 19 22 15
-129.655738684142 366.571488976364 3600.22513556989 20 23 16
-103.556278657907 365.838607075361 3604.07565504301 19 22 15
-125.906436390803 362.46573804363 3562.59477909621 20 21 13
-119.22130403211 361.567806670288 3556.80635320433 21 21 13
-108.711639559437 360.987478445782 3555.64120604002 20 20 12
-94.9798116590252 360.667148644984 3558.29854460349 27 24 17
-77.3536626347058 360.655016176338 3565.51841868816 28 25 18
-59.6573091732271 360.633234539992 3572.67750659052 22 19 12
-42.5363437661734 360.54997511137 3579.01244150727 20 17 10
-33.1213463209568 359.838454062847 3576.15009447873 20 17 10
-49.678558562313 357.071814983158 3542.87789132374 19 19 11
-50.7412327876393 355.549864106897 3527.92841903526 19 19 11
-34.8532769806424 355.354214569794 3532.6862542389 24 27 18
6.016211234535 357.069062448109 3566.06638555096 26 29 22
19.756284287662 355.218740904156 3554.16936048437 28 31 24
60.3920914332887 356.825680816216 3586.42978546603 19 20 14
83.9703741492777 357.120303041191 3599.07577707044 28 29 24
-286.646739950468 379.817886795812 3748.11933674242 147 139 120
-280.486266777194 378.859161611295 3741.46278489851 117 98 83
-277.818891018808 377.554532419491 3729.89587135031 125 102 88
-268.75872787072 376.885108255666 3727.3407991726 93 63 52
-262.024192826529 375.984610979231 3721.50957082456 133 103 93
-253.525371095482 375.254482275887 3718.11816592501 77 58 51
-241.2236073814 373.337796479007 3704.82136804696 18 11 1
-246.363103311939 371.314951024201 3682.82195147692 12 15 4
-228.338961115703 371.47803814872 3692.34257240351 17 23 13
-220.403449223894 370.686878880823 3688.1162274842 11 16 9
-272.472610745714 364.372057536983 3603.59864624094 13 16 9
-234.01283341807 366.408063759736 3640.38885586614 17 18 12
-230.985194755744 365.188928008606 3629.83239638207 19 20 14
-216.461712347588 365.006395956462 3634.44920833934 25 28 19
-217.701577862115 363.409270632793 3618.33054037047 27 30 21
-225.098446426611 361.28057482012 3594.31825758641 21 24 17
-220.952296905627 360.182174581451 3585.43839942466 20 23 16
-204.531375452836 360.15161515533 3592.37974610202 20 23 16
-191.127122761899 359.846887360029 3595.32058925986 23 26 19
-177.677078310208 359.535828032136 3598.22178408118 25 28 21
-176.595214351777 358.16912532896 3585.38297109427 26 29 22
-168.077015930502 357.433430518252 3581.97449227648 24 27 20
-175.791196620702 355.346045312482 3558.23696762366 22 25 18
-167.30078648026 354.61374069977 3554.85286745198 22 25 18
-126.721867181926 356.49902046291 3591.13089365567 23 26 19
-104.850241296058 356.821641837172 3603.93234825969 22 25 18
-96.1735185873231 356.063767139965 3600.38692998293 20 21 13
-102.091644425214 354.141723663292 3579.06172674179 20 20 12
-98.5343669395982 352.984372949245 3569.36907075545 18 18 10
-91.1618732823212 352.129448447186 3564.30818181852 25 22 15
-16.5730716499164 355.01391563191 3625.35962768306 26 23 16
-21.9043327567783 353.147896793427 3604.84866551598 19 16 9
-31.1984592080736 350.9989837884 3579.83409808941 18 15 8
-46.440952702941 348.426337141217 3548.06796112107 19 19 11
-40.3212556621448 347.466845235136 3541.44675638523 19 20 12
-25.7084567909915 347.132218480986 3544.66356374609 24 27 18
-39.2409746548634 344.736895241831 3515.38427850304 24 27 20
-31.1953650475996 343.925623993564 3511.06263826246 25 28 21
84.6135592760278 347.92246804044 3601.22442934618 27 28 23
108.293935523958 348.134397220013 3613.78246866974 32 33 28
-282.691523321269 371.333832331752 3755.33290320801 119 110 93
-278.83184566707 370.154164181534 3745.3786062563 115 96 81
-273.82904747286 369.086954514837 3737.07931865399 124 101 87
-267.670557205751 368.130502558041 3730.42447073556 82 52 41
-260.344288395714 367.283218297338 3725.40328151346 117 89 78
-250.074917717188 366.705846690908 3724.44638645883 105 86 79
-237.42143131873 366.340427952714 3726.71507815507 20 7 0
-253.128453486467 363.396299365417 3690.06029758294 18 11 1
-244.646144348605 362.659276768309 3686.68324941404 14 17 6
-215.296791079189 363.777206037383 3711.52556506957 19 25 15
-227.04438624001 361.232254828448 3680.69987724162 12 17 10
-250.9172439825 357.654086314583 3633.92349059838 12 17 10
-253.929456150865 355.931709173502 3615.37169268642 16 17 11
-230.42857874588 356.50375136784 3632.053074697 18 19 13
-212.266979564352 356.5950360059 3641.45470648266 19 25 15
-205.58157842104 355.698984792422 3635.666035442 21 27 17
-209.269188455516 353.933553912245 3616.37664725469 22 25 18
-214.250771963401 352.075583655682 3595.56255478855 22 25 18
-210.709163564321 350.935860864923 3585.88368104619 21 24 17
-196.709187636579 350.65371601599 3589.63130399571 22 25 18
-185.132914694201 350.164627426988 3590.18793495384 22 25 18
-176.005358781605 349.471904411944 3587.57460202186 24 27 20
-179.312062219788 347.787345355416 3569.27780521668 23 26 19
-175.813260341628 346.65253400557 3559.63600159841 21 24 17
-173.588047152121 345.422423058027 3548.45184336193 21 24 17
-128.00873094484 347.552131954397 3590.98066441022 20 23 16
-109.297770794969 347.567718818489 3599.90695133437 19 22 15
-81.0154026276373 348.293859915572 3620.38324112609 17 20 11
-75.4496401015352 347.279815143506 3612.91892846407 21 22 14
-81.9940634455674 345.363470273803 3590.81326198429 19 20 12
-82.2345781354339 343.931117484464 3576.47387474851 21 21 13
-42.1317027519641 345.46442480702 3610.51994885756 23 20 13
-29.4696556170799 344.96047399399 3611.45885747502 22 19 12
-7.09242391422826 345.147752497999 3623.82296236884 14 14 6
-9.85922938412909 343.521657788667 3606.38141412266 11 11 3
-32.1673706036965 340.527465117683 3566.18492799334 18 19 11
-20.1376927689321 339.974613703671 3566.34867430564 20 23 14
8.9145213110049 340.595431618612 3586.15839346996 23 26 17
7.9538377275532 339.125290923415 3571.1201864949 20 23 16
1.0258859359138 337.258724966463 3549.34661533783 23 26 19
42.1630274630176 338.65121178187 3582.49685081148 22 25 18
65.6492944440452 338.820981770919 3595.22340480645 28 30 25
-272.967698351216 363.333771149954 3770.77734395819 54 45 30
-268.490875332267 362.214860452236 3761.61101209811 108 89 75
-265.773300025404 360.941116756067 3750.00038865807 113 89 77
-260.750374470526 359.878861937271 3741.68362384127 82 52 42
-255.738911407211 358.818031017193 3733.37678475102 93 64 56
-244.864820869324 358.272892622769 3733.21880925796 123 104 97
-238.67675788813 357.31441185023 3726.53834275203 16 3 0
-220.070210547219 357.424757071096 3736.87777484636 15 8 0
-227.497751166078 355.29707778029 3711.56849366229 13 16 5
-212.984988031035 355.044687335669 3716.19504908298 12 18 8
-210.969185813978 353.733680137305 3703.86965820114 11 16 9
-245.56942426578 349.390148389352 3642.57544880787 11 16 9
-241.336228279186 348.302288155948 3633.62007604602 15 16 10
-221.418890018137 348.496365618496 3645.46937769122 17 20 13
-216.55790857995 347.45422827427 3637.29284529963 20 26 16
-203.805010006439 347.046346551352 3639.47596356447 22 28 18
-198.330714877284 346.051836115547 3632.09080240015 18 21 14
-200.208835784748 344.48067432802 3615.20190420571 20 23 16
-197.845093522455 343.251976814196 3603.8976686834 22 25 18
-206.601032608272 341.17053180087 3578.41619772799 25 28 21
-190.729600599194 340.994669738608 3584.51117183715 25 28 21
-187.201790512016 339.869822943938 3574.84416119087 25 28 21
-175.603570082197 339.355231770508 3575.38161921727 23 26 19
-166.469470430613 338.650129094761 3572.76301032485 22 25 18
