ply
format ascii 1.0
comment KinectMotionCapture
element vertex 759
property float x
property float y
property float z
property uchar red
property uchar green
property uchar blue
end_header
59.9792716537124 899.383385586242 2687.99266718545 255 250 247
61.9919336627401 900.934233765949 2697.42706161934 248 239 232
62.3606680462914 903.24634995998 2709.42649561011 255 245 236
63.9033119363406 905.045156279542 2719.74751172 255 252 244
63.2655778585567 907.858207535443 2733.49351031089 125 112 104
62.6938517982982 910.666208428143 2747.26627336163 121 110 104
57.2242924805066 915.755426909437 2768.74869232783 102 93 88
-80.7008903760718 915.254451066773 2694.56627669084 183 185 184
-71.6160434865751 913.731016271969 2693.94072436656 210 212 211
-58.939133908378 910.678947098274 2688.30779613939 209 207 208
-44.5137953116175 906.86624251403 2680.15187820885 196 194 195
-31.9442438188793 903.822798672429 2674.47541607447 201 199 200
-21.2079909237664 901.547013179567 2671.28752731917 216 214 215
-8.1387563887827 898.256787691905 2664.73644570893 227 225 226
1.33908522926851 896.495567365062 2663.19275115045 248 246 247
14.3135768282212 893.212967734849 2656.60325099353 251 249 250
22.5581648017779 891.964553072389 2656.71420734246 254 252 253
34.8612258188077 888.942581428307 2650.92968234575 255 254 255
43.0589465209008 887.69805930023 2651.02163296357 255 254 255
52.3958431896494 885.948364434161 2649.42078343206 255 255 255
58.8361891496219 885.465664678364 2652.0320926962 251 252 255
62.9896655496569 885.994284114656 2658.02554615173 254 255 255
66.5945536916481 886.774043488386 2664.87352744591 251 251 253
67.9577612337991 888.561780922007 2675.12197494669 246 242 239
72.1883779386674 889.084832075428 2681.14644694561 250 245 241
74.1923572669558 890.614729218459 2690.57748462663 255 248 245
79.0336386110571 890.882211275877 2695.77208219333 255 253 250
83.3336738174344 891.400354878592 2701.82495567701 255 253 250
87.100265760353 892.168378733109 2708.73849864862 117 113 110
96.9616560779258 890.170235403636 2706.2730879144 88 87 85
-88.5098966213846 908.811736509763 2692.53236467909 218 219 221
-82.4480289772471 908.56167259292 2696.067475577 231 232 234
-73.3575569143332 907.048850705178 2695.44412040271 211 212 214
-58.8673583300083 903.266574166826 2687.31423318613 203 203 203
-43.8425270778311 899.237436913707 2678.32387794924 215 215 215
-30.0820067179592 895.717773064509 2670.97536679085 223 223 223
-17.5706740364336 892.706498573569 2665.27508843664 243 243 243
-3.92479178119132 889.195917286533 2657.88009227708 250 250 250
7.89213128442401 886.444336252819 2652.97574934476 255 255 255
17.9030338556159 884.45006846275 2650.57084568911 255 255 255
24.9613487724631 883.713253291046 2652.35522696911 255 255 255
36.0894773059457 881.221165360378 2648.24883725846 255 255 255
46.0188580584118 879.233475943414 2645.81087613267 255 255 255
57.6497408925483 876.496819270822 2640.83083647721 255 255 255
65.213910766484 875.515597302773 2641.74333647184 250 254 255
69.9084807111208 875.785611647797 2646.87876966298 249 250 254
73.4796842550107 876.554351061569 2653.71319582991 248 249 253
77.6434688286121 877.071578844374 2659.71065211109 255 254 255
84.0859417507698 876.589188782172 2662.32282021979 255 253 252
88.2808460667059 877.104364024868 2668.3331494488 252 248 245
94.1750623207351 876.870452066364 2671.80025705709 248 244 243
99.5177798087019 876.885090334622 2676.12124814231 255 254 253
108.198045091366 875.406327953865 2675.33128775545 255 255 255
117.410620630451 873.680465011955 2673.68017806482 254 255 255
129.895184744022 870.466031484582 2666.89179305348 247 248 252
140.137571549861 868.248448067062 2663.50324302895 233 233 235
-97.54837867696 902.864258426686 2692.15450913623 194 196 195
-89.6524620497274 901.860284989206 2693.20124626847 242 243 245
-81.1590675950857 900.607460537896 2693.41297602697 224 225 227
-69.6561626191341 898.107019840823 2689.45839395907 224 225 227
-58.1929967834685 895.609733015323 2685.48744066227 222 222 222
-43.1706543132653 891.619049649497 2676.49578626518 237 237 237
-30.6076016266741 888.630995158454 2670.81627297398 238 238 238
-13.930709683396 883.90343315856 2659.26343763959 250 250 250
2.06906821234454 879.431330481467 2648.51331544743 255 255 255
13.2704134443677 876.954966539967 2644.43619425012 253 253 253
20.9078812155148 875.973078061743 2645.37837709692 253 253 253
29.1206864139058 874.743679693348 2645.47632068663 253 253 253
39.0657067448834 872.771129834047 2643.04457716186 252 252 252
48.4011884122444 871.048919116975 2641.44320361049 253 253 253
58.2894172291273 869.080928518993 2638.98843104534 255 255 255
68.7227057798141 866.867821461771 2635.67739908416 253 254 255
74.5435214498191 866.636257880003 2639.11476951503 254 255 255
80.369811842345 866.404559426746 2642.55435764462 251 251 253
85.0672425351857 866.666456674488 2647.69101065786 255 255 255
92.6037844508361 865.693281675861 2648.59226329374 255 254 255
97.8822266337638 865.707219488068 2652.88697784524 255 255 255
104.290557609864 865.227713756568 2655.48530025901 252 252 252
110.699596325165 864.748032400011 2658.08391056256 255 255 255
118.218344820443 863.77626714073 2658.97794808293 253 254 255
123.51933900241 863.788717080837 2663.28180505701 252 255 255
129.93019562134 863.308891695183 2665.88115250859 252 255 255
136.888747792882 862.5836214671 2667.62531027758 253 254 255
142.753841141135 862.349147608903 2671.08063048633 255 255 255
143.74590023613 864.320401954285 2682.25621974095 251 251 253
-113.983862545446 899.875791542445 2701.70570077487 208 210 209
-104.207696898813 898.130920360741 2700.28292881023 238 239 241
-92.0159790241646 895.398188646198 2695.5299375462 232 232 234
-77.4388171486493 891.680036179353 2687.43477510822 231 231 233
-65.3468976980192 888.955510187406 2682.64131397097 229 229 231
-49.6846199591035 884.753140181922 2672.83156122203 232 232 232
-37.6976814057624 882.03717073411 2667.99552920563 239 239 239
-26.9506735425638 879.817918203928 2664.81156655641 245 245 245
-10.8829216907163 875.384245961015 2654.08867524614 252 252 252
2.14196900298558 872.187676115736 2647.51892924393 253 253 253
15.7022270848117 868.749453056193 2640.08871600647 254 254 254
24.502494955289 867.28233842173 2639.34751275853 254 254 254
35.0380919268958 865.080074684649 2636.07782256403 254 254 254
42.6266853543922 864.107682796696 2636.99988732662 254 254 254
50.7855417696133 862.89092734366 2637.07589160571 254 254 254
60.6623068745333 860.940223646245 2634.61634643468 254 254 254
70.5093795535066 858.991872424084 2632.14476117924 255 255 255
76.8922813481716 858.513903190144 2634.73277585105 254 254 255
83.2756831370622 858.035954118702 2637.32099281416 255 253 254
89.0920629559191 857.802465075231 2640.75683902129 254 253 251
97.17391896982 856.591989547977 2640.80161878233 253 252 250
104.116299113391 855.870690523982 2642.53919851093 255 253 254
111.054463464779 855.149611371067 2644.27481240197 253 253 253
116.31597085641 855.159565407931 2648.56295759872 251 252 254
122.143029651684 854.925415031454 2652.00287543406 253 254 255
126.871093843721 855.177114351113 2657.15200903199 252 255 255
132.164725937458 855.184642760247 2661.45317967903 250 254 255
139.111047513511 854.462977101813 2663.1921008182 250 251 253
143.328889654262 854.954696074445 2669.21189520239 250 250 252
147.567589442373 855.444767948742 2675.23988995849 251 251 253
148.588581550188 857.386472082892 2686.42741796792 248 248 250
-118.143546756488 891.904150159213 2694.68759898098 201 203 202
-114.519945253173 892.624204984318 2701.54360972701 245 246 248
-105.968718022948 891.383117426648 2701.77866660489 245 245 247
-93.1601786171481 888.429890184261 2696.19828516911 235 235 237
-75.5392570992004 883.523874005357 2683.95022522373 235 235 237
-59.2189398455323 879.113887810158 2673.32941632467 239 239 241
-44.1842306274676 875.198618509398 2664.34219751827 241 241 243
-33.4213940810637 872.997180479092 2661.16450876188 247 247 249
-18.5088907224735 869.091598733496 2652.12747901167 250 250 252
-6.04732954630038 866.166160806409 2646.40639790919 254 254 255
5.17882135901737 863.731642027255 2642.33926040519 254 254 255
15.1848599563016 861.786895557185 2639.9320120028 250 250 252
26.3365953934445 859.358392128301 2635.8346986073 249 249 251
37.4487527519414 856.932970034276 2631.72107974544 248 248 250
45.6076298036812 855.724342496222 2631.79703077274 247 247 249
53.1716290033517 854.759512702529 2632.70933741435 247 247 249
61.3039620491573 853.553107748519 2632.77452411479 247 247 247
72.2975191701598 851.137141905119 2628.61281317973 249 247 248
79.8154181278832 850.176084099395 2629.50642556878 251 247 246
85.6136126480187 849.941112227993 2632.93466268995 251 247 246
90.8496006957518 849.947409384882 2637.21250300299 251 247 246
98.3568044902503 848.987383679175 2638.1015199465 252 248 247
106.417095053725 847.786865844317 2638.13749253258 249 248 246
113.342697201448 847.06958603411 2639.86824850477 251 250 248
118.591402481183 847.075060370823 2644.15098694531 253 251 252
123.850599381494 847.079757838233 2648.43823648383 251 249 250
128.567955867192 847.324175959422 2653.5830897967 249 249 249
134.401211562144 847.086784913472 2657.02554127628 254 254 255
140.787664202049 846.608893009336 2659.61499307407 246 246 248
147.174718607505 846.13089365234 2662.20468933695 246 246 248
151.935047926769 846.371966892573 2667.36696739949 249 249 251
155.091284918573 847.330200026775 2675.11100560342 245 245 247
158.278356247072 848.286169542582 2682.86754556983 242 242 244
162.03134828489 849.000515981967 2689.77598889621 241 241 243
-129.721882150173 886.871297384092 2697.58993197361 183 185 184
-121.768594462901 885.878798540594 2698.65981126802 245 247 246
-116.287332844674 885.85735425393 2703.03717138771 245 246 248
-105.278708880564 883.655033315158 2699.95900691068 242 242 244
-91.2524915475845 880.245288233913 2692.71724142333 239 239 241
-72.422265686604 874.905355469239 2678.80423571005 237 237 239
-57.325096511754 871.023394288934 2669.84205403195 239 239 241
-39.8858963143744 866.180857143987 2657.51967802873 243 243 245
-25.5391246463177 862.552091623731 2649.33055469644 247 247 249
-9.46331352047625 858.204994193563 2638.61027031573 249 249 251
-0.612779942392061 856.755416498291 2637.88928637209 250 250 252
7.62509711245563 855.548420383625 2637.9972115762 249 249 251
17.6196127074617 853.62090573548 2635.58516697917 245 245 247
28.1723873090851 851.455537752731 2632.32215222581 244 244 246
39.8611007700207 848.812565766926 2627.3650749043 241 241 243
48.0079892767271 847.613017608799 2627.43610303528 240 240 242
56.140232783074 846.414749298806 2627.50119180828 240 240 242
64.8357398983632 844.978111596743 2626.71734066462 240 240 242
74.0871506127263 843.30351370806 2625.08130926014 243 241 242
81.5954361534856 842.348602818563 2625.97072542614 246 242 241
86.8128543485589 842.350812052516 2630.24107792251 244 243 241
92.6087748250808 842.113449976909 2633.66841241661 246 245 243
99.540952081868 841.398279381656 2635.40181461668 250 246 247
108.157030722005 839.968054201011 2634.58575484 247 245 246
115.633102396313 839.015874884082 2635.46210713473 248 246 247
120.868614665662 839.017009215061 2639.73979394128 249 247 248
125.004448579289 839.493054025669 2645.72624535361 250 248 249
130.819221754949 839.254377614353 2649.16122313456 251 249 250
137.740110176365 838.54016118847 2650.89004733268 255 253 254
143.561269356397 838.300919049895 2654.3276150497 255 255 255
149.933394916895 837.824102477304 2656.91125776365 253 253 255
155.220685693361 837.82107471811 2661.20994086905 251 251 253
160.518777917952 837.81725095653 2665.51300343789 243 243 245
164.21480227776 838.522302558532 2672.39845140667 237 237 239
169.006911667041 838.7525490451 2677.57367905865 233 233 235
171.684388902611 839.926376717869 2686.20104481876 229 230 232
-134.603251674088 881.294167827808 2703.20794455406 248 249 251
-122.304782686534 878.626503029062 2698.49768287119 248 249 251
-111.898387556706 876.681837947978 2696.25253538051 241 241 243
-99.0690527309082 873.78141915305 2690.68017358958 239 239 241
-85.0684372305939 870.406514123462 2683.4280352497 238 238 240
-71.735801261321 867.275530645426 2676.9821387798 238 238 240
-57.2466650078274 863.670992850937 2668.85047422176 244 243 248
-42.8224774930934 860.071600823287 2660.69247337521 241 242 244
-24.8593648838746 855.045752027181 2647.50506433781 243 244 246
-8.18735321582365 850.504127119264 2635.94858643548 243 244 246
4.2300588439137 847.636702849634 2630.20918994028 240 241 243
14.2250262305876 845.725465868962 2627.79746211676 238 239 241
22.4185864956474 844.530229992668 2627.8873546267 234 235 237
31.1856296906254 843.098564767382 2627.13243024577 233 234 236
40.5187533246441 841.431062092555 2625.52943004477 229 230 232
48.6609841911501 840.240072276608 2625.59850746027 228 229 231
56.7887395235893 839.050408658403 2625.66171378218 229 230 232
65.4799433673376 837.624991147179 2624.87603522831 229 230 232
74.1516460630618 836.201118675363 2624.08244908656 231 232 234
82.8036907514482 834.778923222827 2623.2808908453 236 236 238
88.5837645274867 834.539947398666 2626.70182135422 237 238 240
96.0734313261602 833.592011038661 2627.5836460582 239 240 242
101.857119128831 833.35292279628 2631.00629793958 240 239 244
109.898454013871 832.17028543645 2631.0344599764 248 248 250
116.804463414009 831.459823633925 2632.75697407847 245 245 247
122.589922436974 831.220714613286 2636.18034327192 248 248 248
127.270307685526 831.451503915835 2641.31033049506 254 252 253
133.072323290401 831.211028786112 2644.74015645962 255 253 254
138.880072248435 830.970159189666 2648.17230680827 245 243 244
143.597705382048 831.198116964302 2653.31739689886 221 221 223
149.96728849041 830.721382273223 2655.90000957128 221 221 223
156.337536856965 830.244654651087 2658.48289154845 220 220 222
163.248897885418 829.533584106801 2660.20783432762 226 226 228
166.390960540711 830.460182942809 2667.9463732223 228 228 230
171.170066106422 830.683096457532 2673.11613407346 227 227 229
173.833580806795 831.838956365044 2681.73823991912 210 211 213
174.41192533781 833.925249180331 2693.82425525583 213 214 216
-141.251513336147 874.287784394124 2699.49040875807 178 180 179
-128.310721656081 871.405374551674 2693.96303855624 254 255 255
-120.98574288739 870.662077247976 2695.85543927674 239 240 242
-109.354157163526 868.260293699548 2691.95221133931 242 242 244
-98.376002477359 866.098703266424 2688.861401341 239 239 241
-81.3237251870917 861.573570572173 2677.45902251985 236 235 240
-69.223511507297 858.946778909127 2672.66817885775 239 238 243
-55.3504520196386 855.614802397724 2665.36381137744 240 239 244
-40.9339553985495 852.0515864863 2657.20242233735 239 240 242
-25.3807466900697 848.021704113314 2647.34720090012 240 241 243
-8.70547821896905 843.52614765463 2635.79169246802 240 241 243
3.71374833033511 840.685957081454 2630.05282422282 236 237 239
13.1164269365476 839.026447681799 2628.47818297786 233 234 236
23.0854810601444 837.133707602619 2626.05556562937 228 229 231
31.8481192122573 835.71339018353 2625.29877166446 227 228 230
41.177128679428 834.059782641756 2623.69400034509 223 224 226
48.1481738404452 833.346673360138 2625.4431242605 222 223 225
57.4378837909972 831.696353359743 2623.82267315267 224 225 227
66.7031139741525 830.047978259408 2622.19203839178 224 225 227
74.7922732629827 828.86950208337 2622.23953265083 227 228 232
81.7203666020656 828.16003489851 2623.97123807121 233 234 238
88.6439427260697 827.450925604133 2625.70111179044 234 238 241
97.2680264930232 826.041770331565 2624.88787630228 236 240 243
104.740972443939 825.100712496573 2625.76313594246 236 237 242
111.078218902893 824.626539777617 2628.33263631518 242 243 247
116.855467755431 824.385217394431 2631.75244081882 243 244 248
122.080125694756 824.376212890727 2636.02580963351 249 250 252
128.426851490105 823.901348917818 2638.59915336201 251 251 253
134.774289226982 823.426368763015 2641.17278623123 246 246 246
141.12244731004 822.951391312636 2643.74671074302 229 227 228
144.730692373806 823.636020048676 2650.59677229538 225 225 227
149.456008784676 823.855119989476 2655.74504043056 228 228 230
155.826308036892 823.378328559662 2658.32794349462 226 226 228
162.737945004348 822.669985853973 2660.05297732327 228 228 230
167.493059814815 822.886665147321 2665.21332896755 230 230 232
171.728528970639 823.332997766933 2671.24034719511 228 228 230
174.385794534484 824.470110290704 2679.8598076831 218 219 221
174.426386545575 826.757657316007 2692.8056307455 217 218 220
-136.799630647292 865.133523384973 2692.73109455003 226 227 229
-126.361769627097 863.218644415859 2690.49846160522 240 241 243
-117.191146918432 861.775447769281 2689.9070311202 241 242 244
-105.575977625075 859.396902693584 2685.99698014488 237 238 240
-94.6142165268069 857.255739446583 2682.89937766627 235 236 238
-80.020662494336 853.713823285044 2674.80951647356 233 234 236
-68.5350005490004 851.34590290438 2670.84669113009 233 234 236
-54.058775527956 847.81340205271 2662.70925288495 234 235 237
-43.8724681916036 845.919708508634 2660.37460705285 232 233 235
-26.5031900372987 841.23029293983 2648.02301671564 233 234 236
-9.8223770505721 836.780737817433 2636.46966176767 233 234 236
3.19734911015579 833.734740132509 2629.89642616011 228 229 231
13.1944583101207 831.856150540396 2627.48531808334 224 225 227
23.1619136740713 829.979975556203 2625.06192784948 219 221 220
32.5113866220386 828.338435458731 2623.46535058082 218 220 219
40.0780130260099 827.395096241866 2624.37855806616 215 217 216
48.2187044231848 826.220726599549 2624.44688618503 213 215 214
56.344907679313 825.047504825492 2624.50933945752 215 217 216
65.6135749524085 823.412486362391 2622.87999511037 216 217 219
72.5537564017589 822.704751383835 2624.61658179145 218 219 221
80.0630874063328 821.766196092457 2625.50629728739 242 241 246
89.2755898335931 820.135681826951 2623.85443527733 236 237 239
99.0321767811861 818.276333104358 2621.34553837452 237 238 240
107.627353646002 816.880341908196 2620.52075613256 225 224 229
111.695864048644 817.328724225674 2626.48015840558 238 238 240
116.906910054298 817.315238992405 2630.7480498073 240 240 242
122.128685922032 817.301028618451 2635.02003392412 243 243 245
129.584602277883 816.366699855604 2635.88834739716 220 220 222
136.477938236396 815.662681771455 2637.60568127072 223 223 225
142.26515067223 815.417814877542 2641.02980405175 226 226 228
146.961461759836 815.630963753558 2646.16637324411 231 231 233
150.582079986438 816.300983235671 2653.02155533676 228 228 230
156.94498484118 815.824598321801 2655.60146138031 227 227 229
161.686224385953 816.034247376469 2660.75624831493 226 226 228
167.519948662609 815.785461746145 2664.19897588777 227 227 229
170.680633474051 816.677708327111 2671.9453151425 225 225 227
172.805735243682 818.023821602713 2681.42678747502 229 230 232
172.84926038006 820.278324575557 2694.37379137747 219 220 222
172.953773683374 822.528169484582 2707.34578149079 217 218 220
-132.968661544786 856.254413172961 2686.79735662404 241 242 244
-121.92610995983 854.125319862878 2683.73237415529 244 245 247
-116.488138886269 854.085487127422 2688.09234561903 237 238 240
-106.109185401091 852.192251705078 2685.83569737771 235 236 238
-94.5324291438174 849.838753042016 2681.90964616421 234 235 237
-79.9391291265079 846.33242378676 2673.81941238352 232 233 235
-68.454662828723 843.986470774647 2669.85619365069 231 232 234
-55.1912922522819 840.951291341149 2663.3817831711 232 233 235
-42.5863751232869 838.151083985406 2657.71779666648 231 232 234
-25.8222705792317 833.74144105095 2646.19760613096 232 233 235
-8.54452241214898 829.108233859633 2633.80852990507 231 232 234
3.87330750233139 826.322729521031 2628.06868166555 226 227 229
12.6790074425018 824.920699122485 2627.32918450345 222 223 225
22.6475040679401 823.060820293251 2624.90609234858 218 220 219
31.9978800583642 821.432837600845 2623.309777954 216 218 217
40.1510928631819 820.265545684742 2623.38312225503 212 214 213
47.7059907259898 819.328694875766 2624.29153175664 212 214 213
55.8326595248733 818.163625543706 2624.35411173081 212 214 213
64.5234711344296 816.771056188874 2623.56802538403 213 215 214
72.0424986231449 815.837232064685 2624.46163105686 216 216 218
80.1257622892046 814.675661416047 2624.50661008065 230 230 232
89.9079597412769 812.830662273341 2622.00797392407 243 243 245
99.091948224991 811.216036065566 2620.34444639278 233 233 235
108.251609598295 809.603163334816 2618.67079846911 228 228 230
113.441382237513 809.585744596837 2622.93010625011 242 242 244
118.080919453187 809.795082682032 2628.043716988 239 239 241
122.17759463116 810.230473858655 2634.01462144867 233 233 235
129.631503914823 809.301749151697 2634.88182256861 215 215 217
137.075899474486 808.373713009187 2635.74542365641 221 221 223
143.40900592963 807.899748742768 2638.31324619085 226 226 228
148.645917389178 807.878660474482 2642.59141073431 231 231 233
152.801345468216 808.309510907109 2648.58639547326 228 228 230
158.60822225594 808.060222204491 2652.01825650085 227 227 229
162.79800033726 808.488296788688 2658.02691312642 225 225 227
167.547024930614 808.688960394164 2663.18492027941 226 226 228
170.1681901403 809.79067637557 2671.79003228545 226 226 228
173.358738051953 810.664178306924 2679.54860497759 225 225 227
175.518524763981 811.985611143812 2689.04405084244 216 216 218
175.605664425109 814.204015453532 2702.00924480208 214 214 216
-154.60676466331 854.806706646871 2702.86160280584 242 243 245
-140.367783467977 851.543293444115 2695.7048747459 244 245 247
-128.675084324753 849.202003274327 2691.82593267645 235 236 238
-116.403348664239 846.634967524313 2687.10408411777 232 233 235
-105.409438609988 844.529334553241 2684.01922921427 230 231 233
-93.2225174405461 841.969317376899 2679.26298666911 228 229 231
-81.0804045866 839.413024193746 2674.4888305536 226 227 229
-68.3740822889958 836.632040599416 2668.86575657372 225 226 228
-53.8982084389608 833.170581580437 2660.7276376642 226 227 229
-41.2990831651756 830.398150781486 2655.06109553964 226 227 229
-25.7422214974041 826.490764520409 2645.2061674461 227 228 230
-9.66141161236123 822.361692927379 2634.48625445124 227 228 230
3.95355308882883 819.148491057214 2627.07674316434 222 223 225
15.1332517225031 816.84862745958 2622.98951958795 218 219 221
23.9074391270069 815.460032766974 2622.23716138404 216 218 217
32.0731775417935 814.299878020244 2622.31552311816 214 216 215
39.6379589333355 813.367569644928 2623.2276427337 208 210 209
49.5287501013573 811.530340063829 2620.7731737401 209 211 210
57.0645085274706 810.600450675871 2621.67352382693 209 211 210
64.5908511098308 809.671367063669 2622.57005539765 208 210 209
70.954912812337 809.194890494919 2625.15043053539 212 212 214
81.3365745016583 807.138541903589 2621.81730703673 209 209 211
91.6837427053572 805.084806614268 2618.47019756157 244 244 246
100.289869263105 803.70970639586 2617.64969042493 227 227 229
108.876549760816 802.336146852341 2616.82129803821 230 230 232
114.62478068311 802.088695074891 2620.22939984626 245 245 247
118.694893049607 802.515072418168 2626.18961753482 236 236 238
122.785680221198 802.940050839799 2632.15821690919 219 219 221
130.234869434002 802.017134306588 2633.023720108 209 209 211
137.121138318764 801.318936430488 2634.73814845778 219 219 221
143.451761612087 800.845109124224 2637.30496453943 227 227 229
149.234282166105 800.594995005654 2640.72722738323 230 230 232
153.384068573669 801.015299028402 2646.71975056166 228 228 230
159.185789933058 800.763609303879 2650.14954239188 226 226 228
162.828518355276 801.404434391499 2657.01415525846 225 225 227
168.651940179914 801.150965603685 2660.4527469384 226 226 228
171.264256071662 802.234075018776 2669.05441695089 226 226 228
174.446128833057 803.091825837768 2676.80959652519 231 231 233
177.659043676123 803.947117250812 2684.57736346044 216 216 218
180.374327423535 805.022188267898 2693.22078535834 221 221 223
180.495183349735 807.205044444618 2706.19990024042 205 205 207
-151.385222236738 846.146908321157 2697.75825814786 253 254 255
-139.032161789829 843.597633268389 2693.06946002536 241 242 244
-127.967266599642 841.505151388282 2690.01298959314 232 233 235
-115.699067327141 838.963018160025 2685.28977764819 231 232 234
-105.325955584717 837.103122424524 2683.03051142081 227 228 230
-91.9113735401169 834.115744306546 2676.61670584778 225 226 228
-82.2220700940644 832.487623531048 2675.15787905618 223 224 226
-69.5115136377138 829.733622151214 2669.5363149394 223 224 226
-55.0306604439073 826.3073354093 2661.39994553469 223 224 226
-39.4062384790035 822.435662655103 2651.57210142902 225 226 228
-23.8568891470627 818.569812798728 2641.71407403576 226 227 229
-8.98147398553073 814.93466212732 2632.66023496959 225 226 228
4.63097183053107 811.754302989777 2625.2491976384 220 221 223
16.9952367848227 809.027618084387 2619.48721549006 216 217 219
25.1684243099588 807.874883156375 2619.56853707608 213 215 214
33.9162774497403 806.499313905008 2618.80541758533 209 211 210
41.4713008607352 805.573158485449 2619.71353962583 203 205 204
50.184952764144 804.200418486142 2618.93655085139 204 206 205
58.2975645132662 803.052781743839 2618.99330709125 205 207 206
66.395747411657 801.906347948438 2619.04421207348 204 206 205
73.9027716061338 800.984229107278 2619.93312620106 208 208 210
81.9745122699154 799.839890280564 2619.97330903021 178 178 180
90.0317647926503 798.69669932211 2620.00761701299 205 205 207
98.6438179467115 797.332073991359 2619.18917288994 230 230 232
107.802767855502 795.74645034139 2617.51528758526 224 224 226
114.681318077285 795.051608287247 2619.22682249333 239 239 241
118.748021396895 795.467376472217 2625.18574029744 228 228 230
122.835552178586 795.881554312507 2631.15310304803 204 204 206
129.726170872236 795.185815872061 2632.86953118936 213 213 215
137.166615468917 794.268798093306 2633.73119181745 222 222 224
144.046153072171 793.573818034677 2635.44312755532 228 228 230
148.176872837057 793.984574092778 2641.42800315594 228 228 230
152.874749440811 794.172851629344 2646.5653947327 226 226 228
158.132392688283 794.139116603482 2650.852306516 226 226 228
162.859516811747 794.325017137778 2656.00155822367 225 225 227
168.141428959557 794.289304970297 2660.29805407272 225 225 227
171.82508105981 794.913079471875 2667.17936588592 225 225 227
177.136236525004 794.874930858963 2671.48772061496 222 222 224
180.332944100365 795.714888586885 2679.24904156729 219 219 221
181.974195306691 797.211246023127 2689.61227556226 216 216 218
182.082835161266 799.362258389865 2702.58642838418 216 216 218
-157.398618180913 838.924517586707 2693.22060412419 219 220 222
-151.296174860299 838.640334689945 2696.77240243912 245 246 248
-141.441830610222 837.011935540843 2695.38014438531 244 245 247
-129.124702179801 834.490374173139 2690.67658758127 232 233 235
-114.994071283287 831.301478402813 2683.47542442979 226 227 229
-102.157290189351 828.564375727767 2677.9048396885 222 223 225
-89.9847632158746 826.054634933056 2673.14238795393 221 222 224
-80.9166727387416 824.664035143453 2672.50904422366 219 220 222
-70.6493568144306 822.829378273304 2670.20675071401 219 220 222
-57.9843615388553 820.106364075488 2664.56650432297 220 221 223
-42.3472346179039 816.27462594785 2654.74375889711 223 224 226
-24.3774187964636 811.559386097606 2641.55645238524 224 225 227
-6.50243041532828 806.851360367207 2628.33069623238 223 224 226
5.30912177704734 804.370458032233 2623.42186977417 218 219 221
17.0758488446208 801.893041917806 2618.4951247419 214 215 217
25.2469678650287 800.748660199623 2618.57554548993 210 212 211
34.5822553601247 799.162700018603 2616.97280335111 207 209 208
41.5456990016956 798.463523062037 2618.71874386184 201 203 202
49.6733153202815 797.322827085793 2618.78152273664 202 204 203
57.204658197713 796.404136896131 2619.68000011217 204 206 205
65.8850898378038 795.044967902825 2618.88945782352 204 206 205
72.8157241508638 794.348719136428 2620.62209187429 202 202 204
80.8905173917094 793.21229789778 2620.66345065715 184 184 186
88.950930566323 792.076986076776 2620.69897864381 184 184 186
98.7046123868358 790.283113138112 2618.18840918699 231 231 233
107.861986378589 788.711243296524 2616.51378155453 222 222 224
114.738281133176 788.019275277414 2618.22412422892 232 232 234
119.925023039821 787.985628342389 2622.48232789305 225 225 227
124.563365068715 788.170224149298 2627.59564224799 204 204 206
131.444146853102 787.477954993359 2629.3080611981 218 218 220
138.320820920121 786.785867257883 2631.01855836083 224 224 226
145.193049358106 786.094066551188 2632.72751057076 227 227 229
148.766339122338 786.712871652183 2639.56391789476 226 226 228
152.912010638654 787.111498670268 2645.55519651516 226 226 228
157.622772132276 787.290446482878 2650.69787580947 226 226 228
162.891013056101 787.250198507191 2654.9888706568 225 225 227
168.708996669789 786.99159598711 2658.42555658243 224 224 226
172.923306259071 787.384670801089 2664.44441113079 223 223 225
177.692526843465 787.558747905097 2669.61079701615 220 220 222
178.225625448202 789.468131528054 2681.67983352075 221 221 223
181.459719836568 790.288808292804 2689.45643827371 209 209 211
182.092608231797 792.190255869647 2701.5659391118 220 220 222
-164.862254826737 834.08598561861 2702.10296644115 244 245 247
-149.952621116007 830.695904544643 2694.13993280621 240 241 243
-138.855827507071 828.639027152191 2691.09636517239 223 224 226
-125.305425635054 825.700539420433 2684.73743873769 212 213 215
-111.809738431615 822.76651159549 2678.35606768921 213 214 216
-98.9863004496774 820.057723973054 2672.77986579586 214 215 217
-84.9835062883324 816.911887686295 2665.5268733018 214 215 217
-74.713182744244 815.09313207581 2663.22567702892 213 214 216
-68.7397676425641 814.818215425351 2666.7251624949 214 215 217
-60.332584358413 813.66314077578 2666.90124504332 215 216 218
-44.6851419653143 809.871532003005 2657.08237210961 219 220 222
-21.8874657636541 803.450173814165 2637.231527207 220 221 223
-3.42189323698605 798.57522840733 2623.16735146015 219 220 222
7.18203818450047 796.558326091802 2619.92392441209 214 215 217
17.7513764502026 794.544194415221 2616.6664698392 210 211 213
26.509952627471 793.189444434941 2615.90753422609 204 206 205
35.2489788722161 791.836333023326 2615.14067056366 202 204 203
41.6204947202561 791.358727891671 2617.7240723864 198 200 199
47.9925231695011 790.881321251995 2620.30768025324 197 199 198
56.6933018519831 789.531305313125 2619.52504973395 202 204 203
64.795049553529 788.400818296949 2619.57727720754 205 207 206
71.7282947416251 787.707022712388 2621.31094978869 185 185 185
79.8061405595347 786.578519061807 2621.35348452525 214 214 214
87.8696063112121 785.45112482887 2621.39018846562 175 175 175
98.1963307708835 783.456125325251 2618.03435626184 227 227 227
107.921791625031 781.680717492754 2615.51222037485 228 228 228
115.359991906139 780.774751363645 2616.37314575349 225 225 225
120.54141736387 780.735941989267 2620.62897872838 225 225 225
124.614641976392 781.129250260741 2626.59096442444 206 206 206
131.493267963745 780.439697802899 2628.3022326892 222 222 222
138.921874530153 779.534372213618 2629.15926878549 221 221 221
145.237492878898 779.061434840474 2631.72000272576 223 223 223
149.356587186845 779.451144243977 2637.70033078899 225 225 227
154.590342031581 779.408129134245 2641.97738344092 225 225 227
160.923304692136 778.93369805158 2644.54515129228 225 225 227
166.173524001903 778.889373079172 2648.82913744462 225 225 227
170.356124255085 779.273901585407 2654.83521788573 224 224 226
174.559517582743 779.656837057455 2660.84998659696 220 220 222
178.784033491889 780.037955000677 2666.87306424188 220 220 222
180.902587683739 781.274903294014 2676.35245572072 221 221 223
181.474521493114 783.151107394789 2688.4377250433 219 219 221
179.99603332381 785.878806726361 2704.00157147966 203 203 205
-162.88247430655 825.902486315009 2698.65110446591 243 244 246
-147.353185323364 822.329643026434 2689.86154201281 232 233 235
-136.892652108935 820.511359246998 2687.63735671389 225 226 228
-124.594959986494 818.040359599774 2682.9252898156 210 211 213
-112.34215196792 815.573095364281 2678.19502134769 211 212 214
-98.8996853179205 812.673465621955 2671.79209817196 210 211 213
-87.3564021377129 810.43182990778 2667.85164605563 210 211 213
-74.0160644165659 807.540351425167 2661.40730981457 208 209 211
-65.6089281908649 806.393230725615 2661.58331302059 211 212 214
-57.8238205793071 805.464741195457 2662.58486944516 213 214 216
-46.4193911059916 803.234435368788 2658.58811056746 213 214 216
-23.6115569175281 796.885941014366 2638.74108350041 216 217 219
-4.53754443535792 791.848250314344 2623.84568621007 212 213 215
6.66756198644625 789.633527263093 2619.76810472528 210 211 213
17.832919783068 787.422007783044 2615.67466224762 210 211 213
26.5897569215581 786.078220472117 2614.91468218941 201 203 202
34.1474823271077 785.168044888469 2615.82403435215 204 206 205
40.5213669586646 784.690252082536 2618.40839670111 204 206 205
46.8958638615879 784.212500431645 2620.99300664247 201 203 202
56.7641220804711 782.442366900102 2618.52864842081 202 204 203
63.704440270693 781.750670971412 2620.26516889568 211 213 212
70.6404387962449 781.059292807578 2621.99968073376 198 198 198
79.2960108354033 779.72382200721 2621.19889334267 201 201 201
89.0765012811965 777.960462823516 2618.69894722269 180 180 180
99.397068013064 775.984930097754 2615.3404742456 225 225 225
106.847549711458 775.083430560323 2616.20633842769 224 224 224
114.288755927356 774.182671315957 2617.06818419475 236 236 236
121.720696855325 773.28249670273 2617.92627408091 204 204 204
126.904839225608 773.237937368986 2622.18350792415 216 216 216
132.656913805063 772.979032822621 2625.59325281067 211 211 211
138.414628059756 772.719676041385 2629.00554181617 224 224 224
144.730352382152 772.246670496045 2631.56631918114 225 225 225
151.046786544912 771.773519047229 2634.12738506137 226 226 228
156.270065269011 771.725714987241 2638.40023230508 222 222 224
162.048509645659 771.46456635704 2641.82092837208 221 221 223
167.832952849715 771.202768536651 2645.243801016 223 223 225
172.544190331575 771.364941328834 2650.38680018466 221 221 223
176.734490401133 771.737711549887 2656.39608735157 219 219 221
179.342317356286 772.744394211023 2664.99651911934 219 219 221
181.454279798558 773.95989162459 2674.47366146376 217 217 219
182.548546612094 775.594996992091 2685.69318181839 213 213 215
181.586473255292 778.071241589051 2700.38921877507 211 211 213
179.122664535117 781.175091589564 2717.70913828262 198 198 200
-177.125333914228 821.496271967648 2704.78533050013 207 208 210
-159.640889344025 817.307571083 2693.55538309283 233 234 236
-143.496486208053 813.557770403538 2683.93715192879 219 220 222
-133.052849716092 811.757198557936 2681.70624824136 201 202 204
-124.506438365172 810.606276259692 2681.93867177568 202 203 205
-114.114792016381 808.810307118481 2679.68642553318 202 203 205
-101.282832730125 806.155449838941 2674.11326507839 205 206 208
-88.5006687833902 803.504597526922 2668.51991248622 205 206 208
-74.5432543783806 800.42787661579 2661.24776494751 205 206 208
-63.6957971856762 798.42981736341 2658.10279693665 210 211 213
-54.0978062678497 796.863631656365 2656.60627167068 212 213 215
-40.8947719702246 794.013248286589 2650.10603075472 211 212 214
-21.1191324589832 788.810904183579 2634.41689994435 210 211 213
-5.05332106591205 784.901138477932 2623.68950911387 206 207 209
5.55574549667681 782.921912106225 2620.44761844818 203 204 206
15.5350086960351 781.159177768012 2618.02840650074 203 204 206
24.89249596071 779.612196154883 2616.4343574447 197 199 198
31.8656452190067 778.920230350213 2618.18417303244 201 203 202
39.4218614454311 778.015649263372 2619.09261450791 186 188 187
46.96846848002 777.111973521074 2619.99741565385 206 208 207
56.8353335830685 775.358179575385 2617.53236951983 178 180 179
63.7733349146166 774.669272881507 2619.26767354682 208 210 209
71.2842491348094 773.768484790097 2620.15800103703 200 200 200
79.3606976345582 772.65626128221 2620.19984661031 187 187 187
88.5675213511112 771.121246347659 2618.54470424501 183 183 183
97.74979232273 769.588111490996 2616.87986362299 224 224 224
105.773072508663 768.479980856753 2616.90015069916 210 210 210
112.087529807317 768.007075695329 2619.4604142943 151 151 151
119.527345113471 767.111716835228 2620.32165595841 204 204 204
126.3980454208 766.428077085281 2622.02992758121 203 203 203
132.707205867879 765.955472031274 2624.58804424387 207 207 207
138.462384014987 765.693452342128 2627.99906935492 205 205 205
144.223256925322 765.430976053594 2631.41266092276 224 224 224
151.639308296684 764.537201084992 2632.26426873227 217 217 219
156.857093721844 764.484267657255 2636.53518788384 215 215 217
162.630518829087 764.220593079299 2639.9536136036 216 216 218
166.783172666737 764.585466690043 2645.94771793161 218 218 220
171.496413059521 764.739142029013 2651.09159247311 218 218 220
176.762718395808 764.682185131351 2655.38218749036 215 215 217
179.901355455915 765.460810636017 2663.12046098329 215 215 217
183.603278922727 766.027939714546 2670.0093428739 214 214 216
184.153539877485 767.845492465162 2682.08602434563 212 212 214
184.232816451886 769.86725861342 2695.04952506072 210 210 212
182.275114287764 772.717631218278 2711.49747667967 199 199 201
-170.705673880242 811.817412364814 2695.59030730668 226 227 229
-155.136537647452 808.317686360453 2686.81632451405 227 228 230
-142.776092966158 805.890402581302 2682.12933432868 212 213 215
-133.586840393145 804.532853595253 2681.54479775806 196 197 199
-126.285741978381 803.816135817674 2683.42732802658 199 200 202
-115.888098550276 802.036040303213 2681.17738964131 200 201 203
-103.667114312744 799.620607277044 2676.43410030963 203 204 206
-90.2604939928151 796.7838979695 2670.01592906208 202 203 205
-78.7467281997294 794.588321667774 2666.06343367322 204 205 207
-68.4931613316331 792.820119277939 2663.7550695611 209 210 212
-56.4462018405385 790.418748312687 2658.94095502719 211 212 214
-40.2075454587998 786.539169495946 2648.28306187529 211 212 214
-19.8300362757895 781.185360349511 2631.75996375879 207 208 210
-4.36884424008022 777.530779861642 2621.86464073554 203 204 206
6.83394985640118 775.359841264579 2617.7860483589 198 199 201
16.8069493953671 773.613807922256 2615.36391648412 198 199 201
25.5650937275906 772.29164565817 2614.60430178745 196 198 197
31.9432033249769 771.813279011703 2617.19037914475 191 193 192
38.9095497157197 771.124601886205 2618.93741537223 190 192 191
47.0416535183176 770.01603868686 2619.00176763989 185 187 186
55.7418806948815 768.69866889285 2618.21892359743 164 166 165
63.2626212546563 767.802397878038 2619.11293823828 197 199 198
71.3512876379883 766.697360394189 2619.15993350466 206 206 206
78.2757611650258 766.012215407531 2620.88973170657 173 173 173
86.9134041840207 764.69974426292 2620.08151065089 179 179 179
94.9616598653851 763.59776441696 2620.11186350723 200 200 200
103.563105873432 762.288101317579 2619.28896525359 206 206 206
110.450078877011 761.605832348981 2621.00381518587 161 161 161
118.457783495151 760.5069756236 2621.0177255311 193 193 193
125.891247871408 759.617380232814 2621.87635206307 207 207 207
132.200457102987 759.144681649548 2624.43448918716 199 199 199
137.400454413146 759.087747803523 2628.69823637886 207 207 207
143.716161926236 758.614504485542 2631.25900874012 215 215 215
151.132693278309 757.72595178601 2632.11077130704 211 211 213
156.897685221884 757.460135874975 2635.52579872919 212 212 214
161.578534481258 757.608158288606 2640.65660117749 213 213 215
165.733027567969 757.961827600085 2646.65153512996 215 215 217
170.988096057592 757.900291463321 2650.93761513686 215 215 217
175.179489692126 758.250917661353 2656.94751292615 213 213 215
180.461375526464 758.187107396374 2661.24446832353 214 214 216
183.624960248802 758.947198364058 2668.9929834352 212 212 214
185.23026353539 760.322852096184 2679.34232004631 210 210 212
186.881615638142 761.694881940995 2689.71058619205 209 209 211
187.004823097204 763.680230894985 2702.69215024406 198 198 200
-169.345290818993 803.88614456919 2692.96455197817 239 240 242
-155.042118696581 800.846647889244 2685.83211714443 206 207 209
-145.194705240153 799.286817644894 2684.43679035423 195 196 198
-135.997271665613 797.939505158101 2683.85523139685 183 184 186
-128.688795703743 797.2249770461 2685.7409894115 194 195 197
-116.421386170495 794.830259894662 2681.01608310649 197 198 200
-103.580909782248 792.229273514857 2675.44596283932 199 200 202
-88.3285544732491 788.793470048078 2666.54323317559 197 198 200
-77.4363966677758 786.82982707518 2663.4161032607 201 202 204
-65.3581912631556 784.45042898079 2658.61447342782 207 208 210
-55.1482636947902 782.70200292693 2656.28829017264 209 210 212
-35.8873585262141 777.821600469488 2641.46737220728 209 210 212
-19.1426689291201 773.784281496297 2629.93675580947 199 200 202
-4.88437549227716 770.587922575709 2621.70853074296 195 196 198
6.91787526612697 768.23011885825 2616.79500514596 187 188 190
16.2939297611948 766.708829022988 2615.20853632007 188 189 191
25.645661348179 765.189352107911 2613.61194835273 189 191 190
31.4308787180988 764.918915081067 2617.03519993377 193 195 194
37.8094311205588 764.440543240035 2619.62145661908 186 188 187
45.9444429366378 763.339903668287 2619.68718348845 181 183 182
52.8996709974825 762.654892429977 2621.42943296981 190 192 191
60.430618230191 761.763217082927 2622.32780261299 148 150 149
69.1079525802889 760.458485933219 2621.53533640297 201 201 199
77.7657492935939 759.155267411832 2620.73520530322 172 172 170
85.2585735369105 758.266582589725 2621.61811655025 161 161 159
92.1720491045945 757.584939099294 2623.34343521581 137 137 135
100.784334734523 756.285206783535 2622.52485057578 191 191 189
108.246835681306 755.398870057246 2623.39520911002 140 140 138
116.825396956291 754.101660218662 2622.56295059749 187 187 185
123.143858868819 753.628198674776 2625.12483984969 196 196 194
130.578381109548 752.743864018595 2625.98411205513 221 221 219
136.338334104255 752.47572752136 2629.39711683193 227 227 225
143.761970703834 751.592081399787 2630.2517190728 194 194 194
150.626188893656 750.913916632389 2631.95732463319 205 205 207
156.39092403757 750.645251814178 2635.37226967292 208 208 210
161.616432620773 750.580498475839 2639.64640546827 209 209 211
165.76764177359 750.923369388235 2645.64009162805 211 211 213
171.019918917009 750.85643545094 2649.92508235247 212 212 214
174.132929871303 751.604035079115 2657.65321518407 211 211 213
180.487178193771 751.127050819863 2660.22962080179 212 212 214
183.647289918585 751.870834492088 2667.97659609963 211 211 213
185.778243638402 753.01880455684 2677.46193971691 209 209 211
187.42284507216 754.366651826015 2687.82765586185 207 207 209
188.063810028109 756.116704180945 2699.94157437677 196 196 198
-177.891728908675 797.522223255032 2691.71001271347 213 214 216
-164.184789265629 794.720683921806 2685.41342928366 235 236 238
-153.055367514822 792.756265466207 2682.38237174019 196 197 199
-145.72988754696 792.042482322278 2684.27500890995 189 190 192
-137.783447211045 791.121599767768 2685.34157292828 181 182 184
-130.469932300307 790.409392241967 2687.22935358827 193 194 196
-118.196058043827 788.038730880856 2682.50688246764 197 198 200
-107.203187267944 786.086087520705 2679.42044714814 199 200 202
-91.3199949916781 782.480240411944 2669.69536242553 196 197 199
-80.4166337928931 780.534808280022 2666.57263065214 200 201 203
-67.1056418569083 777.765774887447 2660.11548440981 207 208 210
-52.6330284154792 774.588092239891 2651.97389443637 208 209 211
-35.1972044490696 770.384231364802 2639.64531042909 206 207 209
-20.2636232795299 767.011581824754 2630.61303268119 194 195 197
-6.60101747546871 764.056185664952 2623.22085684291 190 191 193
5.80589831895639 761.516717717068 2617.47472466461 180 181 183
15.7809698750817 759.803128076761 2615.05318582051 182 183 185
25.1336024033599 758.29717884517 2613.45686010177 186 188 187
30.9185099867926 758.023926997248 2616.88000758803 189 191 190
37.2969480109482 757.545504442092 2619.46621834678 180 182 181
44.2615220783522 756.862317695647 2621.2124953575 184 186 185
52.3878236248512 755.770413522023 2621.27437206182 184 186 185
61.0801540986976 754.475338206217 2620.48816171421 158 160 159
68.597133862166 753.590124850743 2621.38056982119 166 166 164
77.2557420822324 752.297601733692 2620.58068622655 191 191 189
83.6031781756905 751.821814731706 2623.15432454604 162 162 160
89.9512816285033 751.346064520243 2625.72823279575 127 127 125
99.1397663471412 749.85302533382 2624.0656041617 165 165 163
107.738572893193 748.565096165028 2623.24121524476 137 137 135
117.443708790772 746.872528950415 2620.71047924385 186 186 184
122.63645216964 746.804967214475 2624.97111270003 210 210 208
128.397775021396 746.533967071335 2628.38495105447 219 219 217
134.720302939277 746.060033945208 2630.94849017794 179 179 177
143.255224685407 744.776628264449 2630.09820047051 190 190 188
150.669997007989 743.898939326 2630.94942570103 194 194 196
155.884377359464 743.829484004967 2635.21883416726 200 200 202
161.654768717735 743.557466500538 2638.63635200717 202 202 204
166.888393916633 743.486366894109 2642.91356503925 202 202 204
172.132781973723 743.414409152626 2647.19539960747 203 203 205
176.850452686944 743.542597634405 2652.34126113781 204 204 206
182.119321591674 743.468526406912 2656.6327666212 206 206 208
185.268126238498 744.1966425233 2664.37553974548 206 206 208
186.327205712333 745.724637352861 2675.58162486379 207 207 209
187.437442788394 747.248698613688 2686.80845314883 207 207 209
188.59899222483 748.768664604328 2698.05608848673 198 198 200
190.334321185724 750.08460628309 2708.45878140143 191 193 192
-182.245226401794 791.460770063472 2696.46661984367 228 232 233
-169.154735115699 788.893624524138 2690.99747233614 221 223 222
-156.745030481391 786.535957163654 2686.33015671044 186 188 187
-150.035440374203 786.029205886047 2689.05066332962 185 187 186
-140.821984809439 784.702442284503 2688.47543580782 167 169 168
-131.00517847487 783.172773096728 2687.06748779786 190 192 191
-116.246433404295 780.007748453223 2679.04165455325 198 200 199
-105.880649165758 778.279283151049 2676.77842526451 201 203 202
-94.3130987569822 776.144750987289 2672.84724418824 197 199 198
-80.3319952170194 773.197033007374 2665.58371040569 198 200 199
-65.7997635516121 770.050074148608 2657.46602655156 210 212 211
-49.5073504988679 766.296966628302 2646.82894047761 203 205 204
-35.7179615644763 763.364318285047 2639.48766858337 198 200 199
-21.9883816878317 760.436343311263 2632.12240222831 190 191 193
-7.71756354076891 757.30979687507 2623.89871916879 185 187 186
4.09556790269883 755.000117617534 2618.98923431393 175 177 176
12.2894641374673 753.910718600965 2619.07846064108 177 178 180
21.6553580169065 752.417312346783 2617.48766650384 181 183 182
30.4062052058722 751.128276309629 2616.7248461577 175 177 176
37.9608658405279 750.245272676325 2617.6327514604 173 175 174
43.7492243288526 749.969117271155 2621.05731820182 174 176 175
50.7095274750224 749.288988714469 2622.80184276649 159 161 160
59.4076824626086 748.004211631851 2622.0179126655 178 180 179
67.5082764537074 746.922443881582 2622.06930373113 131 131 129
76.1700712675422 745.640517659329 2621.27063004419 207 207 205
83.6663242372089 744.762236633973 2622.15459347377 167 167 165
90.0118789343956 744.286479139281 2624.72746980556 128 128 126
96.9263467727461 743.609952140073 2626.45340867943 141 141 139
104.402212984241 742.733226543253 2627.32910586509 128 128 126
114.12124952648 741.055792632487 2624.80362620403 185 185 183
121.00783443786 740.381355193116 2626.51825963967 212 212 210
127.332167652391 739.907099708411 2629.08253215838 186 186 184
134.768457575154 739.033180898204 2629.94218390995 149 149 147
