ply
format ascii 1.0
comment KinectMotionCapture
element vertex 795
property float x
property float y
property float z
property uchar red
property uchar green
property uchar blue
end_header
66.0648921685301 80.0114662631782 3698.95286799933 9 12 5
89.4669706024593 80.8625990535144 3670.66063818677 9 12 5
177.762384678279 87.2503584970968 3519.71522483653 12 15 8
154.974127473886 79.7606454777701 3640.01142800504 11 14 7
192.978161481821 80.770697544793 3599.28919760066 12 15 8
184.289191272764 78.0519992016918 3643.26286148702 12 15 8
223.431233300862 80.9868625708728 3574.93574339599 11 14 7
238.916280113916 81.1522760402842 3561.78444283382 11 14 7
234.795189674141 77.2205316230257 3619.48420752274 11 14 7
252.752085562222 75.9524338623904 3624.60682322106 10 13 6
283.472812729324 78.0854584243496 3573.37495010376 10 13 6
304.434138622989 77.2774682782924 3570.00024857624 12 15 8
332.580196891446 77.4492105084838 3547.9497192701 11 13 8
349.614579895956 77.9586977715967 3528.94976267554 11 13 8
361.323826609362 74.1731844993361 3573.63817781582 16 19 12
0.223802093572978 70.0127573762159 3746.813227411 10 13 4
41.9429525559618 72.8734480769706 3680.60893265112 11 14 7
64.7540884492499 73.7063309374338 3654.23544622598 11 14 7
86.1758016748586 72.722160087964 3653.20661841479 9 12 5
97.4731452725306 72.3042289034408 3651.31063743103 9 12 5
175.14052238018 72.8688358930583 3592.1267576374 11 14 7
184.528397771053 72.283276963608 3593.77466408021 11 14 7
190.347029869504 71.2593714900656 3603.69051944744 14 17 10
236.448359273743 73.5353707777168 3542.50165140761 11 14 7
268.138805005636 75.8327990389887 3490.5823562005 9 12 5
239.026084049129 70.3636811428023 3583.48838250612 9 12 5
238.350597754391 68.4930129792153 3609.12225806475 9 12 5
242.27562933078 65.3764553499001 3648.4962127596 12 15 8
268.571292187476 67.0606525234985 3608.4225337878 12 15 8
293.510306767989 68.6120946374308 3571.03750265396 12 15 8
274.552379793786 64.1835624210611 3643.23260075959 12 15 8
325.505214431729 61.9180897685532 3640.14489230536 15 18 11
45.0791337523186 63.6911439226467 3672.23856185625 12 15 8
51.8734749880496 62.7336245618462 3680.39109825074 11 14 7
46.5565759545064 60.3318543154617 3714.93883456577 9 12 5
47.6526259490482 58.6657209217263 3735.89388715133 9 12 5
91.0170303415889 62.1066176785311 3663.87824018146 8 11 4
99.8553674083935 61.4027414003213 3667.46215554337 8 11 4
103.79364200793 60.0925264460125 3682.01339277552 8 11 4
182.570272333932 61.0512780636974 3620.03897259953 13 16 9
202.621999657083 61.8651977489601 3596.86411192191 12 15 8
235.80768062534 64.4576471746037 3542.31105182405 10 13 6
253.150785955805 64.9893688057692 3524.51473432887 9 12 5
245.317454774464 62.1271762640107 3566.67805453983 9 12 5
252.251349864764 61.2456853715477 3573.80771088461 9 12 5
244.638579130556 56.4597417260743 3640.88930385376 14 17 10
263.415014717828 57.2109014217646 3619.35617856186 13 16 9
278.325907724547 57.4395064705659 3607.05073635251 11 14 7
285.454586913412 54.6382792975629 3639.08819836297 11 14 5
277.616607039962 51.5299591703745 3684.48818358813 11 14 5
278.711601459902 49.7039456449604 3707.60189414016 12 15 6
297.200523639751 50.4794984438042 3685.95217180987 13 16 7
323.777460290126 52.521276729815 3642.75324381034 14 17 8
341.972266777026 51.3337341081606 3646.89251187163 16 19 10
5.84074400807277 49.351976055145 3754.63838850135 14 17 10
17.4982263290575 48.9371577870239 3752.88845877116 11 14 7
28.7073147747907 48.4725187874914 3752.03590607645 10 13 6
62.3650221577769 50.8546472999667 3701.99130733753 9 12 5
63.4601245836846 49.1364139726689 3722.94662838908 8 11 4
92.1960115550173 50.9671101285493 3682.78106033772 8 11 4
114.9688221383 52.0715050739627 3655.31119013462 8 11 4
222.751059000477 60.9113493743655 3479.87045081304 10 13 6
167.264867718867 49.7139075476747 3653.84684471639 11 14 7
193.709387150072 51.4715787925486 3615.99075331878 11 14 7
198.822267796682 50.29416019583 3627.77989201537 10 13 6
238.577000016631 50.2256410079354 3605.03689863894 10 13 6
255.513514471036 50.7680205661076 3588.15468273276 12 15 8
247.004583933963 47.5875828350792 3633.28355141111 14 17 10
263.136648398727 48.02295905274 3618.23430396288 14 17 10
277.312026352729 46.2161355995722 3632.61848907445 11 14 7
289.949454972589 46.1583071668114 3625.86807161454 11 14 5
294.856969657031 44.9144080391372 3638.65337113314 12 15 4
321.399908862382 45.0423156554519 3621.34838045396 13 16 7
342.086240306787 46.3179865125386 3593.03215415232 13 16 7
344.125195449947 44.617244139112 3613.29069377388 14 17 8
4.72541845198782 39.4481861253307 3755.3409344692 0 4 1
24.3937609703095 40.094522165929 3736.32734680743 16 18 13
76.1914935317303 45.0023761070435 3647.21627755126 10 11 6
74.7785733395752 41.0390800162825 3696.30301263001 10 11 6
110.097831937704 40.0862527734284 3687.95423845054 11 12 6
187.197528697043 48.9152564234756 3536.77248694558 13 15 10
174.125446833151 41.3684258662666 3636.18900307228 13 16 9
168.653819251372 38.6174508814624 3672.83435405593 12 15 8
177.83206873125 37.9772014664662 3675.47634990572 10 13 6
232.064385610577 42.0772510735496 3594.90957824202 13 16 9
240.225031116513 41.341715475812 3599.29814919614 14 17 10
243.43980909632 39.8490324684915 3615.7154471086 15 18 11
262.236315332107 40.7469214592754 3594.18933611227 14 17 10
269.622649282959 39.896839020483 3600.42313554102 12 15 8
285.981854514941 40.4579625749137 3584.38583728256 11 14 7
293.713487489379 37.6373257622986 3614.50996184955 10 11 3
311.019449086931 38.389491792653 3595.61812606774 11 13 2
315.495552966724 37.0642340508534 3609.3081752221 14 15 7
326.877596202709 36.8718348738996 3605.28716276493 15 16 10
305.997977594489 31.2791740593666 3685.34424212287 16 17 9
66.3039204865774 34.2238607613463 3667.03014710104 19 19 17
85.168336706585 34.9121854294676 3648.76954524769 11 12 7
116.281585353652 29.5112087177589 3695.93245037029 12 13 7
153.602921611057 31.0156512879571 3658.16673478643 11 16 12
173.068195637721 31.9325703199439 3636.91125889643 11 13 8
178.616193977974 30.7618551756586 3647.79771471618 10 13 6
169.731083763525 27.3620800730845 3692.77567619452 10 13 6
188.668809871945 28.2306023218322 3672.38577486119 11 14 7
250.697756668774 33.8892870010905 3572.30721788532 14 17 10
246.977182303313 31.2666444449053 3605.34509540744 16 19 12
257.04515010039 30.8336427515861 3605.10933660014 15 18 11
279.499762662122 32.4279320114571 3574.26997811983 12 15 8
278.240534066942 30.1581777787963 3601.82839902633 11 14 7
292.319651062528 30.4110608584986 3591.34386608508 11 14 5
292.325179260315 28.3152147677494 3616.17637823935 15 16 8
307.079987579203 28.6975620107986 3603.8063158933 15 17 6
319.931822192194 28.775122099966 3596.06287555219 16 17 9
293.041124802232 21.9742998258645 3690.95748558479 16 17 11
302.467881845963 21.4123558197855 3692.62069871263 17 18 10
45.5067282493538 21.7482080020788 3710.49046514847 14 16 13
62.4132824331591 22.1878603208346 3696.83383606839 14 15 10
60.1701297902835 19.8255280481774 3725.07338294622 20 21 16
92.2338289129281 22.5395077319241 3677.61754785122 9 8 3
102.738453748371 22.0789192679363 3677.55879749082 12 11 6
121.761993458159 22.915754642137 3658.28268979906 10 11 5
109.545706052524 18.9971792185849 3709.46824224 9 10 4
120.079417824439 18.5352725568339 3709.42127896604 11 13 8
152.138922413369 21.4393317716978 3659.80443126963 11 16 12
169.63193153457 22.1171438810605 3643.14650957656 12 15 8
163.772235406247 19.1047977487249 3680.71552361567 14 17 10
196.847341921875 22.3051564980231 3627.19240751351 17 20 13
191.112357479565 19.2835573416326 3664.8119865677 18 21 14
232.694909990949 23.9705611664804 3589.9075617076 18 21 14
239.690585174721 23.0400458451494 3597.06260396711 18 21 14
257.90864268218 21.8781730400081 3601.21109163198 11 14 7
276.222166837098 22.8693006453245 3580.56752602699 10 13 6
290.66741158538 23.2280671062639 3569.15162491291 10 13 6
279.426685856536 19.1423650001764 3621.81225029547 11 14 7
273.614446483843 15.9416674408308 3661.55978040513 13 16 7
273.124174292295 13.6344490448349 3688.35076491943 14 17 6
306.563473056019 17.3730133153958 3628.49740769169 19 20 14
289.487499142859 12.060658181325 3698.2247699887 20 21 16
364.478470146298 14.5872102939572 3631.4692551955 7 13 11
3.76566198914419 7.96821614290161 3775.68958631285 0 1 0
52.9804150801259 11.2103366421828 3715.75425579608 15 16 11
86.4240888364505 14.2583968412992 3665.61794877478 11 12 6
63.1425530413896 8.55942681151084 3740.38782484538 14 15 9
104.009254309173 10.7264624176119 3696.50040874911 9 10 4
93.5063117660109 6.91558589423455 3744.06311905269 9 10 4
120.607526406499 9.11491382719964 3706.46982849027 12 14 9
166.589732412224 12.3296211989544 3648.46229473424 19 22 15
172.167111990334 11.1124389963514 3659.36074179049 19 22 15
215.3453637275 14.0681933455262 3605.61442474474 19 22 15
235.910495611874 15.4344337449324 3580.48537798925 14 17 10
278.204450471684 20.5892303849891 3502.62876751007 13 16 9
296.403412106058 21.6602991338959 3481.93821041865 9 12 5
270.683782767768 12.8722519990849 3592.42638315982 13 16 9
280.305301021867 12.40064251813 3593.08896086987 13 16 9
262.808184161327 7.02157983137161 3661.56750284757 13 16 9
255.62225093233 3.4359066668346 3705.07724184018 16 19 10
264.767288075804 2.8097751447842 3707.70594046662 17 20 9
282.271485385579 3.74490662268764 3688.89272486796 22 23 17
315.90442386329 7.75217649889076 3628.03692613231 22 23 18
349.300161929661 7.24184583012583 3617.8271699463 9 12 1
343.26851452926 1.34816144462993 3686.63615308747 8 13 7
3.01827184155878 -4.12023468111139 3799.2141802302 14 18 17
68.9849608209345 4.16656514271479 3679.13236059178 15 17 14
66.1659634113709 -0.589922258354914 3731.97128692335 8 9 4
78.8713545716768 -0.706184024942241 3727.40644621096 11 12 6
95.1943603000338 -0.214013041981848 3714.59195255449 9 10 4
94.8438759477999 -2.47622414013493 3739.28157874646 9 10 4
104.658404822496 -3.05820560320727 3741.10194982471 8 10 5
188.871227781613 2.48814925416957 3642.45416739003 17 20 13
223.255332329311 6.32383126904398 3585.14049272967 17 20 13
260.784948098245 10.8054150868379 3519.38547258716 15 18 11
260.286617829701 8.55775690840477 3544.01512670605 14 17 10
286.934266557487 9.03098906537889 3526.74991470609 18 21 14
255.726735247865 1.06554512704113 3627.45766818588 21 24 17
273.2990880686 2.05994910076382 3608.67185622879 21 24 17
297.807567501295 4.39399690116943 3572.18538066409 20 23 14
256.796454937136 -5.67653314295802 3700.22718337692 23 26 17
289.378059997836 -1.79436835269609 3643.26240246514 22 25 14
308.894704931728 -0.356192403546562 3618.78683642354 17 20 13
302.966180233529 -3.86042215504007 3659.56864948852 15 16 11
351.480063552394 -1.33249330612081 3610.14355102286 12 15 6
346.949019413332 -4.64774078498034 3648.25282276552 16 21 14
338.421617507167 -8.83878466961835 3697.69736243645 10 15 9
30.7525209780777 -11.638892396543 3760.87179517022 15 17 16
36.5538724604551 -12.9210181204222 3771.86167634727 13 15 12
90.0713758302496 -8.38502754544279 3700.71170795236 12 13 7
208.984082346995 -3.1154514096115 3593.45924650117 16 19 12
252.592398292724 2.62283323104112 3513.97251533689 21 24 17
240.419146579798 -1.82834094441281 3566.25833772219 23 26 19
281.926106369574 -7.66960260345206 3610.08074876273 22 25 18
266.093377779356 -13.1564061720017 3674.91825939995 20 23 14
313.513438910543 -10.879308818238 3630.44673647072 10 11 6
304.829094256556 -15.0919995247403 3678.7490870666 14 15 9
336.666170175534 -10.9708259386493 3621.48078272275 16 17 11
339.152817550991 -12.9009252268778 3640.84326285593 16 19 10
340.671254076546 -15.0603777631878 3663.05214135524 10 15 8
328.337463648183 -20.2081455351232 3722.83041419649 17 24 17
-8.46021612475911 -25.7565761423714 3820.62381522843 0 1 4
16.7018456585064 -23.7698107113145 3789.79915801098 15 19 18
27.1473386960224 -24.2880968579886 3790.7957110799 10 14 13
64.7996746275954 -20.0378442073494 3731.56549620403 22 24 19
250.753232814434 -15.8109870602109 3611.54631696705 25 28 21
284.947259418641 -11.3855999944382 3551.99333777477 25 28 21
251.779313666922 -20.4022929827678 3658.38866480617 20 23 16
237.395617016175 -25.7660810012893 3719.49645600331 14 17 10
226.281030084706 -30.5491634184364 3773.2922481889 9 12 3
273.759059494866 -23.2930919040497 3679.17768117092 9 12 3
278.451338176037 -24.8166037754967 3692.95701791232 10 13 6
310.689350183504 -20.5489432658055 3635.84993942424 12 14 9
314.222563149917 -22.2946022317572 3652.39808689953 15 17 12
340.268495236494 -21.7283835981471 3635.96760464484 12 15 6
344.582623148191 -23.3249751570336 3650.67293565501 18 23 16
344.419787432076 -25.9302419649633 3677.59901323475 21 27 23
22.6893427779811 -32.4957946085567 3775.02737740162 9 13 12
50.5318735708702 -29.8629381447405 3737.73069725193 13 17 16
134.010976830747 -28.6425845809647 3692.76289237882 7 9 4
160.7580572118 -25.9196798366387 3655.02198956324 8 11 4
165.953251864296 -27.302524999673 3666.84601369604 8 11 4
226.632611372774 -27.3785039476704 3643.94433086762 16 19 12
255.415906819564 -23.9528005454007 3598.39157050903 18 21 14
269.222441978816 -23.5389391971247 3588.87400185548 20 23 16
273.967615973253 -24.9907349376471 3601.59540380301 18 21 14
311.481967679679 -29.4604268331962 3631.92292145873 17 19 16
333.945916970123 -32.1987705253106 3650.74921652516 20 26 16
349.554270735882 -31.278058713652 3635.48398638067 23 30 23
355.631622019121 -32.5085952772033 3645.50641874998 7 15 17
0.265740852815721 -46.3889736906479 3822.15566515853 14 20 20
70.4523744609111 -38.1606255205666 3715.65057556054 23 25 22
101.431033498446 -39.5242235017036 3717.41509810397 9 10 4
139.340610172297 -37.0141859914809 3678.80112662566 7 9 4
153.731946061479 -36.6113894083116 3669.52042351971 8 11 4
156.990198022213 -38.4176406127127 3685.95795772759 8 11 4
208.57103038923 -32.9020544310069 3612.93761172918 11 14 7
216.013378091684 -33.8240619543598 3619.19463590235 15 18 11
222.316256629789 -34.9866613331755 3628.22880234688 16 19 12
233.620775727469 -35.1097114102757 3625.25468341051 13 16 9
241.47117093349 -35.9524789858104 3630.59725714491 14 17 10
253.859501830399 -35.8293918327764 3624.82341863124 15 18 11
268.820532531666 -35.1369513193926 3612.53476107346 15 18 11
260.988201846199 -39.3732694264117 3656.86677538865 15 18 11
286.382042188843 -38.9524723158513 3643.40979248428 17 23 13
342.860222165827 -39.2157841818726 3625.28160779467 21 26 19
337.990216957002 -43.0209972858272 3664.33641577321 18 25 18
-1.53483963420098 -59.1516779274471 3848.49536484311 21 27 25
43.7527582375907 -52.9011412758785 3772.92161920713 10 12 9
132.597764193481 -40.3742174689926 3622.15194130352 13 14 8
106.023069927705 -48.1173005344536 3705.31397958911 12 13 7
97.0354909535565 -54.9937798986475 3774.0123844025 7 9 4
106.123563706796 -55.7167398980026 3777.69756062706 7 9 4
114.026080290732 -56.6848296918768 3784.14125321696 9 12 5
223.914801461387 -38.8022400712089 3574.96069732225 12 15 8
213.186782178911 -46.1017636609179 3648.35217189359 22 25 18
237.55609825183 -43.393234057524 3613.96412788554 23 26 19
261.717349868018 -40.6678666545566 3579.49196965106 20 23 16
259.622273846953 -43.6698998848483 3608.8751286081 14 17 10
265.54369793839 -44.9303389199251 3618.83439658623 12 15 8
284.890929390324 -45.7812995351532 3620.20104050904 11 17 7
301.154095999554 -44.6913995387392 3604.12110613671 11 17 7
330.461990576448 -43.1607828346473 3579.29401458028 15 17 14
307.804059701993 -56.6306316911167 3715.8717220412 20 25 18
356.069401698511 -50.4877698059329 3640.42539471746 2 10 12
-18.2883541200474 -69.8106694416141 3859.05499398949 10 16 16
1.4995577267447 -68.4872685846233 3840.08494436303 5 11 9
88.4679809965496 -63.8114331262001 3767.37361396316 9 12 5
91.9401773931197 -65.7127023374491 3783.89849297063 8 10 5
100.657779898831 -66.5222974778191 3788.51313322617 7 9 4
131.526622432711 -62.5956354292173 3741.64312549036 9 12 5
249.516353515561 -47.261004021746 3559.49724655966 19 22 15
254.510627603349 -48.7001999332558 3571.24034650007 19 22 15
258.409863539539 -50.3999762023995 3585.77873002209 19 22 15
261.614623115607 -52.276195923022 3602.19487865746 15 18 11
316.066345430456 -47.5455941919253 3540.05293063373 14 20 10
297.56436584887 -54.5389280453362 3611.37352819442 13 19 9
314.109914790405 -53.2973060816411 3594.32771305027 13 18 12
322.388899130236 -56.7287065934347 3623.59902036649 13 15 10
292.307493183275 -66.8592849628488 3728.01582682689 13 15 10
335.523748753719 -59.0363504487335 3640.80238065476 12 17 10
343.365711215178 -59.8849111467909 3646.14184116736 5 12 5
375.70394007306 -54.5608978759587 3585.83065125056 8 16 18
81.5413199224735 -72.2661735821295 3757.08097105203 14 17 10
76.891562579763 -75.9359886071173 3791.90843975324 12 15 8
102.469286035859 -73.1011605220781 3758.00871404044 11 14 7
125.450163574693 -70.7720626430725 3729.53474039183 8 11 4
139.549318258182 -70.3491922508345 3721.21464839802 7 10 3
201.543231093573 -59.2444739054655 3600.58172888452 22 25 18
238.636384407444 -53.5229726173896 3536.79846345767 25 28 21
266.607542342212 -52.3000014283078 3516.82676650123 15 18 11
262.674634458994 -55.7858150945447 3549.78521428538 23 26 19
251.295384383675 -61.0543693354822 3601.31990969305 27 30 23
275.782901501588 -63.3477254315029 3614.48879686352 15 18 11
315.430151306058 -56.5200661653726 3539.86336418303 12 15 6
321.185501234639 -57.804498303663 3549.75557176832 9 12 3
310.906575396742 -63.0389820701858 3600.65671428967 12 13 7
294.357946227045 -69.9119807668479 3668.4515504832 11 12 6
330.970859982486 -66.3982353653609 3624.98947172718 12 14 11
332.028007601489 -68.9693632296574 3648.09350614072 8 12 13
343.767450169384 -68.8269270266201 3643.13559881459 11 16 19
59.0516076726997 -78.7086828983137 3733.99834330834 19 24 20
78.7659536241594 -77.1197595839827 3713.91742941334 20 22 19
61.172839410399 -83.6216752468231 3776.97105849098 19 22 15
60.5554791265872 -86.4908907178662 3802.63603757673 17 20 13
102.019585521988 -80.0681359944581 3733.06505337344 13 16 9
92.5623609066151 -84.9069105318165 3778.90134237034 10 13 6
172.123117889613 -72.3987227423007 3643.79276967236 9 12 5
266.581971205246 -58.520382183131 3492.04917383498 24 27 20
265.588501964139 -61.3562180942407 3517.56187328243 27 30 23
300.127014788704 -58.3869210622434 3480.81592526071 27 30 23
297.367537323979 -61.6885722759044 3511.01140916459 23 26 19
326.649425293433 -62.547741635648 3509.92748138427 16 19 10
313.188570572561 -68.6419036955114 3568.17777913164 14 15 7
301.853941348807 -74.2969910951879 3621.89108730931 15 16 8
317.645783207915 -73.1170475646117 3606.69844251693 14 15 9
318.511119810729 -78.6411443827872 3655.64064996022 13 15 14
343.450378888329 -75.0283547685693 3616.08221985608 19 24 27
342.053926148735 -78.3119911609326 3645.75038091416 25 30 34
74.3786440170964 -90.3344253938544 3745.68682705672 19 22 15
91.8723489861533 -94.7124896581313 3778.69628504027 9 12 5
279.160266867992 -64.2469635469491 3460.50339357667 21 24 17
264.078545199451 -73.2337185216496 3542.93372670987 26 29 22
289.219646257295 -69.762826797543 3505.61597005673 27 30 23
287.279258787917 -72.9607566225524 3533.98443801373 23 26 19
268.567013531839 -80.4162414128051 3604.14433809802 21 24 17
303.778851825058 -77.1193550389065 3565.51091547194 22 25 16
321.750408891232 -75.3130309393775 3544.722710844 21 24 15
267.433753934473 -98.312865048149 3760.25963959131 19 21 16
301.026621682477 -92.4040659159214 3699.37320342722 15 19 18
317.917986161815 -90.8824523837542 3681.38647614548 3 8 12
-18.397470703966 -112.554049521989 3876.59701305193 17 23 23
30.7783583647705 -104.27522365365 3792.87216587956 19 24 20
77.7838376422064 -99.127997086905 3736.3433656357 14 17 10
206.281152726695 -85.3459924482616 3584.35689767034 36 39 32
212.470484500408 -86.5994815974578 3593.34577875268 33 36 29
264.159503422239 -76.6102076718175 3494.44213136423 27 30 23
246.180353589013 -86.6079445378266 3584.33821611881 25 28 21
261.156257106122 -85.6371095371881 3572.05347030466 25 28 21
296.48857288478 -82.2168860922273 3533.46789329901 18 21 14
321.680921572342 -81.2909561616562 3518.84669093603 21 24 15
303.801805636912 -88.8819113669088 3588.26588064903 21 24 13
331.275963924199 -84.4572419552982 3543.25429616646 21 24 15
306.448085243643 -100.117557206938 3683.28575727188 15 19 20
36.2966876068156 -112.723787379322 3778.98712788882 20 25 21
77.5565919571446 -105.886882674424 3711.48819809104 22 24 21
75.4656467375132 -109.226777667612 3739.79678233702 8 11 4
92.2141384042556 -108.09533119428 3726.07065402398 8 11 4
230.000607513899 -85.7077252631352 3504.41597243434 17 20 13
233.205274055032 -87.6492218400254 3519.75377003789 13 16 9
232.953838745129 -90.4832766606757 3543.40902676272 13 16 9
233.203012293097 -93.2268944042663 3566.18722561535 21 24 17
258.667028441744 -89.5407786076174 3528.99858365895 23 26 19
261.65077771954 -91.5925947964957 3545.32657776094 24 27 20
260.512212812586 -94.7435429523553 3571.86172560775 23 26 19
265.180605601027 -96.4093456582052 3584.55340427589 18 21 14
277.046326346762 -96.181631130724 3579.64597970445 16 19 12
294.843976491531 -94.3491164474028 3559.86597101986 18 21 14
295.78529398383 -99.9941347906496 3606.68198562679 16 19 10
314.901989896943 -97.7462225677038 3583.11741084495 15 18 11
300.06980084098 -104.864968835281 3646.21478625751 15 20 14
313.353011080932 -104.228251541647 3637.56270322784 12 16 17
314.384935618254 -107.028146673137 3660.65825898752 5 10 13
14.8871387853424 -127.559924485034 3824.37552965375 26 31 27
29.5193804105383 -127.004295031204 3816.27027451503 21 23 20
55.9557108775806 -123.54415847755 3781.63464489758 8 11 4
89.5011152750496 -118.263728710254 3730.44379899727 10 13 6
243.647282510477 -91.0387530297411 3471.1418997107 22 25 18
250.69854736551 -91.9968146913436 3477.2408504853 19 22 15
256.982067901401 -93.1584270798962 3485.18836338712 18 21 14
254.343947357248 -96.6576923271452 3514.35541634043 16 19 12
256.485577964153 -98.9464993780974 3532.50211238771 14 17 10
255.253054885514 -102.159009500779 3558.99942663168 20 23 16
272.261717279992 -106.417665577853 3589.65397293881 18 21 14
285.179932961751 -111.936585587599 3631.60860538458 15 18 9
284.962376939823 -115.093766841507 3657.43764509059 11 16 10
10.7484340596953 -135.382619218098 3807.65449113331 0 2 2
31.5979777198794 -133.257617812463 3785.8715311496 15 20 16
50.6579626209702 -131.530761078508 3767.68249910873 15 17 14
120.156482132313 -120.021004872424 3659.79485943117 12 15 8
272.39300312337 -100.615714963457 3469.90670282414 23 26 19
269.976795613039 -107.04733855297 3521.84260486952 15 18 11
308.617128790715 -102.270175286545 3474.87634773604 21 24 17
296.088742328965 -108.709144420751 3529.19106180382 23 26 19
301.155871044286 -119.507278000859 3614.39895377262 6 11 5
323.604362499869 -119.251454021922 3607.30284184234 0 1 5
5.87845810098497 -146.384475169463 3816.55491649168 3 9 9
30.4909617910729 -143.240053554568 3786.57778051403 16 21 17
80.0614431103681 -133.66198089332 3700.84500379699 18 20 17
91.4449776949242 -133.742271506014 3698.98161893732 11 14 7
153.560616417706 -126.543816665806 3629.13517769875 27 30 23
251.814484508693 -109.104662009733 3471.34899504768 34 37 30
292.796966713175 -103.668190283687 3419.93150494245 30 33 26
261.253219252058 -121.301281778041 3564.81062561125 24 27 20
287.543202180563 -119.93552600359 3548.4728975429 24 27 20
309.707880023721 -122.788603742915 3566.0998239997 13 18 12
11.4416448327432 -154.751058680899 3802.68767682016 0 2 2
37.6825563676879 -151.071683882252 3769.05006983642 8 13 9
191.922461352112 -125.349627103438 3540.00645907121 23 26 19
232.641451961348 -123.099962643105 3514.39963424032 31 34 27
245.298720325925 -122.557761299519 3507.6527016906 28 31 24
261.017100978687 -121.132615448733 3493.50726255197 26 29 22
285.154347486648 -117.280090919754 3459.0168412752 24 27 20
269.014423763804 -127.955167892263 3544.26819455769 21 24 17
269.046490340081 -131.050992249385 3568.03996610642 21 24 17
270.512237349175 -146.766285318578 3688.50900396173 19 25 23
6.68953458111088 -168.961555025909 3835.39572552988 24 29 25
91.0915047260763 -149.562930445607 3673.06496325981 25 27 24
102.810454535421 -149.493638512146 3670.25718648765 26 29 22
224.284829986766 -125.296681089959 3464.64065351831 30 33 26
217.321614254685 -130.196491950151 3502.85623211223 28 31 24
194.655866051116 -139.586616833754 3577.90341417116 26 29 22
217.004068004942 -136.341715733908 3549.16633311386 28 31 24
229.759325999374 -135.777180657295 3542.45890658866 31 34 27
247.526206494324 -133.745257170674 3523.7437361695 27 30 23
262.073390226156 -132.604790330732 3512.36318435315 22 25 18
248.455786063012 -139.698644541968 3568.39971924054 19 22 15
258.057728940608 -140.029200622733 3569.05330187276 18 21 14
268.783400743897 -140.018151462932 3566.92260346838 15 18 11
297.260129311476 -137.827099272592 3544.99065440879 14 17 10
292.230402573606 -149.177255610663 3631.50888313744 15 21 19
266.171175118387 -160.729010747895 3723.53922135887 8 16 18
41.2897550136042 -169.362544486585 3757.70276939371 11 16 12
201.652203683471 -137.380355641052 3492.25076051778 19 22 15
211.900514151041 -143.60910674363 3536.36617198088 22 25 18
206.092757974761 -148.411641822252 3572.89097714002 24 27 20
235.793435282063 -142.876502957361 3526.61486111968 28 31 24
231.682859271443 -147.227989689171 3559.50767667483 28 31 24
276.939238920301 -136.933361695241 3475.25940106443 23 26 19
272.831290109983 -141.284135459585 3508.15353217686 23 26 19
271.562206364567 -144.836480648272 3534.63887634912 23 26 19
279.156140625997 -145.729763985618 3539.87799375651 19 22 15
281.855239166514 -148.134328782171 3557.17247389632 17 20 13
249.028019904628 -161.604649825979 3662.66045059032 16 19 12
240.580946069448 -167.654599908712 3708.91492287456 19 22 15
257.136312680033 -165.895105115922 3692.94822287026 14 17 10
269.179243518379 -165.530884497146 3688.11151473308 21 27 25
40.6040785456314 -179.152148226623 3757.49934636862 26 26 24
172.71698015351 -151.3819834086 3533.50667909331 26 28 23
166.566210957371 -156.258094829764 3569.89315839519 25 27 22
179.934603659071 -155.535195708141 3562.35372005049 21 26 20
218.46169906547 -147.426850730289 3496.97508249792 24 27 20
218.024981513949 -150.670187994991 3520.55842200283 22 25 18
183.70972920565 -164.030911405897 3623.28545763307 20 23 16
202.564154921544 -161.656425437818 3602.85041376548 19 22 15
261.47397066412 -147.122178602873 3487.41613357304 20 23 16
290.657617216051 -141.396780129715 3440.9289761139 25 28 21
289.530054419227 -144.880539969801 3466.39203588918 25 28 21
288.1415977149 -148.491990652554 3492.82949479814 23 26 19
294.860504737143 -149.619179358967 3499.87396631706 19 22 15
289.897413646444 -154.435055116076 3535.66206337098 17 20 13
300.485000784613 -161.072942618344 3582.0758202143 18 18 16
292.757941616613 -167.007256984886 3626.4630713446 27 29 28
192.591263365787 -160.738779147564 3531.91451280109 26 31 25
222.166362053896 -158.237420317252 3509.34586862569 26 29 22
205.449259012252 -169.803968081167 3594.3702831895 24 27 20
233.522284500149 -164.449424371311 3551.75200112081 23 26 19
286.93827848673 -151.096375626913 3448.12779928286 22 25 18
287.367030624423 -154.162883675192 3469.90234751352 21 24 17
292.490306978245 -155.781499762365 3480.61997414519 19 22 15
293.851877505368 -158.617760010471 3500.61285244227 18 21 14
304.36917339082 -158.540228795361 3498.39728018658 17 20 13
306.977912917179 -161.019283358973 3515.65548198618 16 19 12
274.094666169777 -182.207401055455 3671.88711348027 9 9 7
213.72850250502 -163.190492896667 3482.231402168 27 32 25
209.189066030526 -167.773532680146 3514.95258748989 27 30 23
214.367762212599 -169.42177050577 3525.69313496932 27 30 23
259.439803089837 -165.127284267853 3488.88660358754 20 23 16
276.231811392406 -163.0630630818 3471.93434301781 16 19 12
279.805945339792 -165.198852523485 3486.34439990474 15 18 11
279.994510226407 -168.454970749663 3509.10194335296 14 17 10
171.816546446651 -175.10085849632 3508.50749457637 26 31 25
196.130061565032 -170.906375037079 3476.24346754468 24 29 22
210.097481929895 -169.818527979583 3466.78618877168 23 30 22
218.911202854155 -176.811470331393 3513.56321909253 24 27 20
221.720870931311 -179.235976785379 3529.82355383813 23 26 19
259.594467880539 -173.757476249368 3486.85702448314 15 18 11
262.409632929577 -176.180774375308 3503.11957575499 15 18 11
275.532655544014 -178.634697297967 3518.16163983958 13 16 9
248.713391630576 -201.795379061367 3681.17871916874 19 22 15
178.524668158217 -178.62313555907 3470.25246734807 28 30 25
158.025558271668 -188.192534355006 3537.54702795911 25 30 24
183.075117811701 -186.991179930782 3526.10260529431 23 30 22
199.156745445049 -185.232964233382 3512.10197493706 23 30 22
217.147836434984 -182.826284745308 3493.47474521333 22 25 18
203.532870250972 -190.541439112382 3547.35944119881 22 25 18
226.233306716427 -186.588848895256 3517.6808051702 21 24 17
249.144897911618 -182.492497958748 3487.00776638787 17 20 13
248.803966533598 -185.983270380769 3510.63150730149 14 17 10
247.40935103107 -189.869621618869 3537.06855622788 13 16 9
252.701352563722 -191.568016735876 3547.85510319449 14 17 10
272.983840396352 -188.220131546119 3522.5965955341 13 16 9
275.211734506678 -190.953334164916 3540.78158746109 13 16 9
206.267935395089 -221.92960066921 3759.08752776996 16 19 12
166.437996102866 -194.438846331211 3517.26518737008 25 30 23
167.894221714871 -197.323436311532 3536.21769179785 22 29 21
228.355176451861 -181.310015258853 3422.47905322032 18 25 17
228.809271572944 -184.43912298739 3443.18552899083 18 23 16
216.920765512491 -191.629492436128 3492.3707235737 21 24 17
229.608418268775 -190.849697338392 3485.63429255341 20 23 16
219.657337594675 -197.542364095904 3531.28467472243 19 22 15
250.880500688864 -190.589086665396 3481.29850629941 16 19 12
239.567980481956 -197.823087894289 3530.71724419787 14 17 10
206.747747691504 -212.456637139893 3631.90137681725 14 17 10
258.239701026027 -198.491110474874 3532.88805728097 14 17 10
276.186028607762 -195.848483701408 3513.16210661034 14 17 10
266.193242521951 -202.859728498528 3560.95589080114 16 19 12
236.764073010796 -216.784169353313 3657.03430279814 17 20 13
226.261922063767 -224.241519770314 3707.86165454817 17 20 13
249.249636865439 -219.882574881739 3676.13863914176 12 15 6
154.420355398762 -197.10596949283 3476.81630470921 34 39 32
159.054570312731 -202.280891270722 3510.01938402098 24 29 22
171.977987082907 -201.492577187157 3503.37834761096 24 29 22
173.801470363826 -204.287587575258 3521.40006493925 23 28 21
231.806684273269 -188.720689859402 3413.14386210688 20 26 16
227.383479835549 -193.4991742465 3444.8345250053 20 26 16
228.336478679047 -196.554183533572 3464.66363357527 19 22 15
225.391800221496 -200.952880887776 3493.71338084767 21 24 17
230.516887413878 -202.684264035853 3504.43285264519 19 22 15
222.420535218842 -216.099391958923 3592.96175999253 16 19 12
234.429264982355 -215.563504498659 3588.10990289417 23 26 19
243.322639889743 -216.102688282253 3590.63604622088 12 15 8
242.892105555468 -227.471576779489 3664.99106264144 22 25 18
243.355277477981 -231.142650087289 3688.94174592621 17 20 11
173.924872508272 -199.587438099012 3432.94570532048 21 24 17
155.446053594988 -208.885334336461 3494.58310345631 24 27 20
172.094548666706 -206.850313393798 3479.73057301104 24 27 20
193.995186546356 -203.046122610687 3452.96591067541 22 25 18
184.626039489556 -209.535499844394 3495.61369111457 21 24 15
213.70628802502 -203.27410089974 3452.31754467567 20 23 14
221.106765846619 -204.201048976135 3457.47884533483 20 23 14
224.902896504629 -206.354250781875 3470.89985373091 21 24 17
226.360284900972 -209.329942003861 3489.85351948441 19 22 15
220.368975861225 -214.907995283237 3526.3098836038 18 21 14
222.835211186858 -217.626495783094 3543.51245862181 18 21 14
222.24555328246 -221.446710975732 3568.11705438029 16 19 12
243.830065757174 -221.141752375589 3563.90743270063 15 18 11
236.91690708464 -227.316142444873 3604.31055629368 11 14 7
237.452669007246 -230.887052391289 3627.21106340174 20 23 16
247.944678104279 -230.876794945346 3626.06482799104 21 24 17
190.930429818083 -202.631049992493 3394.54091898844 27 30 23
187.345932625692 -207.136212495668 3423.33267238339 24 27 20
173.126612572683 -215.238718151672 3475.89654040866 23 26 19
220.437261569455 -206.190056289016 3414.06717423989 19 22 13
233.025013821435 -205.313728189237 3407.2895625181 19 22 13
220.890602294497 -212.896293028432 3456.37816445082 20 23 14
224.68145283032 -215.079328621952 3469.79751832129 22 25 18
221.74018230989 -219.631890676652 3498.84981169581 18 21 14
227.273183561689 -221.268660845973 3508.65466250059 17 20 13
235.207184219935 -222.070335243752 3512.95222509938 18 21 14
236.487518105098 -225.247722000466 3532.91453967404 16 19 12
254.014307469845 -226.296372118804 3537.86108770303 19 22 15
252.399372962342 -230.609036958883 3565.29097050674 18 21 14
260.837041948981 -231.276850232656 3568.71238484886 17 20 13
255.250307784995 -237.152419584392 3606.41387893487 24 27 20
164.296803645978 -220.031549126351 3450.78003534552 28 29 23
175.049373703132 -219.849788463677 3448.65893390725 24 25 19
173.745711634028 -223.744493549901 3472.97499904213 24 25 19
191.518505164177 -221.167847287741 3455.33715928892 22 23 15
251.955586982065 -207.226025855878 3363.18226312297 20 21 13
224.72051153172 -220.16985229171 3446.11633795423 20 21 13
226.068749857667 -223.230684463421 3465.02645496135 19 22 15
231.098758546721 -225.020945970045 3475.7078764272 17 20 13
224.657616773707 -230.934231951582 3513.0634555701 16 19 12
237.336854501187 -230.03209047576 3506.32243278543 16 19 12
266.811958911145 -222.998216611448 3459.94362389154 15 18 11
269.147460299175 -225.787385813747 3477.0938013123 18 21 14
258.674967895816 -237.105500200285 3548.4613232192 12 15 8
173.532048775973 -218.739390419846 3387.61853437884 24 25 19
163.67688387371 -228.903150627166 3450.59627853476 35 36 30
172.342891453339 -229.421122502042 3453.03020165797 24 24 16
183.078738185385 -229.221150132637 3450.90219102386 24 24 16
209.866433761357 -223.41797276965 3413.15438538674 23 23 15
247.081778576024 -213.857366413111 3351.54936857795 22 22 14
250.540147421847 -216.075295308807 3364.83411021869 20 20 12
243.935567803953 -221.902236085092 3401.04405191755 19 20 12
225.446955832934 -232.075268112539 3464.84173449107 16 19 12
221.282032520417 -237.213211321772 3496.63995541689 17 20 13
228.39488894003 -238.308431869016 3502.76462658082 16 19 12
213.029457895198 -247.669811715079 3561.34760483429 15 18 11
251.773011094059 -240.870932034078 3516.56543298493 15 18 11
256.999349167698 -242.695721848512 3527.32635131872 12 15 8
151.152661946997 -228.023276522482 3392.65318302005 25 28 21
143.020627899809 -234.190509988146 3430.40512206216 25 28 21
160.594123101742 -231.654314282636 3413.76570257294 25 28 21
161.994966046306 -234.637967666879 3431.61772568053 24 27 20
168.519014789088 -235.879073603395 3438.58416392172 23 26 19
199.285123958197 -228.658376505432 3392.72665765536 20 23 16
194.081507197882 -233.98103169362 3425.18426993334 20 23 16
203.479281260146 -234.195053199271 3425.7545599824 18 21 14
212.452297072949 -234.553779658548 3427.2325161612 18 19 13
234.454799168945 -230.216036842368 3399.426245604 17 18 12
232.393537148089 -234.5324966465 3425.59637694892 17 18 10
228.447073959264 -239.59411208598 3456.40340692019 17 18 10
219.054389244687 -246.730042440722 3500.12562319453 18 18 10
207.898153648935 -254.620581812745 3548.53380786351 17 19 8
207.255525361704 -258.689333623675 3573.11884012841 17 18 10
179.269891726264 -273.121998318558 3662.23341033372 15 18 9
234.77195595578 -256.038969225917 3555.10982432308 15 18 9
265.092447449612 -252.176262997958 3529.59624135077 10 15 9
147.100821821654 -237.939159758361 3399.71901812737 28 31 24
149.251731115389 -240.663644898031 3415.71489985712 27 30 23
149.346969648284 -244.133587966455 3436.27866057195 27 30 23
171.95089691307 -239.754423132064 3408.71533161802 24 27 20
183.033974554672 -239.368599141069 3405.64769547547 22 25 18
197.424399727182 -237.790396920153 3395.27916345563 17 20 13
204.264460928179 -238.884572806849 3401.29363107312 16 19 12
196.674352460864 -245.195758220149 3439.26582583988 14 17 10
198.711647790119 -248.08931163939 3456.29605294032 13 16 9
203.679029647785 -249.942123033635 3466.9523341296 13 16 9
224.082408965854 -246.111102599692 3442.81792068665 13 16 9
215.749143772232 -252.906573789034 3483.72956896161 17 17 9
217.225420108358 -256.116893681798 3502.69291795626 17 17 7
196.128382035691 -267.897799305045 3574.07763409244 17 17 7
206.865861924313 -271.660808490685 3595.71590277236 16 19 10
195.918119898522 -279.882100666602 3645.28982017278 16 19 10
260.224813734426 -262.803858290197 3539.57358641662 11 17 13
127.542853516711 -253.309229919889 3439.3875382756 30 32 27
137.07995722926 -253.521672080932 3440.01397271714 28 31 24
168.732940200986 -245.893393475732 3393.43340065462 26 29 22
179.378057262032 -245.638925393192 3391.26849838228 21 24 17
178.218732527242 -249.613662442863 3414.56454593356 19 22 15
198.488736805574 -245.877630828926 3391.45565801304 17 20 13
217.365793041075 -242.58397283335 3371.02306723595 17 20 13
199.774109336084 -252.634266857246 3430.8672323738 15 18 11
195.218858935436 -257.998322424722 3462.50912649215 14 17 10
200.609697943034 -259.722280587127 3472.25707767088 13 16 9
231.572037038043 -251.849084726143 3424.31620423763 13 16 9
214.99520779658 -265.671239981674 3506.17782990421 16 16 6
225.314320638376 -265.569420501683 3504.96063878072 16 16 6
216.243444132102 -272.970609065742 3548.81516350761 16 18 7
228.206970204042 -272.259851779282 3543.94367828862 15 18 9
208.914333938152 -283.831243266858 3612.82097146499 15 18 9
225.25316943813 -281.436434304434 3597.84033495401 14 19 12
236.099640276576 -281.188833136658 3595.75701145147 13 18 14
99.1719910650768 -268.396451825282 3476.56470136791 35 37 32
145.451490892584 -255.600834621707 3400.26389452262 24 27 20
152.309878774793 -256.716009282606 3406.2859416487 23 26 19
174.511947404628 -252.306915467992 3379.63874149196 21 24 17
166.920236744388 -258.640996465155 3416.53165294101 18 21 14
180.131301274525 -257.449630527527 3408.92496268156 17 20 13
185.754681643635 -259.026202320155 3417.68714292107 18 21 14
190.993218923701 -260.759015538113 3427.37349532634 17 20 13
209.900444917512 -257.396011098665 3406.95233721734 15 18 11
198.292945809286 -265.468869654293 3454.10038226786 15 18 11
231.814771319901 -256.522637477888 3400.71433014677 14 17 10
230.959073797613 -260.578402382408 3424.13418560467 14 17 10
230.618101404743 -264.487254340601 3446.68227069717 16 17 9
229.182244529117 -268.870523364843 3472.02757964121 15 16 8
224.684906494329 -274.508324874203 3504.7735479034 15 16 8
232.211429147853 -275.481573228806 3509.98623416707 14 15 7
216.849998986384 -289.619998333535 3592.34236356479 13 16 7
233.136273430386 -287.166335337114 3577.34025658299 12 17 10
205.401789512717 -302.56813394208 3667.64266944707 15 20 14
111.550794319814 -269.102637128414 3428.7166865272 26 28 25
147.105510856029 -259.965573903824 3375.07348301458 27 29 24
158.204219772318 -259.526233439302 3372.01177022432 21 24 17
170.553510478078 -258.61549185646 3366.2161544075 20 23 16
154.738859080921 -268.008732324129 3420.30174098542 20 23 16
158.26281805395 -270.386408916336 3433.61425044879 19 22 15
166.472809091097 -271.045478876889 3436.94341332742 19 22 15
185.560920463749 -267.62710671116 3416.59507475678 19 22 15
194.953430103844 -267.808725497565 3417.16273044821 19 22 15
201.024585494711 -269.246176392797 3425.02634898539 17 20 13
225.60645134674 -263.601628175111 3391.78091880242 16 19 12
223.043478115503 -272.146834439943 3440.43673516909 15 18 11
225.162512442545 -275.168388703671 3457.50102802317 15 16 8
236.572615067797 -274.556407186917 3453.48527962791 15 16 8
247.146225647825 -274.25741389915 3451.29083017165 15 16 8
241.075137865277 -280.617413925273 3487.72081938546 15 16 8
221.429852622789 -292.550122262567 3556.45780894189 13 16 7
233.776138122482 -291.629817510851 3550.66090385217 13 16 7
223.56872422767 -299.939849322751 3598.3776312125 15 20 13
141.084769818353 -342.794160350061 3845.81572359406 17 22 16
113.435253762078 -269.850483263594 3383.09326518647 33 35 32
126.830913373486 -268.61259149515 3375.56096351681 29 31 28
137.984975190375 -268.159763482471 3372.5215604926 24 26 21
148.23673103234 -268.020208785939 3371.27681097359 17 19 14
170.1065240232 -263.598355261491 3345.57404341538 15 18 11
165.66491471522 -268.844222885199 3375.10318066271 15 18 11
166.484512158291 -272.194331439853 3393.80144735114 15 18 11
155.952800027716 -279.846920144606 3437.0661383831 16 19 12
173.015299603206 -277.161084740679 3421.29775152044 17 20 13
184.112023977028 -276.699469886559 3418.23506636917 16 19 12
202.662301197934 -273.359464237986 3398.74836469441 16 19 12
228.529282009522 -267.129991794435 3362.78241047356 14 17 10
208.972539863437 -278.496730992512 3427.23547081159 13 16 9
212.627627704114 -280.911462234926 3440.60161151679 12 15 8
198.727277269798 -294.271500046223 3515.99099311601 12 13 7
232.747353099955 -284.638122449776 3460.6438543638 14 15 7
242.545139778759 -284.646707714736 3460.29548417167 15 16 8
250.739767934085 -285.298343788272 3463.61837038127 16 19 10
249.103547377266 -289.987977206525 3489.96342656325 17 20 11
178.668432612067 -327.573740081567 3703.40015209137 22 25 18
121.660069384395 -275.382681875806 3364.88766119415 24 26 23
123.153875183487 -278.444717851917 3381.69885305281 25 27 24
112.066445814165 -286.17606365046 3424.73939228881 20 22 17
142.860469207742 -278.466798894488 3381.04710137167 27 29 24
152.252841043595 -278.635674453036 3381.61460467694 17 20 13
153.910790866682 -281.708623088913 3398.49234000505 16 19 12
163.745631093194 -281.71607926202 3398.15896397413 15 18 11
166.355891930624 -284.472483478865 3413.26226768977 15 18 11
179.985770834877 -283.020568373223 3404.74436937339 15 18 11
222.025326141697 -270.530381075416 3334.2815827364 14 17 10
218.287192328866 -275.713271713073 3363.01600951824 14 17 10
213.036339909288 -281.557562089582 3395.45870749092 12 15 8
189.537133003302 -298.663885304032 3490.72555555279 12 15 8
195.270618863167 -304.404311268982 3522.22064920358 14 17 10
205.659394425379 -304.254033214973 3521.03129672014 16 19 12
135.121251067345 -359.845547912447 3830.58365526934 11 16 10
120.088658705666 -280.80689163778 3347.03030572779 32 37 31
117.966296636361 -285.2089991772 3371.0187309949 30 33 26
107.177102309932 -292.886686387418 3413.10055140315 36 39 32
115.382378726762 -293.549268264119 3416.42783198473 28 31 24
126.193019854462 -293.228884921324 3414.32919239011 26 29 22
143.016175402543 -290.610155603632 3399.54321361268 20 23 16
137.427126718304 -296.518511000164 3431.84946390498 19 22 15
149.488539944862 -295.700918340514 3427.01680271961 18 21 14
182.705077355838 -286.651214892768 3376.74303897877 16 19 12
215.201944074412 -277.741745700995 3327.25775674509 15 18 11
195.875615835775 -289.098483510578 3389.6464179501 13 16 9
192.285912600725 -294.369891954615 3418.44187139054 13 16 9
161.008953742031 -353.563667189374 3741.76023651893 23 26 19
105.268685727722 -294.746835763418 3375.6598973098 21 26 19
105.431943040434 -298.388826915828 3395.17343705515 25 28 21
126.015783388932 -301.865111136941 3413.24408269559 25 28 21
131.181384637809 -303.691852309246 3422.90161576594 22 25 18
149.689810261795 -300.347989543094 3404.47700480962 20 23 16
194.827680158671 -290.283571869404 3349.31236805447 14 17 10
214.609164383466 -286.234634020892 3327.08211821865 12 15 8
189.821193100728 -299.948016180227 3401.30279627322 13 16 9
162.095684004236 -315.035624514459 3482.97548190201 14 17 10
177.455086820275 -312.844388382414 3470.83676193394 16 19 12
223.458968879412 -302.036793455872 3411.70164449752 20 23 16
100.142777894588 -384.704301788277 3858.68614574614 15 18 9
168.494916289515 -359.582913070186 3722.18035968406 21 24 17
85.9907281758057 -310.542830482193 3413.2871467103 39 44 37
113.224024317807 -303.959838247594 3377.8717243202 35 38 29
120.899415009301 -304.784749681588 3382.0647537028 30 33 24
122.899094818003 -307.80617609164 3398.00165441746 25 28 21
127.577202734083 -309.817668653848 3408.54201339359 23 26 19
145.215810610168 -310.626488190794 3412.45320995319 22 25 18
165.731170417052 -318.193900275986 3452.10484416785 16 19 12
180.643171884594 -316.1251371141 3440.86471101302 17 20 13
243.718255201548 -302.000392190246 3364.88113662766 23 26 19
205.324483345129 -322.1775630423 3472.48158143737 23 26 19
222.066256740323 -319.232174109766 3456.58136746757 21 26 20
132.338608090538 -375.466057113874 3756.21128372655 14 17 10
166.383186556485 -365.131827761292 3700.86849642649 15 18 9
154.986053624309 -374.818660774325 3752.42944054048 17 20 11
162.786568190757 -376.047452385568 3758.83380928359 16 19 12
103.997688523239 -308.461535108175 3355.82914327212 35 40 34
115.181626163066 -307.917763604553 3352.80114743046 38 43 36
129.42674429482 -306.171665971301 3343.45131715941 35 38 29
140.083635174745 -305.791101074041 3341.28996901704 25 28 19
137.15685525907 -310.729969377397 3367.11437597424 16 19 10
149.136540851524 -309.834175681148 3362.24828833183 19 22 13
139.895259850827 -317.366964082124 3401.71906794825 19 22 15
211.61883178509 -328.082285322103 3456.73385022022 23 26 19
202.444142261345 -336.233751252277 3499.47296331847 19 24 18
204.335804482378 -339.689488744498 3517.52729394876 13 18 12
138.433849593753 -372.856295200096 3691.7684304251 10 15 9
121.875143638797 -384.754861695347 3754.20272386329 9 14 7
145.060634075229 -379.16451969789 3724.7080690451 10 15 8
150.438844206238 -381.449300855735 3736.61303127978 16 19 10
151.971336680785 -385.492434433645 3757.7630705788 24 27 18
160.172470327015 -386.554811872138 3763.24932041003 16 19 12
88.1282094643365 -319.254079201432 3366.74772440291 34 38 37
99.8180569870808 -318.522945227695 3362.84408236854 34 39 33
113.692878046038 -316.919123533352 3354.42446521432 27 32 25
128.830139098594 -314.787330199154 3343.27506032085 26 29 22
137.727855617817 -315.087308537805 3344.72208305347 28 31 24
150.990125473112 -313.641886290426 3337.13419979048 21 24 17
148.536359515108 -318.477113361486 3362.07079026473 18 21 14
149.231072469278 -322.097856802379 3380.72054344548 15 18 11
150.442087279076 -325.549879802269 3398.49925659782 17 20 13
175.235680571193 -319.370369615331 3366.41456386201 22 25 18
209.864824452207 -320.89380370389 3373.97384321578 21 24 17
191.345028281569 -332.81555332995 3435.61453804328 23 26 19
170.842316631778 -350.022326653029 3524.54323577002 24 27 20
197.567413510733 -342.735508258797 3486.75883876864 23 26 19
142.200592614691 -375.786723386256 3657.71252888403 12 17 10
127.780019492854 -386.775593665656 3714.53227862217 11 16 9
144.613207339526 -383.930031788893 3699.74864252253 11 16 9
125.850021562689 -397.082847705742 3767.77322785362 11 16 9
137.614603733236 -396.55256138008 3764.98043308997 14 17 8
126.373379838728 -406.536041918639 3816.60675217806 17 20 11
135.509011809155 -407.25972136439 3820.31119024651 19 22 15
65.4644864690492 -336.59771947627 3410.56826073516 76 77 79
92.9492043291817 -329.684179622712 3375.25213175978 81 82 84
105.08069296267 -328.753961551066 3370.44698994117 86 88 87
116.281929850454 -328.172945272057 3367.42571613741 61 63 60
126.127945028173 -328.119298997048 3367.0964016253 33 35 32
134.64158351311 -328.594767503867 3369.46805218917 21 23 18
141.845399719114 -329.601208340493 3374.55032848446 31 33 28
145.599518575448 -332.028272141441 3386.87759425502 20 22 17
156.714889432088 -331.437284724278 3383.82147832401 23 26 19
164.802997690916 -332.088371871629 3387.10123122013 20 23 16
153.94550845272 -344.803269308263 3451.85009455262 9 12 3
182.351533538765 -336.894920801059 3411.50515803537 16 19 10
