ply
format ascii 1.0
comment KinectMotionCapture
element vertex 796
property float x
property float y
property float z
property uchar red
property uchar green
property uchar blue
end_header
-32.4900262057781 -417.080581188202 1889.99998569489 13 16 9
-27.392853051424 -417.745023965836 1893.00000667572 12 15 6
-22.6670447736979 -425.691485404968 1929.00002002716 12 15 6
-17.474414780736 -427.01718211174 1934.99994277954 13 16 9
-11.9524886831641 -417.970508337021 1894.00005340576 11 13 8
-6.93364161998034 -426.136434078217 1930.99999427795 8 10 5
-1.70130329206586 -431.212484836578 1953.9999961853 10 12 9
3.62657173536718 -432.757139205933 1960.99996566772 1 3 2
8.91026854515076 -430.329203605652 1950.00004768372 128 130 127
14.0976496040821 -426.797330379486 1934.00001525879 0 1 0
19.3480923771858 -426.57533288002 1932.99996852875 13 15 10
24.4657415896654 -424.146085977554 1922.00005054474 11 13 8
29.6934209764004 -424.143880605698 1922.00005054474 10 12 7
34.6848145127296 -421.272486448288 1909.00003910065 13 15 10
39.417389780283 -416.414618492126 1886.99996471405 12 15 8
44.337086379528 -414.425134658813 1878.00002098083 12 15 8
49.6552847325802 -416.186809539795 1886.0000371933 12 15 8
54.8135079443455 -416.403234004974 1886.99996471405 13 16 9
59.5322623848915 -413.529992103577 1873.99995326996 14 17 10
64.835399389267 -414.849013090134 1879.99999523163 15 18 11
70.1337531208992 -415.946900844574 1884.99999046326 14 17 10
75.379267334938 -416.603088378906 1888.00001144409 12 15 8
80.9393599629402 -418.803423643112 1898.00000190735 12 15 8
86.7804437875748 -422.106593847275 1912.99998760223 12 15 8
91.1161005496979 -418.127804994583 1894.99998092651 14 17 10
95.7092419266701 -415.693312883377 1883.99994373322 14 16 11
101.794354617596 -419.657021760941 1901.99995040894 14 16 11
108.87685418129 -427.150428295136 1935.99998950958 15 17 12
116.025976836681 -434.201866388321 1968.00005435944 15 17 12
124.150484800339 -444.120705127716 2013.00001144409 16 18 13
-126.89770758152 -428.550869226456 1919.0000295639 138 140 137
-122.633814811707 -431.910485029221 1934.00001525879 18 20 15
-116.406582295895 -428.346633911133 1917.99998283386 15 18 11
-109.22247171402 -420.762211084366 1883.99994373322 12 15 6
-103.604272007942 -418.760538101196 1875 11 16 9
-99.1379916667938 -421.448677778244 1886.99996471405 10 15 8
-94.1578075289726 -422.12638258934 1889.99998569489 10 15 8
-88.9255702495575 -421.687006950378 1888.00001144409 10 15 8
-83.92583578825 -422.363936901093 1891.00003242493 12 15 8
-78.9095535874367 -423.040479421616 1894.00005340576 12 15 8
-73.7209469079971 -422.823220491409 1893.00000667572 11 14 7
-68.7549188733101 -423.945724964142 1898.00000190735 11 14 7
-63.7279972434044 -424.84450340271 1901.99995040894 11 14 7
-58.802280575037 -426.63636803627 1909.9999666214 12 15 8
-53.2154031097889 -423.513680696487 1896.00002765656 13 14 8
-48.0593889951706 -423.517793416977 1896.00002765656 13 15 10
-42.8805947303772 -423.29803109169 1894.99998092651 13 15 10
-37.9460267722607 -425.758481025696 1906.00001811981 12 15 8
-32.7624343335629 -425.761342048645 1906.00001811981 11 14 7
-27.7089681476355 -427.77419090271 1914.99996185303 11 14 5
-22.7122139185667 -431.797116994858 1932.99996852875 11 14 5
-17.5181534141302 -433.362454175949 1940.00005722046 13 16 9
-12.298583984375 -435.374081134796 1949.00000095367 10 12 7
-6.80382642894983 -423.312127590179 1894.99998092651 6 8 3
-1.69681268744171 -435.375213623047 1949.00000095367 9 11 8
3.61518329009414 -436.715394258499 1955.00004291534 0 1 0
8.98722093552351 -439.395517110825 1967.00000762939 124 126 123
14.1548197716475 -433.809995651245 1942.00003147125 6 8 3
19.4866470992565 -434.925526380539 1947.00002670288 8 10 5
24.6419589966536 -432.46653676033 1935.99998950958 13 15 10
29.6601261943579 -428.890258073807 1919.99995708466 13 15 10
34.3731641769409 -422.633022069931 1891.99995994568 8 10 5
39.1635671257973 -418.832659721375 1875 12 15 8
44.2626960575581 -418.829292058945 1875 12 15 8
49.5196580886841 -420.165747404099 1881.00004196167 12 15 8
54.5767359435558 -419.71480846405 1878.99994850159 13 16 9
59.6863143146038 -419.71018910408 1878.99994850159 13 16 9
64.6232962608337 -418.588399887085 1873.99995326996 14 17 10
70.1653510332108 -421.263337135315 1886.0000371933 14 17 10
75.5728557705879 -422.821074724197 1893.00000667572 14 17 10
80.8476358652115 -423.484921455383 1896.00002765656 13 16 9
86.0024094581604 -423.478245735168 1896.00002765656 13 16 9
90.9646227955818 -422.577768564224 1891.99995994568 13 16 9
96.0064381361008 -422.123670578003 1889.99998569489 15 17 12
102.856613695621 -429.262787103653 1922.00005054474 15 17 12
109.261900186539 -433.944553136826 1942.999958992 15 17 12
114.366203546524 -433.265715837479 1940.00005722046 16 18 13
121.365621685982 -439.509719610214 1968.00005435944 17 19 14
-121.356084942818 -432.614326477051 1914.00003433228 15 17 12
-116.093978285789 -432.397663593292 1912.99998760223 9 12 5
-110.315263271332 -430.146276950836 1902.99999713898 9 12 3
-104.866854846478 -429.02460694313 1898.00000190735 11 16 9
-99.2877259850502 -427.224338054657 1889.99998569489 10 15 8
-94.2001491785049 -427.458107471466 1891.00003242493 9 14 7
-89.6249338984489 -430.178046226501 1902.99999713898 9 14 7
-84.3629240989685 -429.732888936996 1901.00002288818 11 14 7
-79.1115388274193 -429.287284612656 1899.00004863739 11 14 7
-73.598213493824 -427.258849143982 1889.99998569489 11 14 7
-68.3871954679489 -426.812440156937 1888.00001144409 11 14 7
-63.6893734335899 -429.756581783295 1901.00002288818 11 14 7
-58.5820563137531 -430.213630199432 1902.99999713898 11 14 7
-53.4075722098351 -430.218189954758 1902.99999713898 12 13 7
-48.0048209428787 -428.187608718872 1894.00005340576 12 14 9
-42.9223850369453 -428.86945605278 1896.99995517731 12 14 9
-37.9628650844097 -431.133538484573 1906.99994564056 12 15 8
-32.8285321593285 -431.814610958099 1909.9999666214 12 15 8
-27.8080031275749 -434.530109167099 1922.00005054474 12 15 6
-22.7573700249195 -437.923401594162 1937.00003623962 12 15 6
-17.7063476294279 -443.351030349731 1960.99996566772 11 14 7
-12.3796127736568 -443.578332662582 1962.00001239777 7 9 4
-6.98996102437377 -440.187841653824 1947.00002670288 11 13 8
-1.67665269691497 -435.440421104431 1925.99999904633 4 6 3
3.56311677023768 -435.666382312775 1927.00004577637 5 7 6
14.2775736749172 -442.899703979492 1958.99999141693 1 3 0
19.5451136678457 -441.541820764542 1952.99994945526 13 15 10
24.550873786211 -436.114013195038 1929.00002002716 15 17 12
29.7504086047411 -435.433596372604 1925.99999904633 14 16 11
34.5883816480637 -430.457174777985 1904.00004386902 17 19 14
39.3274836242199 -425.706505775452 1883.00001621246 11 14 7
44.4243587553501 -425.477027893066 1881.99996948242 11 14 7
49.8052276670933 -427.733987569809 1891.99995994568 11 14 7
55.095124989748 -428.860157728195 1896.99995517731 12 15 8
59.9991381168365 -427.046984434128 1889.00005817413 12 15 8
64.5836293697357 -423.424810171127 1873.00002574921 13 16 9
70.0109228491783 -425.453990697861 1881.99996948242 13 16 9
75.4071325063705 -427.030652761459 1889.00005817413 14 17 10
80.7559043169022 -428.154706954956 1894.00005340576 14 17 10
85.8594924211502 -427.921980619431 1893.00000667572 13 16 9
90.7650962471962 -426.784664392471 1888.00001144409 13 16 9
96.3035672903061 -428.585588932037 1896.00002765656 15 17 12
103.276550769806 -436.263203620911 1929.99994754791 17 19 14
108.915887773037 -437.837094068527 1937.00003623962 15 17 12
113.590873777866 -435.567945241928 1927.00004577637 25 27 22
120.492771267891 -441.661596298218 1953.9999961853 12 14 9
-121.219739317894 -437.326401472092 1911.99994087219 10 12 7
-115.902781486511 -436.87829375267 1909.9999666214 14 16 11
-111.523784697056 -440.089523792267 1924.00002479553 12 15 8
-105.4662540555 -436.667114496231 1909.00003910065 11 16 9
-99.4899570941925 -433.244049549103 1894.00005340576 10 15 8
-93.8439667224884 -430.964291095734 1883.99994373322 9 14 7
-89.7590517997742 -436.004161834717 1906.00001811981 9 14 7
-84.7111716866493 -436.697423458099 1909.00003910065 11 14 7
-79.3967992067337 -436.017721891403 1906.00001811981 11 14 7
-73.9038065075874 -434.193760156631 1898.00000190735 11 14 7
-68.852536380291 -434.885770082474 1901.00002288818 11 14 7
-63.6172443628311 -434.433609247208 1899.00004863739 11 14 7
-58.6081184446812 -435.582369565964 1904.00004386902 11 14 7
-53.0665144324303 -432.612836360931 1891.00003242493 12 13 7
-47.9502491652966 -432.845652103424 1891.99995994568 12 14 9
-42.8057946264744 -432.8493475914 1891.99995994568 12 14 9
-37.8602631390095 -435.140401124954 1901.99995040894 12 15 8
-32.6711945235729 -434.914469718933 1901.00002288818 12 15 8
-27.545340359211 -435.603320598602 1904.00004386902 12 15 6
-22.7085314691067 -442.240059375763 1932.99996852875 12 15 6
-17.6055952906609 -446.1310505867 1950.00004768372 10 13 6
-12.3912254348397 -449.335247278214 1963.99998664856 7 9 4
-7.04324059188366 -448.8784968853 1962.00001239777 11 13 8
-1.68260966893286 -442.243993282318 1932.99996852875 7 9 6
3.51660489104688 -435.15157699585 1901.99995040894 6 8 7
14.32013977319 -449.563682079315 1965.0000333786 1 3 0
19.4834861904383 -445.444166660309 1947.00002670288 8 10 5
24.6252398937941 -442.696928977966 1934.99994277954 14 16 11
29.8406705260277 -442.008405923843 1932.000041008 14 16 11
34.712728112936 -437.201321125031 1911.00001335144 15 17 12
39.8881621658802 -436.969518661499 1909.9999666214 11 14 7
44.7276011109352 -433.534413576126 1894.99998092651 11 14 7
49.6169477701187 -431.242793798447 1884.99999046326 11 14 7
54.7712296247482 -431.467413902283 1886.0000371933 12 15 8
59.6767030656338 -429.86136674881 1878.99994850159 12 15 8
64.9921670556068 -431.228935718536 1884.99999046326 13 16 9
69.6705207228661 -428.478330373764 1873.00002574921 13 16 9
75.4809156060219 -432.590246200562 1891.00003242493 14 17 10
80.6641578674316 -432.812720537186 1891.99995994568 14 17 10
85.3537395596504 -430.518507957459 1881.99996948242 13 16 9
90.7578617334366 -431.88402056694 1888.00001144409 13 16 9
97.4640473723412 -438.967734575272 1919.0000295639 10 12 7
103.482387959957 -442.390948534012 1934.00001525879 18 20 15
109.638184309006 -446.042358875275 1950.00004768372 15 17 12
116.057477891445 -450.379401445389 1968.99998188019 18 20 15
-122.224509716034 -446.192443370819 1927.99997329712 12 14 11
-116.50039255619 -444.35042142868 1919.99995708466 18 20 15
-110.935360193253 -442.970842123032 1914.00003433228 18 21 14
-105.236910283566 -440.896481275558 1904.99997138977 11 16 9
-99.9022349715233 -440.210282802582 1901.99995040894 10 15 8
-94.1353142261505 -437.440633773804 1889.99998569489 10 15 8
-89.1397148370743 -438.1422996521 1893.00000667572 9 14 7
-84.3937769532204 -440.232396125793 1901.99995040894 11 14 7
-79.5153751969337 -441.859185695648 1909.00003910065 11 14 7
-74.1704031825066 -440.939486026764 1904.99997138977 11 14 7
-69.1004991531372 -441.63966178894 1907.99999237061 11 14 7
-64.081072807312 -442.802399396896 1912.99998760223 11 14 7
-58.3879239857197 -439.103752374649 1896.99995517731 11 14 7
-53.0622154474258 -437.719464302063 1891.00003242493 12 13 7
-47.9210279881954 -437.723577022552 1891.00003242493 12 14 9
-42.9154336452484 -439.116060733795 1896.99995517731 12 14 9
-37.976611405611 -441.665649414063 1907.99999237061 12 15 8
-32.7544659376144 -441.205561161041 1906.00001811981 12 15 8
-27.5286342948675 -440.513581037521 1902.99999713898 12 15 6
-22.4599987268448 -442.598968744278 1911.99994087219 12 15 6
-17.4326356500387 -446.998834609985 1930.99999427795 13 16 9
-12.3397465795279 -452.787160873413 1955.9999704361 8 10 5
-7.09292013198137 -457.417696714401 1975.99995136261 9 11 6
-1.67376885656267 -445.149272680283 1922.99997806549 6 8 5
3.5385035444051 -443.065792322159 1914.00003433228 0 1 0
8.63330345600843 -437.509655952454 1889.99998569489 112 114 111
14.1295120120049 -448.851525783539 1939.00001049042 6 8 3
19.4018520414829 -448.850154876709 1939.00001049042 8 10 5
24.4323592633009 -444.450169801712 1919.99995708466 12 14 9
29.915465041995 -448.383182287216 1937.00003623962 13 15 10
35.073172301054 -446.991622447968 1930.99999427795 9 11 6
39.9266928434372 -442.590475082397 1911.99994087219 11 14 7
44.7711795568466 -439.114809036255 1896.99995517731 12 15 8
49.612931907177 -436.333268880844 1884.99999046326 12 15 8
54.4183366000652 -433.782815933228 1873.99995326996 12 15 8
59.7036369144917 -435.167014598846 1879.99999523163 12 15 8
64.9524554610252 -436.087906360626 1883.99994373322 14 17 10
70.2972188591957 -437.471270561218 1889.99998569489 13 16 9
75.5945891141891 -438.391268253326 1894.00005340576 13 16 9
81.0413733124733 -440.00518321991 1901.00002288818 13 16 9
85.8003944158554 -437.915325164795 1891.99995994568 13 16 9
92.0003354549408 -443.000227212906 1914.00003433228 14 17 10
97.1515774726868 -442.761242389679 1912.99998760223 16 18 13
105.293236672878 -455.482721328735 1968.00005435944 13 15 10
111.878298223019 -460.565865039825 1990.00000953674 15 17 12
118.582606315613 -465.648323297501 2012.00008392334 15 17 12
124.851271510124 -468.647360801697 2025.00009536743 21 23 18
-122.341632843018 -451.866239309311 1929.99994754791 13 15 12
-115.823775529861 -446.958959102631 1909.00003910065 16 18 13
-109.651535749435 -442.987561225891 1891.99995994568 17 20 13
-104.068532586098 -441.122949123383 1883.99994373322 12 17 10
-99.5266288518906 -443.706661462784 1894.99998092651 11 16 9
-94.2274034023285 -443.011939525604 1891.99995994568 10 15 8
-88.9442339539528 -442.316800355911 1889.00005817413 9 14 7
-84.1651558876038 -444.196969270706 1896.99995517731 11 14 7
-79.8005312681198 -448.652625083923 1916.00000858307 12 15 8
-74.4369551539421 -447.722196578979 1911.99994087219 11 14 7
-69.3122074007988 -448.196351528168 1914.00003433228 11 14 7
-64.1093924641609 -448.201715946198 1914.00003433228 11 14 7
-58.752529323101 -447.035878896713 1909.00003910065 11 14 7
-53.1701445579529 -443.761885166168 1894.99998092651 12 13 7
-47.8917956352234 -442.59512424469 1889.99998569489 12 14 9
-43.0476740002632 -445.643126964569 1902.99999713898 12 14 9
-38.0133278667927 -447.285681962967 1909.9999666214 12 15 8
-32.7861718833447 -446.820229291916 1907.99999237061 12 15 8
-27.5842510163784 -446.588486433029 1906.99994564056 12 15 6
-22.4229339510202 -447.058945894241 1909.00003910065 12 15 6
-17.4582973122597 -452.915161848068 1934.00001525879 13 16 9
-12.3135102912784 -457.131773233414 1952.00002193451 9 11 6
-6.93082623183727 -452.214598655701 1930.99999427795 8 10 5
-1.69190927408636 -455.259412527084 1944.00000572205 7 9 6
3.52342636324465 -446.360170841217 1906.00001811981 0 1 0
8.82443506270647 -452.448576688766 1932.000041008 78 80 77
14.1283599659801 -454.086899757385 1939.00001049042 5 7 2
19.2902125418186 -451.50950551033 1927.99997329712 9 11 6
24.532163515687 -451.507747173309 1927.99997329712 10 12 7
29.8975873738527 -453.378945589066 1935.99998950958 11 13 8
34.7797349095345 -448.45849275589 1914.99996185303 10 12 7
39.6520048379898 -444.708615541458 1899.00004863739 12 15 8
44.3427599966526 -440.021544694901 1878.99994850159 12 15 8
49.3983700871468 -439.549386501312 1876.99997425079 12 15 8
54.4429607689381 -439.076840877533 1875 12 15 8
59.6035458147526 -439.540594816208 1876.99997425079 13 16 9
64.8437887430191 -440.472215414047 1881.00004196167 14 17 10
70.3287348151207 -442.808449268341 1891.00003242493 14 17 10
75.5485892295837 -443.270862102509 1893.00000667572 13 16 9
81.2053605914116 -446.074515581131 1904.99997138977 13 16 9
86.7004320025444 -447.706907987595 1911.99994087219 13 16 9
91.9449180364609 -447.933882474899 1912.99998760223 14 17 10
97.7024063467979 -450.501978397369 1924.00002479553 19 21 16
106.889799237251 -467.820644378662 1998.00002574921 11 13 8
112.600207328796 -468.982607126236 2003.00002098083 15 17 12
119.221471250057 -473.656177520752 2023.00000190735 14 16 11
-120.68398296833 -450.918853282928 1904.00004386902 14 16 13
-114.540584385395 -447.138875722885 1888.00001144409 15 17 12
-108.599714934826 -443.832010030746 1873.99995326996 15 18 11
-103.618383407593 -444.314152002335 1876.00004673004 12 17 10
-99.3611291050911 -448.111712932587 1891.99995994568 11 16 9
-94.3194702267647 -448.593229055405 1894.00005340576 10 15 8
-88.9841914176941 -447.653144598007 1889.99998569489 10 15 8
-83.7591215968132 -447.186321020126 1888.00001144409 12 15 8
-79.1694074869156 -450.272053480148 1901.00002288818 12 15 8
-74.002742767334 -450.278252363205 1901.00002288818 11 14 7
-68.9082890748978 -450.757741928101 1902.99999713898 11 14 7
-63.6688098311424 -450.289338827133 1901.00002288818 11 14 7
-58.7477646768093 -452.189326286316 1909.00003910065 11 14 7
-53.3341728150845 -450.298875570297 1901.00002288818 12 13 7
-48.1919571757317 -450.539827346802 1901.99995040894 12 14 9
-43.1120321154594 -451.491087675095 1906.00001811981 12 14 9
-38.1694473326206 -454.33697104454 1917.99998283386 12 15 8
-33.127136528492 -456.708639860153 1927.99997329712 12 15 8
-27.7700293809175 -454.816043376923 1919.99995708466 12 15 6
-22.6090215146542 -456.002503633499 1924.99995231628 12 15 6
-17.4478460103273 -457.899302244186 1932.99996852875 11 14 7
-12.1358903124928 -455.768525600433 1924.00002479553 11 13 8
-7.00921704992652 -462.638974189758 1952.99994945526 7 9 4
-1.66827428620309 -454.111456871033 1917.00005531311 12 14 11
3.54347168467939 -454.111337661743 1917.00005531311 9 11 10
8.78260936588049 -455.532163381577 1922.99997806549 14 16 13
14.2146367579699 -462.164044380188 1950.99997520447 8 10 5
19.4186978042126 -459.793835878372 1940.99998474121 9 11 6
24.6701184660196 -459.318250417709 1939.00001049042 8 10 5
29.6017602086067 -454.104602336884 1917.00005531311 10 12 7
34.7042642533779 -452.680677175522 1911.00001335144 11 13 8
39.3147133290768 -446.044981479645 1883.00001621246 12 15 8
44.1267788410187 -442.962139844894 1870.00000476837 12 15 8
49.3417270481586 -444.142758846283 1875 13 16 9
54.9030900001526 -447.928547859192 1891.00003242493 13 16 9
59.9479898810387 -447.213232517242 1888.00001144409 13 16 9
64.7006630897522 -444.602608680725 1876.99997425079 15 18 11
69.3933516740799 -441.991686820984 1866.00005626678 14 17 10
75.1833319664001 -446.24936580658 1883.99994373322 12 15 8
80.1332294940948 -445.295691490173 1879.99999523163 12 15 8
85.4238942265511 -446.236431598663 1883.99994373322 14 17 10
91.9856131076813 -453.335016965866 1914.00003433228 15 18 11
98.2531383633614 -458.301216363907 1934.99994277954 14 16 11
104.901991784573 -464.45107460022 1960.99996566772 14 16 11
111.860498785973 -471.31085395813 1990.00000953674 17 19 14
119.919165968895 -481.959402561188 2035.00008583069 11 13 8
-120.230786502361 -454.381227493286 1896.99995517731 8 10 7
-114.89549279213 -453.671962022781 1894.00005340576 12 14 9
-109.750010073185 -453.680872917175 1894.00005340576 12 15 8
-104.493796825409 -453.210324048996 1891.99995994568 12 17 10
-100.035853683949 -456.332504749298 1904.99997138977 11 16 9
-95.2082276344299 -458.017140626907 1911.99994087219 10 15 8
-89.4478261470795 -455.149978399277 1899.99997615814 10 15 8
-84.1516405344009 -454.438269138336 1896.99995517731 12 15 8
-79.7460377216339 -458.756923675537 1914.99996185303 12 15 8
-74.6974274516106 -459.721386432648 1919.0000295639 11 14 7
-69.3734213709831 -459.008514881134 1916.00000858307 11 14 7
-63.7976080179214 -456.378638744354 1904.99997138977 11 14 7
-58.5891380906105 -456.144034862518 1904.00004386902 11 14 7
-53.3859431743622 -455.908983945847 1902.99999713898 12 13 7
-48.2893846929073 -456.631869077683 1906.00001811981 12 14 9
-43.1989915668964 -457.593888044357 1909.9999666214 12 14 9
-38.2260270416737 -460.232555866241 1921.0000038147 12 15 8
-33.2275219261646 -463.349997997284 1934.00001525879 12 15 8
-27.9702395200729 -463.352560997009 1934.00001525879 12 15 8
-22.6306654512882 -461.677521467209 1927.00004577637 12 15 6
-17.3922665417194 -461.67916059494 1927.00004577637 12 15 8
-12.1853547170758 -462.878286838531 1932.000041008 12 14 9
-6.90457411110401 -460.962414741516 1924.00002479553 5 7 2
-1.69076246675104 -465.514868497849 1942.999958992 10 12 9
3.57645144686103 -463.598102331162 1934.99994277954 9 11 8
8.76819156110287 -460.003793239594 1919.99995708466 6 8 3
14.0459137037396 -461.919516324997 1927.99997329712 16 18 13
19.4771327078342 -466.470271348953 1947.00002670288 12 14 9
24.6299374848604 -463.833093643188 1935.99998950958 8 10 5
29.8463888466358 -463.112056255341 1932.99996852875 11 13 8
34.5198437571526 -455.442875623703 1901.00002288818 8 10 5
39.6455489099026 -454.96067404747 1899.00004863739 12 15 8
44.2883595824242 -449.686586856842 1876.99997425079 12 15 8
49.5219081640244 -450.880587100983 1881.99996948242 13 16 9
54.9566969275475 -453.51168513298 1893.00000667572 13 16 9
59.9748827517033 -452.548742294312 1889.00005817413 13 16 9
64.3852204084396 -447.512745857239 1868.00003051758 15 18 11
69.3133771419525 -446.54905796051 1863.9999628067 14 17 10
74.4590312242508 -447.022438049316 1866.00005626678 12 15 8
79.4448480010033 -446.537107229233 1863.9999628067 12 15 8
84.918312728405 -448.686480522156 1873.00002574921 14 17 10
92.1704545617104 -459.459215402603 1917.99998283386 15 18 11
98.6006930470467 -465.200811624527 1942.00003147125 15 17 12
105.054095387459 -470.462650060654 1963.99998664856 16 18 13
112.301252782345 -478.598415851593 1998.00002574921 15 17 12
-120.474778115749 -460.469394922256 1901.00002288818 1 6 2
-115.674920380116 -461.932122707367 1906.99994564056 9 14 8
-110.784225165844 -463.152259588242 1911.99994087219 6 11 4
-105.755634605885 -463.887602090836 1914.99996185303 14 17 10
-100.65795481205 -464.380353689194 1917.00005531311 13 16 9
-94.5035219192505 -459.785491228104 1898.00000190735 12 15 8
-88.9699012041092 -457.854866981506 1889.99998569489 12 15 8
-84.0118005871773 -458.830833435059 1894.00005340576 12 15 8
-80.0727233290672 -465.862840414047 1922.99997806549 13 16 9
-74.8470798134804 -465.869098901749 1922.99997806549 12 15 8
-69.9108690023422 -467.813074588776 1930.99999427795 12 15 8
-64.0603378415108 -463.457703590393 1912.99998760223 11 14 7
-58.6151592433453 -461.52451634407 1904.99997138977 10 13 6
-53.5218641161919 -462.255895137787 1907.99999237061 10 13 6
-48.6907884478569 -465.651869773865 1922.00005054474 12 15 8
-43.5799360275269 -466.866999864578 1927.00004577637 12 15 8
-38.5412760078907 -469.293117523193 1937.00003623962 12 15 8
-33.2591682672501 -469.053775072098 1935.99998950958 12 15 8
-27.8378035873175 -466.391175985336 1924.99995231628 12 15 8
-22.5348714739084 -464.939564466476 1919.0000295639 12 15 8
-17.3366982489824 -465.425759553909 1921.0000038147 13 16 9
-12.1654393151402 -467.365205287933 1929.00002002716 11 14 7
-6.94706989452243 -469.062030315399 1935.99998950958 10 13 6
-1.70280586462468 -474.150329828262 1957.00001716614 10 13 6
3.61497001722455 -473.907977342606 1955.9999704361 8 11 4
8.85880272835493 -470.030874013901 1940.00005722046 6 8 3
13.9864906668663 -465.184301137924 1919.99995708466 8 10 5
19.3855166435242 -469.544023275375 1937.99996376038 10 12 7
24.6279258280993 -469.057679176331 1935.99998950958 11 13 8
29.5969303697348 -464.452117681503 1917.00005531311 11 13 8
34.6259735524654 -462.026685476303 1906.99994564056 11 13 8
39.788443595171 -461.78138256073 1906.00001811981 12 15 8
44.9925549328327 -462.020188570023 1906.99994564056 13 16 9
49.8073101043701 -458.624482154846 1893.00000667572 14 17 10
55.1264137029648 -460.073858499527 1899.00004863739 14 17 10
59.8430372774601 -456.677407026291 1884.99999046326 13 16 9
64.3800124526024 -452.55383849144 1868.00003051758 11 16 10
69.4565027952194 -452.548414468765 1868.00003051758 14 19 13
75.2111151814461 -456.6610455513 1884.99999046326 14 19 13
80.2055597305298 -455.927968025208 1881.99996948242 11 16 9
86.1808657646179 -460.524171590805 1901.00002288818 10 15 8
92.1630561351776 -464.635223150253 1917.99998283386 13 18 11
98.4404906630516 -469.714790582657 1939.00001049042 14 19 12
105.366617441177 -477.216213941574 1970.00002861023 10 15 8
112.123690545559 -483.263522386551 1995.00000476837 11 16 10
-121.289066970348 -468.782752752304 1914.00003433228 5 10 6
-115.544445812702 -466.58781170845 1904.99997138977 5 10 4
-110.833361744881 -468.556225299835 1912.99998760223 7 12 5
-106.29940778017 -471.504092216492 1924.99995231628 13 16 9
-100.859932601452 -470.532596111298 1921.0000038147 13 16 9
-94.7946831583977 -466.376394033432 1904.00004386902 12 15 8
-89.0568941831589 -463.444381952286 1891.99995994568 12 15 8
-83.9606896042824 -463.696300983429 1893.00000667572 12 15 8
-79.4833600521088 -467.62216091156 1909.00003910065 12 15 8
-75.6972581148148 -476.446956396103 1945.00005245209 12 15 8
-69.9776187539101 -473.513245582581 1932.99996852875 12 15 8
-64.4904375076294 -471.803933382034 1925.99999904633 11 14 7
-59.0411350131035 -470.094203948975 1919.0000295639 11 14 7
-53.7980049848557 -469.853788614273 1917.99998283386 10 13 6
-48.8134883344173 -472.062766551971 1927.00004577637 12 15 8
-43.6894595623016 -473.291367292404 1932.000041008 12 15 8
-38.3391752839088 -472.069829702377 1927.00004577637 12 15 8
-33.1190340220928 -472.317695617676 1927.99997329712 12 15 8
-27.7776904404163 -470.605373382568 1921.0000038147 13 16 9
-22.4978066980839 -469.382524490356 1916.00000858307 13 16 9
-17.2179657965899 -467.424273490906 1907.99999237061 12 15 8
-11.8995886296034 -462.280809879303 1886.99996471405 10 13 6
-6.94650132209063 -474.28572177887 1935.99998950958 10 13 6
-1.69483630452305 -477.22589969635 1947.99995422363 10 13 6
3.59065015800297 -476.000905036926 1942.999958992 8 11 4
8.83524771779776 -474.040508270264 1934.99994277954 6 8 3
14.0581857413054 -472.814649343491 1929.99994754791 8 10 5
19.3639285862446 -474.283188581467 1935.99998950958 10 12 7
24.3333522230387 -468.646854162216 1912.99998760223 11 13 8
29.6562649309635 -470.604509115219 1921.0000038147 11 13 8
34.8047129809856 -469.622015953064 1917.00005531311 12 14 9
39.993941783905 -469.373941421509 1916.00000858307 12 15 8
45.3663542866707 -471.085250377655 1922.99997806549 13 16 9
50.382062792778 -469.121605157852 1914.99996185303 14 17 10
55.121935904026 -465.197771787643 1899.00004863739 14 17 10
59.8064288496971 -461.518555879593 1883.99994373322 13 16 9
64.9606436491013 -461.758494377136 1884.99999046326 13 18 14
70.3803598880768 -463.712722063065 1893.00000667572 14 19 15
76.0428681969643 -466.891288757324 1906.00001811981 12 17 11
82.0741057395935 -471.784085035324 1925.99999904633 10 15 8
87.579183280468 -473.246961832047 1932.000041008 10 15 8
92.9244384169579 -473.729610443115 1934.00001525879 15 20 13
98.5849052667618 -475.681513547897 1942.00003147125 14 19 12
105.090796947479 -481.307029724121 1965.0000333786 13 18 11
112.058565020561 -488.401561975479 1993.99995803833 14 19 13
-122.42004275322 -478.4035384655 1932.000041008 51 56 52
-115.838535130024 -472.965240478516 1909.9999666214 4 9 5
-109.723843634129 -469.012171030045 1894.00005340576 11 16 10
-105.849213898182 -474.716275930405 1917.00005531311 13 15 10
-101.534366607666 -478.934347629547 1934.00001525879 13 15 10
-95.9321036934853 -477.2087931633 1927.00004577637 11 13 8
-89.5204246044159 -471.025079488754 1901.99995040894 11 13 8
-84.1313302516937 -469.793826341629 1896.99995517731 12 14 9
-80.0181850790977 -475.991725921631 1922.00005054474 12 14 9
-74.5236650109291 -474.264353513718 1914.99996185303 11 13 8
-69.3927854299545 -474.765509366989 1917.00005531311 11 13 8
-64.4517317414284 -476.752191781998 1924.99995231628 10 12 7
-59.4670437276363 -478.73854637146 1932.99996852875 10 12 7
-54.0741011500359 -477.504819631577 1927.99997329712 10 12 7
-48.7588532269001 -476.765990257263 1924.99995231628 10 12 7
-43.5276105999947 -476.769715547562 1924.99995231628 10 12 7
-38.5150946676731 -479.497462511063 1935.99998950958 12 15 8
-33.425509929657 -481.977194547653 1945.99997997284 12 15 8
-28.0212238430977 -479.998290538788 1937.99996376038 12 15 8
-22.6720832288265 -478.266626596451 1930.99999427795 13 16 9
-17.4150709062815 -478.020548820496 1929.99994754791 13 16 9
-12.1256168931723 -476.287990808487 1922.99997806549 10 13 6
-6.96387188509107 -480.747044086456 1940.99998474121 10 13 6
-1.69643748085946 -482.976526021957 1950.00004768372 10 13 6
3.58666107058525 -480.747312307358 1940.99998474121 9 12 5
8.8482229039073 -480.003774166107 1937.99996376038 6 8 3
14.2391230911016 -484.213382005692 1955.00004291534 7 9 4
19.3923488259315 -480.249106884003 1939.00001049042 9 11 6
24.4203992187977 -475.541442632675 1919.99995708466 10 12 7
29.561223462224 -474.300861358643 1914.99996185303 10 12 7
34.8381772637367 -475.288927555084 1919.0000295639 12 14 9
39.8654453456402 -473.056823015213 1909.9999666214 12 15 8
45.1031737029552 -473.5486805439 1911.99994087219 13 16 9
50.2201206982136 -472.801834344864 1909.00003910065 14 17 10
55.1755093038082 -470.816224813461 1901.00002288818 14 17 10
59.8968155682087 -467.34419465065 1886.99996471405 13 16 9
64.9553909897804 -466.843843460083 1884.99999046326 14 19 13
70.560559630394 -470.057934522629 1898.00000190735 14 19 15
76.0766267776489 -472.280919551849 1906.99994564056 11 16 10
82.6640427112579 -480.447173118591 1940.00005722046 10 15 8
89.2945900559425 -487.869799137115 1970.00002861023 10 15 8
95.3191816806793 -491.329431533813 1983.99996757507 13 18 11
100.759722292423 -491.569221019745 1985.00001430511 15 20 13
106.098480522633 -491.313338279724 1983.99996757507 7 12 5
112.836353480816 -497.247844934464 2007.99989700317 6 11 5
-123.360760509968 -487.369656562805 1947.00002670288 69 74 70
-114.859066903591 -474.112063646317 1894.00005340576 3 8 4
-110.468171536922 -477.375209331512 1906.99994564056 11 16 10
-105.56472837925 -478.635460138321 1911.99994087219 13 15 10
-101.788736879826 -485.402762889862 1939.00001049042 12 14 9
-96.8204513192177 -486.912727355957 1945.00005245209 11 13 8
-90.5956700444222 -481.913357973099 1924.99995231628 11 13 8
-85.6323391199112 -483.422517776489 1930.99999427795 11 13 8
-80.3031399846077 -482.928484678268 1929.00002002716 12 14 9
-74.4398310780525 -478.929072618485 1912.99998760223 11 13 8
-68.7718465924263 -475.680232048035 1899.99997615814 10 12 7
-63.3417218923569 -473.682701587677 1891.99995994568 9 11 6
-59.154599905014 -481.448829174042 1922.99997806549 9 11 6
-53.9575405418873 -481.703847646713 1924.00002479553 9 11 6
-48.7548895180225 -481.958389282227 1924.99995231628 8 10 5
-43.7275618314743 -484.215468168259 1934.00001525879 8 10 5
-39.2280891537666 -493.732869625092 1972.00000286102 9 11 6
-33.6288809776306 -490.230619907379 1957.99994468689 10 12 7
-28.0912257730961 -486.477583646774 1942.999958992 11 13 8
-22.8580757975578 -487.48117685318 1947.00002670288 11 13 8
-17.6211688667536 -488.985031843185 1952.99994945526 12 14 9
-12.2948624193668 -488.235175609589 1950.00004768372 10 12 7
-6.95971539244056 -485.732197761536 1940.00005722046 10 12 7
-1.69542897492647 -487.98593878746 1949.00000095367 10 12 7
3.60299716703594 -488.236278295517 1950.00004768372 9 11 6
8.92967451363802 -489.737987518311 1955.9999704361 8 10 5
14.2670916393399 -490.488201379776 1958.99999141693 7 9 4
19.5907726883888 -490.486800670624 1958.99999141693 8 10 5
24.6727671474218 -485.727876424789 1940.00005722046 9 11 6
29.3890219181776 -476.712137460709 1904.00004386902 12 14 9
34.6538126468658 -477.961391210556 1909.00003910065 13 15 10
39.8413278162479 -477.95832157135 1909.00003910065 12 15 8
45.0051538646221 -477.704524993896 1907.99999237061 13 16 9
49.9792955815792 -475.697726011276 1899.99997615814 14 17 10
55.1420077681541 -475.693464279175 1899.99997615814 14 17 10
60.2410882711411 -475.188046693802 1898.00000190735 13 16 9
65.2946904301643 -474.431872367859 1894.99998092651 13 18 12
70.629209280014 -475.67817568779 1899.99997615814 13 18 12
76.0306045413017 -477.174371480942 1906.00001811981 11 16 10
81.8904563784599 -481.173694133759 1922.00005054474 11 16 9
89.8312851786613 -496.187657117844 1981.99999332428 12 17 10
96.7527329921722 -504.191279411316 2013.99993896484 14 19 12
102.934204041958 -507.688045501709 2028.00011634827 15 20 13
108.068495988846 -505.927264690399 2020.99990844727 17 22 15
-117.518082261086 -490.353018045425 1937.99996376038 5 7 4
-111.733727157116 -488.084882497787 1929.00002002716 14 16 11
-105.390712618828 -483.03297162056 1909.00003910065 12 14 9
-101.623147726059 -489.873051643372 1935.99998950958 12 14 9
-96.4145064353943 -490.134030580521 1937.00003623962 11 13 8
-91.2943109869957 -490.900665521622 1940.00005722046 11 13 8
-85.7584848999977 -489.389479160309 1934.00001525879 11 13 8
-80.6713178753853 -490.408360958099 1937.99996376038 11 13 8
-74.706181883812 -485.859662294388 1919.99995708466 10 12 7
-67.6081255078316 -472.706645727158 1868.00003051758 9 11 6
-63.2026940584183 -477.773100137711 1888.00001144409 8 10 5
-58.8114559650421 -483.851343393326 1911.99994087219 8 10 5
-54.1774965822697 -488.917261362076 1932.000041008 8 10 5
-49.1561330854893 -491.1989569664 1940.99998474121 7 9 4
-44.130951166153 -493.986517190933 1952.00002193451 7 9 4
-39.2050035297871 -498.798131942749 1970.99995613098 8 10 5
-33.6261428892612 -495.511204004288 1957.99994468689 9 11 6
-27.9299132525921 -488.933891057968 1932.000041008 10 12 7
-22.8914283216 -493.491262197495 1950.00004768372 11 13 8
-17.6377762109041 -494.758307933807 1955.00004291534 12 14 9
-12.2749451547861 -492.73493885994 1947.00002670288 10 12 7
-6.97708269581199 -492.229551076889 1945.00005245209 10 12 7
-1.70746794901788 -496.785253286362 1963.00005912781 11 13 8
3.6451960913837 -499.315947294235 1973.00004959106 10 12 7
8.96546337753534 -497.037708759308 1963.99998664856 9 11 6
14.27320856601 -496.024519205093 1960.00003814697 6 8 3
19.6391735225916 -497.035384178162 1963.99998664856 8 10 5
24.8742215335369 -495.00897526741 1955.9999704361 9 11 6
29.6027045696974 -485.390067100525 1917.99998283386 10 12 7
34.5239229500294 -481.338322162628 1901.99995040894 13 15 10
39.5250581204891 -479.310750961304 1894.00005340576 13 16 9
44.8363982141018 -481.078803539276 1901.00002288818 13 16 9
49.7911237180233 -479.05045747757 1893.00000667572 14 17 10
54.8183172941208 -478.033989667892 1889.00005817413 14 17 10
60.0457899272442 -478.788465261459 1891.99995994568 13 16 9
65.2549639344215 -479.289591312408 1894.00005340576 13 18 12
70.4004839062691 -479.284048080444 1894.00005340576 12 17 11
75.7851526141167 -480.796456336975 1899.99997615814 12 17 11
81.6708579659462 -485.091954469681 1917.00005531311 12 17 10
97.6576805114746 -514.430701732636 2032.99999237061 13 18 11
103.890269994736 -517.965197563171 2046.99993133545 14 19 12
108.861915767193 -515.173316001892 2036.00001335144 17 22 16
-125.1150816679 -505.030810832977 1975.00002384186 120 122 119
-117.266245186329 -494.556069374084 1934.00001525879 12 14 9
-110.624417662621 -488.427847623825 1909.9999666214 10 12 7
-105.603143572807 -489.203631877899 1912.99998760223 11 13 8
-100.722767412663 -490.746170282364 1919.0000295639 10 12 7
-97.2031280398369 -499.448895454407 1952.99994945526 9 11 6
-91.7105004191399 -498.433589935303 1949.00000095367 9 11 6
-86.7270678281784 -500.23090839386 1955.9999704361 8 10 5
-80.8313190937042 -496.657192707062 1942.00003147125 8 10 5
-73.9220455288887 -485.922038555145 1899.99997615814 9 11 6
-69.5569217205048 -491.554379463196 1922.00005054474 9 11 6
-64.3021985888481 -491.303950548172 1921.0000038147 9 11 6
-55.0703778862953 -502.311170101166 1963.99998664856 8 10 5
-49.3800528347492 -498.734772205353 1950.00004768372 8 10 5
-44.1951863467693 -500.017404556274 1955.00004291534 8 10 5
-39.082482457161 -502.578437328339 1965.0000333786 7 9 4
-33.6405783891678 -501.046776771545 1958.99999141693 7 9 4
-27.6674441993237 -489.539742469788 1914.00003433228 7 9 4
-22.7017514407635 -494.657158851624 1934.00001525879 7 9 4
-17.4649357795715 -495.170295238495 1935.99998950958 9 11 6
-12.2550316154957 -497.217684984207 1944.00000572205 11 13 8
-6.95499265566468 -495.939642190933 1939.00001049042 10 12 7
-1.69689161702991 -499.009221792221 1950.99997520447 8 10 5
3.61164566129446 -500.032246112823 1955.00004291534 9 11 6
8.9008305221796 -498.752892017365 1950.00004768372 10 12 7
14.2866084352136 -501.821219921112 1962.00001239777 8 10 5
19.7975505143404 -506.423592567444 1980.00001907349 10 12 7
24.9357745051384 -501.562237739563 1960.99996566772 7 9 4
29.970683157444 -496.700376272202 1942.00003147125 10 12 7
34.7389169037342 -489.536255598068 1914.00003433228 11 13 8
39.7513806819916 -487.231343984604 1904.99997138977 12 15 8
44.8563359677792 -486.460566520691 1901.99995040894 14 17 10
49.892283976078 -485.177993774414 1896.99995517731 12 15 8
54.78485673666 -482.871919870377 1888.00001144409 14 17 10
60.1678714156151 -484.913319349289 1896.00002765656 15 18 11
65.45639783144 -485.931277275085 1899.99997615814 14 19 13
70.6921443343163 -486.437290906906 1901.99995040894 12 17 11
75.6992846727371 -485.408365726471 1898.00000190735 11 16 10
81.8346962332726 -491.284191608429 1921.0000038147 14 19 12
90.4966220259666 -510.713696479797 1996.99997901917 15 20 13
97.9380682110786 -521.447241306305 2039.00003433228 13 18 11
103.273004293442 -520.416259765625 2035.00008583069 11 16 9
108.960188925266 -521.174967288971 2038.00010681152 16 21 15
-123.901695013046 -505.446076393127 1955.9999704361 121 123 120
-117.378257215023 -500.287294387817 1935.99998950958 3 5 0
-111.426465213299 -497.195422649384 1924.00002479553 20 22 17
-105.153173208237 -492.293983697891 1904.99997138977 11 13 8
-101.397037506104 -499.279648065567 1932.000041008 10 12 7
-96.7972576618195 -502.64710187912 1945.00005245209 9 11 6
-92.3618897795677 -507.306396961212 1963.00005912781 9 11 6
-86.7644548416138 -505.762994289398 1957.00001716614 8 10 5
-80.6167423725128 -500.600934028625 1937.00003623962 8 10 5
-76.0557800531387 -505.259156227112 1955.00004291534 8 10 5
-70.4559907317162 -503.197431564331 1947.00002670288 8 10 5
-65.0333613157272 -502.169072628021 1942.999958992 9 11 6
-59.9398538470268 -503.724932670593 1949.00000095367 8 10 5
-54.9537725746632 -506.572544574738 1960.00003814697 8 10 5
-49.7811809182167 -508.127450942993 1965.99996089935 8 10 5
-44.417642056942 -507.872879505157 1965.0000333786 8 10 5
-39.0793085098267 -507.876217365265 1965.0000333786 8 10 5
-33.7580405175686 -508.13764333725 1965.99996089935 8 10 5
-27.9542747884989 -499.869346618652 1934.00001525879 7 9 4
-22.4651582539082 -494.702130556107 1914.00003433228 7 9 4
-17.4274314194918 -499.356091022491 1932.000041008 8 10 5
-12.2225172817707 -501.166582107544 1939.00001049042 10 12 7
-7.01898476108909 -505.819797515869 1957.00001716614 10 12 7
-1.69414433185011 -503.493905067444 1947.99995422363 9 11 6
3.56517033651471 -498.841375112534 1929.99994754791 10 12 7
8.81795026361942 -499.35781955719 1932.000041008 4 6 1
14.1762280836701 -503.233909606934 1947.00002670288 8 10 5
19.9059173464775 -514.604985713959 1991.00005626678 10 12 7
25.2770464867353 -513.827741146088 1988.00003528595 8 10 5
30.2151534706354 -506.0715675354 1957.99994468689 10 12 7
34.8631329834461 -496.505826711655 1921.0000038147 11 13 8
39.7481545805931 -492.367446422577 1904.99997138977 11 14 7
44.899869710207 -492.105543613434 1904.00004386902 13 16 9
49.7041530907154 -488.483279943466 1889.99998569489 11 14 7
54.8384562134743 -488.479048013687 1889.99998569489 15 18 11
60.067817568779 -489.249795675278 1893.00000667572 16 19 12
65.5200108885765 -491.570770740509 1901.99995040894 13 18 12
70.8722770214081 -492.857545614243 1906.99994564056 12 17 11
76.0920122265816 -493.110090494156 1907.99999237061 12 17 11
81.9559246301651 -497.238844633102 1924.00002479553 14 19 12
90.0815650820732 -513.771951198578 1988.00003528595 15 20 13
97.8341922163963 -526.427805423737 2036.99994087219 13 18 11
103.417009115219 -526.678204536438 2038.00010681152 10 15 8
109.539590775967 -529.512405395508 2049.00002479553 0 3 0
-117.550909519196 -506.289780139923 1939.00001049042 16 18 13
-111.938841640949 -504.732072353363 1932.99996852875 11 13 10
-106.248736381531 -502.651870250702 1924.99995231628 8 10 7
-101.231552660465 -503.704488277435 1929.00002002716 8 10 7
-97.2374230623245 -510.240435600281 1953.9999961853 8 10 7
-92.4956575036049 -513.381600379944 1965.99996089935 7 9 6
-87.4224901199341 -514.955520629883 1972.00000286102 7 9 6
-81.9836109876633 -514.440059661865 1970.00002861023 7 9 6
-76.7887756228447 -515.4909491539 1973.99997711182 6 8 5
-70.2332258224487 -506.879210472107 1940.99998474121 6 8 5
-64.8607909679413 -506.101131439209 1937.99996376038 6 8 5
-59.689000248909 -506.889581680298 1940.99998474121 6 8 5
-55.0334416329861 -512.639582157135 1963.00005912781 7 9 6
-49.7265197336674 -512.90488243103 1963.99998664856 7 9 6
-44.5270575582981 -514.475643634796 1970.00002861023 7 9 6
-39.2948910593987 -516.045987606049 1975.99995136261 7 9 6
-33.8583216071129 -515.004336833954 1972.00000286102 7 9 6
-28.168797492981 -509.000182151794 1949.00000095367 7 9 6
-22.5924327969551 -502.734422683716 1924.99995231628 6 8 5
-17.3899363726377 -503.519475460052 1927.99997329712 8 10 7
-12.4043095856905 -513.967216014862 1968.00005435944 10 12 9
-7.0722084492445 -515.012621879578 1972.00000286102 9 11 8
-1.69922423083335 -510.312080383301 1953.9999961853 7 9 6
3.6147516220808 -511.095404624939 1957.00001716614 8 10 7
8.87199863791466 -507.699847221375 1944.00000572205 6 8 3
14.1750769689679 -508.482456207275 1947.00002670288 8 10 5
19.6843631565571 -514.226615428925 1968.99998188019 10 12 7
24.9698609113693 -512.918889522552 1963.99998664856 11 13 8
29.9503821879625 -506.910026073456 1940.99998474121 11 13 8
34.76956859231 -500.378429889679 1916.00000858307 10 12 7
39.7866554558277 -498.024970293045 1906.99994564056 10 13 6
44.7075925767422 -495.148897171021 1896.00002765656 12 15 8
50.0682815909386 -497.234255075455 1904.00004386902 11 14 7
54.9790933728218 -494.879692792892 1894.99998092651 15 18 11
59.9677860736847 -493.56934428215 1889.99998569489 16 19 12
65.4802918434143 -496.43686413765 1901.00002288818 12 17 11
71.2381973862648 -500.609695911407 1917.00005531311 11 16 10
76.6840651631355 -502.170622348785 1922.99997806549 11 16 10
82.5882628560066 -506.342470645905 1939.00001049042 15 20 13
89.394748210907 -515.214145183563 1973.00004959106 15 20 13
96.7698618769646 -526.174247264862 2015.00010490417 12 17 11
104.017667472363 -535.305619239807 2049.99995231628 9 14 8
-125.908985733986 -524.432897567749 1988.00003528595 19 20 15
-117.784142494202 -512.571394443512 1942.999958992 5 6 1
-113.898806273937 -518.911838531494 1967.00000762939 0 0 0
-107.233762741089 -512.589156627655 1942.999958992 7 9 6
-102.063126862049 -513.124942779541 1945.00005245209 7 9 6
-97.7272987365723 -518.145501613617 1963.99998664856 6 8 5
-92.8176194429398 -520.527482032776 1973.00004959106 6 8 5
-86.440309882164 -514.46658372879 1950.00004768372 6 8 5
-81.7273780703545 -518.166840076447 1963.99998664856 6 8 5
-76.3547644019127 -517.909348011017 1963.00005912781 6 8 5
-70.8788484334946 -516.859889030457 1958.99999141693 6 8 5
-65.5248761177063 -516.601502895355 1957.99994468689 6 8 5
-60.4221820831299 -518.453478813171 1965.0000333786 6 8 5
-55.0850704312325 -518.458127975464 1965.0000333786 7 9 6
-49.6212430298328 -517.143130302429 1960.00003814697 6 8 5
-44.5686653256416 -520.313143730164 1972.00000286102 6 8 5
-39.1724035143852 -519.788801670074 1970.00002861023 6 8 5
-33.9242517948151 -521.374821662903 1975.99995136261 6 8 5
-28.3688418567181 -517.947256565094 1963.00005912781 5 7 4
-22.8253081440926 -513.199985027313 1945.00005245209 5 7 4
-17.4787156283855 -511.354565620422 1937.99996376038 6 8 5
-12.3970005661249 -519.007682800293 1967.00000762939 8 10 7
-7.03936070203781 -517.953097820282 1963.00005912781 8 10 7
-1.71212933491915 -519.53649520874 1968.99998188019 8 10 7
3.62738687545061 -518.217146396637 1963.99998664856 9 11 8
8.92147608101368 -515.841901302338 1955.00004291534 10 12 9
14.1666466370225 -513.46629858017 1945.99997997284 8 10 5
19.5128284394741 -515.048027038574 1952.00002193451 9 11 6
24.6881581842899 -512.407720088959 1942.00003147125 11 13 8
29.6702329069376 -507.392227649689 1922.99997806549 11 13 8
34.821193665266 -506.334245204926 1919.0000295639 10 12 7
39.595689624548 -500.790297985077 1898.00000190735 13 16 9
44.4210432469845 -497.092992067337 1883.99994373322 13 16 9
49.7487112879753 -499.199956655502 1891.99995994568 11 14 7
55.2357621490955 -502.361953258514 1904.00004386902 14 17 10
60.248501598835 -501.038074493408 1899.00004863739 14 17 10
65.7161325216293 -503.407597541809 1907.99999237061 11 16 10
71.3439509272575 -506.568133831024 1919.99995708466 11 16 10
77.2760435938835 -511.311292648315 1937.99996376038 12 17 10
83.3908841013908 -516.581535339355 1957.99994468689 14 19 12
90.1578068733215 -525.017142295837 1990.00000953674 13 18 11
97.1943438053131 -533.979773521423 2023.9999294281 10 15 9
-132.550254464149 -534.844100475311 2006.99996948242 12 13 7
-125.39254128933 -527.658820152283 1980.00001907349 10 11 5
-119.835838675499 -526.868879795074 1976.99999809265 7 8 3
-112.44235932827 -517.550468444824 1942.00003147125 4 4 2
-106.618277728558 -514.89394903183 1932.000041008 6 8 5
-102.527312934399 -520.765423774719 1953.9999961853 6 8 5
-97.9185849428177 -524.504542350769 1968.00005435944 7 9 6
-92.8102359175682 -525.844693183899 1973.00004959106 7 9 6
-86.9209989905357 -522.653520107269 1960.99996566772 7 9 6
-81.3463851809502 -521.06112241745 1955.00004291534 7 9 6
-76.5820294618607 -524.798810482025 1968.99998188019 8 10 7
-71.3073164224625 -525.337696075439 1970.99995613098 7 9 6
-66.0884901881218 -526.409447193146 1975.00002384186 7 9 6
-60.7247985899448 -526.414513587952 1975.00002384186 8 10 7
-55.1367029547691 -524.28674697876 1967.00000762939 10 12 9
-49.4906716048718 -521.092474460602 1955.00004291534 9 11 8
-44.5876717567444 -525.894045829773 1973.00004959106 9 11 8
-39.3084213137627 -526.963591575623 1976.99999809265 9 11 8
-33.7155163288116 -523.501455783844 1963.99998664856 8 10 7
-28.2942969352007 -521.904647350311 1957.99994468689 6 8 5
-23.1168232858181 -525.105357170105 1970.00002861023 6 8 5
-17.6666844636202 -522.174894809723 1958.99999141693 5 7 4
-12.2888628393412 -519.777119159698 1950.00004768372 8 10 7
-7.0029329508543 -520.577549934387 1952.99994945526 8 10 7
-1.70677411369979 -523.243486881256 1963.00005912781 10 12 9
3.62894055433571 -523.776531219482 1965.0000333786 11 13 10
8.96182097494602 -523.509442806244 1963.99998664856 13 15 12
14.3838785588741 -526.707112789154 1975.99995136261 8 10 5
19.6311958134174 -523.507118225098 1963.99998664856 8 10 5
24.6353130787611 -516.57497882843 1937.99996376038 11 13 8
29.7604035586119 -514.173865318298 1929.00002002716 10 12 7
34.9998250603676 -514.171242713928 1929.00002002716 11 13 8
40.0931425392628 -512.302398681641 1922.00005054474 11 14 7
44.7946861386299 -506.434977054596 1899.99997615814 13 16 9
49.7710071504116 -504.565417766571 1893.00000667572 11 14 7
55.434376001358 -509.358882904053 1911.00001335144 13 16 9
60.4022815823555 -507.488489151001 1904.00004386902 14 17 10
65.9519508481026 -510.415315628052 1914.99996185303 11 16 10
70.9295496344566 -508.810639381409 1909.00003910065 12 17 11
77.3496180772781 -517.06725358963 1940.00005722046 13 18 11
85.896834731102 -537.583291530609 2016.99995994568 13 18 11
91.8268114328384 -540.241599082947 2026.99995040894 11 16 9
98.8192334771156 -548.496186733246 2058.00008773804 10 15 9
-136.955827474594 -536.204278469086 1991.99998378754 10 11 5
-130.624860525131 -532.446146011353 1978.00004482269 9 10 4
-125.382781028748 -532.994389533997 1980.00001907349 12 13 7
-119.765877723694 -531.927108764648 1975.99995136261 11 12 7
-113.128311932087 -526.013910770416 1953.9999961853 5 5 3
-107.713535428047 -525.484085083008 1952.00002193451 7 9 6
-102.676644921303 -526.838481426239 1957.00001716614 7 9 4
-97.6621061563492 -528.461635112762 1963.00005912781 7 9 4
