ply
format ascii 1.0
comment KinectMotionCapture
element vertex 753
property float x
property float y
property float z
property uchar red
property uchar green
property uchar blue
end_header
-311.062603965003 674.858634130555 3584.7463204212 182 180 183
-302.817715292162 674.469724406684 3581.57279732322 153 153 155
-296.357543456413 673.616461488129 3575.97906334999 147 147 149
-286.289001951276 673.685463666194 3575.19204564044 160 160 162
-275.59191623497 673.904123801931 3575.18253715511 192 192 194
-259.417046631679 675.497906075488 3582.32662003999 142 142 144
-242.568420828718 677.235287482988 3590.20906455486 150 150 152
-202.488863877755 684.766064616566 3628.2065839629 189 189 191
-190.31385588681 685.25394132201 3629.56088433296 163 163 165
-186.077928115058 683.758247682693 3620.60578660535 153 153 155
-181.242262703792 682.415881823984 3612.45314201252 161 161 163
-176.418404466296 681.074716795093 3604.31072334019 166 164 167
-173.465495747099 679.280474536775 3593.82307720131 171 169 172
-170.536907235292 677.489006231368 3583.35617677222 171 169 172
-171.99953641908 674.644508785212 3567.43866908508 173 171 174
-167.881867367359 673.16135765773 3558.58598916509 179 177 180
-160.012495057078 672.581356080615 3554.41560149136 180 178 181
-150.874398469637 672.299634629949 3551.79046927723 181 179 182
-146.144061666877 670.967261502097 3543.72905202224 188 186 189
-139.523284572225 670.084165225101 3537.99630901913 180 178 181
-129.721158431956 669.946326999398 3536.11828254137 172 170 173
-121.812943639218 669.358571480972 3531.91459445049 182 180 183
-115.817310346616 668.323241095263 3525.40109614703 180 180 182
-108.540598829854 667.584609194258 3520.42247145518 180 180 182
-102.548587889951 666.548658742084 3513.91211679305 188 188 190
-92.6815011185624 666.399437178467 3511.97786036562 199 199 201
-80.8482522088374 666.689422408849 3512.30639708536 192 192 194
-63.1267074498894 668.299604827772 3519.43307561699 175 175 177
-52.5140636777048 668.283264867704 3518.17501793424 173 173 175
-43.8407328705939 667.822912317754 3514.63061158962 183 183 185
-35.811677041321 667.214002231333 3510.32232331092 187 187 189
-27.115586693534 666.749536611643 3506.7582171071 183 183 185
-18.4071295036059 666.282806668916 3503.18340678955 185 185 187
-8.36059790041555 666.104995168212 3501.093488827 186 186 188
5.69631484745114 666.795758417529 3503.46219724714 189 189 191
19.7985711891904 667.479898397789 3505.79196317641 179 179 181
33.9458252968066 668.157297516234 3508.08245609268 165 165 167
44.1115382662907 667.961212146185 3505.88967328401 168 168 170
62.3758741642853 669.492217615735 3512.54640829363 180 180 182
90.1633453914768 673.028033032515 3529.46302265068 184 184 186
140.429174331711 681.286328764126 3570.53731403312 175 175 177
167.180370609898 684.490725477639 3585.7077309942 159 159 161
184.510685166574 685.675231846563 3590.52942393911 162 162 164
195.75133210039 685.565604313714 3588.72765784866 138 138 140
202.903208169897 684.596880941756 3582.53514713963 149 149 151
210.054788358283 683.627598554838 3576.34289650383 187 188 192
219.274948070323 683.083692568493 3572.32507532012 204 205 207
227.815290228095 682.395843705929 3567.57383281493 196 198 197
-327.53719846772 672.344604766106 3621.53874701182 183 189 185
-324.584148303082 670.573587040028 3611.0505122687 208 210 209
-319.88235141632 669.262656213984 3603.01400815095 176 172 171
-316.378055946158 667.648442609655 3593.37023406473 179 175 176
-308.729065609282 667.099789272453 3589.39097174435 165 163 166
-302.265117228015 666.246167476235 3583.79396682891 201 201 203
-293.404464616474 665.997527963792 3581.40909090952 176 176 178
-285.127770786486 665.595112520902 3578.20808865602 147 147 149
-272.013127307555 666.397022533439 3581.39277548723 178 178 180
-257.642328682779 667.493605450136 3586.13363527085 188 188 190
-235.930696750509 670.385877706658 3600.38068736857 149 149 151
-203.148794324935 675.964057737364 3628.83560662622 199 199 201
-190.36383706161 676.577080199259 3630.98400747486 164 164 166
-186.73815066454 674.942147004827 3621.2351537724 158 158 160
-181.901511811551 673.607764627516 3613.08161372948 172 172 174
-177.076677669014 672.274462975941 3604.93829825029 166 164 167
-174.741852225972 670.347606657199 3593.66365006107 172 170 173
-173.056849939955 668.275694747558 3581.62990605141 172 170 173
-173.275410181932 665.763167834464 3567.27848966173 173 171 174
-167.281441391984 664.734461683925 3560.76670663018 177 175 178
-159.407836643044 664.148342900728 3556.59300570222 174 172 175
-149.636284825613 664.002293360204 3554.74121678572 187 185 188
-142.371150058277 663.265070802109 3549.77261694614 191 189 192
-135.101712058942 662.526617719659 3544.7999798017 176 174 177
-127.82785075963 661.787059912257 3539.82351598281 179 177 180
-123.739721193576 660.315522398841 3530.99636374033 187 185 188
-118.387641810534 659.13734632796 3523.71832151406 182 182 184
-110.47479061704 658.542319053379 3519.51066200915 185 185 187
-99.9766822964765 658.527001131367 3518.35186969642 201 201 203
-87.5148899764526 658.943101415506 3519.45838440597 200 200 202
-75.0160638274289 659.353563296331 3520.53252158891 173 173 175
-63.130262776423 659.614036132838 3520.81601623272 164 164 166
-54.4736725727759 659.148302578363 3517.2861544399 181 181 183
-45.804643465325 658.680265053112 3513.74552633182 186 186 188
-34.4970414899715 658.784876541388 3513.20760049811 189 189 191
-25.1364150706759 658.454801607272 3510.38990701175 192 192 194
-15.7593087706847 658.121908441001 3507.55794808265 191 191 193
-7.0284080607097 657.643382671359 3503.9637615968 187 187 189
8.36248976019016 658.588633809762 3507.8214453738 189 189 191
23.8067933155173 659.526063912403 3511.63289116162 180 180 182
36.6290077713449 659.887666928769 3512.4273681945 169 169 171
48.1462032248912 659.960129602358 3511.7079884846 174 174 176
65.7490242037442 661.301601562241 3517.61604956229 183 183 185
105.693988071998 667.293447777028 3547.80000168542 196 196 198
151.934032457472 674.5259237456 3584.42972081311 195 195 197
178.037801924086 677.506161889873 3598.83947754428 138 138 140
190.632051813552 677.662640931367 3598.50929248444 150 150 152
198.476074713962 676.833423072618 3593.03923011103 141 141 143
200.841436945616 674.884608239239 3581.73825688121 168 168 170
208.676848314543 674.055524297239 3576.27597307673 194 195 199
219.273579365443 673.782297128339 3573.70979577207 204 205 207
-332.874889158748 662.57774330468 3615.64168689787 200 206 202
-327.582503144426 661.424823504336 3608.41521939866 186 190 189
-321.116319915993 660.572038575137 3602.81627203793 181 177 178
-316.427381774123 659.27027308728 3594.79053815212 173 169 170
-310.560571373094 658.268033791921 3588.38879636102 177 175 178
-305.890728618067 656.967941616091 3580.37960229025 154 154 156
-297.639617032024 656.560886739472 3577.20080315077 205 205 207
-288.774699911607 656.300084944949 3574.81230984015 140 140 142
-275.069217929251 657.221390212205 3578.80769840371 147 147 149
-258.289072671367 658.874900944282 3586.75004095258 200 200 202
-240.224392237057 660.813783014203 3596.22401873561 195 195 197
-202.590611641392 667.455147433045 3631.05346932566 200 200 202
-192.858817691637 667.305191984824 3629.23648080538 157 157 159
-187.398341468234 666.124634726673 3621.86450257144 163 163 165
-182.560758145806 664.798149903244 3613.71009274656 169 169 171
-178.352180014577 663.326500779725 3604.77854412641 174 172 175
-175.398331106799 661.56462789923 3594.28955782507 172 170 173
-171.847124917367 659.951155579419 3584.60543524157 173 171 174
-168.939555111575 658.194377338261 3574.15652768802 176 174 177
-163.554190483243 657.020851334282 3566.84960581068 176 174 177
-159.431662996111 655.558155789486 3557.9925823574 173 171 174
-150.917840220934 655.109013948795 3554.58635471183 190 188 191
-143.022956394799 654.513382115056 3550.3942720876 188 186 189
-134.485805144838 654.060110471579 3546.96785157562 177 175 178
-129.115025098989 652.885883660722 3539.6735752214 184 182 185
-126.303508598457 651.138328120691 3529.30786075678 185 183 186
-120.956814279064 649.966326906094 3522.03444594551 187 187 189
-111.766170533566 649.652338968753 3519.3642938212 193 193 195
-98.0509529458185 650.334113372933 3522.02921996665 205 205 207
-82.3521019318041 651.436414958285 3526.94223282321 200 200 202
-70.4841108549687 651.677847041457 3527.24128739636 159 159 161
-63.1344387575643 650.921552086598 3522.19922409091 175 175 177
-57.0848857489636 649.881168293316 3515.63933989052 187 187 189
-47.7679802219262 649.546980327155 3512.85956752557 191 191 193
-35.8091916544501 649.774036419161 3513.07970229384 194 194 196
-26.450854417404 649.433362743138 3510.26437711699 192 192 194
-17.7366042067866 648.949354005256 3506.6846577472 191 191 193
-8.34753879262351 648.603322198954 3503.84241856269 188 188 190
7.70363713286537 649.653414705404 3508.45039707044 188 188 190
25.1456525513474 650.974472557484 3514.49796639131 178 178 180
36.6352274362876 651.032030335386 3513.80262300513 170 170 172
49.495031967802 651.363329018082 3514.56471574109 178 178 180
69.1194702673004 653.076773139398 3522.68794064821 185 185 187
113.11655158063 659.765239571652 3557.29545907195 200 200 202
158.69345128268 666.698951788296 3593.17894017052 200 200 202
183.456550067974 669.324222862047 3606.10585179661 140 140 142
190.620098392532 668.355155236383 3599.90322655534 163 163 165
196.417371588538 667.110908106142 3592.24006250402 208 208 210
200.835838857278 665.592967157614 3583.12689539618 195 195 197
210.734932494053 665.171392113173 3579.84308594046 203 204 208
221.339328669469 664.883538509395 3577.27035977652 192 193 195
-328.302902151087 657.842866014967 3638.17677406195 24 30 18
-332.346278425672 654.328469566627 3617.88349821832 206 212 208
-324.695608378951 653.769439314256 3613.90284727571 193 197 196
-318.216845757238 652.914720754467 3608.29300943263 160 158 161
-315.292055496963 651.178889186388 3597.82904055723 171 166 170
-311.202125290049 649.738759019692 3589.0001241142 182 180 183
-307.127873109224 648.300291090174 3580.18478560859 168 168 170
-297.681940698514 648.176983331693 3578.61507536884 159 159 161
-289.416122309301 647.759084714255 3575.42359958213 198 198 200
-275.712780290933 648.647680893085 3579.42105488511 186 186 188
-258.331028165353 650.399891030079 3588.16458443473 182 182 184
-233.592792737401 653.880197369677 3606.40117989058 181 181 183
-203.859674338088 658.500269496243 3630.8881785408 196 196 198
-193.519711088725 658.481067074753 3629.86648141739 163 163 165
-186.219514802653 657.737783036372 3624.86721626495 169 169 171
-181.374800642168 656.418362639214 3616.70658010875 175 175 177
-179.010217588965 654.526065512721 3605.40591598475 176 174 177
-176.673884565178 652.637003941748 3594.1297162102 171 169 172
-174.365812777995 650.751179435585 3582.87799048899 178 176 179
-168.346472429063 649.724715702083 3576.34420248438 179 177 180
-163.581510472163 648.413400663146 3568.25263790677 174 172 175
-157.573787103555 647.387461144225 3561.72859984681 178 176 179
-150.940261985915 646.503336762682 3555.9848143361 186 184 187
-141.148896127329 646.32655441756 3554.11636654011 183 181 184
-133.237400148387 645.722554813789 3549.90962427644 183 181 184
-129.130744734786 644.270710223105 3541.06628740535 187 185 188
-126.953193132187 642.398300978504 3529.92760128839 193 191 194
-119.686592818105 641.652983824639 3524.9574681471 193 193 195
-107.281519880229 642.028214794605 3526.11340841809 210 210 212
-90.9763185177548 643.237552152616 3531.8237584231 183 183 185
-78.4846237544792 643.600107311824 3532.90438707115 168 168 170
-70.4910024173517 642.981536674627 3528.62687374108 177 177 179
-64.4389426366891 641.943989257664 3522.06479845145 185 185 187
-55.7827537397708 641.461721278211 3518.53539162908 192 192 194
-47.1141206128038 640.977298326117 3514.9952129095 195 195 197
-35.15242004833 641.181984030071 3515.21296870598 197 197 199
-26.4486812605296 640.691785337578 3511.64240007523 198 198 200
-18.3927751310398 640.06165274617 3507.31097719858 197 197 199
-9.66652505277033 639.567232447026 3503.7206090665 188 188 190
6.38035995390362 640.579597864902 3508.33286665313 186 186 188
24.4839017951795 641.994309916536 3515.12972123564 181 181 183
37.3095140667972 642.306109138431 3515.92157598927 176 176 178
49.5014018279298 642.476052299026 3515.94004540097 181 181 183
71.1424783093517 644.545984314059 3526.28348110015 183 183 185
115.137069639053 651.084090271366 3560.89381650897 200 200 202
161.387911286651 657.997587927663 3597.51655976173 210 210 212
186.835416580191 660.686235837041 3611.17343736788 133 133 135
192.650211098528 659.445677587187 3603.49506305267 136 136 138
198.456374520497 658.205690584696 3595.82385040437 201 201 203
202.884289154484 656.697526343893 3586.70243157219 205 205 207
214.165261856769 656.532223580804 3584.86607446559 181 182 186
223.403462105674 655.961514376213 3580.83279058564 187 188 190
-323.612953167375 648.095277795807 3631.52815405695 196 202 198
-319.458501035419 646.658615256818 3622.64329167196 170 174 173
-315.319706701143 645.22358228773 3613.77198990338 168 166 169
-312.381071894086 643.502055519975 3603.29592876619 161 159 162
-309.466365790575 641.783272177513 3592.84058971899 172 172 174
-305.979120717523 640.210782073707 3583.21163896834 194 194 196
-298.322995364585 639.64311991863 3579.22600013785 186 186 188
-288.256047324473 639.64568338193 3578.44079406623 185 185 187
-272.741132083827 640.928751916475 3584.83563567967 185 185 187
-251.722977222102 643.484829761982 3598.3623514444 157 157 159
-228.785759129287 646.453781629546 3614.19316882201 166 166 168
-200.258931094204 650.684402870966 3637.0813890849 195 195 197
-191.737691017175 650.221955522739 3633.66881881722 169 169 171
-185.654613604156 649.191998547094 3627.07981024447 171 171 173
-183.264155584334 647.315679805548 3615.7566158165 174 174 176
-182.135718314574 645.161078437355 3602.88222615673 180 178 181
-179.805835398633 643.291839485498 3591.61148847143 173 171 174
-175.641209404897 641.846560590392 3582.71786386895 181 179 182
-169.623516108056 640.822901519557 3576.18516973646 182 180 183
-163.609339321146 639.799169300593 3569.65583947637 175 173 176
-158.226131662524 638.635994655831 3562.35072004515 184 182 185
-151.592247637468 637.751672224256 3556.60662473985 184 182 185
-143.695368358727 637.144572945791 3552.41288689445 180 178 181
-137.056636514409 636.258609529236 3546.66460044356 187 185 188
-132.323737381509 634.957151910142 3538.60076199167 189 187 190
-127.602883913634 633.656807466501 3530.54735673723 198 196 199
-117.778004991238 633.459671974016 3528.64999385312 201 201 203
-102.799963453082 634.359315461732 3532.86581054902 208 208 210
-89.6990729650375 634.839482371895 3534.741241623 174 174 176
-80.430871233454 634.491971210462 3532.00376892284 166 166 168
-71.7936988315229 634.00507787052 3528.49087435266 185 185 187
-60.5449691144804 634.061534374987 3528.00428726686 186 186 188
-51.2228097814065 633.705229564444 3525.22010455707 191 191 193
-43.8457765205222 632.938632418377 3520.1543931062 194 194 196
-36.4643767433983 632.170960391308 3515.08521951686 197 197 199
-27.1049438964055 631.808078859853 3512.26877313009 201 201 203
-20.3692165866509 630.902375609247 3506.43654513747 199 199 201
-8.33664225531061 631.074041256606 3506.59308606347 193 193 195
8.3781304695818 632.181988895752 3511.9491028547 184 184 186
25.1543965277476 633.281123905523 3517.25156275685 183 183 185
35.3096426536617 633.032281078809 3515.06819380736 184 184 186
48.8369603562777 633.448313140349 3516.57444068213 189 189 191
71.8187434831461 635.725244144857 3528.40101812615 191 191 193
113.109301524108 641.58135357937 3560.06641224774 192 192 194
157.991825848991 648.072544691105 3595.23102460757 209 209 211
182.068967196378 650.423960496925 3607.43099391841 160 160 162
189.233390358678 649.455014600226 3601.22760963502 145 145 147
194.349700418852 648.089697926839 3592.83218447202 127 127 129
202.876779670545 647.383842820131 3588.09255408517 131 131 133
213.472311333252 647.070585807148 3585.52799124059 162 163 167
222.021390053461 646.360690047679 3580.76931930715 171 172 174
-331.350690013804 640.215308681249 3636.96253023549 28 36 21
-327.775716371513 638.646612132469 3627.25720188534 183 192 187
-321.280756897623 637.789592545778 3621.633340559 179 185 183
-315.374940780268 636.79045441261 3615.19777101591 167 168 170
-309.472427765805 635.791341910097 3608.76506422474 180 180 182
-307.137963674678 633.945859676339 3597.49020192611 157 157 159
-302.44692302229 632.666777387062 3589.46249873117 182 182 184
-294.776551813376 632.091537477806 3585.46456160927 175 175 177
-282.295139187938 632.636625580806 3587.87649572269 135 135 137
-266.760375730289 633.875729610583 3594.2544190641 168 168 170
-248.141640464896 635.804733540377 3604.57150249247 157 157 159
-223.375929074785 639.116562849185 3622.78537527966 164 164 166
-200.311824474598 641.994107979969 3638.50680787838 195 195 197
-188.736106890704 642.217470137446 3639.05930348708 164 164 166
-186.315681094118 640.356608539007 3627.71003474714 165 165 167
-185.152774184121 638.222337625875 3614.80563726933 180 180 182
-184.026296365921 636.09243369804 3601.93278589663 181 179 182
-181.080046414012 634.380241694925 3591.45006395016 176 174 177
-179.399481765704 632.395822243804 3579.4195992473 178 176 179
-174.014311104477 631.238701229629 3572.11273918348 173 171 174
-168.011926809933 630.219132228816 3565.59360292265 178 176 179
-160.759386526394 629.473013682785 3560.63566130826 188 186 189
-152.873198220413 628.862144076839 3556.45121414504 182 180 183
-144.978420003271 628.249728394461 3552.25933181568 181 179 182
-136.441975503455 627.77151951032 3548.8336854634 191 189 192
-130.43372903533 626.748683511897 3542.3091739034 194 192 195
-123.154591355547 625.99651997499 3537.32853405418 205 203 206
-113.953312416551 625.648439619694 3534.64906943226 206 206 208
-98.9631278906233 626.510755634561 3538.85460324714 181 181 183
-87.7797142909831 626.55819222318 3538.42468643733 170 170 172
-79.1491263154902 626.064430358662 3534.91754333443 173 173 175
-71.8011093897522 625.300423390521 3529.8769645998 191 191 193
-61.2008659591479 625.203859063385 3528.63017459472 189 189 191
-51.2275480519251 624.970002629795 3526.60407674666 191 191 193
-43.848110976306 624.200349191263 3521.53661714085 193 193 195
-36.4646240621105 623.429559239424 3516.46533924618 202 202 204
-27.7612982348185 622.922917520641 3512.89523509437 202 202 204
-17.0660190641838 622.81088965214 3511.56617440152 199 199 201
-3.03656348514014 623.355275853583 3513.95962946373 188 188 190
13.0300327349069 624.288220406732 3518.55500176957 182 182 184
26.4901034898726 624.68698874387 3520.1196458604 183 183 185
37.9869827794672 624.686102044809 3519.41835020581 182 182 184
53.5334182037825 625.466410399253 3523.14229278454 185 185 187
77.8717048425284 627.937216146565 3536.43872081974 182 182 184
110.407813573385 631.957507860016 3558.50015358933 196 196 198
153.244502353169 637.907374171552 3591.47137482185 163 163 165
179.340004534661 640.58216837065 3605.89027639057 155 155 157
191.941940792882 640.650238352732 3605.55400217156 156 156 158
197.751798874246 639.420832726642 3597.87951866158 172 172 174
206.291402375834 638.707953344703 3593.12939408749 181 181 183
214.152243069044 637.864822747986 3587.64484528344 177 178 182
-328.496160451909 632.459602133904 3642.47886028921 195 203 188
-328.421746303844 630.065839182612 3627.87274287141 188 199 193
-322.514196155804 629.069342061153 3621.43565326778 166 175 174
-318.969102511626 627.517267789728 3611.75643078608 173 174 178
-311.892776262819 626.799132172234 3606.95103887946 164 165 169
-307.781067245803 625.38819795139 3598.10305676843 171 171 173
-301.30122485099 624.531237960916 3592.49229757172 164 164 166
-293.026692614819 624.087223246024 3589.2934384136 203 203 205
-279.938829725365 624.741437428204 3592.50229401699 128 128 130
-261.988141609552 626.487297081473 3602.07632382994 137 137 139
-244.563047586333 628.08527236613 3610.78328684465 183 183 185
-222.819751631029 630.63007273078 3625.00514622198 180 180 182
-202.79797457591 632.751295258394 3636.75175457518 201 201 203
-193.060818346153 632.544931270426 3634.93016838997 164 164 166
-190.650966903159 630.704447709509 3623.58993277219 167 167 169
-189.498240872544 628.595891599586 3610.69419279592 180 180 182
-186.53244083782 626.897864828438 3600.1944342989 181 179 182
-181.116548087494 625.742976555095 3592.86124734079 178 176 179
-177.570298358777 624.184136916334 3583.18075116598 176 174 177
-174.043986135957 622.627555342129 3573.5178364247 173 171 174
-168.039142412854 621.610148148771 3566.99623896733 181 179 182
-162.037813291063 620.592847208763 3560.47800256556 189 187 190
-154.782664374527 619.842963842397 3555.51782435131 184 182 185
-148.784670867793 618.82509404979 3549.00248273319 186 184 187
-140.891638622072 618.206805110507 3544.81215175886 193 191 194
-135.530093736336 617.055231319003 3537.52573305774 198 196 199
-123.16895279761 617.363078003516 3538.72018742336 208 206 209
-112.687806699463 617.268449500683 3537.57661081303 189 189 191
-97.0526029689811 618.226552937871 3542.54572346559 173 173 175
-89.7212646166414 617.462995513263 3537.51959773698 188 188 190
-80.4498044194926 617.092977475074 3534.77944665271 187 187 189
-72.4562385363568 616.457765950216 3530.50208921998 190 190 192
-59.9086887482465 616.737664080131 3531.53515744277 192 192 194
-52.5355137694925 615.966556096326 3526.47281933406 193 193 195
-45.8115471451892 615.063873943122 3520.65076517346 194 194 196
-39.7429811248986 614.030601255555 3514.07435563228 202 202 204
-27.1024781031346 614.296034932445 3515.02695167632 200 200 202
-13.1057011767424 614.815118476258 3517.44889446326 191 191 193
2.92147475444615 615.715493815675 3522.07864479971 177 177 179
18.3425041064975 616.478615563681 3525.91139269857 185 185 187
29.8219909609996 616.461476473822 3525.22527700854 184 184 186
39.9945419143952 616.182995085542 3523.02710140168 175 175 177
57.5568212955355 617.311462089276 3528.97168161677 180 180 182
77.2006198382988 618.814284319959 3537.07949114025 174 174 176
109.72954542686 622.73143128853 3559.14781817797 196 196 198
151.880016812867 628.410172218511 3591.39230471861 163 163 165
180.680749096784 631.51761540323 3608.75672603138 130 130 132
189.88667104494 630.929125225735 3604.75153413607 130 130 132
197.057841767383 629.958821478627 3598.54231029867 172 172 174
205.597460857181 629.240550241947 3593.79220715307 176 176 178
217.576850456648 629.150578966188 3592.67327973957 162 163 167
-330.311488212857 623.574016114184 3641.46301167252 204 210 200
-327.896627535508 621.757261567077 3630.11828060666 177 183 181
-323.747107420669 620.353182559804 3621.23748183609 174 180 180
-319.023653849913 619.086952448195 3613.1816019173 161 165 166
-312.536846064555 618.229593393595 3607.56480815219 169 170 172
-307.236708072464 617.100452440863 3600.33146764767 171 171 173
-300.1566906583 616.378069096532 3595.52321951358 159 157 160
-291.876299295478 615.924791430904 3592.31934206394 176 174 177
-279.983955795589 616.278382588347 3593.91950808235 180 180 182
-263.238660289621 617.703000576445 3601.89353939454 207 206 211
-247.026800905137 618.983627140678 3609.00759116327 151 150 155
-225.900395078309 621.327135235183 3622.44217489564 190 189 194
-204.066929770081 623.790781290214 3636.58609162279 197 196 201
-192.502003250264 623.97125098645 3637.14821817883 170 171 176
-191.31070137611 621.882532229156 3624.21891458583 183 184 189
-190.770006235193 619.665302160488 3610.53108711872 182 183 187
-187.804718063464 617.983513589063 3600.03166704782 178 178 180
-181.771846837715 616.966486232213 3593.48609019795 181 181 181
-178.224252607446 615.420969859116 3583.80434236022 173 173 173
-174.696575654663 613.877678883299 3574.14015863502 180 180 180
-168.691203350707 612.862835496713 3567.61808642409 183 181 184
-162.062810848517 611.979252616821 3561.87874602673 191 189 192
-153.548182225252 611.488231646585 3558.47209130146 186 184 187
-148.804869007463 610.210583625229 3550.39907230108 189 187 190
-140.909817949533 609.586363566229 3546.20702998345 195 193 196
-136.180202625174 608.309602082134 3538.14587769488 201 199 202
-125.094257644697 608.333095376703 3537.80059559391 210 208 211
-113.979231361326 608.35219315889 3537.43013616543 176 176 178
-98.3483761498722 609.272457492269 3542.40357854692 175 175 177
-90.3759769056855 608.635433135561 3538.14426323534 212 212 214
-81.1049500757806 608.25439451783 3535.40455917967 201 201 203
-73.111423131373 607.613588879854 3531.12727174652 194 194 196
-63.161971575473 607.355990040306 3529.12232908725 196 196 198
-55.7968436927321 606.583121177926 3524.06697709643 192 192 194
-49.0807283205186 605.681526307792 3518.25172085261 193 193 195
-39.7431811515343 605.289073962432 3515.45443518925 200 200 202
-27.1020509939928 605.529720136171 3516.40664829581 196 196 198
-11.1266639766918 606.399221906365 3521.08148600695 186 186 188
2.92177120934456 606.88065689129 3523.45889868702 179 179 181
19.0063175250019 607.734522031865 3528.03954094919 190 190 192
29.8231692267255 607.57172494753 3526.60512244671 182 182 184
42.6678489907046 607.782383682788 3527.38110611221 173 172 177
56.2191534024321 608.113081476558 3528.86711581219 184 184 186
75.185913856016 609.439472035646 3536.23993650578 189 189 191
108.377341305933 613.378967124914 3559.05716542263 214 213 218
156.598828782998 620.038843491015 3597.94330518952 152 151 156
185.410188514002 623.057234245882 3615.29940788671 145 145 147
195.312345311414 622.582486963698 3612.01328803698 146 145 150
203.184446066067 621.733498210041 3606.51901769394 153 152 157
211.744640333254 621.007066327676 3601.75113418372 155 154 159
223.057452769992 620.772079959932 3599.88763198631 168 169 171
-325.616365879101 613.838598972783 3634.81014438304 180 186 184
-322.042902718251 612.309900203919 3625.10586603483 173 179 179
-318.489083490404 610.783449906793 3615.41891473214 178 182 181
-313.772164185503 609.52561548919 3607.36864389213 164 166 165
-306.099500801726 608.933568248977 3603.36882897181 176 176 178
-299.013224228801 608.207347665691 3598.55518066524 148 146 149
-290.129469589558 607.877205969505 3596.15080952423 155 153 156
-281.22861659634 607.544402295119 3593.73163587493 168 168 170
-263.886880098503 609.054761337288 3602.51141560857 149 148 153
-248.885395351628 610.028583246761 3608.03000893974 180 179 184
-226.556112559796 612.569834935334 3623.06725633041 198 197 202
-205.335256854018 614.834367019209 3636.4201732114 202 201 207
-194.383718104629 614.862396786138 3636.19135642563 171 172 177
-191.970350530645 613.059317706151 3624.84783086876 181 182 187
-192.041304012409 610.738751953715 3610.36754999409 179 180 185
-187.228289761268 609.463125504577 3602.23410550289 178 178 180
-184.28151820211 607.799610599593 3591.75061603186 178 178 178
-178.878161717171 606.656419341019 3584.42790339578 172 172 172
-175.34914928406 605.126482788853 3574.76247562478 181 181 181
-167.470320740974 604.500652414828 3570.58418886592 185 183 184
-161.46173660432 603.487494698686 3564.05963743379 182 180 181
-154.200130551174 602.730932781319 3559.09390586433 186 184 187
-148.825304158291 601.589360178713 3551.79622630845 195 190 194
-142.826002888521 600.575993135364 3545.27940651433 209 204 208
-138.734072026443 599.180268621506 3536.44846828182 206 201 205
-128.291941518138 599.058226500451 3535.33888552654 179 177 180
-114.631469641999 599.566936556997 3538.05238320933 203 203 205
-99.0030815799119 600.449056279789 3543.02821113588 213 214 216
-92.3162341872859 599.553738533392 3537.23828182608 194 194 196
-84.9843611432974 598.784000711537 3532.21173271012 190 190 192
-75.7074123721266 598.390636488972 3529.46697576532 197 197 199
-63.1689127073982 598.622317377937 3530.50820050428 198 198 200
-55.1505893438127 597.971622579207 3526.20916969249 193 193 195
-47.1237624409158 597.319355646496 3521.90309425785 190 190 192
-37.1231694056595 597.039598532855 3519.85396902632 186 186 188
-22.5017376893972 597.627628236667 3523.05731515319 175 175 177
-7.17153799318782 598.332705729189 3526.96916450783 177 175 178
6.22820436301597 598.658452820295 3528.58657056984 194 193 198
19.6690687522287 598.978122969529 3530.16837406646 199 198 204
30.4893688423586 598.798444928179 3528.73139162367 191 190 196
40.6668583710323 598.491930474035 3526.52911723106 165 164 170
51.5341565734304 598.304852921083 3525.05113227121 205 204 210
69.1421166983872 599.339015585266 3530.95673043813 224 223 229
104.330666240786 603.541607099469 3556.01137510946 236 235 241
160.638623556947 611.500609781073 3603.7606549477 148 147 153
188.102818548961 614.186938394876 3619.63970826135 141 140 146
194.615849699292 613.093030396351 3612.67845773418 148 147 153
205.897612889229 612.84695450381 3610.84193889541 143 142 148
213.784040070482 611.992862421533 3605.33528439318 159 158 163
228.534305039125 612.343332447277 3607.10556014273 163 164 166
-329.857957817161 606.752648684229 3645.14902158569 205 211 201
-323.923123563636 605.760232430289 3638.68825742299 170 176 174
-321.514350207317 603.98157681379 3627.34855557506 176 180 181
-317.366150165289 602.598553659847 3618.46844900374 171 173 172
-313.233422795794 601.217247170775 3609.60205754268 176 176 176
-306.149875784804 600.488699303994 3604.79079012641 177 175 178
-299.656888155897 599.629190504747 3599.16865399916 183 181 184
-291.968538359846 599.028533102058 3595.15529889555 155 153 156
-283.072317734964 598.685094675437 3592.74020919985 211 211 213
-267.542403389622 599.759565908591 3599.12340226582 212 211 216
-249.536058353653 601.340758902676 3608.65025926956 212 211 216
-225.394974430171 604.196983304211 3626.0852105931 191 190 195
-201.134259291304 607.036835047705 3643.41626382456 198 197 203
-193.215903672893 606.40324836647 3639.20408330264 171 172 177
-192.018234687846 604.362509313755 3626.26895019609 181 182 187
-190.857024044231 602.326201071602 3613.36538813277 181 182 187
-187.268585205748 600.803233018547 3603.64840820413 179 179 181
-184.318228327506 599.155494368842 3593.16170897765 174 174 176
-180.771924394206 597.637182622222 3583.48121871287 171 171 173
-175.37967873736 596.500338455565 3576.16809510157 182 182 184
-168.122914956468 595.742422467568 3571.20656927793 182 182 184
-162.11382465334 594.731831576777 3564.68156250003 178 178 180
-155.480253042839 593.846802641395 3558.93774255382 193 193 195
-148.216076627551 593.086570886945 3553.96980693973 190 188 193
-142.211957357098 592.075182241429 3547.44911390401 205 203 208
-136.84612082199 590.939139867207 3540.15887483214 195 193 198
-129.578711570128 590.177117556617 3535.18846431808 198 196 201
-115.922167825077 590.656114103802 3537.90555919756 219 218 223
-102.220113037293 591.128502520713 3540.58325084129 199 198 203
-92.970609649357 590.72882567242 3537.86263821546 195 194 199
-86.9279608791334 589.709441297165 3531.30828657705 192 191 196
-78.3022460351197 589.182589846871 3527.80558161371 199 198 203
-66.420093277705 589.267698261379 3528.09337473054 196 195 200
-55.1558171494828 589.225374882942 3527.59395310745 191 190 195
-43.8626328139757 589.178649360085 3527.06950422803 186 185 190
-32.5405583136269 589.127584008783 3526.52004332648 196 195 200
-19.8755619787714 589.3156099967 3527.45191173942 176 175 180
-8.49167211392121 589.255231755014 3526.8489335873 169 168 173
2.92103296769142 589.190523778254 3526.22100830785 190 189 194
15.0256448703701 589.242327404169 3526.31588839029 202 201 206
27.1632882126842 589.289225743615 3526.38248623592 199 198 203
39.333623812098 589.331190138138 3526.42046498646 183 182 187
51.5369386676712 589.36825627382 3526.43020668394 200 199 204
67.8012821709055 590.11907545668 3530.85536448843 236 235 240
105.673537994789 594.685972254465 3558.87494275482 219 218 223
165.351114840681 603.042241566699 3610.31801331559 144 143 148
189.43826878129 605.050149319425 3622.51153029272 146 145 150
200.715371161557 604.788831269664 3620.67914991478 145 144 149
209.971863623567 604.168558151045 3616.63033269163 132 131 136
217.872878536664 603.309836582236 3611.11106447704 147 146 151
227.835257043061 602.803675684414 3607.77326738135 161 162 164
-322.816190309826 597.530292887531 3641.75226692603 167 171 170
-319.812743934593 595.897831966342 3631.21945412417 175 176 178
-316.833089590663 594.268126007675 3620.7072448788 159 159 161
-313.286173604543 592.769015182266 3611.02609970339 167 165 168
-306.793694948451 591.909664756415 3605.40440369491 167 165 168
-297.9199589456 591.558774287772 3603.00885051874 181 179 182
-289.626228706432 591.078248632535 3599.79358835316 180 178 181
-278.922523929014 591.102375433102 3599.77960347051 179 179 181
-264.581612001615 591.880795632728 3604.54842883134 209 208 213
-245.359907997852 593.660776071516 3615.66712412872 205 204 209
-216.97017750907 597.316987346797 3638.6778939538 193 192 197
-198.151262167045 598.94343656098 3648.82343467645 191 190 195
-193.877752465755 597.550506758574 3639.83509742742 177 178 182
-193.289482264633 595.408853853718 3626.10554520366 183 184 188
-191.514610491863 593.521752563343 3613.99239498925 177 178 183
-187.924862959365 592.012082655121 3604.27419459615 179 178 183
-185.59064536009 590.256133500405 3592.99896576429 169 168 173
-180.8055896236 588.999363581955 3584.88963173191 173 172 177
-174.166844696311 588.114805728532 3579.14132483346 184 183 188
-166.90379743366 587.353228884481 3574.17437661276 182 181 186
-162.765865377447 585.974814642687 3565.30345532081 180 179 184
-156.759941570638 584.966716261663 3558.78117690756 191 190 195
-150.757873643151 583.958635871565 3552.26192489411 199 198 203
-142.863029058919 583.317645547527 3548.07017020639 192 191 196
-135.593898690006 582.552913921667 3543.0979699819 201 202 206
-125.139116564138 582.395991049032 3541.97764764306 217 216 221
-112.744475630555 582.599795421239 3543.14374055577 200 199 204
-101.593300090673 582.555695797184 3542.74235878807 187 186 191
-94.9098706135012 581.660688631197 3536.95538989587 201 200 205
-89.5152001091342 580.523727508261 3529.64016533994 203 202 207
-82.8354695263691 579.628290242311 3523.85640519954 208 207 212
-67.0754584340783 580.413933776929 3528.71877588278 206 205 210
-53.8603447314183 580.711994972143 3530.49638564052 199 198 203
-41.9094045068995 580.764940960119 3530.72445108755 184 183 188
-33.199078320715 580.216484180237 3527.14855043571 210 209 214
-20.5355273950749 580.380031720856 3528.08183025771 213 212 217
-9.81148776031082 580.181847037266 3526.72840013512 201 200 205
-1.04549025043799 579.624515534145 3523.10430465438 213 213 215
9.72160264462829 579.419552427386 3521.71328713507 202 202 204
24.5036758795334 579.918239231725 3524.77829394059 217 217 219
39.3350580781395 580.409836377119 3527.80060883606 218 218 220
52.2081288881671 580.542180995991 3528.55217692602 229 229 231
70.4879160648844 581.605692488793 3535.19886464245 218 218 220
109.70805442517 586.279899533919 3564.69601103659 201 201 203
163.30702192634 593.373820224024 3609.5055164726 128 127 132
188.740259205857 595.546913218712 3623.17810148806 147 146 151
200.695929560014 595.385308478018 3622.08019658368 130 129 134
211.317270529321 594.987968899599 3619.49380874249 143 142 147
221.9587536297 594.587385520695 3616.88966849936 145 145 147
233.991893521176 594.413842939758 3615.72501083272 158 159 161
-324.162715539241 591.029272748982 3656.19503077457 174 180 168
-320.541123232255 589.534695179693 3646.4488160592 175 180 176
-318.699258536661 587.665572768312 3634.27779967981 156 158 157
-315.123295869371 586.176301805152 3624.57109942636 170 168 171
-311.566885291599 584.689296888113 3614.8816465005 170 165 169
-306.844560373291 583.454120038434 3606.82654359944 163 161 164
-297.969313012951 583.091797375799 3604.42975455632 163 161 164
-289.076944884257 582.726809716388 3602.0181435971 181 179 182
-275.375051631469 583.351053839163 3606.01856760519 174 174 176
-261.623151344332 583.968264008195 3609.97569429933 172 171 176
-240.583663135311 586.059626703396 3623.48693105089 170 169 174
-213.998083352453 589.245957453127 3644.09436985061 190 189 194
-196.385163038507 590.5703198764 3652.64031008597 183 182 187
-193.320871166835 588.941694174481 3642.0550509658 177 178 182
-193.337620417459 586.703995034117 3627.5269368451 183 184 188
-190.945260999015 584.960157927929 3616.2012359223 176 177 182
-189.196497280622 583.097854436442 3604.11086931955 176 175 180
-185.010181736542 581.725508159568 3595.19765748613 168 167 172
-181.459160298835 580.23356976294 3585.51290749075 174 173 178
-172.333582464085 579.832713880202 3582.89939772365 182 181 186
-165.062200526644 579.067050227402 3577.92525202335 182 181 186
-159.663361403547 577.93907180838 3570.60667168042 184 183 188
-154.900251971638 576.691515536876 3562.5162995944 193 192 197
-150.149063971361 575.445145539383 3554.43625255461 199 200 204
-142.882206410281 574.678294606034 3549.46603598753 193 194 198
-134.976824717753 574.029776844184 3545.26519718729 209 210 214
-124.518811199071 573.855890211605 3544.14218400973 196 197 201
-112.121694935027 574.034516212351 3545.30597910818 172 171 176
-102.887762946283 573.615227650675 3542.59898985814 193 192 197
-94.9217497000734 572.956755707005 3538.34534850144 212 211 216
-89.5241246721734 571.824898475427 3531.02784559327 218 217 222
-81.5494599975186 571.164333195153 3526.76671929744 215 214 219
-69.0276727764236 571.324005921243 3527.8228959267 212 211 216
-54.5174261407939 571.829656369489 3531.12345949193 207 206 211
-42.567743948088 571.860703724236 3531.35275722404 192 191 196
-33.8576664924131 571.304076035745 3527.77712510356 203 202 207
-23.1653763987021 571.094207446069 3526.45128916143 219 218 223
-13.7657248219449 570.6484468344 3523.60052081444 217 216 221
-5.67092038770678 569.968550380847 3519.23570584994 215 215 217
7.73417766812612 570.210783579409 3520.84901110668 209 209 211
23.1748730183416 570.792616427528 3524.66588853463 217 217 219
38.0019930234043 571.251798034649 3527.69179216709 208 208 210
53.5474469741288 571.818534761896 3531.41796937372 210 210 212
75.8562063347505 573.521156476902 3542.50834137391 187 187 189
115.758802397981 578.176659320114 3572.73767473489 200 200 202
161.938808352057 583.828702361129 3609.4299880867 205 205 207
185.333476010149 585.588187425691 3620.90205672913 129 129 131
200.676083116822 585.974945550974 3623.48195398047 149 149 151
211.298705278034 585.563787131646 3620.89422971779 162 162 164
226.041818084826 585.825540807706 3622.67127938726 159 159 161
236.031993391335 585.293845652597 3619.30923975554 162 164 163
-320.153759288219 583.363751510477 3663.35671506259 176 182 170
-318.852340615992 581.387551101711 3650.3312401609 185 190 184
-316.413946259587 579.6615586988 3638.96552346854 169 169 169
-313.41478919017 578.061527121964 3628.43653373209 164 159 163
-309.84904017361 576.586626945842 3618.7385928938 171 166 170
-304.525036484021 575.480292505168 3611.48441934466 160 158 161
-296.234760894897 574.983613680224 3608.27225612139 169 167 170
-284.350752420705 575.214055775597 3609.88075992801 150 148 151
-268.237252383731 576.288026519298 3617.08140241358 157 157 159
-254.460805279012 576.868813878359 3621.01748951931 164 164 166
-234.002125956406 578.770523828327 3633.71010229207 119 119 121
-209.213305765239 581.502327604858 3651.90770443065 198 198 200
-194.620438423607 582.174294434167 3656.45884079802 178 177 182
-191.546595796919 580.560499644115 3645.86489207767 174 175 179
-192.163713318203 578.231689554336 3630.53446824625 179 180 184
-190.376626251972 576.386412826299 3618.41077508656 172 173 177
-189.852450303093 574.306810056411 3604.73637356864 170 169 175
-185.04758397776 573.063900799415 3596.60977916939 168 167 173
-180.2545313841 571.822103426142 3588.49341695098 175 174 180
-171.123279952613 571.409314700535 3585.87506699878 175 174 179
-165.092527735904 570.403921143373 3579.3312513829 181 180 185
-159.065550762223 569.39856466081 3572.79039215277 191 190 195
-154.29725473312 568.158446675486 3564.6957919691 205 206 210
-148.911430080497 567.036600371694 3557.38813648643 184 185 189
-142.269957091197 566.14912996374 3551.63748395201 153 157 160
-134.360543941633 565.49449986551 3547.43319055113 161 165 166
-123.899456137308 565.303558604793 3546.30730778128 193 194 198
-112.775395097221 565.224903153853 3545.92965104779 225 224 229
-105.461786961889 564.447257040854 3540.91929954345 233 232 237
-97.5020124161805 563.783995972267 3536.67109652638 218 217 222
-89.5336318963169 563.119208860817 3532.41575980381 218 217 222
-79.6184774281965 562.797719081478 3530.44095767819 221 220 225
-66.4418211055313 563.04646297392 3532.25221940684 226 225 230
-57.1252492714178 562.602668366299 3529.47344651931 224 223 228
-45.1830033510991 562.612798836242 3529.70932507793 217 216 221
-34.5163272006572 562.39030027791 3528.40577150362 183 182 187
-21.8556946648314 562.504804807753 3529.34189859891 211 210 215
-12.4503261715883 562.04731512088 3526.4862511996 220 221 225
-0.386474883293353 562.039212340829 3526.61684816666 224 224 226
13.6981610882576 562.364551781418 3528.96421134056 232 232 234
25.8339750543524 562.345859386225 3529.03250428907 231 231 233
36.669378949838 562.097913186678 3527.58287321464 223 223 225
52.2105273209821 562.629567537584 3531.31300955652 196 196 198
75.1837374860918 564.381642886639 3543.15041857237 183 183 185
111.039767808003 568.235905291229 3568.95205171318 185 185 187
157.871078400748 573.843204790154 3606.40340673516 235 235 237
183.281951795483 575.871360775804 3620.09631452885 119 119 121
200.65551173669 576.557711259569 3624.88406871994 140 140 142
212.641797887991 576.353267033201 3623.75990560464 138 138 140
230.80485648826 577.13424289827 3629.18602062699 143 143 145
238.755463167492 576.260398781164 3623.62386744064 164 166 165
-319.6410459271 574.929287004147 3665.61382076037 178 184 172
-318.917654327156 572.856122329863 3651.76671015793 178 183 177
-315.303010090655 571.388890269447 3642.02634038542 173 173 173
-314.649818661775 569.324281265709 3628.24001935359 168 163 167
-310.494343478063 567.982550248375 3619.35365509425 170 165 171
-303.392245583652 567.239384902609 3614.52608816929 160 158 161
-294.501560876102 566.852518208419 3612.11639358123 168 166 169
-281.417825295703 567.294782141252 3615.33019991462 163 161 164
-265.893738989652 568.204820043821 3621.71919437096 150 150 152
-249.706507579349 569.224485618822 3628.85628312387 131 131 133
-228.028194171161 571.29703155016 3643.13752543105 124 124 126
-204.432217343913 573.70862845642 3659.72424548085 189 189 191
-195.28475920305 573.285415053871 3657.09223165609 177 177 179
-193.427264875609 571.453241306592 3644.90711357187 180 181 183
-195.267600524053 568.923438380621 3627.99167755371 176 177 179
-192.873863361851 567.217323678288 3616.66453804876 172 173 175
-191.738508667209 565.281812524876 3603.78273309816 166 165 170
-184.46839575151 564.511678594845 3598.80971627212 169 168 173
-179.670326106677 563.277290200889 3590.68895758476 179 178 183
-172.39906258343 562.506215050279 3585.71526509778 176 175 180
-168.239716105869 561.157734518095 3576.82558918593 188 187 192
-160.969732439621 560.386001067647 3571.85269474997 185 185 187
-154.949905911616 559.383785645387 3565.31832822682 191 191 193
-147.045573389059 558.724996729256 3561.11814982439 154 155 157
-141.658505617531 557.607915875637 3553.80970151849 188 189 191
-133.111690005041 557.060946101203 3550.37519620951 145 147 146
-123.91633614431 556.625473551025 3547.70174888234 169 170 172
-114.066732960568 556.300722401819 3545.78346803201 178 178 180
-106.115368518034 555.633495863652 3541.54289556285 235 233 236
-95.5883704108191 555.415914366643 3540.36037410659 236 234 237
-86.9680381035423 554.856970168612 3536.86254234312 243 241 244
-74.4598185417771 554.969371157378 3537.9304693596 240 240 242
-65.8020839929954 554.404521593473 3534.40025799593 224 224 226
-57.1318532116742 553.837569939845 3530.85922931993 203 203 205
-45.8408567976378 553.714155393952 3530.33717373747 176 177 179
-31.250191322727 554.142142747963 3533.56853866285 154 155 157
-17.2663856586386 554.452173826872 3536.00307877426 155 156 158
-8.50323195571612 553.870941460905 3532.38160300141 154 155 157
2.91349651186845 553.728857690379 3531.75069190579 158 160 159
15.0214948060978 553.692434334904 3531.84352410683 164 166 163
27.1622230853272 553.65116178289 3531.90770396348 193 195 192
36.003486522481 553.057613675826 3528.21860748266 212 214 213
52.2108715257104 553.663154263422 3532.69407467537 221 223 222
69.1464534262947 554.369442127825 3537.86131098248 231 233 230
100.269247255216 557.34863487314 3558.50762366879 238 240 239
160.55244595225 564.967291474092 3610.75382062319 236 238 237
187.322171406076 567.136934893847 3625.91488290884 118 120 117
205.386115241898 567.888417884459 3631.42677986189 122 124 123
219.430633956123 567.985393995833 3632.48713303269 161 163 162
238.296386189621 568.827171915719 3638.62706509836 168 170 169
246.956791853228 568.054314765013 3633.77231009286 169 171 170
-319.711081956553 566.364786025659 3667.05328255628 172 183 169
-319.567379519655 564.200360506843 3652.38593988858 176 183 175
-314.193139498947 563.098698922337 3645.08819442531 169 171 168
-313.531534656437 561.060085307253 3631.29441273471 173 168 174
-307.598206833764 560.07886103914 3624.83488172543 180 175 181
-301.075979891909 559.214336586343 3619.18743533622 164 162 167
-291.58145174365 558.93129553923 3617.57664049966 162 160 163
-277.890924847989 559.457868943067 3621.58754904673 153 151 154
-261.756702816743 560.440776807392 3628.77082112475 154 154 156
-245.556037453406 561.414527046176 3635.89656372021 124 124 126
-220.250992644487 564.108460224711 3654.97024170162 170 170 172
-200.259125570811 565.749860450437 3666.7458833713 181 181 183
-194.735783370927 564.624765424527 3659.3190575392 162 162 162
-193.480924917992 562.698971459399 3646.33361141815 181 183 182
-196.537521510391 559.978257818455 3627.82706784011 179 181 180
-195.369810685044 558.063271920368 3614.91708566383 161 163 162
-192.393904691245 556.493717384695 3604.40773546553 163 163 163
-185.123705592242 555.720607482729 3599.4346632257 165 165 167
-180.943683254935 554.380990361665 3590.5270093679 159 159 159
-176.158610052377 553.155927818951 3582.41745473246 185 185 185
-173.877724544373 551.48180909059 3571.1879204779 185 185 185
-166.62407541344 550.709281128112 3566.22918891929 146 145 143
-157.484151649793 550.27184136083 3563.60379759729 170 169 165
-149.586075592831 549.608175882977 3559.40907349873 154 153 149
-142.310521770622 548.831582342157 3554.43169821473 171 170 166
-134.397328014211 548.165102420642 3550.22388930031 222 221 217
-125.840067541676 547.608004836848 3546.780712197 223 222 218
-117.90757873788 546.938140155622 3542.55651701763 224 222 223
-109.966744601645 546.266680252781 3538.32478346291 230 228 231
-98.8093632590186 546.144102462277 3537.91853144338 200 198 199
-88.9101802222014 545.797575257773 3535.95773457449 176 174 177
-75.7617556734012 545.995534920356 3537.79379487941 129 129 131
-66.4586367411806 545.531963070462 3535.02681026252 140 140 140
-55.8391937300415 545.283696539258 3533.76436232494 130 130 130
-43.8912760670926 545.249016907762 3533.99561535092 124 125 127
-30.6023993525169 545.426384852125 3535.71007415012 114 115 117
-16.6162023282461 545.705903506116 3538.14305481782 115 117 116
-9.82337287886725 544.792300622474 3532.26138553809 119 120 122
3.5705695309356 544.954171772025 3533.88488054231 129 131 128
13.0326274579655 544.466171115845 3530.9802960849 139 141 138
27.1606581683179 544.724770031049 3533.2901644463 148 150 147
36.6701094084791 544.229570636163 3530.34486466172 144 146 143
51.5424091003882 544.583526269324 3533.33229130256 137 139 136
