ply
format ascii 1.0
comment KinectMotionCapture
element vertex 772
property float x
property float y
property float z
property uchar red
property uchar green
property uchar blue
end_header
-206.717157223475 457.80171592791 3043.12487372106 122 122 122
-198.127876478376 457.401400237141 3040.97618841807 111 111 111
-186.686255743565 457.380579874033 3041.64649289475 108 108 108
-173.07901814536 457.640625345713 3044.40774199242 96 96 94
-160.853417319848 457.704364103858 3045.72125567153 87 87 85
-129.28009384112 460.318242384944 3065.97944536308 120 121 116
-85.8319189118153 448.810373683012 2990.01851679495 171 173 172
-94.7981738865469 446.186874898773 2971.33978208829 174 175 177
-105.33116366038 443.392423781422 2951.37326326597 173 174 176
-110.747258351179 441.245211520894 2936.23132606984 173 174 178
-117.717916085468 438.925385541736 2919.79075031294 174 175 179
-118.026257271424 437.42635156361 2909.48099647706 170 170 172
-118.368235327721 435.931637912043 2899.20036892994 171 171 173
-116.487464454407 434.710066090483 2890.96121764019 168 168 170
-116.890521138898 433.223278559217 2880.73347777412 178 178 180
-115.814802303071 431.918877513144 2871.86936988585 175 175 177
-114.764516674853 430.617691993974 2863.02728503611 173 173 175
-109.937718878575 429.762160132793 2857.52600888454 170 170 172
-105.116117729778 428.907036427412 2852.02891869642 171 171 173
-99.5348757138252 428.140280872556 2847.19642422089 183 183 185
-97.020536078773 427.022947628298 2839.73103702834 165 165 167
-95.2920016422119 425.820402760235 2831.62402674811 159 159 161
-89.7318974622641 425.055865064894 2826.80983882305 210 210 210
-84.1726559585592 424.291293832037 2821.99639882783 200 200 200
-79.3892018640911 423.440109724675 2816.53234653419 148 148 148
-75.3872906119501 422.503222058531 2810.42329551616 136 136 136
-67.5005617956845 421.99705082828 2807.56096229727 184 184 184
-60.3834990772087 421.403472300347 2804.04271636719 207 207 207
-55.607721268601 420.552595589652 2798.58563090733 203 203 203
-49.2671481108058 419.87243111455 2794.41769659707 165 165 165
-42.1363876591543 419.276461170355 2790.88790935856 140 140 140
-31.0533554782624 419.101943849188 2790.54643499941 163 163 163
-21.5247178199802 418.755014166538 2788.90680573726 183 183 183
-8.01120644078779 418.824996831999 2790.42726145752 201 203 202
7.13244750107789 419.056711666547 2793.18028773963 207 211 210
23.1214395937882 419.365044067321 2796.52370896228 204 208 209
39.162612915614 419.666049712256 2799.82195031558 216 220 221
52.8519941035257 419.711209887546 2801.19013420141 204 208 209
75.4178771661618 420.658892872512 2809.41601812444 194 195 197
102.095023377725 422.00605569341 2820.69223821987 169 171 170
128.877508233836 423.338635393457 2831.87756753754 174 176 175
134.719536754673 422.532088204502 2826.81929787515 121 123 122
308.583304438447 419.800818598772 2821.71244302607 174 174 172
319.675154633523 419.429315594287 2820.04134137711 149 147 148
329.948275286348 418.977342114273 2817.75680711704 142 140 141
335.176569457515 418.061122707583 2811.90793288254 117 115 116
331.092419536458 416.302556699637 2799.57881545717 115 115 117
328.655116700574 414.703585263543 2788.4681195481 134 134 136
332.127438550139 413.642916491785 2781.49530842086 147 146 151
340.700097806593 413.038920330971 2778.03908854196 150 149 154
351.846993344665 412.659944400789 2776.32032554038 135 135 137
363.873593396383 412.352995556198 2775.16188515101 155 155 157
-246.497823251017 457.398028362887 3090.84037803139 187 189 188
-244.854700123659 456.042635803318 3081.48481087482 176 178 177
-240.46677434382 455.070261617699 3075.04141714404 169 169 169
-235.393156220936 454.193415184606 3069.32603554965 161 161 163
-230.323864266297 453.316874129064 3063.61471713478 154 154 156
-225.957615898827 452.34646109458 3057.19009928818 149 149 151
-220.198832556983 451.564658934484 3052.20382086623 140 139 144
-213.03516828985 450.969745114736 3048.64519235158 125 125 127
-203.749283494931 450.653441254112 3047.21576726567 122 122 122
-193.02979156201 450.520187074446 3047.18911892054 104 104 104
-183.699844798603 450.19723843417 3045.72123128825 98 98 98
-171.506003137568 450.241180005963 3047.06240006305 100 100 98
-84.1787284952247 441.359438346127 2992.60401761337 173 175 174
-95.3537117783849 438.523977438733 2971.87094251413 172 173 175
-105.140274150867 435.877853365126 2952.58008345505 170 171 173
-112.782635015364 433.507364588316 2935.39876436928 168 169 173
-119.00791353629 431.322262937556 2919.63484502374 170 171 175
-120.064519040131 429.758061700737 2908.65048466874 167 167 169
-117.409127155511 428.634608263792 2901.06288208042 171 171 173
-115.52287134965 427.426363282139 2892.81920595707 166 166 168
-116.674212580437 425.874441159456 2881.91687689288 175 175 177
-116.351079172759 424.500027340311 2872.38225465897 176 176 178
-114.541362242207 423.301528792317 2864.20453886002 173 173 175
-109.712122453686 422.448722259108 2858.7011284858 167 167 169
-105.650242888254 421.510922713398 2852.53979117127 178 178 180
-100.833025396072 420.659316037802 2847.04679317832 186 186 188
-98.3197422730235 419.553443562065 2839.58224743663 147 147 149
-96.5922642210493 418.365092012465 2831.47574527698 172 172 174
-91.8044040840771 417.516899960714 2826.00817023218 203 203 203
-85.476647546324 416.837293738852 2821.85134092971 165 165 165
-80.6946883942432 415.989507121537 2816.38887785339 145 145 145
-75.9177451364312 415.142156457597 2810.93075940794 171 171 171
-70.3672583563608 414.378584578087 2806.12490097055 203 203 203
-61.6951679617288 413.946695602125 2803.90464616343 212 212 212
-56.9211084915087 413.099224269758 2798.44902798228 199 199 199
-49.7979658636325 412.499377309613 2794.92555299577 154 154 154
-40.3070501675238 412.144652173696 2793.31866922888 161 161 161
-30.7968278306645 411.787095184897 2791.6947545401 195 195 195
-23.6396149850289 411.18208327212 2788.14209865309 200 200 200
-9.3390752035809 411.30719968792 2790.30331217173 206 208 207
9.77516459173344 411.911900428553 2796.22940740182 151 155 154
29.7550079428888 412.587764741884 2802.72836815953 116 120 119
43.4150062335243 412.610202666859 2804.12216649934 119 123 122
57.114882445148 412.627000684178 2805.48143775836 132 136 135
78.885768234505 413.436610546096 2813.07369272632 134 138 137
105.568354629547 414.712367300363 2824.34597584512 148 150 147
133.970361854439 416.132024025905 2836.77356439562 141 143 140
133.352983866331 414.691975490727 2826.73128163722 143 145 142
316.576921637887 411.136841090772 2818.81032859131 153 152 150
326.842938925014 410.672649273977 2816.53203024875 151 150 148
331.221548384503 409.686288700599 2810.09680193983 143 141 142
331.361093605167 408.331456515556 2800.72085978429 126 126 128
329.775860211599 406.833468096952 2790.19456667475 125 125 127
335.802867522919 406.00099146983 2784.97613726907 141 140 145
341.82907010256 405.168653160224 2779.75840445696 137 136 141
352.124636099171 404.700571803327 2777.45452039009 149 149 151
362.439901401204 404.229829764909 2775.13389498125 162 162 164
-240.865042240548 450.589701771255 3097.91265677497 192 194 193
-239.201949437727 449.24817839179 3088.53969131024 168 169 171
-234.102685861835 448.371104353767 3082.80239886765 164 164 166
-231.090742661742 447.218288154844 3074.90595070956 155 155 157
-225.310300626931 446.434347706067 3069.90091377607 150 151 153
-221.625464498604 445.375810864414 3062.74389506973 144 145 147
-214.45124046428 444.774444506438 3059.17615583789 135 134 139
-207.269046125326 444.171757484516 3055.60183252732 119 119 121
-196.556376137621 444.02073754095 3055.58121212992 114 114 114
-184.402119000017 444.046205267081 3056.95680994501 96 96 96
-174.337376661391 443.796256301682 3056.17515192098 99 99 97
-80.3147440634517 434.149710823199 2997.24187888925 172 174 173
-96.648937137823 430.774418561028 2971.72051735195 170 171 173
-107.174866892314 428.100286157906 2951.74709968884 169 170 172
-112.58681529862 426.035375775822 2936.60071992784 171 172 176
-116.569753484989 424.148766589942 2922.86144750489 176 177 181
-119.111422972054 422.438777789239 2910.518668447 165 165 167
-119.449812092551 420.988136122013 2900.23464465267 173 173 175
-117.566654565738 419.794329500749 2891.99324484535 163 163 165
-117.212381553033 418.435454557515 2882.43153210416 169 169 171
-116.887708636475 417.080386245444 2872.8954501632 173 173 175
-115.076784986015 415.895798437008 2864.7165983148 170 170 172
-112.527060228232 414.79693565942 2857.22042187538 170 170 170
-108.470783867038 413.865729607434 2851.06389833337 170 170 170
-104.423328034437 412.93558391073 2844.91532850225 155 155 155
-101.151216936172 411.924215365449 2838.11572776296 199 199 199
-95.5877424266149 411.160256819188 2833.29861489919 193 193 193
-89.2550798148486 410.477804043658 2829.13755177176 154 154 154
-80.6023475301383 410.038805522254 2826.93412140436 144 144 144
-78.1286566851729 408.948894793914 2819.5037882807 198 198 198
-76.448592711762 407.780365269183 2811.43856867285 227 227 227
-70.8979195204722 407.017172517051 2806.63254620939 222 222 222
-63.7874244906547 406.414342735113 2803.1200526795 218 218 218
-55.887140013124 405.890311421001 2800.24608601552 200 200 200
-48.7599497429594 405.284911117125 2796.7194542906 181 181 181
-38.4792363939694 404.995861047174 2795.75085980504 193 193 193
-28.1749370986053 404.703410049038 2794.76184457007 180 180 180
-19.4286066896887 404.249905140853 2792.47738334583 141 141 141
-6.70331867884544 404.186801219166 2793.35830661125 107 109 106
14.8004490616813 404.979526979562 2801.18250731582 114 119 115
33.9942496658159 405.527011533512 2807.04001509544 123 128 124
48.4634852567756 405.598777652891 2809.05535960353 128 133 129
61.3749529429093 405.509484992517 2809.77539946875 130 135 131
79.1395809779534 405.878001523095 2814.22594494523 133 138 134
100.184502161687 406.54544387894 2821.12507990826 121 123 120
125.341003010917 407.585067490538 2831.07476911572 117 119 114
301.724658279767 401.850993218988 2809.2464792378 159 158 156
324.580162145405 402.455398330971 2815.89998646479 147 146 144
328.111256223092 401.404031888803 2808.87617505557 154 152 153
329.937725208813 400.211990754207 2800.68389780407 148 148 150
332.590814838952 399.09384786069 2793.09825625001 140 140 142
338.626018145696 398.260776498937 2787.87272693439 143 142 147
344.660324877279 397.427825880317 2782.64797393027 134 133 138
354.963038681327 396.945547073443 2780.33798660159 151 151 153
365.285451790798 396.46060758505 2778.01125793096 159 159 161
-237.987776091124 443.370964243312 3102.08222425346 186 187 189
-235.622876398216 442.134281098358 3093.42387454855 169 170 174
-231.202940524216 441.168802525384 3086.95237632199 160 161 165
-229.567896326004 439.846986215562 3077.60359388877 152 153 157
-224.477137563621 438.973303265065 3071.87365089942 147 151 154
-219.39087793313 438.099926788601 3066.14760548344 141 145 148
-211.508205480929 437.580647787879 3063.28887299976 132 133 135
-205.720543397655 436.794926540948 3058.27758973037 118 119 121
-194.29854698164 436.712079695356 3058.96498972984 115 116 118
-179.311971271055 437.06252557282 3063.17696836593 87 89 88
-168.523322570923 436.881540967658 3063.0906886592 95 97 94
-86.7747235736145 425.738727555489 2992.30844519774 172 174 171
-97.9442821418792 423.029345062126 2971.56985131185 166 168 167
-109.208972799727 420.332699293314 2950.9136292932 163 165 164
-118.338662541063 417.896541264605 2932.37533540059 173 174 176
-121.587661702673 416.129803235106 2919.32273126061 174 175 177
-122.644403577331 414.615640288467 2908.33816485373 182 183 187
-121.490234684542 413.351637386793 2899.40579970026 147 148 152
-119.60999577655 412.172282099145 2891.16683591978 169 170 172
-118.504494158674 410.914481201151 2882.2769277665 162 163 165
-117.424624544063 409.65993034846 2873.40889921857 177 179 178
-116.370161350749 408.408651301489 2864.56287012782 156 158 157
-116.100972736864 407.080278605422 2855.07470543809 166 168 165
-112.052268766313 406.155976155097 2848.92470042372 171 173 170
-108.776442037612 405.152940430577 2842.12182521709 146 148 145
-103.215995671611 404.389973579159 2837.30733052797 197 199 196
-98.4243941452019 403.547700460754 2831.83647433163 91 93 88
-90.5577190328186 403.021607891747 2828.99165146948 130 131 126
-81.9076860313457 402.57240297759 2826.79062680557 93 92 88
-78.661020931647 401.572366258054 2820.01300759738 10 9 4
-75.427568831044 400.573959237644 2813.24683000994 21 20 15
-71.4289770143846 399.654990395487 2807.14053995154 15 12 3
-64.3186923265073 399.047158502194 2803.62826114636 19 16 7
-57.9833242437795 398.360905147181 2799.4651932307 29 25 14
-50.0761561524832 397.827996917106 2796.58531781389 34 28 16
-37.4395059953265 397.753339638271 2797.54314155919 38 30 19
-27.9205295149398 397.368096338465 2795.91213426039 35 27 16
-21.5442216203146 396.675528840089 2791.71330774115 43 34 25
-13.5796431752637 396.134065636056 2788.78372814359 69 64 60
6.31475643273793 396.724106786835 2795.35730220096 65 62 57
30.2646990268332 397.6803564344 2805.03003821064 60 59 55
40.7303786868676 397.348902684434 2803.90108603882 55 56 51
58.4260555011209 397.686453726437 2808.41191018676 55 56 50
80.1955118621387 398.3876375477 2816.00610669508 54 55 50
84.3405655098528 397.446541797305 2809.77270077327 36 38 33
102.999219226418 397.836042353065 2814.77180246413 30 32 27
327.366359003614 394.662848913075 2818.82894441467 128 130 127
328.375712574812 393.412569494031 2810.02200697724 140 140 140
330.205143159908 392.234292595981 2801.8270736085 149 149 151
333.708840962129 391.195471058753 2794.82724175753 150 148 153
338.898298057421 390.29437086438 2789.01161552695 141 136 143
346.638034743991 389.597045936902 2784.95466347906 164 158 168
356.945836418574 389.100877037954 2782.64035631826 157 154 161
369.840583236615 388.803485714408 2782.0529763733 151 150 155
-238.195411452949 437.263403380982 3114.21206081884 165 166 170
-233.737006858573 436.298994525956 3107.70752895063 166 169 174
-232.046346349072 434.986890586268 3098.31047892491 174 177 182
-229.688919279011 433.764725868734 3089.65819641821 159 162 167
-229.433927625197 432.285360421196 3078.86005430877 152 156 159
-222.253003337471 431.673090739294 3075.28657838028 149 153 156
-216.460130204838 430.88743126116 3070.27077810683 138 142 143
-207.167359572094 430.530196111651 3068.83565005354 126 130 131
-201.36507129086 429.74266981951 3063.81170142938 109 110 112
-187.817523555297 429.891774963558 3066.62540477261 109 110 112
-172.106545867209 430.289200117059 3071.53247462169 86 88 87
-150.672234432181 431.355483100363 3082.06162468939 126 128 125
-87.3355387037051 418.015921011791 2992.84456780802 166 168 165
-96.2830392918699 415.610562117161 2974.14816444848 171 173 172
-110.501344726456 412.655308236534 2950.76026330905 167 169 168
-120.372082110423 410.194175065328 2931.5411630124 164 165 167
-124.367941105594 408.38131906577 2917.81261159639 167 168 170
-123.186983655894 407.130641323704 2908.85694149037 170 171 175
-123.530187391959 405.725196134526 2898.57648230926 171 172 174
-121.65266174923 404.560346608187 2890.34009172846 161 162 164
-121.303490967115 403.241264460179 2880.78254341562 159 160 162
-120.228377477795 402.004182136317 2871.91852397593 161 163 162
-121.451364717867 400.53669154689 2861.07774596484 176 178 175
-121.192870474124 399.229371799046 2851.59871404649 166 168 165
-117.917453453716 398.235209489343 2844.79613644881 161 163 158
-113.127743577524 397.396754349548 2839.32689507311 190 192 187
-106.811686626753 396.712285965287 2835.18023773014 21 23 18
-99.7245036073644 396.103709775778 2831.68830230733 40 43 36
-88.7810438110619 395.874942720624 2831.4681518904 24 23 19
-79.3536525167053 395.490333335943 2829.91620514369 28 27 22
-75.324015856264 394.573336941902 2823.78299462177 30 30 22
-78.2874274768561 392.979155388608 2811.80468868366 59 56 47
-77.4064346931342 391.766546005964 2803.10907756468 44 40 28
-73.4308880917558 390.856437516547 2797.02238869456 37 33 21
-65.5539496881721 390.320024763478 2794.16873714408 28 22 8
-53.7450083437059 390.153058300856 2794.5213031627 37 30 14
-39.5455055016951 390.20348657905 2796.77088852231 35 26 11
-32.3963759924735 389.584599464766 2793.22501315233 46 34 20
-28.401010884755 388.670990806001 2787.12148506443 53 41 29
-22.8302358126973 387.904731586179 2782.29805944914 47 40 34
-9.31671389308386 387.866782979191 2783.81920543097 45 40 36
48.969677430637 390.592639105486 2811.36070206019 48 47 42
116.315675281886 395.350195324086 2854.857019863 49 48 43
100.833168775642 390.011463999399 2814.05337796603 26 28 23
87.2024038798491 387.515013612778 2794.12304388094 48 53 47
329.309294161492 386.781656854281 2821.16610112534 136 141 137
332.855869002797 385.745602527163 2814.12877275895 136 136 136
333.007992924109 384.448116368506 2804.74187210059 143 142 147
337.367497398737 383.482302290111 2798.32275411412 143 141 146
341.718089694377 382.517808200672 2791.91135207997 128 122 132
349.465575329536 381.81443921524 2787.84772290545 126 120 130
359.780779365809 381.30418055425 2785.52740666655 154 151 158
372.681784396968 380.98448498142 2784.93443152259 143 142 147
-236.704579733468 429.809001284558 3116.93830622064 198 199 203
-230.176978117585 429.103305058885 3112.60843306948 164 167 172
-228.472369265826 427.805948312769 3103.19951346483 175 178 183
-228.176257738624 426.343435392707 3092.36530656544 160 163 168
-228.607051154913 424.801223108038 3080.83838989065 155 159 162
-222.117701623482 424.099532764832 3076.54196075067 150 154 157
-214.927046884172 423.480308396628 3072.96009615657 137 141 142
-207.028619698242 422.942753387289 3070.08782690787 125 129 130
-199.820168673343 422.320540729948 3066.49087251041 113 114 116
-186.972306924452 422.356607293263 3068.58849046893 107 108 110
-173.377817748062 422.469073388114 3071.36174540006 86 88 87
-87.1596791219633 410.370262710425 2994.0652644285 168 170 167
-94.6233086753967 408.174645780263 2976.72789931708 169 171 170
-111.052743245466 405.059913955043 2951.2873985694 156 158 157
-123.891237186336 402.347594441014 2929.34851273506 173 174 176
-128.637501661458 400.494599750461 2914.94736394915 177 178 180
-127.465423489809 399.261960779981 2905.9992729409 173 174 176
-126.318776339803 398.0325669851 2897.07320288438 169 171 170
-124.44620683842 396.882473131698 2888.84101235231 175 177 176
-123.348382023206 395.659294997393 2879.95721809062 167 169 168
-120.765373924923 394.590309593059 2872.43200017752 179 181 178
-123.50099964966 392.997258551375 2860.25657220291 175 177 172
-125.523185991375 391.485181326128 2848.7855168305 40 42 37
-123.018841762474 390.426288417789 2841.32809880806 16 18 13
-115.950534259568 389.815613044301 2837.85253707662 21 24 17
-108.109536871252 389.277752474042 2835.03004627784 35 38 31
-109.468191891787 387.852876198425 2824.30658026678 34 37 30
-105.477223285237 386.94745794167 2818.20649419762 25 26 20
-97.6368939399399 386.409133390686 2815.38458542235 25 24 19
-84.3691346382771 386.379563989476 2817.11868840152 18 18 8
-81.14629723099 385.39994570936 2810.36190471166 39 36 27
-81.0482344656336 384.13245962518 2801.02135088629 53 49 37
-77.8601817791489 383.157219199869 2794.29437248282 57 54 39
-71.5575751980708 382.470886422914 2790.15970065289 64 58 44
-59.764388401482 382.284587428049 2790.52604697974 68 61 45
-46.3673035648187 382.236299037373 2792.1481801687 87 80 64
-42.3867567117941 381.330794364874 2786.05744308075 76 67 52
-37.625532055745 380.497111354672 2780.61254443286 68 59 44
-34.4534793858271 379.523157326281 2773.89942548298 44 39 33
-20.176116375715 379.532603025036 2776.08179220439 45 42 37
12.4580366803477 381.142162330897 2792.78019352513 47 44 39
81.1518653741032 385.862747253063 2837.75537472149 51 50 45
121.41830938795 382.833642992524 2821.40154326609 43 48 42
329.568447430363 378.756339341074 2822.31674880153 145 147 144
336.490085357741 377.982186903748 2817.64579381369 125 125 125
338.344113943479 376.829005597964 2809.42969336641 128 127 132
341.871158518183 375.804384708603 2802.40921849514 132 131 136
343.686666278005 374.656488636203 2794.22615567101 125 122 129
351.43988684659 373.947391737911 2790.15759294057 137 134 141
360.906775436839 373.361275784566 2787.24945736328 145 144 150
372.955083846849 372.958220559386 2786.07282433122 148 149 153
-239.012329284805 423.37582928663 3126.92039908093 185 190 193
-233.159314327864 422.584121519512 3121.85251091964 192 195 200
-228.681280166121 421.628245638297 3115.33059459309 172 175 180
-226.279752660614 420.428115915918 3106.64026137934 164 167 172
-225.973592154403 418.986302767397 3095.79721053361 154 157 162
-225.00710093909 417.629838178956 3085.70485065114 150 154 157
-217.114368855716 417.085579337765 3082.83756099353 144 148 151
-209.209730764742 416.539387722594 3079.9599644956 127 131 132
-198.494585247713 416.312487990148 3079.93769017088 119 121 120
-190.557893485304 415.761380796889 3077.03234345682 104 105 107
-178.386711696724 415.686805079389 3078.39392035256 93 94 96
-86.2481277043723 402.793576331494 2995.9708089102 163 165 162
-97.3972292200571 400.271697223453 2975.21326913491 169 171 170
-113.086020411896 397.31431348001 2950.45306740181 162 164 163
-123.694896621293 394.894062508946 2930.55021276748 168 170 169
-126.946564467621 393.227417068971 2917.49895755716 158 160 159
-127.26063473617 391.862835541843 2907.19329806786 158 160 159
-126.110564649071 390.649778846015 2898.26415536392 172 174 171
-126.487978836276 389.293376369395 2888.0130298125 176 178 175
-126.145857056776 388.014394105974 2878.46133127535 160 162 159
-122.057769521899 387.102955518349 2872.27742326484 6 8 3
-124.793226934543 385.540401560594 2860.10133627338 6 8 3
-123.778618946413 384.344809230108 2851.28949027023 17 20 13
-122.789324097917 383.152558225927 2842.49987793603 0 2 0
-112.666299519135 382.822949558045 2841.66790528355 27 30 23
-108.642020778342 381.919250819199 2835.53925249404 39 42 33
-107.696605961904 380.732363004447 2826.78732229443 37 40 31
-107.546031967959 379.478023961963 2817.40148541944 27 28 22
-102.796057468654 378.650519402474 2811.96661316312 31 32 26
-86.4483497696651 378.876752567719 2816.32291555312 29 29 19
-80.9022715753329 378.116020130551 2811.52085979579 21 21 11
-79.2453230542844 377.006979204128 2803.47497418094 45 43 30
-78.3894017243467 375.831320177583 2794.80053844006 71 69 54
-70.5235498223566 375.28085999888 2791.95658698667 70 67 50
-62.6463491319655 374.728661860092 2789.10281039247 68 62 46
-52.4004501640833 374.38037180716 2788.16477465897 79 73 57
-48.4336768338087 373.482710652955 2782.08592475207 68 61 45
-42.1065415342747 372.79007302258 2777.92971834294 62 54 41
-36.5681940819091 372.029183972681 2773.13436411241 52 47 41
-23.0910317669748 371.94235418641 2774.6873410218 50 47 42
4.75429879081135 373.058199363913 2787.59938995559 49 46 41
86.3887865105961 377.372804852122 2833.27136197179 44 43 38
105.815991908911 377.703463813671 2838.92797446191 40 41 35
90.7314648023747 375.186424423217 2817.61128001281 28 30 25
86.0207514761271 373.538408603294 2804.50125037221 28 30 25
107.929138518476 374.057355481625 2811.976527078 28 33 27
331.508577728845 370.846929369945 2824.65651943743 172 172 172
340.964838903577 370.251764546659 2821.75765366008 138 138 140
342.832095967278 369.110979792908 2813.53000728549 125 126 128
345.524861305448 368.033239521762 2805.90940004631 130 131 133
347.351783416708 366.898036452439 2797.71667725538 157 161 164
353.4125532751 366.063558134378 2792.46899760758 177 181 184
362.884868610148 365.466306130777 2789.55623063739 154 158 161
371.517450938711 364.808007914731 2786.04842515666 191 195 196
-230.701207179349 416.677699884207 3136.96390824634 187 192 196
-230.301750029819 415.24622879642 3126.03992682953 179 184 188
-225.812645292037 414.294468606308 3119.50870407986 167 170 177
-225.467296575778 412.869745407451 3108.63157666058 167 170 177
-223.081327473837 411.685335062855 3099.95462661248 151 154 159
-219.329832253736 410.660250493232 3092.73961530372 149 150 154
-211.41898107175 410.105451920926 3089.85668946978 143 144 148
-203.496183564016 409.548730116478 3086.9634217885 124 125 127
-194.862069056255 409.067683567482 3084.77640058986 116 118 117
-185.510508308781 408.661471868424 3083.29031888736 103 104 106
-174.027944471082 408.483356133593 3083.92615578301 89 90 92
-92.7018487718318 394.479791118182 2991.03163646846 151 153 150
-104.601235628757 391.950687309068 2969.60086639842 174 176 173
-114.37811335213 389.650838329705 2950.29936943461 160 162 159
-122.756871309937 387.506045461908 2932.43158879188 167 169 166
-125.257155363796 385.943192960221 2920.05198604457 165 167 164
-127.803399824534 384.386380300554 2907.7121796956 86 88 85
-132.642020513059 382.623039353986 2893.39018288822 25 27 22
-134.535527953402 381.149791004153 2881.8073452746 19 21 16
-126.683933096408 380.59601080322 2878.9757724284 29 31 26
-118.065983824629 380.11047891438 2876.80279128595 23 26 19
-115.488058378227 379.06466525593 2869.28182853644 18 21 14
-120.517360013637 377.326396992624 2855.1252548009 31 34 25
-121.038621171105 376.011007709649 2844.99885633545 23 26 17
-119.304422718759 374.906744562768 2836.8859844683 22 25 16
-113.000734490972 374.216935211033 2832.75008215173 24 27 18
-116.667159608648 372.638087285875 2820.05805855953 25 28 19
-103.460549676604 372.563289582889 2821.84545497586 24 25 19
-117.980186074851 370.042682689495 2800.03917256264 20 21 15
-90.8473487285946 371.181613905073 2813.56861537503 23 25 14
-79.8837248558519 370.893209517068 2813.33137447966 24 24 14
-75.889054548135 369.99842382827 2807.22832662658 32 33 19
-72.6831550107101 369.038042129567 2800.48578343098 30 31 15
-67.14597860381 368.278463594935 2795.69143569547 44 42 27
-60.8261727569697 367.584971533251 2791.54158752318 51 48 33
-54.5030836740383 366.890909794567 2787.38921285653 53 50 35
-52.1154314466155 365.868572362161 2780.03269910582 58 52 38
-42.637627120917 365.435799658971 2778.43768518512 54 48 34
-34.7238743680758 364.870309906201 2775.55231373454 44 41 34
-18.0673441046952 365.014694991088 2779.64147888508 41 40 35
-6.92534874023387 364.700397601878 2779.24980479364 41 40 35
80.2342883187408 369.232022723678 2829.39498211613 49 48 43
85.2089560217073 368.374722508733 2823.76555326028 52 53 47
72.4905795445716 366.125593300276 2804.36639307488 47 49 44
87.082406643002 366.031733268542 2806.27655637852 32 34 29
105.758612723929 366.24542469607 2811.2615840518 43 48 42
336.809715837659 363.153704627327 2829.37514190967 178 176 177
342.90870712254 362.314453260575 2824.09436530715 143 143 145
346.47248019921 361.302268049688 2817.04197593953 131 132 134
348.329754281038 360.177140514229 2808.822880715 126 130 131
353.56077166224 359.28339371798 2802.97118504056 139 145 145
361.339671721007 358.560912390979 2798.88045170437 146 152 152
369.978637434392 357.89401422716 2795.36716924244 192 198 198
376.919011711608 357.113011761382 2790.68001917507 225 231 229
-221.029923760536 410.062141008484 3148.47450339617 186 190 193
-222.652206275378 408.417921622955 3135.33443241503 172 176 179
-221.572438765752 407.085726818105 3125.1437346278 157 160 165
-223.966707841239 405.375896799232 3111.3496209211 172 175 180
-220.191397711928 404.356273563152 3104.11393298493 143 144 148
-217.814866656415 403.186698472421 3095.4450670981 143 144 148
-208.508039477171 402.773845185281 3093.99780062478 130 131 135
-199.878021527192 402.282862499574 3091.81470995928 116 118 117
-187.735953972195 402.163692615573 3093.20149466623 99 101 100
-180.466323565816 401.517266202173 3089.55167080551 89 90 92
-104.418916541442 384.373297681557 2970.81552195054 170 172 169
-109.747462782317 382.546132162682 2955.59531394226 159 161 158
-115.138191630385 380.727303180111 2940.42926332666 170 172 169
-117.61372426326 379.191562260215 2928.02771643652 93 95 92
-126.853574933385 377.046030562501 2909.58301971472 10 12 7
-138.421954461666 374.707185681914 2889.18769719737 11 13 8
-136.574609920423 373.602738606152 2880.97707425269 38 40 35
-134.748816872476 372.501007018791 2872.78479765263 41 44 37
-127.661311337241 371.873163934468 2869.29270754371 7 10 3
-122.836872441023 371.043019859071 2863.79299590927 27 30 23
-118.01726759288 370.213354358971 2858.29778652973 18 21 12
-119.289575700854 368.852470877475 2847.49906587095 29 32 23
-116.785063106263 367.827517979683 2840.04159750065 19 22 13
-114.297844020737 366.804729337919 2832.59910401183 24 27 18
-101.090056888761 366.70291415163 2834.38565518064 14 17 6
-103.992086114404 365.223165157982 2822.35372090147 23 24 18
-100.771387868158 364.270072851412 2815.59830389756 25 26 20
-94.4714608020254 363.577760740873 2811.46567773293 17 18 10
-84.2923629589913 363.207371001715 2810.58568414199 19 19 9
-75.6442239145332 362.705152399879 2808.38664456872 30 30 18
-71.6561036798939 361.817012863347 2802.28923083218 21 22 8
-64.5521353401244 361.18460992231 2798.78258585396 24 22 7
-58.2242269069386 360.487721055467 2794.62573689022 26 23 8
-50.3223311635983 359.916462104964 2791.75067972052 32 29 14
-46.3463113982736 359.02938323829 2785.66374702251 39 36 21
-37.6426333233613 358.518711961004 2783.41662454877 51 45 33
-27.3404050578132 358.130317765196 2782.43002606409 52 49 42
-15.4275712898508 357.862495060845 2782.69319833586 46 45 40
-9.84805191855065 357.096630245036 2777.86219116636 37 36 31
10.0887168618473 357.436345435471 2784.40066445753 35 34 29
70.0835070352266 360.822893062146 2822.36712797325 34 33 28
78.2409409577141 360.215573529174 2819.27082035193 32 33 27
54.2577014172925 357.183463934666 2791.11348136592 31 33 28
80.8902973061065 357.97093389064 2802.43225716396 18 20 15
78.5442674964969 356.583210685599 2791.24108274844 25 30 24
336.224313017729 355.033241482327 2829.93515237921 159 154 158
344.008499722341 354.305092614033 2825.83987364285 116 114 115
348.421393514574 353.356013041152 2819.37437277575 136 136 134
353.672034670383 352.46287953159 2813.50598000922 141 143 140
358.917546960133 351.570459452003 2807.64171247937 113 118 112
367.560972793679 350.895280235541 2804.1246179324 105 110 104
374.510350949532 350.110856640721 2799.43000156163 113 118 112
384.026913920002 349.486790381895 2796.4790573324 109 114 108
-221.603666783995 402.248731006955 3149.02241818898 192 193 195
-221.169549913113 400.856780490545 3138.0684553644 180 181 183
-218.021831527471 399.764279842566 3130.05393512634 139 140 144
-219.712441592845 398.159048376691 3116.97251793371 146 147 151
-215.921905217407 397.145758663074 3109.72359182134 155 156 160
-212.836924384942 396.0609434275 3101.76339867402 154 155 159
-202.819369237983 395.705062660564 3101.02332592585 138 139 141
-192.777525370661 395.345641407181 3100.26222421313 115 117 116
-182.012423233791 395.054837618812 3100.1970647902 105 107 106
-102.023144523852 376.990248950307 2974.08022156879 185 187 182
-105.119871001853 375.402702314235 2960.89416054301 147 149 144
-109.750971810483 373.689228685684 2946.39229116789 12 14 9
-121.882808261302 371.323620192399 2925.16224957531 16 18 15
-134.114123350464 368.971326554702 2904.01802790086 44 47 40
-138.961022687926 367.286705238537 2889.70301190376 47 50 43
-138.613390733259 366.06587896137 2880.14616064749 24 27 20
-140.552696061244 364.654297791901 2868.60261810441 17 20 13
-135.743299690927 363.82955533861 2863.11622487808 22 25 16
-126.399646776393 363.391156802526 2861.63720575014 17 20 11
-117.79494819994 362.885865354578 2859.47583750406 17 20 11
-119.063096305219 361.549506198887 2848.67366781602 16 19 10
-115.792951092085 360.598977265007 2841.87537673783 15 18 9
-107.182801433171 360.092397764459 2839.70929218926 16 19 10
-97.7901776490313 359.646453293867 2838.18819265909 17 20 11
-100.679844047399 358.195574101903 2826.14504048326 19 22 15
-105.157126039229 356.626147600384 2812.83217825379 19 22 15
-101.959159482134 355.684665355755 2806.09638838846 19 20 12
-88.6996545262968 355.548053153672 2807.83833934588 19 20 12
-76.1770576421448 355.344362295197 2808.89616881615 22 24 13
-69.0721687433138 354.706976854882 2805.38907375586 23 25 12
-63.5223982124775 353.946585571581 2800.58381550708 22 23 9
-57.9735811083841 353.186158000728 2795.77938386267 22 22 10
-50.0701019362886 352.606900605161 2792.90300610847 25 23 11
-43.729876458797 351.905747934879 2788.73550914925 32 30 18
-36.5972013644207 351.26390185156 2785.2043596996 40 36 25
-29.4574781086632 350.620904726385 2781.66679330107 45 45 37
-20.7237267541571 350.095344038012 2779.39370171868 44 43 38
-15.1563412292255 349.331622338089 2774.57319750253 46 45 40
4.76478416630766 349.624651988407 2781.12553200113 48 49 43
52.741422293674 351.952472432567 2809.66524532823 50 51 45
47.2289876284169 350.354919630894 2795.92650851597 51 52 46
66.570034754708 350.559054202099 2801.65861735857 43 45 40
73.0890646933071 349.832354453629 2797.33630969157 31 33 28
82.0343148823577 349.277038316448 2794.8800972831 33 35 30
345.106801455328 346.284382459928 2827.58643219866 151 147 146
352.057493919628 345.497521162221 2822.89069246588 83 82 78
357.318394414136 344.606262583118 2817.01307989929 99 98 93
361.7260636511 343.664032166843 2810.55237847218 94 95 89
371.227432137649 343.031606949795 2807.61465801458 112 113 105
379.891770245574 342.345931044219 2804.07950606654 123 124 118
391.985472500371 341.862219249134 2802.86405121412 133 134 128
-226.27181626991 394.004653469774 3145.18201222546 183 182 180
-220.372647520942 393.20714930494 3140.07415847445 173 172 170
-215.846872970561 392.267226610118 3133.51076046001 147 147 149
-215.46095114555 390.903355558266 3122.59838805841 134 134 136
-211.65521203135 389.896387561342 3115.33624422101 126 126 128
-207.862184732993 388.890861996094 3108.08510882433 132 133 135
-197.829155847677 388.516578375641 3107.33174368188 128 129 131
-187.075087095965 388.20845621201 3107.27625951395 114 116 115
-176.292673714267 387.896232374909 3107.19623461533 107 109 108
-95.9397001102 369.905311245057 2980.76368658883 101 103 98
-107.894866357742 367.582197075342 2959.37992770361 5 7 2
-124.401203688673 364.891096332075 2934.00333620304 11 13 8
-138.055261584852 362.469795351223 2911.44618228443 20 22 17
-130.925842545804 361.826770839159 2907.91786261122 26 29 22
-130.522510291597 360.618100954343 2898.31265512949 25 28 21
-130.899031931907 359.350868559096 2888.06017815124 12 15 8
-141.088378778053 357.280042687693 2869.11469892672 17 20 13
-136.27862058081 356.458365587552 2863.62797222842 31 34 27
-130.71751718372 355.698783650723 2858.81288613251 27 30 23
-118.331746705561 355.490950070669 2859.98901929911 21 24 17
-122.639731884659 353.935306816164 2846.52964763381 19 22 15
-117.089468286738 353.176690630554 2841.72395052338 16 19 10
-106.953012492088 352.780865582865 2840.88076563711 17 20 11
-96.0261270332472 352.441819473694 2840.67569540523 19 22 13
-97.3697865592866 351.140227800175 2829.93874888564 18 21 14
-97.209890823422 349.962889639495 2820.54433355423 20 23 16
-92.4432926410206 349.145595441944 2815.09467127799 22 25 16
-86.1319261141511 348.446974065 2810.95248651861 22 25 16
-76.7102991840973 347.982953392058 2809.40605054076 26 28 17
-72.7211574985325 347.10651878564 2803.30767562775 28 30 19
-67.1794222616509 346.34767374535 2798.50937183737 35 37 24
-64.7707151078309 345.35699524909 2791.13440387445 39 41 30
-54.5289474221127 344.94530313079 2790.20035971866 44 44 34
-40.3284331483431 344.817217010264 2792.44990969892 45 45 35
-33.1857709464258 344.168980538114 2788.91014547405 45 45 37
-29.9917675594998 343.235457904892 2782.17773905228 38 37 32
-27.6041486957967 342.247087650239 2774.8213496238 39 40 34
-18.8720431487135 341.711178695932 2772.54975157888 37 38 32
0.240011690591846 341.900922973293 2778.48042951711 35 36 30
14.6248261107638 341.746946147705 2780.57072322115 35 36 30
60.3064483079674 343.748649021001 2807.13162446915 45 46 40
70.8415393509823 343.295732875476 2805.94361354893 49 51 46
81.4001545621545 342.839498979246 2804.73523488571 57 59 54
86.3295932739829 341.997819468477 2799.14459088682 36 38 33
62.1109776127584 339.201545319649 2771.18973262564 57 59 54
332.729936440695 337.454985882158 2819.84420643707 191 183 181
363.288572786479 338.057514759699 2831.73143840312 82 73 68
362.65473528265 336.820653619363 2821.7017895264 76 67 60
362.835884303873 335.637443966498 2812.28899125604 84 71 62
368.089253275427 334.75060543447 2806.41819340194 84 71 62
379.303799661666 334.203536048001 2804.64188422836 90 80 71
393.104880725033 333.797756650336 2804.5929150447 91 81 72
-220.704951489864 386.826281911332 3152.31350532304 190 185 181
-221.629640988647 385.339863424085 3139.89104371854 175 170 167
-217.105162041556 384.405811621681 3133.32904611936 154 150 149
-215.342839445988 383.200236013677 3123.86919368154 156 154 155
-210.153317411535 382.336892530363 3118.05358201428 134 134 134
-203.583404932974 381.608969653484 3113.68718054684 111 111 113
-192.14797739674 381.351063323894 3114.36407370146 107 107 109
-180.67987891017 381.088509857075 3115.01299539548 96 97 99
-168.480879048233 380.887982878981 3116.3509620216 90 94 93
-106.089593620297 361.420066164211 2972.41229533853 31 34 27
-109.189416703414 359.899515004022 2959.22848411937 9 12 5
-141.269491408771 356.013041661053 2919.56758524578 14 17 10
-146.781020488437 354.334977153941 2904.50500886286 30 33 26
-145.641736707566 353.207737710662 2895.58465894031 21 24 17
-131.812486060937 353.103696793665 2898.15615615045 24 27 20
-123.189154574091 352.575414952795 2895.9787870695 22 25 18
-133.351857538658 350.558903612382 2877.00954716275 29 32 25
-126.256819268635 349.914715223325 2873.5110340798 43 46 39
-126.716042007876 348.680560845687 2863.33033828312 38 41 34
-116.594257922483 348.271186169241 2862.49995769657 28 31 24
-122.413958104361 346.633792349013 2847.7045362508 26 29 22
-114.574583140439 346.049364201455 2844.88375342462 22 25 18
-107.488302108795 345.405494559725 2841.39251297661 21 24 17
-98.0953588907467 344.93287269562 2839.87130945176 22 25 18
-101.746683903757 343.485110950994 2827.16503310152 26 28 23
-93.8905686612226 342.897769616929 2824.32975975166 29 31 26
-86.7955702604854 342.252119385923 2820.83129069763 32 35 28
-80.4681006521308 341.548971625168 2816.67486263694 29 32 25
-82.6804451816079 340.228373014508 2805.36738341483 30 31 23
-81.0412901006483 339.192394040162 2797.33644657081 32 34 23
-72.3968214434976 338.658847459925 2795.14110677308 34 36 25
-69.9994480718242 337.681163503116 2787.77587800159 39 41 30
-63.6950211764988 336.980527302882 2783.63972112641 44 45 37
-50.3058546728932 336.771417992425 2785.26975954282 43 43 35
-38.4547123124794 336.447944931773 2785.58676259068 40 39 34
-36.0631329735273 335.470614316615 2778.2268689388 49 50 44
-27.3450082549456 334.926227873906 2775.96744351482 48 49 43
-19.406531604711 334.326103020253 2773.06086740999 36 37 31
-10.659736154663 333.777585959038 2770.776618799 29 30 24
-14.6835128753318 332.37889715134 2758.39315725039 26 27 21
34.9206902206944 334.519091593398 2788.16993908238 29 30 24
38.1626605105381 333.587126185593 2781.39626344369 35 37 32
67.9644691070451 334.378114027572 2795.2615048772 47 49 44
89.8147906837181 334.633574115294 2802.78850089734 41 43 38
66.4230791750819 331.988390991772 2775.43921688288 38 40 35
371.981641035408 330.400559946301 2838.8032770726 99 86 80
368.834040216626 329.043232618385 2826.98339522473 101 87 78
367.336710588859 327.784756075737 2816.37904520594 100 80 69
369.202174783739 326.715447371582 2808.15248960863 97 77 66
378.715433286241 326.060685321165 2805.20460839006 101 83 73
390.806333097459 325.540191565849 2803.99182086424 109 90 83
-196.600619892932 382.793775086563 3190.99870187675 189 182 174
-211.731585174684 379.929278120288 3163.10788872373 155 148 142
-215.361625417618 378.202551855888 3147.73813453819 157 149 146
-214.932690904345 376.877323759714 3136.78823108628 164 159 156
-212.472631364262 375.752441192402 3128.04636293797 146 142 141
-207.27243756548 374.890535062701 3122.22149235488 143 141 142
-202.076710508681 374.028990931205 3116.40049091187 127 127 129
-194.108155841897 373.42593829133 3113.46786408109 129 129 131
-185.43130387412 372.885313527191 3111.24418685799 92 93 95
-102.12907266527 355.379747423527 2987.54562514417 12 15 8
-119.56601997459 350.276030843188 2940.49424818312 19 22 15
-152.528171887198 346.490719129778 2900.27364541613 17 20 13
-160.350468693531 344.691373061262 2883.24458225989 15 18 11
-148.805491166058 344.39126288433 2883.82711349419 22 25 18
-129.730582766816 344.656585891896 2891.11275870728 25 28 21
-130.882808463737 343.380386269042 2880.20972506586 32 35 28
-128.303455834047 342.391354876786 2872.68684186194 43 46 39
-128.765080243556 341.179891420844 2862.50808064147 34 37 30
-123.95428403645 340.364003261345 2857.02041675023 23 26 19
-121.428912327684 339.381837329625 2849.54427626245 22 25 18
-115.872226210951 338.623134733933 2844.73301308405 18 20 15
-112.608715998367 337.699317510861 2837.94061521963 16 18 13
-117.020724204751 336.229524403887 2824.5705322272 15 17 12
-109.963208879248 335.584198813991 2821.10423348526 18 20 17
-93.6547541515003 335.588135812171 2825.49599832106 20 22 19
-78.8344623059762 335.476406121043 2828.53183519711 23 25 22
-77.9053006068646 334.392375792799 2819.79332563942 22 24 19
-70.7899612867355 333.738611435529 2816.27727895915 23 26 19
-73.0093539686054 332.446764165417 2804.97572231466 24 27 20
-77.612241917528 331.002078260105 2791.77091896088 24 27 20
-70.5307267788537 330.352517485726 2788.2838461623 22 25 18
-65.0111068996191 329.59736938813 2783.50468659104 19 21 16
-52.4124473133627 329.309894831765 2784.4971327038 20 22 17
-43.7216279559904 328.75899002258 2782.26141605704 24 25 20
-35.8061345911338 328.154474591238 2779.37478884283 26 27 21
-22.3298082201806 327.906169520004 2780.92953665879 29 30 24
-11.9930179989458 327.448937808871 2779.91342815362 45 46 40
-8.00763183302466 326.583893275667 2773.81823447652 53 54 48
-2.43376749240065 325.820541701908 2768.9921124395 58 59 53
5.54208671865597 325.207268579389 2766.0532250603 58 61 54
20.7561442588493 325.039882621847 2768.74781619618 44 46 41
47.2891578895096 325.558055825938 2780.15464856647 31 33 28
65.0684319330153 324.400023376018 2775.33925027887 39 41 36
374.763623687638 322.374617760586 2841.73740001723 123 103 96
374.163796687386 321.178143142998 2831.67832682174 121 94 85
371.834698246872 319.899093869521 2820.47177317025 122 86 74
367.76409339409 318.539162556951 2808.12833258458 121 83 72
373.015078609982 317.659292413959 2802.25955566187 114 86 75
384.238611275275 317.079362989964 2800.47567069108 130 106 96
-206.021351964098 374.017738804646 3182.01720453216 167 153 142
-208.900359236896 372.383983384144 3167.31947700739 149 135 126
-212.516964796013 370.694051713489 3151.93815558143 122 107 100
-211.390087718575 369.452228759254 3141.70604062661 112 101 95
-208.916497644696 368.339387663258 3132.95236704928 154 145 140
-204.39353140901 367.416289147807 3126.39160959387 140 135 132
-199.187299947935 366.556182711759 3120.56117877695 122 118 117
-193.985411604563 365.696458793588 3114.73482533037 111 109 110
-207.58564779487 363.175602155612 3089.48483007079 92 93 95
-107.031317857956 348.591575487424 2994.48540204208 5 8 1
-162.245156628097 343.133136150111 2932.53773584728 12 15 8
-125.637576209016 344.715626535868 2956.3794337719 10 13 6
-91.0763784548942 346.107559224387 2978.02594179809 13 16 9
-128.272566440463 342.103943959217 2933.53634864037 20 23 16
-150.094834560526 339.290189882907 2903.50460309992 18 21 14
-163.123613652877 337.15513008215 2881.72721910161 29 32 25
-157.566767944075 336.397978005959 2876.91580755163 29 32 25
-137.018601511278 336.726365997986 2885.57095566576 23 26 19
-134.429239802949 335.747514756037 2878.03933126599 24 27 20
-131.103344407043 334.824556185871 2871.19254084384 31 33 28
-136.859692302025 333.261962225357 2856.34172498889 15 17 12
-119.944200413136 333.302543882803 2861.53037231122 23 25 20
-134.882243451035 331.113685666348 2838.76132736025 20 22 17
-107.264739323544 331.885617132835 2853.19664660465 16 18 13
-107.795866386873 330.705372156985 2843.07792353596 15 17 12
-119.850885319281 328.748906503294 2823.10191105531 16 18 13
-112.031575169676 328.151160963671 2820.29860542196 24 29 25
-102.660806507918 327.654689150394 2818.79646041752 26 30 29
-94.8147352210018 327.053010274024 2815.96998543266 30 35 31
-64.505535665949 327.926483205277 2832.04175563605 31 36 30
-68.2211949988902 326.553634538185 2819.39075471474 36 38 33
-66.5387346546584 325.540112048433 2811.32245363672 37 39 34
-67.2189777979399 324.379088157211 2801.33253476849 43 45 40
-58.544227639973 323.820241619918 2799.11079733705 44 46 41
-50.6385313477127 323.209649632941 2796.23270097404 44 46 41
-40.3620386746133 322.745147537607 2795.26890163348 38 40 37
-37.1588132923097 321.836613107539 2788.52834025265 36 38 35
-46.617765188921 320.150765755627 2771.59382854543 43 44 39
-18.9028941192837 320.750796174968 2784.62260941223 40 41 35
-14.1194483976657 319.939444724628 2779.15862177188 36 37 31
8.18600779544498 320.181385648879 2787.61448473695 38 39 33
-6.16549496503804 318.223418781655 2766.98208980709 49 52 45
6.6063535503349 317.887348646029 2767.82474175035 54 57 50
21.8224640371822 317.687354907592 2770.51808033566 54 56 51
49.1592953992432 318.181656688654 2782.55163054476 34 36 31
71.7639272721309 318.382229220913 2790.74845526264 38 40 35
77.4655180431205 317.601496877245 2785.81174076518 43 45 40
74.245434022215 316.316017960208 2774.05421713447 88 90 85
360.428109407255 314.630679656839 2842.30270756531 161 148 140
367.420823251998 313.829453584633 2837.57032396292 133 110 102
374.416584359307 313.027802161429 2832.83530194481 126 96 86
372.091453063365 311.776155525697 2821.62513225675 120 78 66
368.025598962873 310.449068017373 2809.27767670748 125 81 70
368.168200427022 309.330344678548 2799.89755560465 144 104 94
378.526735164906 308.696095189719 2797.54048655281 173 139 129
390.616272517723 308.138700406907 2796.32911903824 204 179 172
-207.845441056064 367.342662824065 3192.90491990326 166 149 139
-206.60296522342 366.105259020583 3182.57258271595 165 145 134
-209.4791821813 364.506969697919 3167.87220690374 150 128 117
-207.623603583337 363.339124575835 3158.33128164211 136 114 103
-207.850022196927 361.993789538272 3146.62626572303 110 88 77
-206.738508983178 360.773132122298 3136.40701451506 102 82 73
-202.206744297169 359.854463034842 3129.8386024237 102 87 82
-195.60806644465 359.114866107718 3125.44734462083 98 87 83
-191.781417648656 358.138124367587 3118.16688174373 90 82 79
-132.515003762665 339.064658249451 2971.6404229845 0 1 0
-128.97778149188 338.123121188025 2964.61058835292 18 19 13
-95.9693373889912 339.312702023725 2984.95771328257 15 16 10
-96.0721036851955 338.098371953981 2974.46761989918 18 19 13
-111.773879518298 335.782186441719 2949.71451744087 28 29 23
-146.176847789031 332.172136710481 2908.0950645548 22 23 17
-155.461702282086 330.364315364509 2889.68718589248 32 35 28
-150.629501078289 329.552596158478 2884.18094250629 29 32 25
-138.308264484723 329.257006774652 2885.41357817011 20 23 16
-137.222885891044 328.187091663937 2876.5395783478 21 24 17
-145.958512650266 326.457468314719 2858.97873392678 37 40 33
-149.484114824785 325.093488854709 2846.16294616206 35 38 31
-151.544520009298 323.837062475019 2834.72335981062 31 34 27
-130.097299124583 324.14131449546 2843.92268238893 28 31 24
-126.084133715048 323.286452424461 2837.80334546026 24 27 20
-110.623747066756 323.176777754135 2841.60763671833 22 25 18
-105.066548714674 322.418575093566 2836.79592632755 15 17 12
-107.95692115943 321.12084506927 2824.75239369708 18 20 15
-109.353160398622 319.926793438213 2814.06032304268 19 20 15
-94.5764724238183 319.756012110867 2817.13402010403 19 21 16
-89.813483494305 318.951817241254 2811.68771672588 20 21 16
