ply
format ascii 1.0
comment KinectMotionCapture
element vertex 761
property float x
property float y
property float z
property uchar red
property uchar green
property uchar blue
end_header
-65.1400160583415 725.075193800888 3400.34781398674 221 223 222
-51.9875762447646 722.960008949177 3394.90032326107 194 196 195
-40.319537765596 721.29056221613 3392.08511201646 198 200 199
-32.0162755262858 720.654080268579 3395.45186853423 202 204 203
-18.0326292049813 718.252454631928 3388.18522507477 163 164 166
-3.16709012065641 715.561323437002 3379.12023184451 157 158 160
15.8426933551119 711.555124909033 3362.03313674091 166 166 168
31.4774500227841 708.582643523767 3351.12385331446 171 172 174
45.6427426056571 706.05483635908 3342.85290541984 156 157 159
58.8220283743937 703.823732018024 3336.33835492628 156 157 159
71.9466248350056 701.596362847319 3329.80163280706 182 183 185
82.7387005665032 700.101232784315 3327.70923731149 179 180 182
93.9543806977363 698.462484810475 3324.71063668275 202 203 205
106.036559140414 696.535396589776 3319.90718711935 195 196 198
118.969993019702 694.321110596544 3313.29296545599 199 200 202
128.730554181587 693.124949303002 3312.93826719132 197 198 200
139.80038160226 691.495694690501 3309.88053987449 222 223 225
152.597085907747 689.290657458404 3303.21088727058 217 218 220
165.33899547158 687.089339275879 3296.51876324737 211 211 213
176.719887419875 685.324277217773 3292.50920499787 209 209 211
188.06095844967 683.561891887582 3288.48350325122 205 205 207
198.932084472059 681.945755279888 3285.34496648603 202 202 204
208.485136067319 680.762502376337 3284.90640844987 197 197 199
216.317756530196 680.153744318161 3288.08239530132 193 193 195
225.841656531325 678.971874511181 3287.63202350736 190 190 192
234.505708992357 678.076926795343 3288.98894702103 184 184 186
244.830456111936 676.61122532332 3286.7073676414 180 180 182
253.050135751937 675.860166111047 3288.96208525031 173 173 175
262.915312069074 674.539646914324 3287.57213660429 174 174 176
271.935691537881 673.504827482593 3287.99558644945 172 170 171
280.533865504921 672.612648376144 3289.3258152415 171 169 170
287.90742812127 672.146037733625 3293.39392074875 168 166 167
293.676981141113 672.244703490377 3301.12352204691 165 163 164
300.27190991368 672.058191985393 3307.03185742919 161 159 160
307.279699409518 671.728794218717 3312.02963209399 149 147 148
313.903179155026 671.539064256017 3317.94955195833 155 153 154
320.542257038857 671.347536023049 3323.87554380241 146 144 145
326.417205885162 671.435574560139 3331.64815690329 149 147 148
334.253759918133 670.819182279991 3334.82579429478 103 101 102
340.551895634779 670.762894199003 3341.69178135306 121 119 120
348.016877725042 670.284652433334 3345.79673289295 162 160 161
356.246204785651 669.525919320169 3348.05567206686 148 146 147
364.847613685845 668.627530779835 3349.38751495284 129 127 128
374.562642452128 667.311321341063 3347.93648273202 153 151 152
384.62435022951 665.857439205559 3345.54805376911 162 160 161
393.547305548061 664.82232850888 3345.93205947254 158 156 157
399.519654489528 664.898077347128 3353.74420233569 160 158 159
406.974933141227 664.417047688596 3357.8452461534 166 164 165
414.073317612457 664.073508335852 3362.87980927239 169 167 168
423.337657904339 662.899620088509 3362.32428308978 177 175 176
428.300306734281 663.382426801394 3372.96094456108 180 178 179
433.65758274572 663.723702197771 3382.67965241267 184 182 183
437.291587832503 664.749539328826 3397.08998643302 187 186 184
444.128823048837 664.533817841251 3403.09665138444 191 190 186
-63.8625174862881 715.496210309299 3396.62218040711 214 216 215
-54.0852386024389 714.423032216728 3397.35238422065 201 203 202
-41.4507826456818 712.482255463415 3392.77265167222 176 178 177
-33.1446556020836 711.845157998123 3396.14057279444 181 183 182
-20.5762903772129 709.908745322161 3391.53430472411 163 164 166
-5.22650613085074 707.110472575385 3381.58712566907 162 163 165
14.2641555852332 703.022081366928 3363.61654961881 155 155 157
29.4416231881767 700.23626542278 3353.59950635434 169 170 172
42.6906938901557 698.030028300512 3347.11302279998 156 157 159
55.424339208493 695.97091799906 3341.49554011519 157 158 160
68.1083696171625 693.915230497035 3335.85794276049 181 182 184
78.4639320720866 692.577802169435 3334.66641893359 179 180 182
90.154848546822 690.8134926287 3330.7823817184 200 201 203
103.158351744071 688.624086625011 3324.19608481624 195 196 198
117.899689488524 685.869023235609 3314.00247978705 196 197 199
128.109568699181 684.541134618955 3312.75189753645 196 197 199
139.181166860106 682.930658850544 3309.6947448413 222 223 225
151.539868806292 680.897130058616 3303.92525633595 215 216 218
164.724912083244 678.583762655284 3296.33459517838 209 209 211
176.54323884297 676.698913563595 3291.42425100005 207 207 209
187.450784016537 675.099462794495 3288.30059084405 204 204 206
197.462749787681 673.784176019408 3286.96977932295 201 201 203
206.594116283046 672.752100081419 3287.43814623531 198 198 200
215.285513627264 671.861256958557 3288.80636761364 193 193 195
224.390323031314 670.830239007339 3289.26397372829 189 189 191
233.060219083454 669.940178275926 3290.62322622866 184 184 186
242.973870665933 668.630284291655 3289.25282433853 180 180 182
251.20177805466 667.881203358793 3291.51085830989 173 173 175
259.425043032939 667.131976724565 3293.76727093302 174 174 176
268.874334153947 665.964356805651 3293.28658252089 172 170 171
277.896172143197 664.93704327118 3293.710566018 170 168 169
285.687840241325 664.32749490517 3296.86997753692 167 165 166
291.8695604758 664.272778863483 3303.68881687415 164 162 163
298.871988754068 663.938754775344 3308.68445588613 161 159 160
306.67998598901 663.326478055964 3311.85049963723 151 149 150
313.698398832903 662.990146872824 3316.85237094738 156 154 155
319.942277437394 662.928623192749 3323.69642936908 146 144 145
325.426803328224 663.140674323856 3332.3888311382 149 147 148
330.554629722872 663.487426161476 3342.01459495274 111 109 110
337.642376189706 663.143713444135 3347.04485213304 109 107 108
345.505123323609 662.524199851896 3350.23311858455 161 159 160
354.887144355084 661.356021669969 3349.72519722039 153 151 152
363.117339560242 660.599436905112 3351.98421438945 130 128 129
373.215997730289 659.159568370412 3349.61089738648 149 147 148
381.795687529249 658.267329439335 3350.93364252305 160 158 159
390.734893200501 657.239150471799 3351.32417533876 156 154 155
397.089124970627 657.164011964872 3358.21301817345 159 157 158
405.65099573761 656.27168498576 3359.52880640393 165 163 164
412.754613869104 655.92220710439 3364.56527638083 168 166 167
420.587248872178 655.300566144079 3367.7413667684 175 173 174
426.634871452638 655.354630077972 3375.58415176128 177 175 176
431.644463156245 655.811301556429 3386.24001816809 177 175 176
436.342484899021 656.399122686979 3397.8478033926 184 182 183
442.13403566572 656.578898590968 3406.66476200003 188 187 185
-66.4533332013548 707.076620610683 3399.95248544166 219 221 220
-56.1837972826511 705.868283331562 3399.80421697365 197 199 198
-45.454509300686 704.518998933453 3398.76410183536 187 189 188
-36.1781307950435 703.596722987248 3400.36941620106 166 168 167
-25.0158701270979 702.108219191379 3398.42685574293 141 142 144
-8.22912327714342 698.924664441128 3385.82773135935 147 148 150
12.2164134190659 694.618036826578 3366.0878153211 148 148 150
28.3369632211281 691.590087239548 3354.29658116302 164 165 167
40.6639515798257 689.69500522245 3349.59226803152 153 154 156
54.3296102197335 687.38097940506 3342.19620962599 161 162 164
66.1014736240411 685.632911733758 3338.34482414117 176 177 179
76.4660202464651 684.308161454424 3337.15684184401 179 180 182
87.7130125080332 682.704860616384 3334.17065059577 193 194 196
100.278203019373 680.684232524761 3328.48467006632 195 196 198
114.587182218224 678.108419752823 3319.19345559234 189 190 192
125.705241957565 676.513779818187 3316.15499483041 198 199 201
137.232088965903 674.782111057482 3312.20402241385 219 220 222
151.363901906033 672.218720881383 3302.84098041478 209 210 212
165.425561686354 669.660320935671 3293.44949607287 204 204 206
178.110067459807 667.522878529847 3286.73364549993 203 203 205
186.840719509853 666.635650141778 3288.11773343233 201 201 203
194.700713106932 666.025231458359 3291.30481605932 199 199 201
203.845753655377 665.000082148543 3291.77866699711 195 195 197
215.104280801099 663.286145077574 3287.71891936442 190 190 192
225.899772302483 661.712548524079 3284.54969350113 186 186 188
234.97830342463 660.691234004983 3284.99658617591 183 183 185
242.788211742316 660.082482104419 3288.16337699373 179 179 181
250.183150787028 659.610292400868 3292.24017995341 173 173 175
257.583780536736 659.137208926627 3296.31903658728 173 173 175
266.221136667007 658.25310362204 3297.66506876291 172 170 171
275.664477473027 657.096326289257 3297.18188892647 170 168 169
283.466718262672 656.485880492612 3300.34558805568 167 165 166
290.060990807163 656.283131991348 3306.25378080786 164 162 163
296.270602935933 656.214699227375 3313.08401734485 161 159 160
304.091720681872 655.601323218398 3316.25538183038 153 151 152
311.913160779964 654.987413573191 3319.42688087883 156 154 155
318.949550720678 654.643645186066 3324.43634458688 147 145 146
323.265627466503 655.244307782858 3335.88912842196 149 147 148
328.015030581423 655.706046314835 3346.43986512899 121 119 120
334.345476195845 655.62517088734 3353.31912060176 97 95 96
342.991388919113 654.735151836966 3354.6689193325 156 154 155
351.627403788393 653.84544418016 3356.01445090533 160 158 159
360.630820940675 652.821831697929 3356.43094788287 134 132 133
369.619125276411 651.799028031159 3356.84131965727 140 138 139
379.709417481357 650.375728173497 3354.4642325216 157 155 156
388.28989203488 649.488412958395 3355.78751530587 154 152 153
396.493045136854 648.734688001922 3358.03556164203 157 155 156
404.32627195346 648.113986459029 3361.21188453018 163 161 162
412.159451708409 647.492870212024 3364.38819150674 166 164 165
418.194003837684 647.534759174558 3372.22577664934 172 170 171
424.611016924331 647.441615431195 3379.14017566988 174 172 173
429.274983619791 648.007985133802 3390.73433484255 174 172 175
435.744916848748 647.909662321058 3397.67020011038 182 180 181
442.234938106318 647.809329538738 3404.61421411394 185 184 182
452.909246024049 646.126430742019 3400.31794221247 135 134 129
-67.5935552555555 698.214987505758 3400.63679450233 220 222 221
-58.7647278856449 697.435327584415 3403.13862573117 178 180 179
-47.5451645392437 695.959290105969 3401.21917223099 198 200 199
-38.2604665203072 695.041465877104 3402.82782136599 175 177 176
-28.0368133432394 693.846154063708 3402.66061934435 130 131 133
-14.0617337731652 691.542457459908 3395.39002221907 142 143 145
5.01078569020175 687.719613088952 3378.32693869865 156 156 158
23.5018198686208 684.043510387318 3362.1061117803 162 163 165
37.7087770197597 681.618445023264 3353.85125481987 152 153 155
53.2346988461998 678.784151121196 3342.89685751246 163 164 166
65.0110073584373 677.057429997623 3339.04711001938 172 173 175
75.8355584954684 675.608324940647 3336.96751472884 180 181 183
87.0842643081369 674.023777589635 3333.981875139 191 192 194
101.456226570795 671.481620038032 3324.71590696474 193 194 196
113.515396826576 669.629102229906 3319.90257632579 189 190 192
125.529878345356 667.779557153676 3315.07112900078 202 203 205
136.612522560239 666.206223828465 3312.01816724517 215 216 218
150.306494701766 663.817019217007 3303.55533446757 206 207 209
165.689206651938 660.887930371532 3291.46486287049 202 202 204
177.935212735951 658.91662065714 3285.64927300391 201 201 203
185.797424560723 658.306235444059 3288.83725352191 199 199 201
193.660299771397 657.695439015539 3292.02550575707 197 197 199
202.380587934738 656.813341032158 3293.40510131142 194 194 196
215.349169924602 654.580002497011 3285.72644713913 188 188 190
226.141372475925 653.025705209591 3282.55574332003 185 185 187
234.795127871301 652.147503642349 3283.9083706934 182 182 184
242.18475283845 651.673319445013 3287.98277991182 179 179 181
249.164281219409 651.332531802071 3292.96919818323 172 172 174
256.980754099027 650.722213721771 3296.13865881697 173 173 175
265.208250637469 649.977404029132 3298.39675128967 173 171 172
273.023141360172 649.366254882515 3301.56557761852 171 169 170
280.838466712167 648.754593092211 3304.73458381139 168 166 167
287.848301121284 648.409168169579 3309.73305070204 166 164 165
295.669485397174 647.796145546176 3312.90443944651 163 161 162
302.695163470537 647.448563304209 3317.9095949032 161 159 160
310.522101279181 646.834158309597 3321.08332369038 151 149 150
316.777974566935 646.749537267178 3327.93241374621 153 151 152
322.27372133044 646.927643204753 3336.62961606263 149 147 148
326.249045307896 647.631550732839 3349.0227143132 139 137 138
332.586753654601 647.539101089772 3355.90499814431 115 113 114
339.710299825789 647.180985353073 3360.94985954268 123 121 122
347.984750012008 646.426752407084 3363.22677741444 156 154 155
356.631771900767 645.541158575365 3364.57699169649 149 147 148
366.394160507636 644.262233199731 3363.14485253715 122 120 121
375.386094934199 643.246823156873 3363.556638068 145 143 144
384.732854764964 642.101314207952 3363.03426786645 157 155 156
393.691872563898 641.087525782109 3363.43271339615 157 155 156
402.270629846387 640.204829830879 3364.75526585676 156 154 155
409.751993911659 639.713006162919 3368.8669532896 158 156 157
415.798799998244 639.740270841875 3376.70935359438 168 166 167
422.942835547074 639.375660017814 3381.76256022785 172 170 171
430.096865212749 639.009779169786 3386.81982303498 177 175 178
436.204089383996 639.03079252262 3394.6867335783 181 179 180
441.636921739025 639.307650591069 3404.43652192485 187 186 184
449.535520918807 638.678392368565 3407.63937847782 198 197 192
-67.7656641898869 689.072798656419 3399.55759596776 209 211 210
-57.4939245037422 687.885447517309 3399.41006072037 220 222 221
-48.1994150822385 686.972320876782 3401.02238958989 176 178 177
-39.8671312920471 686.33222453189 3404.40092412452 169 171 170
-32.9558847274185 686.100118669825 3410.43767993653 147 148 150
-19.8982865094557 684.098909178976 3404.95092461737 131 132 134
-1.26206769202342 680.472036290911 3388.78850878402 148 148 150
19.5963349773252 676.175404795494 3368.1366181206 160 161 163
36.1435803813812 673.107208847619 3355.43990413367 150 151 153
53.0623407246593 669.910346827803 3341.81552380198 164 165 167
65.7558936721057 667.935290036776 3336.18117089707 169 170 172
77.9434481894656 666.09848363673 3331.41970304948 181 182 184
88.2710359085108 664.803077165484 3330.21679116221 190 191 193
101.733480132716 662.568305097921 3322.73785195512 192 193 195
111.545755578118 661.411438615251 3322.40405182071 190 191 193
124.462361939291 659.317619607528 3315.78210370736 208 209 211
137.324262494283 657.227602267338 3309.13771955782 210 211 213
151.895841015946 654.606975414949 3298.8743612276 203 204 206
163.760485574984 652.792255663654 3293.9819820108 201 201 203
176.888677789798 650.580947063113 3286.36752868234 199 199 201
184.753796670996 649.970152201091 3289.55668935195 197 197 199
192.619625621431 649.358822872793 3292.74614157469 195 195 197
201.343094637975 648.48184731165 3294.12724343399 192 192 194
213.891105892805 646.413201930374 3287.3556057331 186 186 188
223.419759372165 645.27408397236 3286.90683454149 183 183 185
232.086985943931 644.400135182206 3288.26488406402 181 181 183
239.907857000254 643.79012617974 3291.43612314567 179 179 181
248.145062838031 643.048074027575 3293.6981259436 172 172 174
257.204437984617 642.042982121795 3294.13713953636 172 172 174
264.605890872499 641.563611303202 3298.21663433597 172 170 171
271.196508242085 641.345406805491 3304.12320705937 170 168 169
277.802706796591 641.125543993013 3310.03635829048 168 166 167
286.037223683313 640.381403501444 3312.29728818018 166 164 165
294.267047231536 639.637186533517 3314.55631834999 164 162 163
300.501658303971 639.544088119097 3321.39686374138 164 162 163
307.152427805569 639.318900750938 3327.32810179243 153 151 152
313.425691028378 639.221873245601 3334.18432694758 156 154 155
319.719502882378 639.122739501907 3341.0488880629 150 148 149
324.869909657018 639.409928735032 3350.68424598191 147 145 146
330.826847680041 639.435311774787 3358.49053083219 134 132 133
335.660703846845 639.845353258353 3369.07559660564 88 86 87
343.197743150131 639.349770668797 3373.21011226675 139 137 138
351.49576676182 638.595911648345 3375.49657201751 152 150 151
361.289897195401 637.328214516938 3374.07745701884 115 113 114
372.177121360312 635.677199590793 3369.86689450245 135 133 134
382.283241572019 634.285068831595 3367.49623698806 156 154 155
391.991370743374 633.022696430403 3366.04200309998 156 154 155
398.752836345358 632.783149752082 3372.01817005886 154 152 153
406.979919234222 632.032066453283 3374.27614259999 155 153 154
414.481731154272 631.535394830566 3378.39614597079 165 163 164
421.630896533267 631.164937954326 3383.4514739477 169 167 168
428.435067875843 630.920065056882 3389.44497253021 171 169 172
433.844386544362 631.180106038532 3399.18536782031 177 175 176
439.988917372088 631.183936942442 3407.06751380328 186 185 183
448.242952092196 630.42790882374 3409.33643643066 186 185 180
-68.421415379877 680.068912131396 3399.3603339538 209 211 210
-57.1848829176806 678.62407830966 3397.44751461339 202 204 203
-47.4154978248247 677.582639088837 3398.17428171478 206 208 207
-40.0440634643444 677.209964604255 3403.31962163922 169 171 170
-33.6098622844496 677.102906098901 3410.24108546725 144 145 147
-23.3804270330837 675.927962740435 3410.07632740582 139 139 141
-6.60127811381961 672.891695102177 3397.47326750423 148 148 150
14.7548154685027 668.533541909515 3375.94428931944 160 160 162
31.7930011165406 665.379641688757 3362.36793781033 149 149 151
49.6591979593564 661.967852412397 3346.97118062003 164 165 167
63.2884814596424 659.754024024424 3339.55963470852 164 165 167
76.4013751012895 657.67651420614 3333.01703830763 182 183 185
85.8273507221099 656.657709802268 3333.60458977673 191 192 194
99.7540457275889 654.322993839854 3325.23557183177 189 190 192
110.024125308391 653.044642250059 3324.00898880813 195 196 198
124.734087683659 650.455014328456 3313.8014261581 217 218 220
137.593321649595 648.395150670627 3307.15599099537 202 203 205
150.397792620198 646.339063323271 3300.48809683318 201 202 204
161.391886593122 644.809627523158 3297.39894897957 200 200 202
173.660285648807 642.890999685201 3291.59202655459 196 196 198
184.143650822931 641.496961144767 3289.37387009143 191 191 193
192.441089134911 640.755337407505 3291.66025734491 189 189 191
200.734118535498 640.01364454731 3293.94485998529 188 188 190
211.15369367026 638.62331500982 3291.70084727309 184 184 186
220.696177396055 637.493920781901 3291.25760214724 182 182 184
229.376870941884 636.624165325676 3292.62107256799 181 181 183
238.047981507703 635.75481045438 3293.98065987158 178 178 180
245.877390495011 635.143527246617 3297.15536555924 172 172 174
255.361354882915 634.016976113073 3296.68840481746 172 172 172
264.003550933486 633.14853182029 3298.03653516293 170 168 169
271.002407189368 632.793665298437 3303.03062864172 168 166 167
278.011762763206 632.437543088612 3308.02923996442 165 163 164
285.83848221695 631.82426125175 3311.20287182802 164 162 163
294.066470926401 631.082795329101 3313.46088100586 162 160 161
299.899804672276 631.106404628178 3321.21713280295 158 156 157
305.758927251887 631.127497931445 3328.98358816045 159 157 158
312.036802139906 631.019100835639 3335.84202395118 148 146 147
318.335329489217 630.908505025029 3342.70858121654 147 145 146
323.48988082527 631.176058211132 3352.34576607504 151 149 150
328.29453345301 631.566864151318 3362.91915334223 145 143 144
331.607485806414 632.459312583669 3377.20050643136 116 114 115
339.167671093207 631.959092118364 3381.34417166478 103 101 102
347.111055299124 631.331994279994 3384.56514498299 149 147 148
356.180925961659 630.327380494447 3385.00866173846 110 108 109
365.981684193024 629.072314411621 3383.59187732178 119 117 118
376.868302552886 627.442831577243 3379.38116353838 150 148 149
387.346591552756 625.941176485832 3376.08270210233 151 149 150
395.597176801834 625.191518824735 3378.35017977696 154 152 153
404.568294309942 624.192283660278 3378.75341408358 155 153 154
412.082939932868 623.691870020689 3382.87889931993 158 156 157
419.960350889601 623.066322888878 3386.07314878218 160 158 159
427.127259916017 622.688517908457 3391.13545950651 163 161 164
433.246022933198 622.68120430307 3399.00751398412 163 161 162
440.09025273602 622.424011905183 3405.01732533234 177 176 174
445.559065321086 622.659194748707 3414.7819977064 188 187 183
455.20393708924 621.411368401395 3413.30204108802 187 186 181
-87.6505373017129 674.469629715832 3414.27355388536 207 207 207
-70.5306828025829 671.458284158313 3401.80825436094 211 211 213
-58.3210483277323 669.766242941542 3398.13369462131 170 170 172
-49.0276933000127 668.863429475041 3399.7454779139 205 205 207
-40.6972820436953 668.222704398163 3403.12325903842 200 200 202
-35.2125492135318 668.365787399329 3411.81626735544 146 146 146
-24.9770182108089 667.201061008301 3411.65389997878 124 122 123
-11.9440971486711 665.255515470578 3406.15673113617 148 146 147
9.44313114750517 660.971438832469 3384.63979769674 159 157 158
25.5819307036347 658.126895535424 3372.85481979188 147 145 146
43.4831217697156 654.769634540805 3357.47156097903 180 180 180
57.6045772158664 652.456364515147 3349.1814948313 162 162 162
72.1182155399205 650.018325638979 3339.97184387461 188 188 188
83.3822574861396 648.489290756364 3336.99199300741 189 189 189
99.5804282301735 645.544213775623 3324.15300795116 193 193 193
110.298447452056 644.150682499631 3322.02985740748 200 200 200
122.773505704205 642.244822290975 3316.30651305446 215 217 216
134.754711429673 640.470750774684 3311.46102052706 201 203 202
148.898990282208 638.059011226091 3302.10187641735 203 205 204
159.899883875523 636.547985729372 3299.01534213688 199 199 199
169.993168957258 635.294759591481 3297.71698582682 194 194 194
180.49581698566 633.915482294645 3295.50652496877 190 190 190
190.105849464977 632.7928409664 3295.09057867036 187 187 187
198.83848655327 631.925659630202 3296.47531837952 185 185 185
207.561734009635 631.058779310143 3297.85599678495 182 182 182
217.970842612448 629.685149571642 3295.60761966807 181 181 181
227.928814681425 628.439948691538 3294.25467247339 178 178 178
236.605750864028 627.575422452636 3295.6165819283 177 177 177
244.024407326843 627.089732624488 3299.70283300355 173 173 173
253.930823092291 625.84733126747 3298.32898980657 171 171 171
262.578961779236 624.983711749811 3299.67923248645 169 169 167
270.808751791477 624.24607281018 3301.93819921812 167 167 165
277.409490603431 624.009905254099 3307.84926342359 163 163 161
285.236607926439 623.396472342596 3311.02305752675 161 161 159
291.459975309167 623.282536131287 3317.85920837251 160 160 158
298.102451427738 623.041806508474 3323.78720629748 158 158 156
304.364546706823 622.923935205035 3330.63906762151 156 156 154
309.860326156894 623.052842820349 3339.33665608236 151 151 149
315.777760601247 623.054641150641 3347.12686775213 150 150 148
320.555624616654 623.425984915306 3357.68981324418 147 147 145
325.760158734484 623.669851945383 3367.34741531214 144 144 142
329.467232502693 624.40485432671 3380.710473403 130 129 127
336.276247568962 624.147762001772 3386.70602579491 99 98 96
342.722412965663 624.012228698629 3393.63254968092 126 125 123
351.067333801177 623.259669877694 3395.93824515733 115 113 114
360.52670316491 622.138594151878 3395.4612845621 97 95 96
371.81893198184 620.405689249623 3390.33651812533 151 149 150
383.433580962685 618.55359161409 3384.26439263772 150 148 149
391.707600992115 617.804737295843 3386.54135280005 150 148 149
401.065524614169 616.689875754865 3386.02327043964 151 150 148
408.240339108006 616.30693134332 3391.08882098731 158 157 155
417.214802407286 615.314753670686 3391.49335648725 162 161 159
424.396879370706 614.930301923723 3396.56211620923 163 163 163
431.941849659388 614.423396468638 3400.69967166792 173 173 171
438.440700705521 614.278608011505 3407.64759775233 175 175 173
444.26397330865 614.373319855947 3416.47804506937 179 179 177
449.426872513005 614.706387110912 3427.19717871187 185 185 183
-86.3610216011987 664.890590771221 3410.55278637638 228 228 228
-72.6408423455005 662.829943475674 3404.25594781243 205 205 207
-60.4217836032259 661.158764653003 3400.58504576077 188 188 190
-48.7214983579978 659.618604677716 3397.78165381875 202 202 204
-41.3503092296328 659.234233506275 3402.92698310814 149 149 151
-34.9170968647743 659.104568311889 3409.8482179245 187 185 186
-28.4625017267484 658.972940008 3416.77812535432 177 175 176
-15.8818357071966 657.180748916719 3412.17574462847 141 139 140
3.66069578978334 653.480803243495 3394.22296874785 156 154 155
22.6182710233285 649.916989574038 3377.11138173958 145 143 144
39.1504100321645 646.996740809802 3364.40742988074 175 173 174
52.8356795665286 644.84375225749 3357.01809116911 164 164 164
66.4610618423611 642.695114501786 3349.60472877874 189 189 189
80.935756200599 640.297820027771 3340.37900085425 186 186 186
98.0517535863419 637.148296687971 3325.75531344846 190 190 190
109.675032859664 635.518402521774 3321.84287157687 207 207 207
120.81189598573 634.016958176813 3318.81131777607 212 214 213
132.802810322278 632.266595779541 3313.96957648798 195 197 196
147.841338262256 629.641308962465 3302.81625262618 200 202 201
158.846511200476 628.148893445843 3299.73130996361 192 192 192
168.070237489749 627.158934851471 3300.23675346534 186 186 186
179.01613200747 625.67037898756 3297.12778013443 187 187 187
189.927340460479 624.18406313867 3294.00474568252 185 185 185
198.229086661116 623.446760631479 3296.29284441591 182 182 182
205.673369294996 622.957815079723 3300.38949602409 179 179 179
216.091647903822 621.599688030731 3298.14471427163 179 179 179
226.480122038432 620.243503901649 3295.88785017154 180 180 180
235.162824007384 619.383835509476 3297.25231455796 181 181 181
241.753899308255 619.141744065729 3303.15925375104 176 176 176
250.430108820783 618.281723305219 3304.52109205863 173 173 173
259.096763437417 617.422016654403 3305.87880204903 164 164 162
269.389091265515 616.071238301176 3303.5829680151 161 161 159
276.400985422962 615.703617280708 3308.58269435019 157 157 155
284.634758246721 614.967366409314 3310.8432631729 156 156 154
289.654034413819 615.209203658877 3320.42587099197 156 156 154
297.101361304379 614.715324492304 3324.5237925936 152 152 150
303.365614689624 614.586253515201 3331.37661261003 153 153 151
309.256769481554 614.576768560161 3339.15652658517 153 153 151
314.000360301888 614.929164302557 3349.70548149721 151 151 149
318.784684176341 615.277968770833 3360.27121338223 148 148 146
323.995875662564 615.502090333056 3369.93166063683 148 148 146
327.708844482592 616.20631917638 3383.29733884751 145 144 142
333.763369799432 616.181738741161 3391.14351481241 95 94 92
339.464996557451 616.275149331104 3399.92471845022 82 81 79
346.32479330528 616.004887924996 3405.9409318039 124 122 123
354.693313346373 615.25270640106 3408.2559223454 107 105 106
366.76475874777 613.301793450629 3401.29069134764 141 139 140
379.88524359281 610.995824824722 3391.51621857005 145 143 144
389.643169730141 609.770214629226 3390.08186847382 150 148 149
398.286084534455 608.903960408756 3391.4300160109 150 149 147
405.115421808848 608.633392436962 3397.43389886289 153 152 150
414.466735858286 607.529126833348 3396.91306001895 155 154 152
422.7308497812 606.782043663049 3399.18599584399 156 156 154
430.98971432123 606.034928070745 3401.45680647678 166 166 164
437.140252177154 605.997276642581 3409.34169908775 169 169 167
442.271873232521 606.311392273828 3420.04831207708 176 176 176
447.789302614374 606.503958497031 3429.8329920707 182 182 180
453.68490030727 606.575580616292 3438.69264109236 188 189 184
-85.0696833179667 655.332239398606 3406.83260001209 217 217 217
-73.7819137877345 653.932003907646 3404.94018815498 201 201 203
-63.0058192867888 652.659554001257 3403.91869948725 188 188 190
-53.2134911719524 651.639789056187 3404.65459177088 152 152 154
-45.8220744750171 651.247992536353 3409.8079101153 163 163 165
-39.3692764353102 651.10553228437 3416.73742924249 119 117 118
-33.3672675100776 651.086044567989 3424.56204586387 138 136 137
-22.1710465404583 649.690820694042 3422.63252865532 142 140 141
-3.52779520279833 646.302997726496 3406.47140553299 153 151 152
18.7232597674651 641.927570026639 3383.14730553406 145 143 144
38.0503762737767 638.309040253984 3365.10669253685 170 168 169
53.1197733692881 635.816106152356 3355.04392955025 164 164 164
65.3714521490116 634.071803794937 3350.30772400757 188 188 188
79.3970647235216 631.835921234295 3341.9780079565 186 186 186
95.6181704947534 628.987239291161 3329.14757848245 189 189 189
108.152725891423 627.131455447405 3323.44768731073 209 209 209
119.296376967046 625.648452218548 3320.41874212407 208 210 209
131.294370088107 623.921912218399 3315.57994364504 195 197 196
146.783488920515 621.216897520714 3303.53059979454 201 203 202
156.474602783195 620.110636849638 3303.14735861391 188 188 188
166.146243270717 619.005530472908 3302.75622405216 182 182 182
175.364055859609 618.023602086931 3303.25921227165 184 184 184
187.590203607024 616.189049367705 3297.43454532428 183 183 183
196.332043154671 615.331664945956 3298.82267955966 180 180 180
205.064281207862 614.47470705008 3300.20718021144 177 177 177
214.635577030892 613.37536896529 3299.77537308262 177 177 177
225.452427038197 611.913779778811 3296.61368891546 180 180 180
234.557564511533 610.938232532713 3297.07126463677 181 181 181
241.981638903488 610.446315170228 3301.15975659622 172 172 172
249.411328296844 609.953504620935 3305.25052880014 168 168 168
256.8465839071 609.459894414093 3309.34356078711 162 162 160
267.150502971432 608.124481282974 3307.0525607251 159 159 157
273.766056521866 607.870432562212 3312.96975884776 154 154 152
281.205227332122 607.375197087152 3317.06438839061 154 154 152
285.839894721027 607.715838977824 3327.56933006659 155 155 153
294.903235617835 606.740201372259 3328.00972610801 154 154 152
301.969893103343 606.360978759468 3333.03171366425 155 155 153
307.471743281647 606.456259553385 3341.73201500217 151 151 149
312.613049601796 606.667417282527 3351.36426450959 148 148 146
317.790104053201 606.875294433461 3361.01101304842 148 148 146
322.616596703128 607.198312022111 3371.59401422992 149 149 147
326.332908729988 607.872059169482 3384.96127712435 152 151 149
330.105165521988 608.540925597199 3398.35122865305 107 106 104
336.204908165858 608.498565853507 3406.21584755619 75 74 72
342.330205139849 608.453678805234 3414.0905751566 113 111 112
351.469163907681 607.467656593927 3414.56166705169 108 106 107
363.189931841352 605.662504023812 3408.53215254679 137 135 136
376.702257674815 603.276196451061 3397.83813421813 142 140 141
386.845212587964 601.946069609069 3395.48166361451 148 146 147
395.140687919997 601.200566508094 3397.76728547581 147 146 144
402.348526046529 600.804036781171 3402.8463100318 152 151 149
411.716247021687 599.709529866594 3402.33204026785 154 153 151
420.707773226051 598.732080103612 3402.74337278384 157 157 155
428.977391511274 597.986921989062 3405.01852269486 164 164 162
434.436066538092 598.165881610298 3414.77951659999 167 167 165
440.626396313481 598.110940494637 3422.68065172885 173 173 173
447.187356333938 597.938510926862 3429.65419203634 178 178 176
456.17011821214 596.959573717265 3430.0619872131 199 200 195
-84.7517810720142 646.041445760109 3404.87386455279 206 206 206
-75.893532577386 645.274010339219 3407.38751552858 208 208 210
-66.5564686220903 644.383449597363 3409.01716061106 173 173 175
-56.7481569609716 643.370368527546 3409.7594738576 180 180 182
-47.9089254315832 642.603399117341 3412.26516423987 190 190 192
-40.9738958308565 642.326489728126 3418.31188923352 123 121 122
-35.4400942026361 642.414935189156 3427.0251792975 129 127 128
-26.1148239248175 641.523580745253 3428.64979799288 108 106 107
-9.31907745595484 638.681734962716 3416.05198465708 136 134 135
15.755685537379 633.655239187856 3387.40275567179 145 143 144
36.4876417698481 629.736248838565 3366.69680532341 161 159 160
52.485197105185 627.040829413501 3354.85350831416 161 161 161
64.2816259945318 625.441904978543 3351.01068152888 183 183 183
77.8577638677844 623.361876395785 3343.57686038935 188 188 188
90.0172793169542 621.648367974685 3338.80310515628 191 191 191
104.830698231382 619.214634201424 3328.6359924656 203 203 203
118.227315770539 617.147423939844 3321.12938765302 197 199 198
131.564108522885 615.084480689142 3313.59827063802 199 201 200
144.841042100816 613.025801759813 3306.04288474426 194 196 195
154.980438801461 611.809803725095 3304.76317375026 179 179 179
165.969603516534 610.356195902518 3301.67145531961 178 178 178
175.620418371059 609.26299651725 3301.27154112805 179 179 179
186.979734680515 607.694244959084 3297.25175907489 175 175 175
195.722290433989 606.842093978783 3298.64014362889 172 172 172
204.028344523282 606.109112701663 3300.92995384218 170 170 170
213.178913192584 605.138848192291 3301.40562706519 175 175 175
222.314922988561 604.169318722446 3301.87539993194 185 185 185
232.274954092603 602.964213914056 3300.52298250871 182 182 182
239.709330604418 602.468551304889 3304.61567411158 170 170 170
247.149326319958 601.972054952075 3308.71064720986 167 167 167
253.359517774251 601.827475896449 3315.54195270634 159 159 157
264.501300748387 600.272079064006 3311.43373449243 156 156 154
271.942750678757 599.774212198319 3315.52930678011 152 152 150
279.793831505752 599.158492158642 3318.71282087237 152 152 150
284.030690220079 599.593599230254 3330.13504197904 152 152 150
292.703460914159 598.742040246961 3331.4954237954 152 152 150
300.97000817762 598.007173242944 3333.76899504106 151 151 149
306.867613425825 597.96953078282 3341.55173418654 149 149 147
311.616480505809 598.277453509324 3352.10316251214 151 151 149
316.406103981581 598.581723336289 3362.67137772868 159 159 157
320.463758053757 599.113587976759 3375.09911489053 162 162 160
323.0368474653 600.102629634594 3391.23778684347 163 162 160
326.062424127568 600.970392801779 3406.48177879863 113 112 110
332.563288592081 600.797469609193 3413.43073335552 91 90 88
339.837014661268 600.392874925217 3418.53675383024 106 105 103
348.242242098505 599.643194880385 3420.8665879763 115 114 112
359.240682109481 598.092663721123 3416.70055155643 125 124 122
373.516481462724 595.517067926892 3404.15921949624 136 135 133
385.14321139538 593.745876512911 3398.09137225347 142 141 139
393.44689738725 593.002532373575 3400.38030218854 140 139 137
401.023384403187 592.486315431548 3404.53068912573 150 149 147
409.321806279344 591.742491716692 3406.81749129263 153 152 150
418.683033080056 590.65902533144 3406.30025117263 154 154 152
426.963392680313 589.915795791411 3408.57973554807 160 160 158
433.834870871179 589.623687250501 3414.60084423074 163 163 161
440.024646688876 589.55513118439 3422.50185826366 171 171 171
446.239439610732 589.484199101368 3430.41327678124 175 175 173
454.882432875279 588.625470453587 3431.76139904453 179 180 175
463.855702788628 587.655175720137 3432.16528548423 207 208 203
-84.9207394628719 636.881134244391 3403.79607901587 198 198 198
-76.5498954950889 636.236787326848 3407.19025851187 199 199 201
-68.6605875812429 635.712344151868 3411.46736677089 216 216 218
-60.7651652118928 635.187112245553 3415.74721393462 199 199 201
-51.4300124032057 634.301161653887 3417.37579303713 198 198 200
-42.5791272463474 633.535355698246 3419.88645029863 209 207 208
-35.6229957830285 633.247808032596 3425.94179992244 194 192 193
-26.7697261366451 632.48116103516 3428.4531717952 137 135 136
-12.308538353186 630.284048755123 3420.29978042414 125 123 124
10.4606814051789 625.949427893957 3396.10610700867 143 141 142
30.7609421441475 622.220634432662 3376.30273271086 158 156 157
46.7899868767787 619.569046641305 3364.47185330405 160 160 160
60.9038444743635 617.397395819314 3356.17738017966 182 182 182
75.8629888819173 614.993899984193 3346.06904151522 188 188 188
88.9370787441599 613.068038020014 3339.50958428909 192 192 192
104.206258376247 610.556881169285 3328.44878459216 200 200 200
118.0530526498 608.404476438609 3320.04603353648 193 195 194
128.72052021201 607.078785739631 3317.90215799678 198 200 199
140.24334128924 605.520547539476 3313.94824095282 183 185 184
151.286577193686 604.082082991306 3310.87830078246 175 175 175
161.85790156907 602.76272976458 3308.6951922835 176 176 176
171.96473908292 601.562013755041 3307.40218247145 175 175 175
183.343780488803 600.013403553727 3303.3899770778 170 170 170
193.823574756299 598.700106563838 3301.16976278085 167 167 167
202.992143758091 597.736844352349 3301.65267113567 169 169 169
212.570782175805 596.658503700639 3301.22367781669 178 178 178
221.285551614756 595.812643427025 3302.60102143315 187 187 187
230.410395212077 594.851679863374 3303.06620825781 180 180 180
238.269532095579 594.237174616625 3306.25297498257 165 165 165
246.129224290166 593.622296605054 3309.43996937431 163 163 163
252.341629478729 593.46642921827 3316.27199953207 156 156 154
263.078384231829 592.047165628545 3313.077821773 155 155 153
271.338876184931 591.317052366764 3315.34890523425 151 151 149
277.977269574753 591.044038346846 3321.27549479815 151 151 149
281.818561890886 591.567819408356 3333.61568988646 151 151 149
289.304390793498 591.062396178971 3337.72954540788 151 151 149
297.985984801399 590.21507508351 3339.09321037301 150 150 148
304.292473472232 590.048914273888 3345.9634122887 153 153 151
309.052765258637 590.33389893448 3356.51989748796 157 157 155
314.243096397017 590.502138724063 3366.17232210385 164 164 162
317.922758159011 591.118654843856 3379.52517936082 166 166 164
320.122081309662 592.181008942171 3396.59102567972 155 153 154
322.397741485398 593.236961758423 3413.68757161363 117 116 114
329.676447005744 592.826891593131 3418.79564973556 107 106 104
338.471304155223 591.9672494095 3420.20526753619 112 111 109
348.751662097021 590.660482675991 3417.90451061042 128 127 123
359.373172296275 589.244018843341 3414.66339269859 117 116 112
371.803295489777 587.272600134288 3406.76473508686 131 130 126
383.073674382086 585.639339616916 3401.63036649287 141 140 138
392.115680402629 584.675733599385 3402.06203299761 139 138 136
400.058660646691 584.045529520761 3405.28286629897 148 146 147
408.360207923434 583.304237775052 3407.57091472683 150 148 149
417.368911561978 582.341985056619 3407.98908707498 154 154 152
425.654927167305 581.601086990687 3410.27084385494 158 158 156
432.882461333833 581.1903541377 3415.35795085405 162 162 160
439.422753144916 580.998167642601 3422.32301527531 169 169 169
444.598880609481 581.242525192616 3433.0481773422 172 172 170
451.876342977956 580.826581323612 3438.15553941525 173 173 171
460.527322586579 579.972385151676 3439.50711816439 198 199 194
-85.0890033668097 627.72516124933 3402.71854178698 226 226 226
-76.2348913189672 626.962686199329 3405.23048034646 191 191 193
-67.8676000687157 626.317843667601 3408.62322512888 180 180 182
-59.0185107646739 625.555144325069 3411.13287448845 192 192 194
-50.1734156510671 624.792457140275 3413.64116376295 158 158 160
-42.2829908528737 624.263830813602 3417.91875594769 123 121 122
-35.3322296356016 623.968100863685 3423.97199321634 120 118 119
-26.0132671198015 623.087522247647 3425.5942334922 144 142 143
-12.4923922027924 621.158995171224 3419.21543934925 126 124 125
7.48852322865967 617.606470696666 3400.360493694 149 147 148
25.9556868139843 614.411573897309 3384.12635433177 148 146 147
42.4715193450671 611.688419103282 3371.4140489503 154 154 154
57.9815950044347 609.203272167383 3360.45084642963 190 190 190
74.7774869885662 606.37746143046 3346.77390510071 189 189 189
88.309351525329 604.365743250526 3339.32138299956 188 188 188
103.581984471695 601.897949355189 3328.26165284579 196 196 196
116.536391348785 600.010501283333 3321.65344565856 191 193 192
128.100646248247 598.471121991201 3317.71641915736 190 192 191
137.855163574032 597.392421372553 3317.3583834663 170 172 171
148.910186663016 595.972001860469 3314.29307906714 178 178 178
158.618159923259 594.896176449537 3313.91643344638 172 172 172
170.046367545289 593.365902197323 3309.92425335098 167 167 167
181.00251849084 591.952006479556 3306.81860964506 164 164 164
191.493821362587 590.654081258552 3304.60319581331 160 160 160
200.673463611152 589.697981620297 3305.09053335708 169 169 169
211.537857253249 588.290154725674 3301.94794899444 188 188 188
221.100604615287 587.223389884216 3301.51217653137 182 182 182
229.384302363254 586.496035416744 3303.79289217049 163 163 163
235.994656591435 586.218787067951 3309.7081609712 156 156 156
243.450176780892 585.715232570148 3313.80947331798 147 147 147
251.735527855138 584.98658147873 3316.09086820527 152 152 152
261.65482386423 583.810114293204 3314.72148313826 153 153 153
270.327916472555 582.970455137749 3316.08190509796 149 149 149
276.564098869668 582.80036016208 3322.92367032054 148 148 148
281.614917722387 582.962288290716 3332.5196552393 150 150 150
287.500504720889 582.898728655803 3340.29772472559 152 152 150
295.793556254918 582.167051953199 3342.58200318135 152 152 150
301.715315861789 582.099849340988 3350.37474631372 157 157 155
307.270865037645 582.140753401819 3359.09720215678 162 162 160
312.467819696933 582.289160741066 3368.75245891401 166 166 164
316.153340738918 582.874936045043 3382.10792155902 165 165 163
317.973515180268 584.005535037655 3400.09854411265 148 146 147
321.783671153426 584.580628772253 3413.50455152323 131 130 128
329.441538139573 584.055478125482 3417.68821357642 125 124 122
338.987966767326 582.982773278322 3417.24587879687 119 118 114
348.139917644938 582.020373954923 3417.72230927682 143 142 138
358.01997735156 580.840858449517 3416.33706081386 111 110 106
370.088866324455 579.010507223019 3409.36988091129 127 126 122
380.635937214503 577.61831681494 3406.09869629022 140 139 137
390.055621069184 576.553501778892 3405.6049836458 138 137 135
398.370544946628 575.81437813973 3407.89843173102 146 144 145
407.398110983296 574.859298523747 3408.32418696062 147 145 146
416.410318408631 573.905077085136 3408.74371709236 156 156 154
424.345652539291 573.274253383639 3411.96145923305 159 159 157
431.226912916626 572.965021054327 3417.98665844749 161 161 159
437.774424802165 572.761293611407 3424.95473370307 166 166 166
442.957024732756 572.983290194513 3435.68268591572 168 168 166
449.211037017165 572.881490249147 3443.60996081926 175 175 173
457.195772269295 572.244660425793 3446.84775064942 184 184 182
-95.5848587230961 619.679967804899 3401.76650621211 212 214 211
-84.7682019510081 618.458138020294 3400.76080000783 233 233 233
-75.9187165662909 617.6983906882 3403.27084458877 236 236 238
-69.4891579367813 617.513124316343 3410.19102147529 177 177 179
-61.5959899728968 616.981770057478 3414.46974502541 199 199 201
-53.2184666071329 616.335130548721 3417.86664633964 202 202 204
-43.4128809080148 615.345094509044 3418.60793841494 187 185 186
-36.4598258627396 615.040580478608 3424.66191379271 148 146 147
-26.6670689037709 614.050873410787 3425.39800910834 133 131 132
-15.4841131188312 612.720720718607 3423.46262769852 168 166 167
3.58367561677175 609.462149019669 3406.39335170685 148 146 147
22.0732140325444 606.3255544877 3390.16782983994 141 139 140
39.9918770753715 603.31034740551 3374.78930985805 152 152 152
55.0577526236316 600.980647379547 3364.72362652554 190 190 190
72.3257122632892 598.092589913342 3350.15948572161 188 188 188
88.5875436654568 595.437195292603 3337.3440807023 186 186 186
103.408231895844 593.125486371811 3327.17898639112 191 191 191
116.3625660618 591.267962000149 3320.57052295018 191 193 192
127.035676394744 589.974198408636 3318.42843290313 179 181 180
135.465467093156 589.241336544953 3320.76834228924 163 165 164
144.331267719934 588.396845838293 3322.20656975803 167 167 167
155.376190316463 586.995757161149 3319.13702921845 172 172 172
167.256708334336 585.374619992387 3314.24960974968 170 170 170
177.794535382057 584.089602030607 3312.0526781677 152 152 152
186.582231185796 583.249769718092 3313.45950346321 162 162 162
198.353466991401 581.636095252124 3308.5277798343 171 171 171
210.504743953678 579.915131165931 3302.67193726466 198 198 198
219.648577927156 578.969101458628 3303.14469996376 170 170 170
227.517967480058 578.353873576253 3306.33562339923 159 159 159
233.718292506902 578.177384104947 3313.16291869472 147 147 147
241.598961783249 577.560485461889 3316.35842187435 148 148 148
250.7171828586 576.614960725878 3316.8208102646 153 153 153
261.050131331282 575.342558455375 3314.54082917303 152 152 152
269.316699523178 574.617188779603 3316.81459413186 150 150 150
274.745476592344 574.653431835559 3325.48575617464 150 150 150
280.607348711306 574.578247100851 3333.25405456246 152 152 152
286.894495571597 574.392273223971 3340.11683252004 155 155 155
293.202381144982 574.204243238976 3346.98776579407 162 162 162
299.530874057364 574.014251804571 3353.86705770118 164 164 164
306.27197201378 573.714390774181 3359.83543511076 167 167 167
312.249458552248 573.628157764506 3367.65088592884 154 154 154
315.930677823969 574.183937517531 3381.00483417559 134 134 134
318.130104364273 575.163767928598 3398.07109063673 148 146 147
322.697212561182 575.495090683272 3409.62781408013 172 171 169
329.965761921034 575.07476659253 3414.73185776646 148 147 145
339.505648028254 574.01348382179 3414.28704461694 136 135 130
360.755484922641 571.257271297136 3407.80724449095 128 127 122
368.742497871202 570.624863776074 3411.04592302445 129 128 123
377.46283477444 569.780385573834 3412.4255103921 138 137 133
387.265563747123 568.619490043012 3411.00881012753 138 137 135
396.681157434259 567.565603907539 3410.51361579167 137 135 136
406.076358845088 566.51297475728 3410.01015523973 140 138 139
414.381543113693 565.77651113028 3412.2993824375 150 150 148
422.32740115137 565.144883527406 3415.52139172707 157 157 155
428.867071321605 564.931311136938 3422.48662377615 156 156 154
435.426882464891 564.715700108127 3429.45976898856 163 163 163
442.353086715632 564.393880768449 3435.50326106559 169 169 169
448.606533371515 564.278496685343 3443.43040991421 169 169 167
456.591632999062 563.641727657361 3446.66834681659 179 179 177
466.270358430352 562.486646281846 3445.20165155193 196 197 192
-98.6961484272348 611.198569006802 3405.96535164892 220 222 219
-88.84268781403 610.214100301467 3406.72572851293 199 199 199
-78.0312619879571 609.005740619391 3405.71805946244 190 190 192
-71.1112664333131 608.69639829167 3411.75894310999 157 157 159
-62.2511622779816 607.937488799131 3414.27302357891 159 159 161
-53.8733928885595 607.290411365661 3417.67002782573 157 157 159
-45.4943816893547 606.642876889313 3421.0675383368 163 161 162
-39.0075840580564 606.440666623336 3428.01127654699 183 181 182
-30.6161353514973 605.791578873616 3431.41383469022 193 191 192
-20.350418696647 604.697990950305 3431.2628928339 160 158 159
-3.11804473882438 601.943366964562 3417.76239761961 144 142 143
18.1881521189118 598.20016843016 3396.20855541525 145 143 144
37.9716328530948 594.798858537656 3377.27252368207 153 153 153
53.9646727463654 592.288659874339 3365.42573725284 188 188 188
70.7836909224888 589.564782792979 3351.75764415274 189 189 189
85.6952902248853 587.287236221453 3341.62910015038 188 188 188
100.531793781523 585.015185610367 3331.47036598033 191 191 191
112.605261992251 583.405272061047 3326.66098560807 194 196 195
125.970466738442 581.470748341944 3319.14039902341 169 171 170
134.84621120519 580.631053455118 3320.58287355823 160 162 161
142.831866558613 580.009393640065 3323.82092094637 160 160 160
153.445661543311 578.735422958362 3321.65466450944 168 168 168
