ply
format ascii 1.0
comment KinectMotionCapture
element vertex 803
property float x
property float y
property float z
property uchar red
property uchar green
property uchar blue
end_header
-117.197229845242 249.099535499982 3606.0685118445 15 16 8
-132.505561841009 247.554419154788 3573.02920466453 12 15 8
-126.445858822393 246.635813127773 3566.45973396266 13 16 9
-136.258921396944 245.278133377644 3540.56655904377 16 19 12
-149.999690418173 243.830961701051 3510.13805213362 15 18 11
-107.01207834927 243.916870913899 3548.31013582873 14 17 10
-93.91347091952 243.183856818178 3550.19540715453 11 13 8
-94.9193458946556 242.082828345979 3535.19397732662 11 13 8
-103.714971656863 240.794032831424 3511.06534423661 11 13 8
-105.491141927137 239.693579464503 3495.40829243015 12 14 9
-86.5473058891899 239.100805059344 3504.13667964766 11 13 8
-19.3343895669691 239.634366276876 3568.94946710582 9 11 6
0.571691577198941 239.01497570814 3578.16727524777 11 14 7
-20.7265885483272 237.451451042722 3539.73307270194 11 14 7
10.3903825754541 237.074291807892 3561.72944225261 11 14 7
15.940742048993 236.120639030257 3554.27840414113 12 15 8
61.9714618507983 229.610697733919 3510.45401118668 17 20 13
-173.019482554718 256.496239985833 3772.18247040921 16 19 12
-186.994566273645 254.868311705049 3737.98812564806 14 19 12
-207.108460691951 253.06397295773 3695.88241217459 12 19 11
-227.406795452368 251.284390987036 3653.93608383789 12 17 11
-201.405387335341 250.993538976616 3673.74911657699 17 16 12
-212.827950638323 249.523253170966 3643.95832448108 18 17 12
-200.061212376102 248.807811447536 3646.13112487386 9 6 1
-189.692259367447 248.013985133575 3645.08900535332 10 9 4
-198.879103624076 246.643769261276 3618.65346125636 14 15 9
-187.911376558751 245.869571483789 3618.41581192976 11 12 6
-160.2814924181 245.559881596853 3639.4640297784 12 13 7
-164.033639882482 244.360465241087 3620.22691071314 11 14 5
-143.049402999698 243.842268902959 3632.47968491058 12 15 6
-205.34551629847 241.097484135556 3539.59906754846 14 17 8
-147.615312273119 241.549104514967 3598.0745774535 16 17 9
-113.973686063071 241.332511681774 3625.82189347723 15 16 8
-113.458776127285 240.260476523425 3612.1489940827 15 16 8
-114.875959485019 239.14765259271 3596.18087557707 12 15 8
-149.236195879995 237.25493370676 3539.95612544721 14 17 10
-148.963167842477 236.215358991162 3526.49266344378 17 20 13
-137.908648602413 235.429139663514 3526.17986611956 15 18 11
-100.975418538341 234.167473185591 3543.14112212552 11 13 8
-70.5027008643255 233.775526432193 3565.69598512202 10 12 7
-93.8445712856844 231.20140523187 3510.51267017158 12 14 9
22.505570491469 229.275781126327 3590.97997373243 7 10 3
-5.39520106771274 227.716513628795 3545.03480498987 8 11 4
23.4588838894081 226.137814209919 3550.47337106928 11 14 7
57.4157508738735 223.570653626214 3547.52547967208 17 20 13
-178.108344695843 246.050022689198 3751.51701224532 17 23 13
-194.379493876728 243.364262248392 3699.46942959708 12 17 11
-192.40884813157 242.31889236572 3687.18145611614 15 16 11
-209.242415536285 240.781439468119 3650.17071662849 16 17 12
-188.564458172499 240.241112907284 3662.68909769853 9 11 6
-185.46089441979 238.165463471026 3637.51556530795 7 12 6
-168.309532034009 237.514639883966 3645.15109277261 10 17 10
-164.020062156421 236.547114280498 3636.1461656353 16 21 14
-142.445734476973 235.983550328868 3649.21104178406 11 18 10
-157.348944358178 234.576215923991 3615.81970787505 11 18 10
-136.941438503603 233.974642435245 3627.2496349989 12 18 8
-195.698844201565 231.643724677063 3539.23940695155 14 17 8
-124.028898623544 232.138745447851 3614.74650833516 15 16 8
-96.5311636915631 231.655462330195 3634.58712866936 16 17 9
-101.66955821854 230.493996937813 3613.9044365811 13 16 9
-114.473431990248 229.194054367216 3583.98619570571 13 16 9
-138.822947677102 227.692817391878 3540.25600881221 16 19 12
-67.9498156723111 224.880803057179 3570.15756566607 9 11 6
-61.51106745037 222.940697391178 3550.03262694547 11 13 8
-64.4887050312764 221.878324799757 3532.77016153481 11 13 8
-61.670708533081 220.91348468809 3522.39375860781 10 12 7
-19.0514668734454 220.53994133554 3558.24094667174 5 8 1
-38.4252376643723 219.246481057706 3522.10705081511 7 10 3
31.7372807469982 218.188080389743 3575.11017094271 11 14 7
26.094705766333 217.094222471078 3554.86434759095 12 15 8
133.481288775112 215.315377874804 3633.83628146246 18 21 14
-225.954602361584 235.776743051251 3688.50847348189 17 23 13
-196.847061990903 234.322327780067 3697.69665340878 10 15 9
-189.223534694579 231.305156195735 3663.31824823251 7 9 4
-196.49002647655 230.103218846844 3639.18695778677 10 15 9
-187.951134819169 229.237878424421 3635.76169901708 4 9 3
-176.99109912084 227.382909231644 3620.98058785597 8 13 6
-149.903526545687 226.863960300506 3641.17694176331 14 19 12
-133.21528565437 226.133679781327 3647.89112728473 13 18 11
-153.768860060569 224.730015305889 3607.48716475372 12 18 8
-130.832881175445 224.106459847731 3622.01907486204 13 16 9
-159.740720552688 222.595284059235 3571.65309735932 16 17 11
-113.525571233748 222.344761165076 3614.96981934121 16 17 11
-101.702730877436 221.511156920378 3615.31465841611 12 15 8
-94.271244537079 220.605244391285 3610.20265329112 12 15 8
-85.5669797598368 219.717553852441 3606.63420452349 14 17 10
-120.11238542465 218.207053567477 3550.56778598242 10 13 6
-80.5093309003841 216.76111790442 3570.50924672031 9 11 6
-64.1138983640897 215.975385058803 3576.15431822826 9 11 6
-58.6122698217038 215.044880872223 3568.74505145012 10 12 7
-36.3095372514213 214.316892451568 3581.17965837245 11 13 8
-71.6300555474505 212.910725823438 3525.78438172526 11 13 10
-46.7102397736485 212.209525223988 3541.24385398061 10 12 7
-31.465227525401 211.389046380963 3545.23942400148 5 7 2
0.856692971758832 210.733941736213 3568.84005896907 7 10 3
12.3215115486071 209.853646969622 3568.17225007282 9 12 5
21.8385345042669 208.951213220302 3565.22271098617 11 14 7
28.7283308108628 208.023335225603 3559.25708954893 11 14 7
44.5027750644069 206.183348831333 3549.56683299543 10 13 6
156.659981935789 205.016467092404 3646.89725805529 12 15 8
-195.316969576872 226.41576880934 3716.27219265975 11 16 9
-222.078306952804 223.851267350158 3650.81871952163 16 19 12
-194.212261163143 223.320612733851 3672.98725582224 15 18 11
-164.987278397773 222.791062827354 3696.62446718522 11 13 8
-176.379757643816 220.550521706309 3652.25577529784 8 10 5
-165.947302427228 219.697854248696 3651.15931293604 8 10 5
-152.412551705114 218.887703658291 3653.99032391187 9 11 6
-151.799186734731 217.884384457431 3640.23164471881 12 14 9
-162.997821029458 216.722608697404 3611.56802702172 12 14 9
-160.018499369603 215.768920424622 3601.05172551416 13 16 9
-173.902224660234 214.600514259214 3569.42205666164 14 16 11
-149.126819776223 213.933734454216 3586.33004836331 16 18 13
-131.765027268535 213.160598122929 3593.78398106712 17 19 14
-125.040051031141 212.254876459998 3587.96107153466 15 17 12
-118.314743857177 211.349114674017 3582.13787542759 14 16 11
-109.68724969271 210.463377715919 3578.63595385029 12 14 9
-91.5068958801197 209.672099652837 3586.70410399211 11 13 8
-84.0994800115018 208.766547176395 3581.61295927703 10 12 7
-82.1153818882614 206.842136206628 3556.08515157227 8 10 5
-58.6299626065752 206.072927361194 3570.14178577706 10 12 7
-24.696404106118 205.369663938694 3596.31596635675 10 12 7
-9.39238195555214 204.505447967793 3600.26067379187 9 11 6
-42.1661990333972 203.303295118844 3547.94980113279 6 8 3
-15.1625432074889 202.520623029274 3565.5740758915 7 9 4
5.42323694963587 201.681611384336 3575.52744848956 11 13 8
13.6201974894279 200.761850154491 3571.07564548615 11 13 8
56.0756005569774 200.015703934642 3605.74399195071 10 12 7
35.9850927364875 198.946771056982 3568.90660202517 10 12 7
112.747272222444 196.342418350259 3613.55273922807 13 16 9
106.45513084249 195.348567547133 3592.54569398942 13 16 9
-221.729958244486 217.009865194032 3682.32191066433 12 17 10
-207.185208429955 216.21173991945 3686.92427845546 16 19 12
-182.167975826697 214.538729327758 3690.39531900868 15 18 11
-157.763165359585 213.841790923137 3707.62471364081 12 14 9
-165.518404410975 212.742301009874 3682.59311328726 10 12 7
-117.760567056447 212.294287828834 3729.86737084064 9 11 6
-128.358810910775 207.200121482405 3642.48127511781 15 17 12
-163.950048314955 205.919715512058 3583.34941187837 15 17 12
-168.544789152066 204.930633373591 3563.51797493286 14 16 11
-154.385983623833 204.095374737586 3567.13183426254 13 15 10
-142.696057128943 203.235351161374 3567.59204575658 10 12 7
-109.076232399879 201.565340518337 3580.81085995955 10 12 7
-78.1793433033266 200.79809690928 3604.32377114254 10 12 7
-68.8132271761992 199.893842630756 3601.50504022553 11 13 8
-18.7171172711067 197.255333957993 3618.97645598538 8 10 5
29.5520751765728 196.47074966157 3661.839902072 8 10 5
-43.1217907223695 195.272410700933 3562.06395790137 7 9 4
1.38816883211135 194.458224502697 3600.24534631052 7 9 4
7.00029264566249 193.523792109826 3592.74065027688 8 10 5
11.9497648898954 192.589289088176 3584.48672224984 12 14 9
14.917671521617 191.653726330115 3573.98019710368 13 15 10
71.737068976363 187.931695501145 3582.98448187203 9 12 5
102.722320456134 186.974195386263 3603.77551732404 12 15 8
-165.293845650709 205.6834916575 3714.20469091871 14 17 10
-139.621617420002 204.908963471479 3732.98290905909 12 14 9
-119.909904023495 204.071507002265 3743.69385665896 10 12 7
-145.929516666519 202.900552939279 3694.79244271348 9 11 6
-105.357151859541 202.196955323444 3732.41587127958 8 10 5
-70.093061170589 201.429188245847 3762.73060877261 8 10 5
-100.534780836414 199.295201931953 3693.84764563274 11 13 8
-159.613781538198 197.122712732756 3590.23505191011 14 16 11
-167.315120305963 196.168510283074 3566.47905364903 11 13 8
-152.525255043713 195.301647224987 3570.86941649359 10 12 7
-99.418682511915 193.602389025782 3608.22248210845 8 10 5
-29.2721915523058 192.811501975708 3679.76467457041 9 11 6
-7.05623564344027 189.039607254798 3648.62377013821 9 11 6
21.6595768021626 186.210699805765 3639.63315170824 7 9 4
-7.7366324542445 185.322017678161 3591.00968903172 7 9 4
14.1510529487867 184.365229327556 3602.48225400974 9 11 6
6.69710794607914 183.464689345386 3579.83474381799 12 14 9
9.65194452418983 182.547416945511 3569.33974394797 13 15 10
82.8395314232986 180.481752543289 3625.02081457775 12 14 9
97.1903496316462 179.501377523751 3627.14561358859 12 14 9
85.0090817745581 178.63172084902 3599.33210229425 13 16 9
-168.003598598077 197.547190415188 3727.19308814914 16 19 12
-142.116673658181 195.735220160303 3731.23481194049 10 12 7
-171.026854727769 193.759776463443 3663.66990363284 9 11 6
-152.607417262439 192.870798347509 3672.85472534995 9 11 6
-64.6919205324315 190.164290861021 3740.91858946681 9 11 6
-180.203026459038 188.286052353932 3565.79024929858 12 14 9
8.17818912063428 182.525262135966 3712.21625401877 6 8 3
-28.7083686283207 181.709492956525 3652.88081975181 5 7 2
-37.7395354405876 180.830146086632 3627.6304244468 8 10 5
-17.3606587027342 179.845418369148 3637.76407191918 7 9 4
-37.4447087134055 179.029874899646 3599.59586642313 7 9 4
-8.62795416026874 177.998453885503 3619.62037337224 7 9 4
-8.17271891108451 177.098880177564 3605.99807861907 7 9 4
29.930995258209 175.990172250772 3636.500343422 7 9 4
22.6008332829828 175.133428540227 3613.74526223008 10 12 7
15.8341544166856 174.284664726143 3591.82531464849 13 15 10
-0.203102766446417 173.511066466339 3559.41279367291 13 15 10
63.2407132612789 172.174774492992 3618.24137091277 10 12 7
55.7457950545652 171.34039092586 3595.62894497448 10 12 7
79.2824413476758 170.266072066633 3608.31957962268 10 12 7
-209.83856497216 192.128124133968 3733.05086428217 18 21 14
-219.106878247705 191.185974114785 3705.3592665371 16 19 12
-196.183966542877 190.28624067759 3721.2278684654 15 18 11
-183.553110464422 187.527260880958 3693.09447636058 14 17 10
-165.077478931547 185.685136210111 3687.67963742845 10 12 7
-168.634742622173 184.78495216236 3668.27166655865 8 10 5
-161.84772766053 183.869819221186 3662.39504681926 9 11 6
-151.372384872945 182.944411593093 3661.26188361622 9 11 6
-89.5092622809286 180.934087712701 3710.87752338957 10 12 7
-157.179137341098 179.426422893958 3596.17972692943 12 14 9
-122.989705803016 178.387990356638 3624.78082679857 10 12 7
4.94538083155938 173.15256096303 3709.78562150068 6 8 3
3.11412923989751 172.263841817577 3692.85167774021 5 7 2
-32.1486699250091 170.770277713512 3621.52623215583 6 8 3
-38.9970582659456 169.098081882774 3585.12562484132 8 10 5
39.720296391117 167.494525785687 3663.80122390787 8 10 5
8.23631032345284 166.060096164542 3598.46393463454 9 11 6
23.657648118375 165.037018902588 3602.30798980896 12 14 9
48.313667557585 163.905184269648 3616.67563347673 13 15 10
63.2130844462893 162.871462157039 3619.64886436759 12 14 9
88.7204012664831 161.70615429184 3634.60213577521 12 15 8
15.9065121513251 160.893704438179 3524.35833618566 3 6 0
-185.561789011747 183.018427355409 3767.649083783 18 21 14
-207.25241629722 182.178438310165 3722.93363422128 15 18 11
-209.081507372531 179.521852605808 3675.57206503485 16 17 11
-207.173438644158 178.636757327755 3663.33697520739 15 16 10
-184.080629223244 177.63976514365 3679.05863540451 11 13 8
-177.907200216935 176.728577753947 3672.39054622833 10 12 7
-166.244580728648 175.783030265104 3672.87497988362 11 13 8
-166.183332446257 174.911976708875 3658.27072211288 12 14 9
-132.373501023038 173.803216336448 3687.20129077226 10 12 7
-132.904990330078 172.933802197436 3671.78750848042 10 12 7
-124.825963010605 172.00121881457 3667.43769001314 9 11 6
-138.529090153091 170.398769167938 3621.09748673509 11 13 8
-109.282376470025 169.278295360792 3643.39643146009 11 13 8
-82.3941416537757 168.162254525101 3662.44616686651 10 12 7
-99.5120465388202 166.62868031518 3612.44829249996 8 10 5
8.69931608526597 163.722518909429 3715.85651492043 6 8 3
4.33698103536884 162.899819778026 3695.82256535938 5 7 2
-2.01675663960454 162.110439359973 3673.54400648555 6 8 3
21.6790059147636 160.954884551402 3687.42083214667 7 9 4
62.2063500678047 159.568701074746 3721.11792228887 7 9 4
64.8751577258095 158.660793364259 3709.54719689673 8 10 5
35.7072383170429 157.341699395573 3646.17152463849 6 8 3
12.7730163304327 156.827949731358 3605.17835100961 8 10 5
34.743545498602 155.670208564593 3616.58041449786 12 14 9
69.2651903957104 154.31014078938 3642.24913556763 14 16 11
80.5574203535837 151.615259745811 3612.62904173216 15 18 11
45.7777799746801 151.365896121963 3559.40399238447 14 17 10
-181.906940120934 174.719481280238 3789.6789219015 32 35 28
-187.06630210444 172.991523118104 3751.81442056011 15 18 11
-226.075954131647 171.590896664792 3669.1794041735 20 21 15
-216.887533111505 169.820665461789 3651.96348341335 15 16 10
-198.073032465144 168.796372472713 3662.13002738692 11 13 8
-165.686408919745 166.773854543665 3675.09640925371 11 13 8
-155.21209301577 165.815022751186 3673.96435267703 11 13 8
-124.327358613888 163.768455991452 3684.26253355717 8 10 5
-158.883284903515 163.358082246852 3625.55126751537 7 9 4
-147.184718999558 162.385809147018 3626.00471830275 7 9 4
-132.962844672015 161.37603562955 3629.56504449786 9 11 6
-108.698884015637 160.22292848585 3645.59621383643 10 12 7
-44.2186835021712 158.489782551196 3711.46897175907 10 12 7
-65.4818944926405 157.95206344208 3670.35088903075 9 11 6
-32.000493262196 155.783614787855 3682.36933336133 8 10 5
11.2904149749444 153.427787259454 3705.73723023604 5 7 2
47.1346921037874 152.00012294402 3734.2301145655 4 6 1
58.8070471759838 150.956540386672 3733.38348443787 7 9 4
57.6475789084201 150.129933955149 3717.1901403036 8 10 5
30.6307077148835 149.76332456427 3670.47113488848 8 10 5
9.22019705916011 149.321838613451 3630.80367486633 8 10 5
-21.7699813398036 148.281432137377 3566.35909232914 9 11 6
38.6357272827476 146.342256446148 3622.53113864799 11 14 7
67.1013740689435 144.171156466373 3626.98664043784 15 18 11
70.1903618289466 143.301997818688 3616.3747396253 16 19 12
63.6850601445533 141.836392801393 3580.99868893193 16 19 12
-184.35793091659 165.534567312189 3787.8927040661 23 25 20
-196.996980290199 164.830939774413 3755.18121807986 17 20 13
-232.656882754104 161.97771733528 3647.15493829687 15 16 10
-221.765669191804 161.018525583727 3646.98480473914 14 15 9
-221.749281333504 160.213257390649 3632.41900281966 12 14 9
-153.090172222306 158.39194671718 3707.90387702073 11 13 8
-133.413608295162 157.269183921899 3718.64713872124 11 13 8
-93.1852650828451 154.978830217235 3740.69926389728 10 12 7
-140.398690333272 154.927863174732 3665.16569130496 11 13 8
-157.066748454827 154.404096764415 3629.32819113084 9 11 6
-107.529494413622 152.755336845403 3677.7147824073 7 9 4
-53.8007825685969 150.17670271986 3715.8578922797 12 14 9
-121.946943817136 150.615491429842 3616.11679773033 14 16 11
-20.0313435854884 146.279586861842 3698.52393796716 8 10 5
-33.9348407567597 145.748362893098 3666.90727715779 6 8 3
12.5297737579522 140.798312008288 3650.48739083472 9 11 6
22.7733089851743 139.782474676373 3648.23215317826 9 11 6
75.2254068997882 137.013945772992 3680.86604536822 8 11 4
13.1337571144359 137.658201961528 3594.40318644603 9 12 5
81.6447930932047 135.275725097394 3659.43331932184 10 13 6
70.3576766138094 134.757261492069 3632.16548450797 15 18 11
35.2200546382799 134.829802257409 3577.92536385702 17 20 13
24.289402927939 134.336327070126 3551.67166716136 26 29 20
78.2639831716963 132.237306067 3598.86202328032 17 20 11
-208.681967375978 156.719444449073 3756.09812196044 19 21 16
-197.666339259404 155.723435733963 3755.82039241134 18 19 13
-177.338406458677 153.750853083273 3752.77135640311 17 18 12
-248.961225941111 154.214695802177 3641.48662802988 17 18 12
-222.415892623834 152.176240519889 3647.60567498716 14 15 9
-195.145508694693 150.883588317102 3668.97216972433 12 14 9
-155.581744019525 149.33669428828 3706.15199198804 12 14 9
-134.696190991137 148.133234375445 3718.49473955426 11 13 8
-143.691990781773 147.520887973383 3691.88838382573 10 12 7
-59.6362537969561 141.796682135161 3724.94010581813 10 12 7
-52.4752734987053 140.058577880374 3704.18755810965 14 16 11
-106.411085728396 140.525024879704 3622.56718821519 11 13 8
-31.4418925714111 136.45054196712 3671.42373485494 6 8 3
-39.0995257850952 135.8695237341 3647.62743717614 5 7 2
-74.9465998894299 136.00237129507 3590.03173526752 5 7 2
21.5466667809308 132.043679085415 3677.13616255994 8 10 5
19.5829034069672 131.326814281646 3660.31564239102 11 13 8
-23.8307346857569 131.708501199451 3594.71972485127 11 13 8
-20.201950496928 130.869225186963 3584.96303030299 11 13 8
88.0668112553842 124.905541889472 3653.93432438944 16 19 12
-215.85052022612 147.766546312565 3747.81256325762 13 15 10
-159.786505157089 145.800695435932 3809.07114516761 17 18 12
-161.106586185846 145.03264222578 3791.6933695882 14 15 9
-166.066475587133 144.350968688501 3769.52959075594 16 17 11
-203.466212281443 144.402915494438 3704.01638891956 18 19 13
-197.275755710036 143.499005535627 3697.33349418272 14 15 7
-177.815370439171 142.289101815848 3708.26469037043 13 14 6
-154.635537144908 140.982265403809 3723.9129316468 12 14 9
-152.604789940048 140.167633233822 3711.57137088429 13 15 10
-166.987300585248 139.003152020699 3663.1703384048 9 11 6
-127.070650067507 137.260201644815 3700.04557227443 10 12 7
-100.476169886223 135.830520034786 3719.35194778188 10 12 7
-51.9051349889503 130.760913365468 3706.40048492454 11 13 8
-130.938803068734 132.181508383424 3593.59260937347 12 14 9
-66.8759162654049 129.677886207129 3658.50879992199 10 12 7
-14.4488853874245 127.462453730012 3708.36448792363 8 10 5
-12.4616387284417 126.655184744857 3696.06026742138 6 8 3
-23.2321750800426 126.219981762753 3668.34447002442 5 7 2
5.47156929956216 123.900768697277 3673.91814023317 6 8 3
2.22763467509246 123.260023878546 3655.56017549869 9 11 6
28.5649432712356 121.73180372144 3672.44325213811 10 12 7
-0.578072193029744 121.88686240734 3623.59357383452 11 13 8
-5.30406216926638 121.311480235099 3603.8732144495 10 12 7
90.0001183215542 115.409296538348 3657.61355257092 12 15 8
80.6513752399054 114.985895560988 3632.63514198014 14 17 8
90.3678026716337 113.947015547461 3629.51365604177 16 19 10
181.660041632928 108.721861539517 3689.37373818217 27 30 19
-116.596777554229 135.387027448155 3869.63278246328 17 18 12
-128.470419056524 134.915998288751 3837.57995910438 14 15 9
-151.412327367133 133.995140870142 3775.42233403942 17 18 12
-185.914529337401 134.182995798995 3714.01378940519 13 14 6
-174.861252504441 133.143282807835 3713.70371156512 13 14 8
-150.664301550655 130.263371829552 3700.6902025774 10 12 7
-181.097168362105 130.420681608841 3646.34153482627 9 11 6
-130.194985242263 128.211758136244 3697.51882101139 10 12 7
-102.999792335753 126.677522907539 3717.62847558968 10 12 7
-86.1664382333123 125.441246739473 3724.22016513939 9 11 6
-31.1644998809939 122.290859237953 3763.90995055264 9 11 6
-107.029424616027 123.207160562398 3639.09542195086 7 9 4
-97.0629222845867 122.186127198318 3637.08064784628 12 14 9
-80.146771399201 120.939441753747 3643.60064190049 10 12 7
-23.9838867452531 118.410123131435 3698.16024588627 8 10 5
-7.44169581282472 117.149458923488 3703.68119418418 5 7 2
-23.2767866333194 116.956725977746 3669.76642346151 5 7 4
-8.62994336056566 115.757900557647 3672.95963885752 6 8 5
-13.139019803448 115.20220363179 3653.05082964254 7 9 4
-10.6572956402502 114.415334813191 3641.64147190495 9 11 6
24.5988848594139 111.796599640646 3654.77140637409 10 12 7
43.9501397919306 110.416785439129 3663.15176902866 9 11 6
49.0691946488404 109.533482493417 3654.75052587786 9 12 5
9.80355280491363 110.237809354703 3594.82044179395 8 11 4
37.0142286232635 108.574627030611 3612.27099061221 8 11 4
29.5498331760191 108.159775181747 3589.62939092518 9 12 3
75.3504790748592 105.800926288628 3628.02568092418 10 13 4
109.500217542487 103.849244360409 3652.69731946675 11 14 5
-141.583053876298 127.384606575455 3852.96405276584 14 16 11
-136.850830254852 126.495773258953 3843.57454960331 13 15 10
-123.213297470767 125.335168608834 3846.31906213545 12 14 9
-120.86860803101 124.520836692253 3833.70507889494 17 20 13
-144.904233638005 124.539208623633 3785.72320246672 18 21 14
-196.192857473874 125.446090252089 3701.80524969906 14 15 9
-182.762250773293 124.313981715657 3704.72861233727 14 15 9
-162.440759660288 122.250805421051 3701.6857466204 10 13 6
-183.614324727295 122.25569394419 3659.16318756486 12 15 8
-176.862897192418 121.343601945035 3653.31739302204 10 13 6
-125.345604200542 118.915450250011 3705.28622284764 9 12 5
-80.6727706766446 115.984781620856 3732.75343938947 10 13 6
-48.8903172334845 114.174694827294 3758.15239502887 9 12 5
-55.9105125637207 113.01407524688 3719.25054672363 9 12 5
-58.1469813505011 111.022775205615 3672.23775537508 10 12 9
-13.8338132279689 108.018944029181 3697.3703436864 3 5 2
-6.78925226314719 107.068962291591 3691.27072538973 3 5 4
-1.65822762439216 106.19141335639 3682.85907031263 4 6 5
19.4602376909607 104.706149999967 3693.67850964904 6 8 5
-17.7561322047568 105.452576585175 3634.61881235717 12 14 11
-5.6608276309742 104.317469278684 3634.72976616137 12 14 9
28.4366760609873 102.320871202838 3660.76991487857 11 13 8
42.6127590706327 101.091250006817 3663.04809380119 8 11 4
47.7302538745472 100.216406475952 3654.64814798718 10 13 6
64.5773704300039 98.8745689705762 3659.90501677933 12 15 8
49.4211735248431 98.8142931669989 3628.04780322915 12 15 8
39.3764985935294 98.560242822963 3602.34822351903 11 14 7
83.88105227611 96.0900960851574 3639.22176718512 10 13 6
90.9678462231685 95.1361934100932 3633.08556945248 9 12 5
106.668715736074 93.8258731113645 3636.6892057813 8 11 4
163.633606694994 90.790714834685 3686.58717731205 10 13 6
-124.560970215361 117.366361178689 3877.97598526348 11 13 8
-133.98543617265 116.976782341775 3849.0928891134 14 16 11
-125.094093933278 115.952159091353 3845.3631809123 12 14 9
-132.89358627639 115.521365395347 3819.04234243711 16 19 12
-156.35956530014 115.664696899666 3771.88886845759 17 20 13
-168.621494500036 115.421807549224 3740.17079413855 13 14 8
-179.627717131898 114.474814917085 3695.45893753339 11 14 7
-154.003533602375 112.851655698422 3714.28398138061 11 14 7
-155.04316112418 112.220484234315 3697.98550054092 13 16 9
-129.69502920655 109.922908419825 3701.17410147538 11 14 7
-116.038956563885 108.730650159603 3703.90243444902 12 15 8
-62.583047847006 105.306384503912 3742.28747231175 10 13 6
-57.4007921852653 104.42880814763 3733.83141364324 9 12 5
-31.6611251131174 102.731939317636 3751.23358052109 9 12 5
-24.5586661431223 101.773262075619 3745.0838362893 9 12 5
-52.5281663598136 101.579040061761 3680.66247735517 14 16 13
-2.38989765024034 97.5389866729747 3698.10643460847 9 11 10
18.7010148381819 95.9966871224873 3708.94980905347 5 7 6
24.5706298685691 94.4364822767203 3686.66885950343 8 10 7
0.10005240909905 94.8374072028936 3643.03159065611 11 13 8
-0.671969136673667 94.2321119630007 3627.82425929152 12 15 8
-6.67735741574749 93.8593003946389 3606.56465048341 12 15 8
54.1925439373094 90.5633290763561 3663.66641721907 8 11 4
69.1029246804007 89.2639089124619 3666.63186707324 8 11 4
65.745289140676 88.7712215531646 3648.37149159292 8 11 4
78.7280865554578 87.5545474155747 3649.03701287846 9 12 5
58.832296812577 87.8129758006043 3612.0219369491 10 13 6
43.390320493653 87.8851477459448 3580.41156042433 13 16 9
62.9168783186147 86.3782569058265 3588.64080522061 11 14 7
101.791515691698 83.9785647041806 3618.48324878257 13 16 9
167.525568547344 80.3242003884655 3677.98833835278 19 22 15
121.964918731882 81.795497084448 3612.92267596312 19 22 15
-142.372661925819 108.551358902573 3855.09373523062 12 14 9
-129.345315069109 107.355274994187 3857.04377136043 15 17 12
-131.133962761997 106.746434135477 3838.74751126631 13 15 10
-130.597977205374 106.050018529647 3823.73064997749 16 19 12
-106.767703067977 104.413384179763 3840.14084427909 16 19 12
-162.68594572727 106.02570332703 3749.64425930023 12 13 7
-142.804654246487 103.90348174348 3745.6597366574 11 14 7
-141.931984206944 103.218998276645 3731.67424237679 11 14 7
-145.969577192682 102.745411701851 3711.35624942512 13 16 9
-148.859024090506 102.230035950364 3692.69022504136 11 14 7
-119.946896759545 100.360549470498 3715.28402140508 12 15 8
-112.406844332035 99.3983206426795 3710.07859859386 14 17 10
-107.330007256463 98.5427188832518 3701.71376760727 13 16 9
-89.8851257266613 97.1479274631893 3709.09971240947 11 14 7
-61.8119225619935 95.279260495975 3729.7737919354 10 13 6
-52.9147458537809 94.2474960888452 3726.03907306531 10 13 6
-23.3742125646588 92.2940998630251 3748.08875113455 10 13 6
-7.52563313114818 88.4049483777471 3693.35349281693 7 9 8
24.3841501248916 86.3023048188532 3717.32040652087 6 8 7
12.3239121628202 86.2360538914556 3688.07321179195 6 8 7
28.3725089341988 84.862114101077 3692.69944904778 6 8 5
11.0065023256225 85.0603153504939 3657.4622075464 9 11 6
-19.4309391621381 85.8929045156199 3607.08322713356 12 15 8
36.6051902913984 82.0056664616694 3644.55815588366 12 15 8
44.2881514722018 81.0271939509597 3639.22865866579 10 13 6
66.3630966277289 79.3494538323967 3650.54359067076 8 11 4
78.0360761418062 78.1718252967813 3649.69760345103 7 10 3
60.1227369812114 78.4449643146117 3614.93426914753 8 11 4
76.8046271436078 76.4249318370548 3605.78192418226 9 12 5
131.657749691486 73.0928828094988 3653.54206703182 11 14 7
120.839135255607 73.0306432845819 3627.18878469826 16 19 12
-146.943322007377 96.753558607575 3787.67060535484 16 19 12
-157.354892199637 96.5974631623268 3758.31829407596 12 13 5
-175.113148191079 96.7881158136569 3719.45097999993 12 13 5
-172.489799850847 96.0556545858 3707.91851893494 10 13 6
-146.242937657326 94.2312165284288 3727.52874547898 10 13 6
-158.200029345597 94.1769979139277 3696.86849581238 12 15 8
-126.323118962027 92.0767453628394 3723.51103889259 11 14 7
-126.746160969605 91.4873779160886 3708.00113120583 12 15 8
-117.383105962698 90.4373687096624 3705.18599796731 15 18 11
-116.63738871147 89.7981062100639 3691.31024519861 15 18 11
-115.313426501521 89.1347559051253 3678.25703921392 13 16 9
-43.2487721275674 85.051089396026 3754.77496317618 13 16 9
-63.5655203273111 85.4276813794528 3714.15388324037 13 16 9
-83.4378778680494 85.7982718045307 3674.47124922215 13 16 9
-122.454233057864 86.5491513094467 3597.12145989654 10 12 9
-21.5594586532428 79.167852232429 3663.22946741446 8 10 9
-1.15173809416147 77.5430281001902 3673.34226275092 7 9 8
28.9843689608853 74.8215923199948 3680.32389641344 7 9 4
-1.5488687338796 75.2368875662232 3615.47383395995 11 14 7
21.626982162378 73.4543947309103 3628.48177193225 9 12 5
58.5922768536387 70.9397557037287 3657.33333454116 10 13 6
57.1735216012321 70.4346341420274 3641.3629560395 9 12 5
50.4541890031494 70.2150719496032 3619.39757899039 9 12 5
54.8329106548304 69.4115957625416 3610.31423108805 9 12 5
71.7343413698597 67.939415033222 3615.52486847314 11 14 7
86.0495238161754 66.6015237933917 3617.68318650671 12 15 8
114.355588739262 64.5043660563004 3635.51039525818 15 18 11
138.796202578173 62.6066113287433 3648.74612549874 19 22 15
102.204991210445 63.4668363932908 3579.88038629226 19 22 15
-181.112172296046 89.1563783422308 3743.22691793374 17 20 13
-180.231624223194 88.5247090259647 3729.23425324148 13 14 6
-184.810674522885 88.1711038009113 3708.06183796487 13 14 6
-136.902282478522 85.1707486259154 3756.54540446874 10 13 6
-169.951398922722 86.2629266586817 3697.84165647141 9 12 5
-141.223753838736 84.2196272787127 3720.59647654164 11 14 7
-145.307201829465 83.8508707883291 3700.31786398232 10 13 6
-134.153597012225 82.7007955647234 3699.92154342204 15 18 11
-114.982398694091 81.1317808816968 3709.78245451228 14 17 10
-117.307302540644 80.6792386346488 3691.94997408315 14 17 10
-122.16764951294 80.3651030411327 3671.02111297959 13 16 9
-113.451452061051 79.3407486258074 3667.44320731925 12 15 8
-42.4513148638539 75.0100663987913 3742.23854999318 13 16 9
-54.7460670011941 75.0879164315141 3711.87010696673 13 16 9
-89.1068854115775 76.359258569484 3654.3020972242 5 7 2
-87.2635772097588 75.7022923904714 3642.1219749035 11 13 10
-41.2857290815185 71.537197928497 3655.2325322302 10 12 11
-16.5049549367655 69.6211361210988 3670.82070470698 11 13 12
-12.0625947745894 68.8183048848492 3661.68187932799 10 12 11
29.5554429276925 65.9561227236287 3697.09002793183 8 10 7
17.9464045247606 65.4855462736789 3654.22082710679 9 12 5
27.5563985899843 64.3940470624924 3651.19193176657 9 12 5
41.0798011478848 63.0805697396551 3652.71277930189 8 11 4
56.5990338150111 61.6509539942548 3656.47461985128 10 13 6
24.2001476121083 62.4071257273662 3590.59253587459 13 16 9
55.2137805715955 59.5525858888644 3598.13770968314 15 18 11
70.1389809002948 58.1531437716723 3601.09096301452 17 20 13
101.046629162215 55.8209461623088 3621.95816803886 19 22 15
76.8290307225974 56.6955852370254 3580.74476973368 24 27 20
76.4659291948115 56.1870091574347 3566.50596233342 27 30 23
99.5093000385223 54.3047857747652 3578.30611091354 27 30 23
117.274372622549 52.7271589933458 3584.09245852551 27 28 22
-182.106795115535 80.6265806322186 3758.70139822875 17 20 13
-179.986401891078 79.9510511125174 3746.28092113728 22 25 16
-198.294025194163 80.3921943250705 3706.5651949127 13 14 6
-188.482686096042 79.3063676626792 3704.68501070905 13 14 6
-147.242195075404 76.4880245304257 3744.38989113091 10 13 6
-159.705303743344 76.623512859892 3712.84404990419 10 13 6
-183.245451586148 77.3857479483924 3667.07442658041 11 14 7
-167.329946407084 75.9593436649596 3673.13930443369 12 15 8
-141.556431265983 73.9746324640081 3691.8375755842 13 16 9
-130.397689213338 72.8045820538581 3691.43693183705 14 17 10
-113.662536620187 71.3163548631396 3698.11536881358 12 15 8
-133.964952627443 71.9321633504576 3657.48031652247 11 14 7
-119.081987673642 70.5495632441418 3661.79332850686 13 16 9
-70.5295446121412 67.2282725897686 3708.39749164183 14 17 10
-91.0280470207687 67.8712141883931 3667.93253417265 12 15 8
-72.8563300748575 66.2865611196193 3676.01331128707 11 13 8
-82.2724366336431 66.3026112326162 3649.76717851717 2 4 1
5.10579904367336 59.0453914218973 3698.47570418357 13 15 14
14.0938370335459 57.9777355508361 3694.66246515228 12 14 13
46.2942704133549 54.4552987061491 3689.27302997933 9 11 6
26.8714913760673 55.1000104583271 3651.84579105627 9 12 5
41.6913382379671 53.6805764192157 3654.89048757237 9 12 5
63.073782171092 51.8581162770627 3665.48299668289 11 14 7
57.104620941653 51.7008894125406 3644.19059159444 12 15 8
61.5402814684298 50.9115736907118 3635.05780096224 12 15 8
36.3716050651108 51.946693671666 3592.02117444984 11 14 7
20.2349760318183 52.4384433032056 3559.68658314281 11 14 7
52.570143501165 49.4314797119495 3568.73416045641 15 18 11
56.1747835307518 48.707045625073 3558.99764834026 20 23 16
85.135120787756 46.3944284095594 3577.58243279726 25 28 21
87.4367986375426 45.7497824583266 3566.32820606347 29 32 25
-163.920744343211 69.8511534675405 3769.47582988986 15 18 9
-179.16425259708 70.2213220305544 3733.72140480462 12 13 5
-169.286202464394 69.1124679850617 3731.78354896743 12 13 5
-169.651300640743 68.6126942669844 3716.22315422262 11 14 7
-140.378421513412 66.3427040191548 3739.83013018385 11 14 7
-129.797878933596 65.185109625091 3738.60729111555 12 15 8
-170.429413247402 67.1173997316337 3670.58966076893 12 15 8
-142.834547223254 64.9379193696238 3691.68034636671 13 16 9
-131.679422658836 63.7488931262762 3691.28296099051 12 15 8
-135.282286545036 63.4598763756192 3671.91055306999 12 15 8
-112.37217039478 61.5492545515098 3686.47321956235 12 15 8
-99.898894846647 60.2739403788037 3687.58074175315 11 14 7
-97.3451444521065 59.6096302889957 3676.10816210829 11 14 7
-91.0737200129152 58.7167573217496 3669.35470257726 12 15 8
-79.7943611156438 57.5122201732876 3668.85005486312 6 8 3
35.1232329225253 47.2348244684347 3721.49917095364 4 6 5
9.58795440911597 48.361594327509 3676.13317602972 19 21 18
26.2739042602851 46.7930981996294 3681.53151806392 13 15 10
22.3830469501651 46.5459877857974 3662.40813732876 13 16 9
10.6584147701909 46.8104084406157 3634.19149463014 16 19 12
68.9139530817178 42.5441323796001 3688.27215238375 14 17 10
75.4043659908192 41.6245825542524 3681.32906054111 15 18 11
70.1333716758072 41.4736271720109 3660.75474932534 16 19 12
75.9234629889431 40.6035578588532 3653.09538538848 18 21 14
52.1264894845714 41.6793080461743 3611.51642864056 20 23 16
28.7952489686192 42.737836096729 3570.85717684298 17 20 13
44.95984517076 41.1962162725032 3575.38364428056 17 20 13
57.8646424291298 39.8672798818542 3576.11749856754 19 22 15
93.4346456180943 37.0267602770589 3602.21042405979 21 24 17
103.812693123522 35.8573229956572 3599.83959510832 23 26 19
91.442827132274 36.2110115129703 3572.18130577577 22 25 18
96.4179546660775 35.4071198787227 3563.90429502204 23 24 18
-101.349746651964 57.6912514860755 3887.35831194385 13 15 10
-202.011448181158 62.5421145850287 3704.609213484 14 15 7
-138.673284738685 58.0093849946431 3774.13679461497 14 15 7
-173.150714922926 59.2357933747655 3698.14323339955 14 17 10
-156.603458318386 57.6837298541938 3704.98494024426 13 16 9
-135.111733946728 55.8065266889789 3718.12992406385 13 16 9
-118.841142759229 53.7769379127007 3709.33412862915 10 13 6
-116.236123244111 53.1240934161185 3697.81703789731 12 15 8
-106.861508609072 52.0280769461554 3694.9921836418 13 16 9
-83.8287396105049 50.029418217056 3709.44911298316 10 13 6
-89.8712341806922 49.474494277738 3672.34245310749 11 14 7
13.3867363311539 38.7438816894183 3682.1664153401 12 14 11
21.7288773008133 37.7044311589681 3677.58955482932 6 8 3
24.9212857857954 37.018295333157 3666.88682956458 17 20 13
35.203966277523 35.8456667491323 3664.59867931154 10 13 6
28.6368357645141 35.8359217419944 3642.50033913671 15 18 11
42.1620143257475 34.4399216421822 3644.02018209575 15 18 11
74.0121064234849 31.7679910590809 3666.71957590702 16 19 12
23.1881890778092 34.3998840825974 3579.74114545962 19 22 15
43.9413798716326 32.4995901173543 3589.55629437722 17 20 13
70.73197568254 30.1694807416543 3606.0516869565 19 22 15
90.3499434075177 28.3374342311796 3614.20381052359 21 24 17
103.392592893998 26.9654995145972 3614.81846195965 21 24 17
105.126233111891 26.3932722550903 3602.73252819943 19 22 15
104.148933544268 26.0160910763916 3587.70164049021 18 21 14
94.3924753822096 26.2680930410945 3563.07255009973 32 33 27
-93.6477471256829 47.0891497861106 3883.39825124943 21 24 17
-201.100904660868 53.9049597959635 3722.4032114376 9 12 3
-199.673439152246 53.3482141837696 3709.25928910967 11 12 4
-171.823114149151 50.9859852910546 3731.453319828 16 17 9
-175.808467375234 50.8001531891004 3711.08818414274 15 18 11
-173.207116643507 50.1657087384614 3699.57415404458 14 17 10
-148.156062557386 47.9817735170062 3717.57632275167 14 17 10
-127.2479685056 46.0771399522966 3729.90407682541 14 17 10
-105.633122917399 44.1173313624881 3742.94288234629 14 17 10
-104.170365118329 43.5574121214676 3729.7687069997 13 16 9
-112.596084970264 43.6922962817772 3703.98666129645 12 15 8
-111.857172496561 43.1905505495097 3690.11591536094 13 16 9
-114.258295374106 42.9128550059327 3672.34836369463 15 18 11
-77.438242141934 39.4207287271511 3689.42216756396 13 16 9
-88.0238110438345 39.7283643666216 3661.54092310416 0 1 0
15.9013041383256 28.7425759584812 3672.11156148853 16 18 13
22.945596291629 27.7929972249459 3666.012173569 3 6 0
15.1179537789186 27.9308265740624 3642.35857091034 12 15 8
46.1159752487861 25.2289154149398 3664.47341836488 17 20 13
51.2371357894388 24.4196401469304 3656.0698704411 16 19 12
67.4433126081566 22.7945685750186 3660.5608392331 17 20 13
56.2035907394369 23.1938332671984 3633.24597890435 18 21 14
32.0605011417285 24.1375298999214 3577.41105299426 21 24 17
55.5047183371005 21.9766013836384 3590.18884052144 22 25 18
69.7688369996246 20.4948984011855 3592.39234927556 19 22 15
38.8484975793397 22.3911747838356 3543.74828201083 16 19 12
89.7585760206221 18.1645498105323 3586.99160353478 15 18 11
95.4309339469721 17.3230616419756 3579.43409814959 18 21 14
94.629317269272 16.5598848720914 3551.01988576638 37 38 33
106.993429188331 15.216104699689 3550.89920678763 34 35 30
-180.268599695904 43.3189413433737 3752.05656361605 17 20 11
-185.355392986409 43.2559147394027 3729.99876809854 18 19 11
-152.34349257655 39.9848944181268 3743.7545512303 14 17 10
-147.842929292682 39.224820948325 3734.5653175551 14 17 10
-134.855825299956 37.8412183335566 3736.55144874753 14 17 10
-147.420548361634 38.3416163987788 3705.09100023131 14 17 10
-117.31643850782 35.6914753962469 3729.30355841496 15 18 11
-123.864517959266 35.7529369825118 3705.86466819485 15 18 11
-120.653926627904 35.0936816978937 3695.146009017 13 16 9
-121.173003872832 34.714534708074 3679.71829180145 13 16 9
-124.219738230411 34.5277517873842 3661.18646482296 16 19 12
-124.223242947374 34.1167806915696 3646.63534945848 17 20 13
-64.3898886203473 29.2064571500635 3707.29251154666 16 19 12
15.8578544328503 19.3800518309859 3673.53346668455 13 15 10
8.72823483403451 19.5238726242939 3650.59808452367 18 21 14
22.1933134138221 18.0804368270911 3652.1703256814 26 29 22
61.6383697134517 14.6210290407106 3684.17207089667 19 22 15
64.1411836400065 13.6167826830307 3658.18902638339 19 22 15
41.1151330673518 15.0131700372746 3617.26306615532 20 23 16
33.6604864810917 15.2022748319887 3594.60910312596 21 24 17
18.8688839209732 15.9720428388017 3563.75376471927 20 23 16
48.8771351741981 13.2291489262847 3584.07990990967 20 23 16
27.9876369542986 14.487003435535 3546.59637965751 19 22 15
58.7901964549058 11.6747326849289 3567.55777977457 19 22 15
47.7201138944312 12.1666797552188 3541.41886276056 22 25 18
55.2721040584903 11.1887927218608 3536.2028790367 24 27 20
90.3436491327354 8.02483827468128 3561.40667108757 32 33 28
97.314652834072 7.08869263494019 3555.3707178569 29 30 25
115.08902927423 5.29100378928987 3561.15042748999 30 31 26
68.5866017567562 8.62821082686871 3496.88863102813 29 29 27
-156.789415494753 33.1552000835254 3816.46686257425 2 4 1
-144.09720799655 30.944146765671 3786.95348353935 12 13 5
-161.136759339485 31.8589076094302 3748.78212645674 11 12 4
-165.074185599134 31.7649392328765 3728.37485546773 13 16 9
-123.705640132278 28.1449390200183 3767.97425676889 13 16 9
-140.776577256656 28.6818055803882 3715.27541999113 15 18 11
-154.052675823341 29.3317082747221 3683.10731652939 16 19 12
-147.838894094194 28.4557080616983 3676.40402418407 16 19 12
-128.706631910452 26.561080839604 3686.3007925989 16 19 12
-120.604819302867 25.5342559740216 3681.93183599056 14 17 10
-129.219433108686 25.8322044163827 3656.31277031909 12 15 8
-124.263298111571 25.0579390853623 3648.0520291004 16 19 12
-101.235555133935 22.8455796949371 3662.51469946037 20 22 17
40.8479452005923 6.84520386654278 3661.21834001525 16 19 12
45.3072861200647 6.1072104582387 3652.06469216566 16 19 12
35.3976612840401 6.54965428691001 3626.24354638405 16 19 12
35.1975598345624 6.19949666437369 3611.86211888855 18 21 14
36.2653600501974 5.74750291890097 3599.02956811621 19 22 15
32.0273176878194 5.73577491003938 3580.20557986142 20 23 16
34.9862664345877 5.13255884980462 3569.7049807341 19 22 15
49.8483622340671 3.54428295390413 3572.71383716397 21 24 17
82.0430264705014 0.514300682625923 3595.11689810098 22 25 18
49.0479183552908 2.90075052791183 3544.29783297545 20 23 16
65.969746147629 1.13884061226929 3549.49298444566 23 26 19
79.5984624045376 -0.350886417736423 3550.92369491509 28 29 24
87.2113248837656 -1.33903729069043 3545.65501747757 29 29 27
88.0779259165418 -1.76158470592175 3532.99666245608 35 35 33
71.9798161923841 -0.757291292388829 3501.94862465489 28 28 26
-161.538155516717 23.0575914775068 3765.06714070301 11 14 7
-168.414857142621 23.2503982641779 3740.58896714143 12 15 8
-159.465407520317 21.7798796342479 3722.25496846447 14 17 10
-130.131054538869 18.9921290038093 3745.81201792685 14 17 8
-169.990299639792 21.5697147063475 3663.88727996879 14 17 8
-143.596191935847 19.0207363480394 3683.37457857547 18 21 12
-138.599910519559 18.2483106648573 3675.07902909128 19 22 13
-118.802618852414 16.2407898167251 3685.72370048708 18 21 12
-116.257842564365 15.6727204126416 3674.257959868 15 18 11
-123.682296753233 15.942348059472 3650.25404534038 19 21 16
53.0852526020444 -2.9017339390959 3706.25572900749 6 8 7
48.6038778778708 -2.86719573528177 3686.31940049169 18 20 17
38.8638577537521 -2.37670257370914 3660.35094084902 8 10 5
26.4163825927479 -1.64757137686095 3631.43422442352 19 22 15
7.32358648718412 -0.338905090030234 3595.03993586261 22 25 16
13.5816127131632 -1.21283902929512 3588.29828183204 16 19 10
34.9302671885727 -3.39279054515648 3598.92239403311 11 14 5
19.5014440111998 -2.38731229672556 3567.29456935968 16 19 10
57.1210598636198 -6.31444725973401 3582.35460604827 14 17 8
91.9906852516847 -9.68274378899359 3607.73473329086 15 18 11
43.042195297287 -5.74053443785327 3538.97248676237 17 20 13
48.5771350648112 -6.54675539247451 3531.53354258961 17 20 13
57.4572502661628 -7.64536068592553 3527.8140446714 19 21 16
75.7683223174097 -9.5717473509615 3534.45299127708 21 23 18
88.0754659473366 -10.9734680441335 3534.38174870539 23 25 20
92.9695482342407 -11.723851152883 3526.17463604371 23 25 20
-146.050538303787 12.4776844273478 3787.4429073921 16 19 12
-166.079440449997 13.8699721779598 3745.24249832922 4 7 0
-165.20157344481 13.4566196470469 3731.25074271647 13 15 10
-153.480437061208 12.1024221097785 3731.68710573772 14 17 10
-153.253233477118 11.7484587654559 3716.93565778435 14 17 8
-123.241055250837 8.79658813828388 3741.22953611666 15 18 9
-127.888988156782 8.8690073068011 3720.11406322217 18 21 12
-136.904822734448 9.32817746928405 3693.51812890966 17 20 11
-102.981278683856 6.02318361589083 3722.36437039521 16 19 10
-89.2371624338226 4.48455920641641 3725.01863727092 19 22 13
-110.733443259352 6.04879952702317 3682.76568292469 18 21 14
-123.10178597832 6.81660476262755 3652.45686808646 17 19 14
42.7450665020581 -11.7997445071764 3680.86860803969 23 25 24
15.5010349341063 -9.65868988641602 3634.32992544816 10 12 7
41.982964522167 -12.3606476765476 3651.09557523749 29 31 26
0.129948700174243 -8.88555544194852 3588.09674755257 15 18 11
18.7940598797045 -10.8799444631496 3595.75308847214 7 10 1
47.3738186357795 -13.7771350533553 3614.67152204566 18 21 12
68.8496757426598 -16.0342907163311 3625.18619895143 10 13 2
64.6675161414541 -15.9597405994024 3606.31353152729 11 14 3
89.5553267674907 -18.5316804630446 3620.48960535956 14 17 8
33.5054246541828 -13.7194791748026 3543.31995430546 16 19 12
6.38564324455215 -11.5349867813748 3499.32045092762 21 24 17
47.9058863742519 -15.6254691804767 3532.17416824896 22 25 18
72.8775020127714 -18.2075052146491 3546.27798620085 26 28 23
81.818302988482 -19.322128241533 3542.50599353599 28 30 25
90.7710038679115 -20.4380316977423 3538.72337958121 31 33 28
-162.665776204596 4.98498258919583 3782.04199355734 15 18 11
-193.992487894632 7.52587785594422 3724.4825094689 15 18 11
-154.140322011579 3.58708201958469 3762.75144000751 16 19 12
-164.060683926708 4.18540267294012 3734.2920686084 14 16 11
-168.051152028784 4.24643647940054 3713.92976647278 14 17 10
-150.886933069466 2.37208567447747 3721.56207916988 13 16 7
-152.517842824239 2.22038028373647 3704.44971607069 14 17 8
-141.382675435241 0.897606032675191 3704.0704949862 17 20 11
-114.288355011059 -1.89594009752456 3724.27573973675 16 19 10
-112.26209724673 -2.38276459711914 3711.93594593185 16 19 10
-107.184348472418 -3.14985760227091 3703.56975120426 20 23 14
-116.970972857303 -2.54077196907571 3676.3176557953 20 23 16
91.893163927451 -26.1666058136892 3725.7048108278 31 33 30
-1.58543877200046 -17.6189680280921 3601.55042265208 8 10 5
28.7883415341641 -20.7707565818802 3622.88534568022 16 18 13
33.1568351721376 -21.4629492502586 3613.81014164503 13 16 9
40.1323988174003 -22.4016852282053 3607.7702529325 16 19 10
79.3478696156571 -26.4043183974827 3638.65124739608 16 19 10
84.4440838404705 -27.1675053239285 3630.26902268732 16 19 10
18.6859344336194 -21.1781207561925 3541.6560552116 19 22 13
5.6054159276222 -20.1968638379821 3513.28638642673 21 24 17
23.7121699648042 -22.1898680029347 3520.10253896954 24 27 20
61.6419657390939 -26.6116144526576 3521.66338140581 26 28 23
111.674041414117 -31.6771659934932 3563.02629849474 25 27 22
140.998372951096 -34.7619882782543 3581.30059993375 22 24 19
95.1405598968047 -30.6163542751443 3517.79874621716 20 22 17
-148.918748575594 -5.32127395168808 3817.83459741602 17 19 14
-163.339098308277 -4.2283156278069 3782.68528842882 17 20 13
-149.796389142046 -5.80310095289394 3785.51435638719 11 14 7
-190.22104823093 -2.21140841045589 3715.98340600588 14 17 10
-153.607928729842 -6.26901849057615 3734.5634919993 14 17 10
-165.499120067957 -5.39794761239812 3703.8401282315 12 15 6
-158.657623539545 -6.32559033658098 3697.91636842357 12 15 6
-153.646883564033 -7.07645785338917 3689.60814748893 14 17 8
-125.985835382949 -10.0137653330286 3710.64669688385 17 20 11
-132.598941544225 -9.64207951312302 3687.26215738975 21 24 15
-107.855444156715 -12.3027161048852 3704.21072470717 20 23 14
-90.4160820147926 -14.2594696615214 3711.60509488988 17 20 13
56.198433621252 -32.5244358801092 3670.66564857029 4 6 1
16.3792111239434 -28.8411308580346 3609.87280801211 27 30 23
29.2695606874216 -31.3415483078216 3555.04571756699 19 22 13
10.9182955639509 -29.7545782968897 3520.65343577902 20 23 16
36.3659191288006 -32.5262251725466 3535.66917010633 21 24 17
35.206559274457 -32.6474579067557 3520.7944220394 21 24 17
42.0389093969691 -33.5646763432774 3514.87852220059 26 28 23
17.9514916357468 -31.3907542758301 3474.86744862093 24 27 20
30.749316593242 -33.13035142084 3462.46312547858 19 22 15
22.5603586453871 -32.5368165573524 3440.44299578391 23 26 19
-143.067129541781 -15.2842310417664 3827.38416520713 10 12 7
-140.485272212512 -16.2955321068041 3784.12900326159 6 9 2
