ply
format ascii 1.0
comment KinectMotionCapture
element vertex 799
property float x
property float y
property float z
property uchar red
property uchar green
property uchar blue
end_header
-49.3521131575108 100.480780005455 2859.99989509583 15 18 11
-41.28223285079 99.8491942882538 2842.00000762939 15 18 9
-32.8740291297436 97.9175046086311 2786.99994087219 16 19 10
-25.563757866621 99.0774407982826 2819.9999332428 15 18 9
-18.4279270470142 102.204754948616 2908.99991989136 13 16 7
-10.506846010685 102.415814995766 2914.99996185303 12 15 8
-2.55557941272855 102.73215174675 2924.00002479553 12 15 8
13.4255941957235 102.837361395359 2927.00004577637 10 13 6
21.0954677313566 101.291157305241 2882.99989700317 8 11 4
28.5752210766077 99.9204888939857 2844.00010108948 6 8 3
36.0718853771687 99.1820991039276 2822.99995422363 8 10 5
43.5933098196983 98.7597927451134 2811.00010871887 10 13 6
51.0854981839657 98.407618701458 2801.00011825562 10 13 6
59.8648451268673 100.303791463375 2855.00001907349 12 15 8
67.3984065651894 99.9162122607231 2844.00010108948 13 16 9
75.1359015703201 99.8798012733459 2842.99993515015 13 16 9
82.7509984374046 99.7027531266212 2838.00005912781 13 16 9
90.4022306203842 99.5958298444748 2835.00003814697 12 15 8
98.6598283052444 100.121095776558 2849.99990463257 12 15 8
106.625437736511 100.294932723045 2855.00001907349 13 16 9
115.65987765789 101.381964981556 2885.99991798401 13 16 9
123.878538608551 101.660877466202 2894.00005340576 13 16 9
130.546659231186 100.710190832615 2867.00010299683 14 17 10
137.790843844414 100.286304950714 2855.00001907349 15 18 11
145.325899124146 100.108176469803 2849.99990463257 16 19 12
152.725666761398 99.8596921563149 2842.99993515015 16 19 12
164.828240871429 102.561473846436 2920.00007629395 17 20 13
169.775754213333 100.767269730568 2868.99995803833 19 20 14
176.982372999191 100.413009524345 2858.99996757507 23 26 19
-136.975958943367 93.8557237386703 2897.0000743866 20 23 16
-129.605069756508 94.2466706037521 2908.99991989136 20 23 16
-119.616895914078 92.661164700985 2859.99989509583 18 23 16
-112.0850071311 92.8898528218269 2867.00010299683 19 24 17
-104.005321860313 92.664822936058 2859.99989509583 18 23 16
-96.2997674942017 92.7636548876762 2862.99991607666 18 21 14
-88.6392742395401 92.9271802306175 2868.00003051758 17 20 13
-80.4721042513847 92.5397425889969 2855.99994659424 15 18 11
-73.2607543468475 93.2862535119057 2878.99994850159 16 19 12
-64.6741092205048 92.2505110502243 2846.99988365173 15 18 11
-56.8815022706985 92.2191068530083 2845.99995613098 15 18 11
-49.0596033632755 92.1227633953094 2842.99993515015 14 17 10
-33.2756489515305 91.4112478494644 2821.00009918213 17 20 11
-25.4554133862257 90.9904688596725 2808.00008773804 16 19 10
-10.449355468154 93.939833343029 2898.9999294281 14 17 10
-2.5014344137162 92.740997672081 2861.99998855591 14 17 10
5.51919732242823 96.3378399610519 2973.00004959106 16 19 12
13.4992143139243 95.3655615448952 2943.00007820129 10 13 6
21.220225840807 93.9719006419182 2900.00009536743 10 13 6
28.4048970788717 91.6059911251068 2826.99990272522 5 7 2
36.2130664288998 91.8322876095772 2834.00011062622 5 7 2
43.6405800282955 91.1835581064224 2813.99989128113 10 13 6
51.5423379838467 91.5716141462326 2825.99997520447 10 13 6
59.2158362269402 91.5058851242065 2823.99988174438 12 15 8
68.2764127850533 93.3517962694168 2881.00004196167 13 16 9
74.6086090803146 91.4712995290756 2822.99995422363 13 16 9
82.7524065971375 91.9560268521309 2838.00005912781 13 16 9
90.7864272594452 92.2462120652199 2846.99988365173 11 14 7
99.1115495562553 92.7630737423897 2862.99991607666 12 15 8
114.419467747211 92.5003960728645 2855.00001907349 13 16 9
121.783152222633 92.1744704246521 2845.00002861023 13 16 9
130.36672770977 92.7555859088898 2862.99991607666 12 15 8
138.324066996574 92.8505957126617 2865.9999370575 13 16 9
146.195232868195 92.8806886076927 2867.00010299683 15 18 11
154.447302222252 93.1374207139015 2875 16 19 12
162.234365940094 93.1024625897408 2874.00007247925 18 21 14
171.613097190857 93.9420312643051 2900.00009536743 20 21 15
178.65677177906 93.4856906533241 2885.99991798401 16 19 12
-137.450933456421 86.2452536821365 2907.00006484985 17 18 12
-120.915330946445 85.7744067907333 2891.00003242493 20 23 16
-112.08675801754 85.0640684366226 2867.00010299683 19 22 15
-104.443334043026 85.2140411734581 2871.99997901917 19 22 15
-96.6712906956673 85.2749049663544 2874.00007247925 19 22 15
-88.4552299976349 84.9202275276184 2861.99998855591 20 23 16
-80.8114930987358 85.0995257496834 2868.00003051758 19 22 15
-72.3967105150223 84.4182223081589 2845.00002861023 18 21 14
-65.2657672762871 85.250087082386 2872.99990653992 17 20 13
-56.5026476979256 83.8860496878624 2826.99990272522 16 19 12
-48.3010895550251 83.0559879541397 2799.00002479553 15 18 11
-33.2053974270821 83.5319980978966 2815.00005722046 15 18 11
-25.8274991065264 84.5413580536842 2848.99997711182 15 18 11
-17.8520511835814 83.6217999458313 2818.00007820129 14 17 10
-10.2440631017089 84.3341872096062 2842.00000762939 14 17 10
-2.50409566797316 85.0167870521545 2865.00000953674 14 17 10
5.29279466718435 84.6013277769089 2851.0000705719 13 15 10
28.3952988684177 83.8587135076523 2825.99997520447 5 7 2
36.0347367823124 83.6801752448082 2819.9999332428 9 11 6
43.7498278915882 83.709254860878 2821.00009918213 10 13 6
67.7798017859459 84.8639830946922 2859.99989509583 12 15 8
75.6405293941498 84.9222540855408 2861.99998855591 12 15 6
83.1910893321037 84.6540033817291 2852.9999256134 13 16 7
91.2343114614487 84.8900750279427 2861.00006103516 13 16 7
100.18627345562 85.867777466774 2894.00005340576 14 17 8
107.114441692829 85.0947946310043 2868.00003051758 15 18 9
112.938389182091 83.6096405982971 2818.00007820129 16 19 10
119.944363832474 83.1331834197044 2802.00004577637 16 19 10
129.867881536484 84.6147611737251 2851.99999809265 18 21 12
138.615801930428 85.2061212062836 2871.99997901917 18 21 12
146.605461835861 85.2930173277855 2875 18 21 12
154.449701309204 85.2907747030258 2875 17 20 11
162.688449025154 85.4960754513741 2881.99996948242 16 19 10
170.550525188446 85.4936093091965 2881.99996948242 17 20 13
179.278582334518 85.9063193202019 2895.99990844727 19 22 15
-138.634964823723 78.9838954806328 2931.99992179871 12 13 7
-129.029721021652 78.0159160494804 2895.99990844727 20 23 16
-121.209844946861 78.0714973807335 2898.00000190735 20 23 16
-104.735769331455 77.5896459817886 2880.00011444092 20 23 16
-95.9999337792397 76.8905505537987 2854.00009155273 19 22 15
-88.4874016046524 77.1342739462852 2862.99991607666 19 22 15
-79.9391567707062 76.4349400997162 2836.99989318848 20 23 16
-72.8812515735626 77.163428068161 2864.00008201599 20 23 16
-64.6079033613205 76.6255110502243 2844.00010108948 18 21 14
-56.8632334470749 76.6532942652702 2845.00002861023 17 20 13
-48.7677156925201 76.1420875787735 2825.99997520447 16 19 12
-40.9500747919083 75.9541019797325 2819.00000572205 15 18 11
-33.9608229696751 77.5712355971336 2878.99994850159 15 18 11
-25.8460026234388 76.8172219395638 2851.0000705719 14 17 10
-17.9473329335451 76.3325318694115 2832.99994468689 14 17 10
-10.2261872962117 76.4404982328415 2836.99989318848 14 17 10
-2.51724268309772 77.5991827249527 2880.00011444092 14 17 10
5.28544466942549 76.7100006341934 2846.99988365173 12 14 9
28.2248891890049 75.685441493988 2809.00001525879 6 8 3
35.741351544857 75.3616690635681 2796.99993133545 9 11 6
43.9985990524292 76.4388740062714 2836.99989318848 10 13 6
60.8951784670353 78.2426446676254 2904.00004386902 11 14 7
68.6813667416573 78.0800953507423 2898.00000190735 12 15 8
76.0644823312759 77.5402560830116 2878.00002098084 13 16 7
83.7463289499283 77.3775056004524 2871.99997901917 13 16 7
92.1285077929497 77.834315598011 2888.99993896484 12 15 6
99.1837680339813 77.1864205598831 2865.00000953674 14 17 8
106.59309476614 76.8886655569077 2854.00009155273 15 18 9
112.058281898499 75.3246396780014 2796.0000038147 16 19 10
121.315903961658 76.3467624783516 2834.00011062622 16 19 8
130.097419023514 76.9646689295769 2857.00011253357 11 14 5
137.845531105995 76.9359096884727 2855.99994659424 13 16 7
145.995602011681 77.1225541830063 2862.99991607666 15 18 9
154.022112488747 77.2282779216766 2867.00010299683 15 18 9
163.142368197441 77.8456851840019 2890.00010490417 16 19 10
170.730486512184 77.7087584137917 2884.99999046326 19 22 15
177.362024784088 77.1677270531654 2865.00000953674 21 24 17
186.663001775742 77.7847692370415 2888.00001144409 23 26 19
-137.974768877029 70.6416070461273 2917.99998283386 11 14 7
-115.178436040878 71.3241323828697 2946.00009918213 23 26 19
-104.59166020155 69.6307197213173 2875.99992752075 23 26 19
-96.4384526014328 69.4140493869781 2867.00010299683 20 23 16
-87.1595144271851 68.2772323489189 2819.9999332428 19 22 15
-80.729179084301 69.367803633213 2865.00000953674 20 23 16
-72.0678716897964 68.5697346925735 2832.00001716614 19 22 15
-64.6314695477486 68.8853412866592 2845.00002861023 18 21 14
-56.923933327198 68.9587295055389 2848.00004959106 17 20 13
-49.0789823234081 68.8625276088715 2844.00010108948 16 19 12
-41.4735674858093 69.1294297575951 2855.00001907349 15 18 11
-33.2652851939201 68.2824179530144 2819.9999332428 14 17 10
-25.7194191217422 68.6944127082825 2836.99989318848 14 17 10
-18.1122813373804 69.2273899912834 2858.99996757507 14 17 10
-10.3560872375965 69.5665553212166 2872.99990653992 13 16 9
-2.53126048482955 70.1235607266426 2895.99990844727 13 16 9
5.46374032273889 71.2615996599197 2943.00007820129 10 12 7
13.4034687653184 70.7529857754707 2921.99993133545 10 12 7
28.134822845459 67.7983835339546 2799.99995231628 7 9 4
35.3712402284145 67.0231655240059 2767.99988746643 10 12 7
43.8751019537449 68.4996917843819 2828.9999961853 10 13 6
52.5659658014774 69.7824060916901 2881.99996948242 10 13 6
61.1685775220394 70.6291645765305 2917.00005531311 11 14 7
68.6585605144501 70.1441019773483 2897.0000743866 12 15 8
75.5633041262627 69.2231431603432 2858.99996757507 13 16 7
83.4266543388367 69.270595908165 2861.00006103516 14 17 8
91.3005694746971 69.3179368972778 2862.99991607666 13 16 7
99.8428091406822 69.8252022266388 2884.0000629425 14 17 8
107.266746461391 69.5334002375603 2871.99997901917 15 18 9
114.223971962929 68.9994096755981 2849.99990463257 15 18 9
122.730135917664 69.409541785717 2867.00010299683 15 18 7
130.736604332924 69.5048347115517 2871.00005149841 13 16 7
137.219861149788 68.8253492116928 2842.99993515015 14 17 8
145.589530467987 69.1141188144684 2855.00001907349 17 20 11
154.077798128128 69.4270133972168 2868.00003051758 17 20 11
162.918642163277 69.8608085513115 2885.99991798401 18 21 12
169.963330030441 69.5199146866798 2871.99997901917 21 24 17
177.36428976059 69.3483799695969 2865.00000953674 19 22 15
-125.520914793015 64.4618272781372 3000.99992752075 21 24 17
-114.906080067158 63.1313621997833 2938.99989128113 23 26 19
-105.356581509113 62.2303672134876 2897.0000743866 23 26 19
-96.2377563118935 61.4581443369389 2861.00006103516 20 23 16
-87.7477824687958 60.9865449368954 2838.99998664856 20 23 16
-79.2084932327271 60.3859685361385 2811.00010871887 19 22 15
-73.0102807283401 61.6327598690987 2868.99995803833 18 21 14
-64.9502649903297 61.4186897873878 2858.99996757507 17 20 13
-56.8046644330025 61.0541515052319 2842.00000762939 17 20 13
-49.3038967251778 61.3769814372063 2857.00011253357 16 19 12
-41.5031090378761 61.377476900816 2857.00011253357 15 18 11
-25.7559809833765 61.034481972456 2841.00008010864 14 17 10
-18.0111285299063 61.0776841640472 2842.99993515015 13 16 9
-10.3598134592175 61.7438293993473 2874.00007247925 12 15 8
-2.50943843275309 61.6794563829899 2871.00005149841 12 15 8
5.40068140253425 62.4958127737045 2908.99991989136 10 12 7
13.3623415604234 62.5816509127617 2913.00010681152 10 12 7
28.4767970442772 60.8839876949787 2834.00011062622 7 9 4
36.1383780837059 60.754731297493 2828.00006866455 9 11 6
43.2087145745754 59.8520040512085 2786.00001335144 10 13 6
60.8547404408455 62.3428858816624 2901.99995040894 12 15 8
68.5171484947205 62.105868011713 2891.00003242493 13 16 9
75.9870633482933 61.7613606154919 2875 15 18 9
82.5236439704895 60.7938058674335 2829.99992370605 15 18 9
90.9189507365227 61.2439773976803 2851.0000705719 14 17 8
99.7054949402809 61.8658997118473 2880.00011444092 14 17 8
107.267990708351 61.6929158568382 2871.99997901917 15 18 9
114.986792206764 61.627272516489 2868.99995803833 15 18 9
122.389070689678 61.4111796021461 2858.99996757507 15 18 7
130.965784192085 61.7749616503716 2875.99992752075 15 18 9
138.910755515099 61.8164651095867 2878.00002098084 16 19 10
146.866083145142 61.857882887125 2880.00011444092 18 21 12
154.885411262512 61.9206838309765 2882.99989700317 17 20 11
162.638247013092 61.8760176002979 2881.00004196167 18 21 12
170.438721776009 61.8527606129646 2880.00011444092 20 23 16
177.55201458931 61.5931749343872 2868.00003051758 19 22 15
-133.311569690704 56.0992173850536 2992.00010299683 22 25 18
-112.405017018318 53.9077781140804 2875 23 26 19
-104.484811425209 53.8713037967682 2872.99990653992 22 25 18
-96.7432931065559 53.928516805172 2875.99992752075 21 24 17
-88.4286612272263 53.6481291055679 2861.00006103516 21 24 17
-80.2237242460251 53.3864051103592 2846.99988365173 18 21 14
-72.2730234265327 53.2558672130108 2839.99991416931 18 21 14
-65.0645196437836 53.7065826356411 2864.00008201599 18 21 14
-56.9251738488674 53.4071214497089 2848.00004959106 18 21 14
-48.5450774431229 52.751287817955 2812.99996376038 17 20 13
-41.358258575201 53.389310836792 2846.99988365173 15 18 11
-33.8322445750237 53.7834800779819 2868.00003051758 15 18 11
-25.9375646710396 53.652498871088 2861.00006103516 14 17 10
-18.0936716496944 53.5589382052422 2855.99994659424 13 16 9
-10.1724741980433 52.9214702546597 2822.00002670288 12 15 8
-2.49285669997334 53.4841269254684 2851.99999809265 11 14 7
13.0367884412408 53.2964915037155 2842.00000762939 10 12 7
21.0240259766579 53.8776777684689 2872.99990653992 7 9 4
28.5172797739506 53.221084177494 2838.00005912781 7 9 4
44.2017577588558 53.4454211592674 2849.99990463257 10 13 6
52.6218377053738 54.1013069450855 2884.99999046326 10 13 6
61.5264102816582 55.01963570714 2934.00001525879 12 15 8
69.7976723313332 55.2252717316151 2944.9999332428 13 16 9
76.2521475553513 54.0994517505169 2884.99999046326 15 18 9
82.8452706336975 53.273618221283 2841.00008010864 15 18 9
89.8993834853172 52.8602637350559 2819.00000572205 14 17 8
99.5680242776871 53.9281778037548 2875.99992752075 15 18 9
107.194386422634 53.8146905601025 2869.99988555908 15 18 9
113.264538347721 52.9886186122894 2825.99997520447 15 18 9
122.176289558411 53.5125136375427 2854.00009155273 14 17 6
131.559103727341 54.1675463318825 2888.99993896484 14 17 8
139.684423804283 54.2600192129612 2894.00005340576 15 18 9
147.989451885223 54.4086471199989 2901.99995040894 17 20 11
155.531689524651 54.2759820818901 2894.99998092651 17 20 11
163.035064935684 54.1432462632656 2888.00001144409 18 21 12
171.801581978798 54.42288890481 2903.00011634827 20 23 16
-143.558651208878 48.6348271369934 3036.00001335144 19 21 16
-131.797820329666 47.3864153027534 2957.99994468689 22 25 18
-122.051641345024 46.7466413974762 2917.99998283386 21 24 17
-112.132325768471 45.9465831518173 2868.00003051758 26 29 22
-96.8114286661148 46.1084805428982 2878.00002098084 19 22 15
-88.3367210626602 45.7888171076775 2858.00004005432 22 25 18
-80.1117196679115 45.5491803586483 2842.99993515015 20 23 16
-72.5790485739708 45.6939972937107 2851.99999809265 20 23 16
-64.8151859641075 45.7105785608292 2852.9999256134 19 22 15
-56.6058754920959 45.3746169805527 2832.00001716614 19 22 15
-49.0977428853512 45.5833338201046 2845.00002861023 17 20 13
-41.6927561163902 45.9842681884766 2869.99988555908 16 19 12
-33.9976996183395 46.1768433451653 2881.99996948242 15 18 11
-25.9468611329794 45.8566397428513 2861.99998855591 13 16 9
-18.1128401309252 45.8087511360645 2858.99996757507 12 15 8
-10.3167546913028 45.8569377660751 2861.99998855591 12 15 8
-2.49812356196344 45.7929000258446 2858.00004005432 12 15 8
5.31538156792521 45.8729974925518 2862.99991607666 10 12 7
12.8671769052744 44.9436083436012 2805.0000667572 10 12 7
20.6583198159933 45.2318787574768 2822.99995422363 7 9 4
37.0336025953293 46.4331023395061 2898.00000190735 6 8 3
52.2392690181732 45.8876080811024 2864.00008201599 10 13 6
61.1914284527302 46.7523373663425 2917.99998283386 13 16 9
68.7791705131531 46.4954599738121 2901.99995040894 13 16 9
76.3056948781013 46.2545417249203 2887.00008392334 13 16 7
82.4669077992439 45.3086234629154 2828.00006866455 13 16 7
91.4628356695175 45.9487698972225 2868.00003051758 15 18 9
99.3611738085747 45.9800288081169 2869.99988555908 15 18 9
107.419438660145 46.075314283371 2875.99992752075 15 18 9
115.229450166225 46.0583902895451 2875 15 18 9
122.990719974041 46.0253842175007 2872.99990653992 15 18 7
132.334411144257 46.5530045330524 2905.99989891052 12 15 6
140.747547149658 46.7120967805386 2915.99988937378 17 20 11
148.602724075317 46.6788932681084 2914.00003433228 18 21 12
155.694216489792 46.421367675066 2898.00000190735 16 19 10
163.262292742729 46.3239774107933 2891.99995994568 18 21 12
171.329617500305 46.3706888258457 2894.99998092651 21 24 17
180.155530571938 46.6095395386219 2910.00008583069 22 25 18
-131.754234433174 39.2976142466068 2957.00001716614 23 26 19
-122.094370424747 38.7934483587742 2918.99991035461 22 25 18
-114.283554255962 38.8474091887474 2923.00009727478 25 28 21
-105.323001742363 38.4893082082272 2895.99990844727 24 27 20
-96.5430438518524 38.1444320082664 2869.99988555908 20 23 16
-88.2137343287468 37.9324033856392 2854.00009155273 21 24 17
-79.9432471394539 37.7070233225822 2836.99989318848 20 23 16
-72.3760053515434 37.8005802631378 2844.00010108948 20 23 16
-64.8384019732475 37.9339568316936 2854.00009155273 19 22 15
-57.2858899831772 38.0938649177551 2865.9999370575 18 21 14
-49.8401932418346 38.3866503834724 2888.00001144409 18 21 14
-42.4048937857151 38.7990102171898 2918.99991035461 15 18 11
-34.3282632529736 38.6796481907368 2910.00008583069 14 17 10
-25.8745290338993 37.9355028271675 2854.00009155273 12 15 8
-18.0559568107128 37.8824807703495 2849.99990463257 12 15 8
-10.3204371407628 38.0553714931011 2862.99991607666 12 15 8
-2.51212739385664 38.201630115509 2874.00007247925 12 15 8
5.35069731995463 38.3079536259174 2881.99996948242 11 13 8
13.0874617025256 37.9224233329296 2852.9999256134 11 13 8
36.9444265961647 38.4270139038563 2891.00003242493 7 9 4
44.466145336628 38.107730448246 2867.00010299683 9 12 5
51.7836548388004 37.7352312207222 2838.99998664856 10 13 6
60.1014159619808 38.0937270820141 2865.9999370575 12 15 8
68.3056637644768 38.3059531450272 2881.99996948242 13 16 9
76.5969976782799 38.5181270539761 2898.00000190735 14 17 8
84.129698574543 38.3447967469692 2884.99999046326 13 16 7
91.2402719259262 38.0252227187157 2861.00006103516 15 18 9
99.7081324458122 38.2771007716656 2880.00011444092 15 18 9
107.756391167641 38.3428558707237 2884.99999046326 14 17 8
115.350559353828 38.2490754127502 2878.00002098084 15 18 9
124.233119189739 38.5672301054001 2901.99995040894 15 18 7
132.699713110924 38.7258380651474 2914.00003433228 13 16 7
140.314176678658 38.6319011449814 2907.00006484985 17 20 11
147.838860750198 38.5246202349663 2898.9999294281 17 20 11
157.736927270889 39.0152856707573 2936.00010871887 16 19 10
163.71513903141 38.5358333587646 2900.00009536743 18 21 12
171.685978770256 38.5480001568794 2901.00002288818 21 24 17
-131.487682461739 31.1613157391548 2950.99997520447 25 28 21
-115.926370024681 31.3104763627052 2964.99991416931 23 26 19
-97.3173305392265 30.5512845516205 2892.99988746643 22 25 18
-88.4306356310844 30.2138477563858 2861.00006103516 21 24 17
-80.0846219062805 30.0136469304562 2842.00000762939 20 23 16
-72.0965042710304 29.9190077930689 2832.99994468689 20 23 16
-65.2704387903214 30.3418170660734 2872.99990653992 18 21 14
-57.9658448696136 30.6273028254509 2900.00009536743 17 20 13
-50.0130727887154 30.6064672768116 2898.00000190735 17 20 13
-42.2453545033932 30.712328851223 2907.99999237061 13 16 9
-33.8919907808304 30.3428880870342 2872.99990653992 13 16 9
-25.8928183466196 30.1635079085827 2855.99994659424 12 15 8
-18.1701071560383 30.2903633564711 2868.00003051758 12 15 8
-10.3385234251618 30.2904397249222 2868.00003051758 12 15 8
-2.49378685839474 30.1320515573025 2852.9999256134 13 16 9
5.3191683255136 30.2587822079659 2865.00000953674 13 15 10
13.0508439615369 30.0475023686886 2845.00002861023 11 13 8
37.1363386511803 30.6913442909718 2905.99989891052 8 10 5
44.1872403025627 30.0891287624836 2848.99997711182 8 11 4
59.8501414060593 30.1413759589195 2854.00009155273 11 14 7
68.6852931976318 30.6057129055262 2898.00000190735 13 16 9
76.2802809476852 30.4785892367363 2885.99991798401 15 18 9
84.1302052140236 30.4675977677107 2884.99999046326 15 18 9
91.3683846592903 30.2559174597263 2865.00000953674 14 17 8
99.0163013339043 30.2026011049747 2859.99989509583 14 17 8
107.570298016071 30.4132550954819 2880.00011444092 14 17 8
115.992531180382 30.5604953318834 2894.00005340576 15 18 9
124.062612652779 30.6020919233561 2898.00000190735 16 19 8
132.381737232208 30.6964460760355 2907.00006484985 17 20 11
140.411540865898 30.7168383151293 2908.99991989136 19 22 13
148.502692580223 30.7477451860905 2911.99994087219 16 19 10
156.448438763618 30.7469349354506 2911.99994087219 15 18 9
165.635526180267 30.9783704578877 2934.00001525879 18 21 12
172.752276062965 30.8190993964672 2918.99991035461 22 25 18
-122.764922678471 22.97986112535 2934.99994277954 23 26 19
-116.317883133888 23.2935212552547 2974.99990463257 23 26 19
-107.506260275841 23.1452044099569 2956.00008964539 23 26 19
-98.4615162014961 22.9185428470373 2927.00004577637 22 25 18
-89.2037823796272 22.5978810340166 2885.99991798401 21 24 17
-80.4231539368629 22.3476514220238 2854.00009155273 20 23 16
-72.6821646094322 22.3636161535978 2855.99994659424 20 23 16
-65.4070600867271 22.5439928472042 2878.99994850159 18 21 14
-58.3458915352821 22.8574611246586 2918.99991035461 17 20 13
-49.8579926788807 22.6227603852749 2888.99993896484 16 19 12
-41.6063517332077 22.4271789193153 2864.00008201599 13 16 9
-33.703401684761 22.3725121468306 2857.00011253357 13 16 9
-26.1377245187759 22.5762315094471 2882.99989700317 13 16 9
-18.214538693428 22.5136745721102 2875 13 16 9
-10.3998547419906 22.5920416414738 2884.99999046326 13 16 9
-2.53313290886581 22.6938668638468 2898.00000190735 12 15 8
5.2913436666131 22.3179794847965 2849.99990463257 13 15 10
21.6905362904072 23.2105925679207 2963.99998664856 9 11 6
29.5832101255655 23.0538714677095 2944.00000572205 6 8 3
36.9575992226601 22.6465370506048 2891.99995994568 8 10 5
44.8233522474766 22.630712017417 2890.00010490417 9 12 5
52.5138191878796 22.5443784147501 2878.99994850159 9 12 5
60.6892444193363 22.6616114377975 2894.00005340576 11 14 7
69.444052875042 22.943252697587 2930.0000667572 13 16 9
75.7255852222443 22.4339831620455 2865.00000953674 15 18 9
84.0431228280067 22.5667804479599 2881.99996948242 16 19 10
91.974750161171 22.5820895284414 2884.0000629425 15 18 9
99.8130515217781 22.5738771259785 2882.99989700317 14 17 8
108.056344091892 22.6517617702484 2892.99988746643 15 18 9
115.071222186089 22.4790647625923 2871.00005149841 16 19 10
123.677909374237 22.6195249706507 2888.99993896484 17 20 9
132.063582539558 22.7051433175802 2900.00009536743 18 21 12
140.750080347061 22.8298716247082 2915.99988937378 20 23 14
149.013355374336 22.876275703311 2921.99993133545 16 19 10
156.073093414307 22.7425824850798 2904.99997138977 16 19 10
164.620131254196 22.8280685842037 2915.99988937378 19 22 13
172.871425747871 22.8665452450514 2921.0000038147 22 25 18
-113.737754523754 14.8343062028289 2908.99991989136 24 27 20
-107.506610453129 15.0742698460817 2956.00008964539 22 25 18
-98.8654941320419 14.9878431111574 2938.99989128113 22 25 18
-89.4822552800179 14.7637026384473 2894.99998092651 22 25 18
-80.9024572372437 14.6415289491415 2871.00005149841 20 23 16
-72.9623511433601 14.6213294938207 2867.00010299683 20 23 16
-65.4754340648651 14.6980080753565 2881.99996948242 18 21 14
-57.7064603567123 14.7236697375774 2887.00008392334 16 19 12
-49.3749305605888 14.5912077277899 2861.00006103516 14 17 10
-41.4902679622173 14.5658263936639 2855.99994659424 15 18 11
-33.7742939591408 14.6016236394644 2862.99991607666 15 18 11
-26.0652825236321 14.6629046648741 2875 15 18 11
-18.3159690350294 14.7445648908615 2891.00003242493 15 18 11
-10.4827992618084 14.8313054814935 2907.99999237061 13 16 9
-2.53139296546578 14.770120382309 2895.99990844727 12 15 8
5.50858536735177 15.1322297751904 2967.00000762939 9 11 6
13.6289512738585 15.1526052504778 2970.99995613098 10 12 7
21.5954724699259 15.0505555793643 2950.99997520447 9 11 6
29.5129679143429 14.9790868163109 2937.00003623962 7 9 4
37.2005328536034 14.84639570117 2911.00001335144 8 10 5
44.9320673942566 14.774888753891 2897.0000743866 11 14 7
53.1159304082394 14.8512609302998 2911.99994087219 10 13 6
61.8428401648998 15.039810910821 2948.99988174438 11 14 7
67.3111751675606 14.483748935163 2839.99991416931 12 15 8
75.5672454833984 14.5804611966014 2858.99996757507 14 17 8
83.6934521794319 14.6363517269492 2869.99988555908 15 18 9
91.9750556349754 14.7075215354562 2884.0000629425 16 19 10
100.298084318638 14.7735681384802 2897.0000743866 16 19 10
107.982017099857 14.7427003830671 2891.00003242493 16 19 10
115.272007882595 14.6659193560481 2875.99992752075 17 20 11
123.42145293951 14.7013068199158 2882.99989700317 18 21 10
132.109552621841 14.7927636280656 2901.00002288818 19 22 13
141.088411211967 14.9045921862125 2923.00009727478 20 23 14
149.064838886261 14.9042196571827 2923.00009727478 17 20 11
156.288489699364 14.8324416950345 2908.99991989136 18 21 12
163.039937615395 14.7249614819884 2888.00001144409 22 25 18
-132.33557343483 7.03601213172078 2970.00002861023 10 13 6
-122.68190830946 6.94850971922278 2933.00008773804 19 22 15
-113.268792629242 6.86336401849985 2897.0000743866 24 27 20
-105.542875826359 6.87534082680941 2901.99995040894 21 24 17
-98.0247035622597 6.90389377996325 2914.00003433228 22 25 18
-89.7297039628029 6.87794573605061 2903.00011634827 22 25 18
-81.4098343253136 6.8448786623776 2888.99993896484 20 23 16
-73.7259611487389 6.86392746865749 2897.0000743866 19 22 15
-65.9753754734993 6.88059721142054 2904.00004386902 17 20 13
-57.146891951561 6.77405018359423 2858.99996757507 16 19 12
-48.7709976732731 6.69592386111617 2825.99997520447 14 17 10
-40.9673601388931 6.68176263570786 2819.9999332428 16 19 12
-33.7625630199909 6.78132381290197 2861.99998855591 16 19 12
-26.237590238452 6.85718236491084 2894.00005340576 16 19 12
-18.3540172874928 6.86431769281626 2897.0000743866 15 18 11
-10.4683991521597 6.8809213116765 2904.00004386902 13 16 9
5.39162894710898 6.88092783093452 2904.00004386902 9 11 6
13.4546579793096 6.94963103160262 2933.00008773804 9 11 6
21.4564707130194 6.94723939523101 2931.99992179871 9 11 6
29.6838525682688 6.99933664873242 2953.9999961853 7 9 4
37.0983704924583 6.87845516949892 2903.00011634827 8 10 5
45.0407229363918 6.880774628371 2904.00004386902 11 14 7
53.3349141478539 6.9281030446291 2924.00002479553 11 14 7
60.7524774968624 6.86406064778566 2897.0000743866 11 14 7
68.1645423173904 6.81422604247928 2875.99992752075 11 14 7
75.884573161602 6.80229254066944 2871.00005149841 14 17 8
83.8102623820305 6.80930400267243 2874.00007247925 15 18 9
90.8271372318268 6.74759829416871 2848.00004959106 16 19 10
107.758112251759 6.83501921594143 2884.99999046326 17 20 11
115.352384746075 6.81830151006579 2878.00002098084 19 22 13
123.421691358089 6.83000357821584 2882.99989700317 20 23 14
131.608858704567 6.8464339710772 2890.00010490417 19 22 13
139.930233359337 6.86759129166603 2898.9999294281 20 23 12
148.657143115997 6.90532242879272 2914.99996185303 19 22 13
156.181335449219 6.88619026914239 2907.00006484985 20 23 14
163.04025053978 6.8409931845963 2888.00001144409 22 25 18
168.847888708115 6.75788940861821 2852.9999256134 19 22 15
-124.564222991467 -1.07564975041896 2977.9999256134 12 15 8
-113.777138292789 -1.05110998265445 2910.00008583069 25 28 21
-103.542633354664 -1.02837360464036 2846.99988365173 28 31 24
-96.6455489397049 -1.03778368793428 2872.99990653992 18 21 14
-89.8533836007118 -1.05008226819336 2907.00006484985 23 26 19
-83.1006318330765 -1.06526981107891 2948.99988174438 19 22 15
-74.4640231132507 -1.05697603430599 2926.00011825562 17 20 13
-66.134437918663 -1.05157028883696 2911.00001335144 19 22 15
-57.2668500244617 -1.03496457450092 2865.00000953674 20 23 16
-48.6674793064594 -1.01871835067868 2819.9999332428 16 19 12
-40.9383289515972 -1.01800414267927 2818.00007820129 17 20 13
-33.6799994111061 -1.03137723635882 2855.00001907349 17 20 13
-26.1469427496195 -1.04185927193612 2884.0000629425 16 19 12
-18.3857027441263 -1.04836595710367 2901.99995040894 14 17 10
-10.5008501559496 -1.05234247166663 2913.00010681152 11 14 7
-2.52353237010539 -1.04295101482421 2887.00008392334 9 12 5
5.36006921902299 -1.04295078199357 2887.00008392334 10 12 7
13.2344719022512 -1.04222644586116 2884.99999046326 9 11 6
21.302804350853 -1.05161604005843 2911.00001335144 7 9 4
29.201528057456 -1.04980496689677 2905.99989891052 6 8 3
37.0600484311581 -1.04763137642294 2900.00009536743 8 10 5
45.288909226656 -1.05484877713025 2920.00007629395 10 13 6
53.4991063177586 -1.05953577440232 2933.00008773804 11 14 7
61.6332814097404 -1.06169260106981 2938.99989128113 11 14 7
67.8090751171112 -1.03350402787328 2861.00006103516 11 14 7
76.4396637678146 -1.04468897916377 2891.99995994568 11 14 7
83.9561149477959 -1.03997823316604 2878.99994850159 10 13 6
90.5401557683945 -1.02551304735243 2838.99998664856 18 21 14
98.5672548413277 -1.02838547900319 2846.99988365173 18 21 14
107.496708631516 -1.03956426028162 2878.00002098084 18 21 14
115.472689270973 -1.04062748141587 2881.00004196167 19 22 15
122.950844466686 -1.03735481388867 2871.99997901917 21 24 17
130.789220333099 -1.0373315308243 2871.99997901917 19 25 13
139.10973072052 -1.04091875255108 2881.99996948242 20 26 12
147.688269615173 -1.04594905860722 2895.99990844727 20 26 14
156.718671321869 -1.05350604280829 2917.00005531311 18 24 12
164.169415831566 -1.05022639036179 2907.99999237061 16 22 10
-113.034158945084 -8.93763918429613 2891.00003242493 26 29 22
-102.41511464119 -8.70594009757042 2815.99998474121 29 32 25
-95.46809643507 -8.77411104738712 2838.00005912781 19 22 15
-89.9460390210152 -8.99685826152563 2910.00008583069 21 24 17
-82.4242606759071 -9.0433694422245 2924.99995231628 18 21 14
-74.3367150425911 -9.03112627565861 2921.0000038147 18 21 14
-65.9071877598763 -8.96940007805824 2901.00002288818 22 25 18
-57.4666857719421 -8.88911075890064 2875 21 24 17
-48.9090457558632 -8.762426674366 2834.00011062622 16 19 12
-41.5339171886444 -8.83979629725218 2858.99996757507 19 22 15
-34.1754406690598 -8.95734969526529 2897.0000743866 18 21 14
-26.2285117059946 -8.94502922892571 2892.99988746643 13 16 9
-18.201956525445 -8.88322480022907 2872.99990653992 12 15 8
-10.3602511808276 -8.88634007424116 2874.00007247925 11 14 7
-2.53401952795684 -8.96364916115999 2898.9999294281 11 14 7
13.1197776645422 -8.84304475039244 2859.99989509583 9 11 6
20.9295637905598 -8.84301774203777 2859.99989509583 6 8 3
29.2919427156448 -9.01303626596928 2914.99996185303 6 8 3
36.9705632328987 -8.94496124237776 2892.99988746643 8 10 5
45.2888645231724 -9.02837794274092 2920.00007629395 11 14 7
53.9368279278278 -9.14269965142012 2957.00001716614 11 14 7
59.9765293300152 -8.84269829839468 2859.99989509583 12 15 8
68.6148479580879 -8.95081087946892 2894.99998092651 13 16 9
76.2017145752907 -8.91359522938728 2882.99989700317 12 15 8
83.4894478321075 -8.85163433849812 2862.99991607666 12 15 8
90.3487205505371 -8.75874701887369 2832.99994468689 15 18 11
99.2942228913307 -8.8668055832386 2868.00003051758 19 22 15
107.608653604984 -8.90683382749558 2881.00004196167 22 25 18
114.95154350996 -8.86647030711174 2868.00003051758 22 25 18
122.865103185177 -8.87246523052454 2869.99988555908 22 25 18
131.062343716621 -8.89699906110764 2878.00002098084 21 27 15
139.447495341301 -8.93079210072756 2888.99993896484 21 27 13
147.994130849838 -8.97075422108173 2901.99995040894 18 24 10
156.987175345421 -9.03234165161848 2921.99993133545 16 22 10
165.637090802193 -9.06918477267027 2934.00001525879 15 21 9
172.931417822838 -9.03182942420244 2921.99993133545 17 23 13
180.592969059944 -9.01610124856234 2917.00005531311 10 15 8
-113.737680017948 -16.9357862323523 2908.99991989136 23 26 19
-103.251367807388 -16.5285728871822 2838.99998664856 18 21 14
-96.0061028599739 -16.6161991655827 2854.00009155273 22 25 18
-88.4930938482285 -16.6688691824675 2862.99991607666 21 24 17
-82.3113545775414 -17.0068126171827 2921.0000038147 19 22 15
-74.2601975798607 -16.989579424262 2917.99998283386 19 22 15
-65.8161714673042 -16.8675165623426 2897.0000743866 22 25 18
-57.0667833089828 -16.623156145215 2855.00001907349 21 24 17
-49.4439303874969 -16.6815388947725 2865.00000953674 17 20 13
-42.0713312923908 -16.8621726334095 2895.99990844727 18 21 14
-34.4348922371864 -16.9962085783482 2918.99991035461 17 20 13
-26.3825803995132 -16.943896189332 2910.00008583069 12 15 8
-18.2652696967125 -16.7867504060268 2882.99989700317 10 13 6
-10.2917365729809 -16.6237577795982 2855.00001907349 10 13 6
-2.56373314186931 -17.077948898077 2933.00008773804 11 14 7
5.45288342982531 -17.1012338250875 2937.00003623962 11 13 8
13.1518607959151 -16.6936181485653 2867.00010299683 10 12 7
20.5123908817768 -16.3209158927202 2802.99997329712 7 9 4
29.2416345328093 -16.9438663870096 2910.00008583069 7 9 4
37.3282991349697 -17.007814720273 2921.0000038147 8 10 5
44.7148941457272 -16.7864337563515 2882.99989700317 10 13 6
52.6963621377945 -16.821226105094 2888.99993896484 11 14 7
59.6618391573429 -16.5648702532053 2845.00002861023 12 15 8
66.4341896772385 -16.320139169693 2802.99997329712 12 15 8
75.5407586693764 -16.6401583701372 2858.00004005432 12 15 8
82.7310681343079 -16.5176559239626 2836.99989318848 12 15 8
92.0068770647049 -16.796862706542 2884.99999046326 14 17 10
100.436508655548 -16.8897304683924 2901.00002288818 18 21 14
107.496351003647 -16.7555175721645 2878.00002098084 20 23 16
115.151673555374 -16.7260784655809 2872.99990653992 22 25 18
123.078890144825 -16.7373716831207 2875 22 25 18
131.699591875076 -16.8359633535147 2891.99995994568 22 28 16
140.171214938164 -16.9054213911295 2904.00004386902 21 27 13
148.24877679348 -16.9224627315998 2907.00006484985 17 23 9
157.631531357765 -17.0791875571013 2934.00001525879 15 21 9
165.918990969658 -17.1078201383352 2938.99989128113 15 21 9
173.582047224045 -17.0723982155323 2933.00008773804 16 22 12
-122.137382626534 -24.9717812985182 2920.00007629395 3 6 0
-113.34627866745 -24.7926954180002 2898.9999294281 28 31 24
-105.614960193634 -24.8359311372042 2904.00004386902 21 24 17
-88.9873132109642 -24.6229656040668 2878.99994850159 20 23 16
-81.4938619732857 -24.7345194220543 2891.99995994568 20 23 16
-74.1072297096252 -24.9059163033962 2911.99994087219 20 23 16
-65.6341761350632 -24.7095040977001 2888.99993896484 19 22 15
-57.6262474060059 -24.6584564447403 2882.99989700317 19 22 15
-49.8751886188984 -24.7185621410608 2890.00010490417 17 20 13
-42.0275963842869 -24.7444231063128 2892.99988746643 12 15 8
-26.2555554509163 -24.7703809291124 2895.99990844727 12 15 8
-18.3222237974405 -24.7362665832043 2891.99995994568 11 14 7
-10.6197353452444 -25.1982118934393 2946.00009918213 9 12 5
5.40273496881127 -24.8903129249811 2910.00008583069 11 13 8
13.0738262087107 -24.3770685046911 2849.99990463257 10 12 7
37.3664982616901 -25.0096842646599 2924.00002479553 9 11 6
44.683713465929 -24.6417168527842 2881.00004196167 9 12 5
51.9665591418743 -24.367805570364 2848.99997711182 9 12 5
59.7874410450459 -24.3846680969 2851.0000705719 11 14 7
68.0456086993217 -24.5554465800524 2871.00005149841 11 14 7
76.0691091418266 -24.615004658699 2878.00002098084 12 15 8
84.742896258831 -24.854127317667 2905.99989891052 12 15 8
92.5805792212486 -24.8280875384808 2903.00011634827 13 16 9
101.267032325268 -25.0158198177814 2924.99995231628 14 17 10
107.383914291859 -24.5877504348755 2875 15 18 11
115.592136979103 -24.6642362326384 2884.0000629425 18 21 14
123.763389885426 -24.723581969738 2891.00003242493 21 24 17
131.562516093254 -24.7059259563684 2888.99993896484 21 27 17
139.39842581749 -24.6967878192663 2888.00001144409 19 25 13
148.452237248421 -24.8928517103195 2911.00001335144 16 22 10
155.535668134689 -24.7553791850805 2894.99998092651 16 22 10
165.749028325081 -25.1052770763636 2936.00010871887 16 22 10
172.930419445038 -24.9848403036594 2921.99993133545 15 21 11
179.539442062378 -24.7959773987532 2900.00009536743 19 24 17
-120.840109884739 -32.5942300260067 2888.99993896484 12 15 8
-96.8798771500587 -32.4945561587811 2880.00011444092 21 24 17
-89.4195958971977 -32.6417647302151 2892.99988746643 18 21 14
-80.7889774441719 -32.3488973081112 2867.00010299683 20 23 16
-73.1143578886986 -32.4170365929604 2872.99990653992 21 24 17
-66.3835629820824 -32.9703278839588 2921.99993133545 20 23 16
-58.4054924547672 -32.9706817865372 2921.99993133545 18 21 14
-49.9784871935844 -32.6776206493378 2895.99990844727 14 17 10
-42.2743484377861 -32.8358635306358 2910.00008583069 12 15 8
-34.0688936412334 -32.5878374278545 2888.00001144409 12 15 8
-26.1103678494692 -32.4977412819862 2880.00011444092 12 15 8
-18.5121931135654 -32.9717919230461 2921.99993133545 11 14 7
-10.6701487675309 -33.4006696939468 2960.00003814697 11 14 7
-2.53661349415779 -32.7462330460548 2901.99995040894 11 14 7
5.35257859155536 -32.5318276882172 2882.99989700317 11 13 8
13.2389022037387 -32.5656272470951 2885.99991798401 10 12 7
21.0464224219322 -32.4526913464069 2875.99992752075 7 9 4
29.7538563609123 -33.4116779267788 2960.99996566772 7 9 4
38.0180478096008 -33.5694588720798 2974.99990463257 9 11 6
44.4973707199097 -32.3731377720833 2868.99995803833 9 12 5
51.747415214777 -32.0117808878422 2836.99989318848 10 13 6
60.185581445694 -32.3838144540787 2869.99988555908 11 14 7
68.9696073532104 -32.8347869217396 2910.00008583069 12 15 8
76.9938230514526 -32.8682139515877 2913.00010681152 13 16 9
84.9466025829315 -32.8677482903004 2913.00010681152 13 16 9
92.7076935768127 -32.7995419502258 2907.00006484985 15 18 11
99.5701029896736 -32.4492193758488 2875.99992752075 16 19 12
106.897816061974 -32.2906747460365 2861.99998855591 16 19 12
116.152688860893 -32.6962023973465 2898.00000190735 17 20 13
124.276496469975 -32.7519290149212 2903.00011634827 20 23 16
131.379678845406 -32.5481221079826 2884.99999046326 21 24 15
138.963311910629 -32.4796624481678 2878.99994850159 19 22 11
144.779726862907 -32.0275984704494 2838.99998664856 18 21 10
154.138028621674 -32.3651842772961 2868.99995803833 19 22 13
162.643253803253 -32.4996598064899 2881.00004196167 18 21 12
174.231573939323 -33.2093797624111 2944.00000572205 17 20 11
-122.763395309448 -41.1262214183807 2934.99994277954 72 75 68
-113.579578697681 -40.7066866755486 2904.99997138977 17 20 13
-105.140961706638 -40.5112840235233 2891.00003242493 32 35 28
-97.720205783844 -40.7081879675388 2904.99997138977 14 17 10
-89.3572047352791 -40.5126698315144 2891.00003242493 21 24 17
-80.7602778077126 -40.1629358530045 2865.9999370575 21 24 17
-73.1647834181786 -40.2896143496037 2875 21 24 17
-65.8833310008049 -40.6404547393322 2900.00009536743 14 17 10
-58.2252256572247 -40.8230796456337 2913.00010681152 11 14 7
-50.288800150156 -40.8374816179276 2914.00003433228 12 15 8
-42.2595478594303 -40.76774045825 2908.99991989136 15 18 11
-34.4461649656296 -40.9221723675728 2920.00007629395 14 17 10
-18.6071041971445 -41.1607995629311 2937.00003623962 11 14 7
-10.5619356036186 -41.0628020763397 2930.0000667572 11 14 7
-2.58117588236928 -41.3851886987686 2953.00006866455 11 14 7
5.53077692165971 -41.7495593428612 2979.00009155273 10 12 7
13.3993700146675 -40.936641395092 2921.0000038147 9 11 6
21.1414191871881 -40.4880531132221 2888.99993896484 6 8 3
29.8239998519421 -41.5950119495392 2967.99993515015 6 8 3
37.5577509403229 -41.1883518099785 2938.99989128113 7 9 4
44.7297282516956 -40.4172725975513 2884.0000629425 12 15 8
52.9144369065762 -40.6551621854305 2901.00002288818 12 15 8
61.9047619402409 -41.3694679737091 2951.99990272522 11 14 7
69.9408873915672 -41.354987770319 2950.99997520447 9 12 5
85.0918591022491 -40.8914275467396 2917.99998283386 16 19 12
92.4519523978233 -40.6245402991772 2898.9999294281 18 21 14
99.6387004852295 -40.3295829892159 2878.00002098084 19 22 15
106.262177228928 -39.8664213716984 2845.00002861023 21 24 17
116.272173821926 -40.6503416597843 2901.00002288818 20 23 16
123.804785311222 -40.5233800411224 2891.99995994568 19 22 15
131.970852613449 -40.6065471470356 2898.00000190735 19 22 13
139.155477285385 -40.3954051434994 2882.99989700317 19 22 13
146.257698535919 -40.1842296123505 2868.00003051758 19 22 13
155.641362071037 -40.5894927680492 2897.0000743866 19 22 13
165.351957082748 -41.0366989672184 2928.99990081787 18 21 12
173.934549093246 -41.1756113171577 2938.99989128113 17 20 11
-113.500490784645 -48.6042983829975 2903.00011634827 24 27 20
-105.685658752918 -48.655454069376 2905.99989891052 19 22 15
-90.1292040944099 -48.8245524466038 2915.99988937378 22 25 18
-80.8723568916321 -48.0550676584244 2869.99988555908 20 23 16
-73.1387585401535 -48.1227040290833 2874.00007247925 21 24 17
-65.9736841917038 -48.6256219446659 2904.00004386902 14 17 10
-58.6844906210899 -49.1619780659676 2936.00010871887 12 15 8
-50.668079406023 -49.1624437272549 2936.00010871887 12 15 8
-42.448066174984 -48.9284135401249 2921.99993133545 15 18 11
-34.4223007559776 -48.8617606461048 2917.99998283386 14 17 10
-26.4091677963734 -48.7783029675484 2913.00010681152 13 16 9
-18.3978918939829 -48.6277863383293 2904.00004386902 13 16 9
-10.7024377211928 -49.716342240572 2969.00010108948 11 14 7
5.50474086776376 -49.6494062244892 2964.99991416931 12 14 9
13.5552305728197 -49.4818724691868 2954.99992370605 10 12 7
21.551052108407 -49.3142753839493 2944.9999332428 8 10 5
29.4620208442211 -49.0963645279408 2931.99992179871 7 9 4
37.5574566423893 -49.2132939398289 2938.99989128113 8 10 5
45.1946631073952 -48.7943254411221 2914.00003433228 11 14 7
52.6404306292534 -48.3250543475151 2885.99991798401 12 15 8
61.6945810616016 -49.2622628808022 2941.99991226196 11 14 7
70.7698613405228 -49.9984510242939 2986.00006103516 10 13 6
77.0191475749016 -48.7922355532646 2914.00003433228 13 16 9
85.4119583964348 -49.0426979959011 2928.99990081787 15 18 11
92.3874527215958 -48.5061481595039 2897.0000743866 16 19 12
99.7417941689491 -48.2374392449856 2881.00004196167 18 21 14
106.746897101402 -47.8514656424522 2858.00004005432 20 23 16
114.587932825089 -47.8672683238983 2858.99996757507 20 23 16
123.889446258545 -48.4522506594658 2894.00005340576 19 22 15
131.241217255592 -48.2502691447735 2881.99996948242 19 22 13
139.540538191795 -48.3997948467731 2891.00003242493 19 22 13
147.42948114872 -48.3985878527164 2891.00003242493 19 22 13
154.780551791191 -48.2299104332924 2881.00004196167 19 22 13
163.882926106453 -48.5968589782715 2903.00011634827 17 20 11
175.767838954926 -49.7170127928257 2970.00002861023 17 20 11
-106.739357113838 -57.1539625525475 2934.99994277954 20 23 16
-98.8622531294823 -57.2328716516495 2938.99989128113 15 18 11
-88.4902477264404 -55.7537861168385 2862.99991607666 29 32 25
-80.6180164217949 -55.7156801223755 2861.00006103516 20 23 16
-73.6470520496368 -56.3591048121452 2894.00005340576 20 23 16
-66.2002488970757 -56.7492805421352 2914.00003433228 16 19 12
-58.3241693675518 -56.8277984857559 2917.99998283386 14 17 10
-50.4432544112206 -56.9257140159607 2923.00009727478 14 17 10
-42.694628238678 -57.2377778589725 2938.99989128113 13 16 9
-35.0353978574276 -57.8419081866741 2970.00002861023 13 16 9
-26.3182651251554 -56.5373562276363 2903.00011634827 13 16 9
-18.4420682489872 -56.6933788359165 2911.00001335144 13 16 9
-2.59861280210316 -57.9010769724846 2973.00004959106 9 12 5
5.45827625319362 -57.2583675384521 2940.00005722046 12 14 9
13.4174888953567 -56.966133415699 2924.99995231628 10 12 7
21.4557200670242 -57.1022927761078 2931.99992179871 7 9 4
29.8536363989115 -57.8615851700306 2970.99995613098 6 8 3
37.8893613815308 -57.7443949878216 2964.99991416931 9 11 6
45.0856760144234 -56.6144175827503 2907.00006484985 10 13 6
52.9864951968193 -56.5749779343605 2904.99997138977 11 14 7
61.3584890961647 -56.9833889603615 2926.00011825562 13 16 9
69.4893971085548 -57.0995844900608 2931.99992179871 13 16 9
76.7541378736496 -56.5535761415958 2904.00004386902 12 15 8
84.8571285605431 -56.6696226596832 2910.00008583069 12 15 8
93.3114364743233 -56.9803267717361 2926.00011825562 11 14 7
108.389303088188 -56.5109625458717 2901.99995040894 15 18 11
116.069808602333 -56.3930235803127 2895.99990844727 19 22 15
122.86089360714 -55.8855533599854 2869.99988555908 19 22 15
132.742762565613 -56.7605458199978 2914.99996185303 19 22 13
140.359818935394 -56.6229112446308 2907.99999237061 20 23 14
148.346051573753 -56.6409602761269 2908.99991989136 19 22 13
155.746176838875 -56.4447678625584 2898.9999294281 19 22 13
-106.774598360062 -65.1888847351074 2936.00010871887 32 35 28
-97.2466021776199 -64.1908720135689 2891.00003242493 17 20 13
-89.1692861914635 -64.0586987137794 2884.99999046326 16 19 12
-82.0542275905609 -64.6591782569885 2911.99994087219 19 22 15
-73.8498494029045 -64.43802267313 2901.99995040894 19 22 15
-66.6766166687012 -65.1715621352196 2934.99994277954 16 19 12
-58.3035685122013 -64.7725835442543 2917.00005531311 15 18 11
-50.1666069030762 -64.5511373877525 2907.00006484985 15 18 11
-42.9701879620552 -65.6841471791267 2957.99994468689 16 19 12
-34.4923958182335 -64.9296045303345 2924.00002479553 15 18 11
-26.6896802932024 -65.3740614652634 2944.00000572205 12 15 8
-18.5115579515696 -64.885787665844 2921.99993133545 13 16 9
-10.6337359175086 -65.5077174305916 2950.00004768372 13 16 9
-2.58634844794869 -65.70765376091 2959.00011062622 12 15 8
5.48420986160636 -65.5966028571129 2953.9999961853 12 14 9
13.3989993482828 -64.8636966943741 2921.0000038147 9 11 6
21.3896352797747 -64.9079158902168 2923.00009727478 7 9 4
29.7327395528555 -65.7070279121399 2959.00011062622 6 8 3
53.1683303415775 -64.7285729646683 2914.99996185303 11 14 7
61.2529888749123 -64.8611634969711 2921.0000038147 14 17 10
68.0666565895081 -63.7723878026009 2871.99997901917 15 18 11
76.594740152359 -64.348891377449 2898.00000190735 14 17 10
84.9728658795357 -64.7032484412193 2914.00003433228 13 16 9
92.06672757864 -64.1027390956879 2887.00008392334 12 15 8
107.15563595295 -63.700832426548 2868.99995803833 16 19 12
116.268992424011 -64.410075545311 2901.00002288818 17 20 13
124.914407730103 -64.7861659526825 2917.99998283386 17 20 13
132.969066500664 -64.8291260004044 2920.00007629395 20 21 15
141.42020046711 -65.0496110320091 2930.0000667572 20 21 15
148.956432938576 -64.8481771349907 2921.0000038147 19 20 14
157.35624730587 -65.0240704417229 2928.99990081787 18 19 11
166.871666908264 -65.6216666102409 2956.00008964539 17 18 10
177.95404791832 -66.7519047856331 3006.99996948242 16 17 9
-97.9854613542557 -72.6318880915642 2913.00010681152 18 21 14
-90.6208679080009 -73.1068179011345 2931.99992179871 19 22 15
-81.6024094820023 -72.2102746367455 2895.99990844727 18 21 14
-74.4597092270851 -72.959303855896 2926.00011825562 18 21 14
-65.9942999482155 -72.4365636706352 2904.99997138977 18 21 14
-57.8631423413754 -72.1879899501801 2894.99998092651 17 20 13
-50.1832664012909 -72.5128427147865 2907.99999237061 16 19 12
-42.2578640282154 -72.5383535027504 2908.99991989136 18 21 14
-34.6099436283112 -73.1622502207756 2934.00001525879 16 19 12
-26.4627169817686 -72.7885887026787 2918.99991035461 15 18 11
-10.6552373617887 -73.7117156386375 2956.00008964539 14 17 10
-2.59767984971404 -74.1107761859894 2971.99988365173 13 16 9
5.49156963825226 -73.7616419792175 2957.99994468689 10 12 7
